# .PCD v0.7 - Point Cloud Data file format
VERSION 0.7
FIELDS x y z
SIZE 4 4 4
TYPE F F F
COUNT 1 1 1
WIDTH 1000
HEIGHT 1
VIEWPOINT 0 0 0 1 0 0 0
POINTS 1000
DATA ascii
0.15193972 -0.03754771 -0.33044386
0.14975014 0.008649467 0.086194225
0.21973436 0.062939376 -0.07742319
-0.095409244 -0.018734397 -0.29101244
-0.19192024 -0.08302125 0.19338049
-0.15170406 -0.07021487 0.14471598
-0.2707328 -0.07744274 -0.1532744
-0.19014098 -0.019615728 -0.051637936
-0.04682694 0.0979726 0.07073647
0.08655811 0.029380249 0.11839196
0.26696986 0.0036400056 0.07140044
0.109826215 -0.072604634 0.19131789
0.17075028 -0.0035320383 0.15491785
0.19045693 -0.07316925 0.16432066
-0.018718634 -0.0063241483 0.2717257
0.114530794 -0.058173265 0.19365512
-0.07194044 -0.031601284 -0.1985419
-0.19283657 -0.07761081 -0.042746376
0.11507076 0.1250678 -0.26707423
0.07272651 0.035713263 -0.051427122
-0.02480719 -0.037589513 0.23584986
0.2078171 -0.02945013 0.05712211
-0.06679909 0.009541181 0.11237353
-0.0824902 -0.0031696786 0.2245898
-0.026781628 0.09017578 0.015084862
0.1711079 0.034100592 0.08988174
0.13565886 0.038264345 -0.33400214
-0.27899703 -0.076055594 -0.08593975
-0.2067643 -0.059213635 -0.10749789
-0.04476861 -0.112885155 0.21200942
-0.21439502 -0.11205446 0.1674524
0.04460608 0.075544134 0.03505443
-0.12612681 -0.07455674 0.21100168
-0.07169048 0.047035273 0.09205849
0.0049583195 -0.018534327 0.22022767
0.15859644 -0.0013885647 0.020606251
-0.33652383 -0.18956251 -0.088289544
-0.2745043 -0.07882573 -0.113041654
0.2176969 -0.012424001 0.0053898017
0.10168766 -0.009583827 0.17295578
0.1090034 0.0825043 0.026253164
0.023664167 0.04908604 0.1606241
-0.026750775 -0.038554657 0.16443947
-0.18475424 0.034997504 -0.14185806
-0.15282524 -0.08005858 -0.0587708
0.14265983 0.11606816 -0.31367353
0.030158997 0.059245475 0.106059164
-0.07034302 -0.0033350384 0.17705792
-0.065008424 -0.121245705 0.21571755
0.051987227 0.044531293 0.088078804
0.037229303 -0.033609126 0.23464052
-0.054729026 -0.08353165 0.17482927
0.16182818 -0.050297 0.16190146
-0.06630399 -0.031553045 0.13954334
0.12574807 0.059045143 -0.20526585
0.09936708 0.060363296 0.11273619
0.08610629 -0.054632884 0.15589835
0.10478071 0.06409844 0.133725
0.060523644 0.02803895 0.15211654
0.1518035 0.06456136 -0.052343372
0.09199442 -0.00094028114 0.13511807
0.108728714 -0.030415693 -0.048122957
-0.15055434 -0.049867347 0.08505861
0.22551003 0.023399035 0.015955446
0.11923882 -0.0017377882 0.018385757
0.23502274 0.036934555 -0.069956504
0.15356071 0.054798562 -0.22053762
0.03027978 -0.010916349 0.19676583
-0.20778964 -0.11115265 0.036412388
-0.00032113746 0.17184289 -0.16181283
-0.25629395 -0.05025654 -0.024202306
0.15302834 0.15905312 -0.34646124
0.069905885 -0.047705557 0.19389024
-0.11476447 0.16212499 -0.1465345
-0.031526733 -0.09802939 0.18175876
0.121618696 -0.057054974 0.1731731
-0.1355561 -0.050583985 0.09013316
-0.17121604 -0.12110918 -0.076714866
-0.0009990697 0.15869549 -0.032677025
0.15439476 -0.058931585 0.10758877
-0.26194513 -0.02230584 0.018498577
-0.0411426 0.06129492 0.03858393
0.0017530868 -0.028506177 0.10423219
-0.14470355 0.040516496 -0.016193599
0.13897547 -0.060806684 -0.25177047
-0.15781808 -0.04594646 0.08788728
-0.027038617 0.076482326 -0.009582672
0.015290099 -0.012121923 0.23097892
0.22016759 -0.030096708 -0.06864297
-0.17834584 -0.0075324257 -0.19659498
-0.019052798 -0.11902875 0.18702456
0.052338928 -0.010927518 0.22519393
-0.049327865 0.1430035 -0.18272437
0.17657089 -0.01509432 -0.0026596219
-0.22083592 -0.07850639 0.14114547
0.11579292 -0.038163587 0.101248205
0.07968312 0.049535688 -0.12108598
0.05953245 -0.051766038 0.19147412
0.03871791 0.09437319 -0.33527055
-0.07976723 0.06580423 -0.023994325
0.16214271 0.04670611 0.0769271
0.12547013 -0.009281538 0.17543486
0.22704065 -0.004942635 -0.1893166
0.12147464 0.016625661 0.0658229
-0.054677185 0.015196801 0.14086084
-0.025082208 -0.030967798 0.14515837
-0.30255738 -0.14610651 -0.053834513
-0.079877526 -0.1061851 0.23473942
-0.07230745 -0.065736294 0.19083819
0.22203158 -0.052521378 0.06636216
0.26770788 0.009365309 -0.0028277177
-0.27000389 -0.08462006 -0.05978384
-0.1486578 -0.12922478 0.14854133
-0.0989322 -0.076320805 0.17285335
-0.07187032 0.0876642 0.0037626615
-0.0028629482 0.085840225 0.027565353
0.262927 -0.023183763 0.0014761955
-0.16811107 -0.11934792 0.12663825
0.12765786 0.04046274 0.17326128
0.10045597 0.03237465 0.042294353
-0.018693412 -0.04010674 0.12499644
0.03611121 0.085803665 -0.061983977
0.14794779 0.09744544 -0.39640594
0.19208774 -0.017338099 0.10861477
0.1439672 -0.01596513 -0.038696595
-0.22197305 -0.16419663 0.07028977
0.050993703 0.0036502855 0.17602049
0.18117957 -0.048995867 0.07519707
-0.1527116 -0.0040212306 0.08316361
-0.2189526 -0.07231203 -0.08337263
0.0874746 0.05595641 -0.094646014
-0.23355004 -0.110033266 -0.1546096
0.06351368 0.07489491 0.009199721
-0.24314736 -0.0943474 -0.10249897
-0.04824855 -0.01951691 0.19663703
-0.012019771 -0.04355621 0.24000987
0.16613653 -0.052124728 0.15154676
-0.23864365 -0.12809598 0.022802673
-0.03901271 -0.054174196 0.1925851
0.18061279 0.017518956 0.08946626
0.22857104 0.071573414 0.0625555
0.20527264 0.06312903 0.049000803
-0.0040271473 0.03018261 0.05456267
0.11469267 0.04697107 0.033083957
0.1451515 -0.003301553 -0.43791384
-0.060744237 0.03748337 -0.13378726
0.00096220965 -0.021227669 0.043552898
0.026672734 -0.08662566 0.262217
-0.11452361 0.12557682 -0.16894351
-0.018013434 -0.07025081 -0.19012882
0.22909462 0.05067531 -0.056142244
-0.20410112 -0.042430926 0.16120927
0.24314263 0.016937656 0.07941284
0.24219012 0.115145735 -0.051758055
-0.106315725 -0.029248653 -0.23234029
0.1443353 0.020058827 -0.013574032
-0.17170662 -0.032244254 -0.17751008
0.12972718 0.065611795 0.14543553
0.077756494 -0.07159901 0.23068279
-0.031440023 -0.053030174 -0.33256903
-0.0106751425 0.041048273 -0.2017038
-0.1840487 -0.0016129968 0.06926951
0.24430728 0.026361201 0.002413773
0.09307381 0.03103011 -0.31046546
0.14976424 0.013619803 -0.3520155
0.027413316 -0.09040303 0.24232042
0.05405896 0.047219608 0.10372039
0.06712663 -0.07525889 0.23971348
-0.26589072 -0.088323295 -0.044787828
0.066036575 0.009403362 0.028839821
0.047283612 -0.02355136 0.19232795
-0.086814925 -0.014785192 0.19465728
0.23759705 0.052277353 0.072170444
-0.17645998 -0.03115845 0.0044462522
0.04872185 0.04887193 -0.051049396
0.01608258 0.054712042 0.031043692
-0.19311205 0.045964226 0.032234464
-0.18200132 -0.0465388 -0.09739943
0.1338874 0.11649005 -0.25317615
-0.0013629464 0.15838997 -0.0674088
-0.121347584 -0.08137528 -0.2484509
-0.007719311 -0.039041605 0.17068785
0.0015926964 -0.0968296 0.23309866
-0.01565112 0.057331577 -0.019775106
0.19136675 0.13722397 -0.29118353
0.09492817 -0.011831513 -0.15929754
0.13330874 0.11354646 0.029259905
-0.2406353 -0.025632376 -0.19311646
0.2752614 0.0434614 -0.06893042
0.08062575 -0.03578457 -0.37557656
0.010582293 -0.036260407 -0.16607118
0.111136824 0.055305663 -0.2540777
0.17298391 0.09658422 -0.26306784
-0.24096936 -0.09448533 0.15198115
-0.23358987 -0.09254566 -0.030997517
0.26658735 0.05761754 -0.04659795
-0.016747631 -0.08199066 0.22165847
0.18851487 0.09409163 -0.031608485
0.07059747 -0.015295402 0.12165942
0.119521946 -0.013197775 -0.37699267
0.14144826 0.0708121 -0.43562523
-0.13305058 -0.10212438 0.024090793
-0.0978194 -0.0845497 0.2186471
0.1492926 0.12270016 -0.08033108
0.25369552 0.06509862 0.04325657
0.025104789 -0.002093446 0.18009686
0.16677909 0.1999469 -0.37672237
-0.33352858 -0.105382256 -0.2723527
-0.035871938 0.1201263 -0.18119799
-0.014004148 -0.043909065 0.19905517
-0.018819524 0.051624708 0.04014399
-0.044108827 -0.039485205 -0.16084266
0.03682037 0.15746142 0.0059072035
-0.11725514 -0.086702086 0.086461335
-0.014483194 0.10114566 0.0654782
0.1930902 0.06419726 0.056132555
0.105644666 0.061508432 0.04559401
0.008028674 0.12854654 0.032261446
0.1648419 0.058698364 -0.02256842
-0.14594693 -0.11723289 0.14661083
-0.121829316 -0.077199936 -0.1062195
-0.14060555 0.04219946 -0.20804086
-0.1428275 -0.05292839 0.20562725
-0.05874854 -0.005163658 -0.13561946
0.12007929 0.13960893 -0.5104975
0.08478883 -0.0072787274 0.17077962
-0.0429337 0.0075527905 -0.18199772
0.19252373 -0.017407853 0.031048875
0.10909145 0.029743632 0.10528602
-0.09929835 -0.028226541 0.21215339
-0.17297488 0.04374702 0.052149024
-0.1616952 -0.09054179 0.17100708
-0.030461742 -0.05794269 0.2556259
0.17073578 0.05652666 0.056490976
-0.05000547 0.13427576 0.031482
-0.039159488 -0.0508898 -0.24021974
0.12327373 0.033412687 0.017514786
0.20300579 0.03404415 0.05751202
0.1038829 0.10826264 -0.27969977
-0.18762599 -0.06440069 -0.083853565
0.15704043 -0.038152743 -0.028984906
0.20064822 0.11059259 -0.33761615
-0.07969092 -0.034253947 0.20229018
-0.075013734 -0.08244491 0.18866219
0.17304155 -0.02107213 0.16385034
-0.2055549 -0.10642462 0.12453466
-0.004168086 -0.01793027 -0.18610494
-0.1992415 0.001146584 0.073465005
0.12415487 -0.0505486 -0.0010934954
0.056041658 -0.040110443 0.24505548
0.1400563 0.011728303 0.12698512
-0.123439915 -0.11579349 0.15910849
-0.0919993 -0.06317745 -0.15774666
0.051844925 -0.019765893 -0.10437778
-0.24298728 -0.1073033 -0.1276826
0.04048455 -0.018393412 0.20997044
-0.20385022 -0.08713867 0.033990614
-0.13897204 0.09187721 -0.017040342
0.20656835 0.078753896 0.04622763
-0.03407569 -0.061734065 0.043092825
0.012238239 0.15131004 -0.04099255
-0.1495086 -0.012567777 -0.075358406
0.04823374 -0.018659089 0.18952423
0.124406636 0.13141462 -0.09144498
0.13704641 0.035873596 0.08000658
0.21031913 -0.016773278 0.097002536
-0.12029111 -0.032214757 -0.1507165
0.11311677 -0.014732267 0.14802754
0.20861003 0.011107893 0.08678792
0.22455373 0.022024805 -0.07422043
-0.13747048 -0.070138074 0.0899705
0.17570782 0.11002702 -0.10271689
0.035845812 -0.053009517 -0.20628473
-0.14064607 -0.09673385 -0.33605868
0.08510247 0.07563853 0.11948648
0.1662226 0.098382056 -0.01954395
-0.0108463615 0.07030421 -0.10383573
-0.08235554 -0.009021938 0.13157979
0.0865129 0.100101195 -0.41752458
-0.111531265 -0.059260692 -0.24820419
0.21512276 -0.015862083 0.14564195
0.1641981 0.044719663 -0.12753016
-0.048586536 -0.0054092635 0.15512332
-0.12870076 -0.088985704 0.059683017
-0.17183074 -0.13417295 -0.03419524
-0.08414209 -0.07375375 0.03426632
-0.045689326 -0.032010876 0.2522222
0.053311065 0.10190118 0.039997496
0.06982031 -0.025979916 0.22581469
0.11681812 0.17098898 -0.36059204
0.28971764 0.05032649 -0.12469408
0.25573397 0.09774151 -0.060594253
0.13845506 0.10222387 -0.40316132
0.040229313 0.07052883 -0.017503427
-0.25283498 -0.06877559 -0.11164642
-0.06720412 -0.1030434 0.18739404
-0.19749713 -0.054275323 0.16229264
0.13648713 0.17557117 -0.35062677
-0.038470417 -0.06514276 0.019248612
0.05877843 0.1542845 -0.1637684
0.08318069 -0.002150115 0.21792269
-0.099187374 -0.06284625 0.19920929
-0.08115895 -0.091509566 0.19786994
-0.09965178 -0.09394494 -0.36138687
0.0018427178 0.07967301 -0.20026883
0.1146755 -0.051715698 0.0752155
0.00986373 -0.1284866 0.24800628
-0.24021658 -0.113601014 0.01734709
0.08391423 0.070974916 0.17548943
-0.0011602275 0.14963397 -0.10777312
0.26756474 -0.04781475 -0.025813188
-0.18176425 -0.06049668 -0.10047413
0.06452186 0.052114487 0.11128795
-0.099664696 0.0066316393 0.06395039
0.22660477 0.01003205 -0.03397641
-0.13030706 -0.06137002 0.008857119
0.0649616 0.088658005 -0.0070662135
0.14075164 0.10057833 -0.103994645
0.116239436 0.096413754 -0.48730695
0.13498738 0.035948988 -0.30168658
0.10206373 -0.046266466 0.13168338
0.05695651 0.07764034 0.07824849
0.14710256 0.105435364 0.14648794
-0.05200962 0.042807877 0.020212451
0.03760661 -0.007586518 -0.09027442
-0.08218962 -0.065353476 -0.24274756
-0.18744889 -0.028775262 0.09932464
-0.05998603 0.050480872 0.12491335
0.040488552 0.03983548 0.008068184
0.019726144 0.025317376 0.10332537
0.18752636 0.027886746 0.07357824
-0.11012535 0.08732521 -0.06871964
0.2883052 0.0531834 0.03959187
-0.15504695 0.100171715 0.021578671
-0.07822052 -0.12405884 0.13156718
0.2559697 0.11715088 -0.3714066
0.13923629 0.092358485 0.0908583
0.17538968 -0.006290309 0.039273772
0.02392441 -0.0449038 0.2596068
0.025999406 0.13815874 -0.09178319
-0.1062084 -0.058355443 0.17096122
-0.018845914 -0.003549999 -0.23126236
-0.11667109 -0.082072124 -0.33884937
-0.14672984 -0.16546239 0.14600398
-0.12656608 0.12584145 0.06048468
0.27570683 0.064476825 -0.14769442
0.2824694 -0.023581948 -0.077000834
0.035878923 -0.014953413 0.18057083
-0.15139112 -0.057468317 0.1340547
-0.29583386 -0.15097006 -0.15754555
-0.011377054 0.14296135 -0.16038144
-0.101449385 0.0650759 0.033704616
-0.11723131 0.17452006 -0.108114086
0.07205326 0.05497041 -0.07313381
-0.023281673 -0.028997714 0.25206286
0.12326251 0.11414532 -0.35390398
0.26981315 -0.03356697 0.074136674
0.18884505 -0.003238092 0.089924864
-0.035242453 -0.009763243 -0.116191536
0.15680893 0.02746722 0.06901463
-0.098194584 -0.0473689 0.2219051
0.16028422 0.14231384 -0.29755482
-0.16673258 0.04305579 -0.23100239
-0.07746963 -0.06787579 0.1599293
0.12366991 0.08930821 -0.44001675
0.037051614 0.035834026 0.11082442
-0.10552877 -0.0726088 0.09925215
-0.23072237 -0.16056022 0.13015519
0.14719087 0.004068869 0.021733632
0.13681076 0.084430896 -0.10915048
0.23709422 0.14597623 -0.046580583
-0.10672245 0.09760923 -0.0034743764
-0.2457985 -0.045836136 -0.13956898
0.07255997 -0.024332702 0.18439694
-0.025875084 0.01354422 0.17934632
-0.072046384 -0.01544818 0.18130805
-0.040101185 0.07716785 0.012351063
0.1194806 0.009410708 0.14836895
-0.064229056 -0.0612507 0.21764266
-0.07433414 0.082924224 0.023009652
-0.04227475 0.10750377 0.0730411
0.052633487 -0.024619266 -0.103211865
-0.1261784 -0.03165309 0.11402364
0.073928945 -0.06472827 0.2164581
0.22389494 0.028404893 0.006463472
0.18754415 0.050949797 0.08193838
-0.056283567 0.092966214 0.014509913
-0.15442978 0.08804171 0.010695632
0.19731492 -0.00038502456 0.14654097
-0.10840223 -0.038678117 0.024107452
0.08636539 0.08716938 0.1538718
0.055894505 -0.09829628 0.21504128
-0.18752277 -0.05958984 0.16034646
0.05527739 -0.021526959 0.24046764
0.080114655 0.030501196 0.10103812
-0.11770902 0.004282248 0.14221126
-0.17492998 -0.015105597 -0.090555474
-0.05720344 -0.07135629 0.1572302
0.06375459 0.08406106 -0.3983709
0.010348843 -0.011070673 0.2253537
-0.28390095 -0.061053723 -0.032068558
-0.09281044 0.10511879 -0.16109487
0.016804803 0.05952649 0.14231633
0.2505165 0.057281084 -0.10881318
0.047559056 -0.020300435 0.21443754
-0.10359577 0.016468914 -0.020994956
0.06370017 0.16772808 -0.021219742
-0.06052862 0.012561133 -0.31087324
0.010250489 0.093479306 -0.17739351
0.013340223 0.079968005 -0.18258254
-0.11429744 -0.059514664 -0.00256625
-0.19186357 0.008756736 0.07706874
-0.089474924 -0.0564772 0.15918821
0.08426225 -0.015160628 0.1963514
-0.10222041 -0.06877184 0.19271396
0.026801998 -0.020892806 0.022529868
-0.0031558815 -0.030505769 -0.2751382
0.1706996 0.13672757 -0.2763389
-0.048882563 0.0364359 0.122577436
0.25127602 0.034113217 -0.10782687
-0.20018232 -0.12240379 -0.11975509
-0.02025014 0.07956487 -0.0145996325
0.20501912 0.04982592 -0.2453548
0.09582327 0.055924635 0.098318584
-0.019727798 0.17041731 0.076730914
-0.2227073 -0.051796507 -0.06827735
-0.091317154 -0.017125707 -0.12085562
-0.1321303 -0.020966629 -0.28347164
0.1493002 0.03861403 0.110903695
-0.2595704 -0.106913336 -0.019015102
0.120580986 0.10086979 0.04056044
-0.083267696 -0.14482498 0.1381057
0.14673454 0.04321975 -0.12067177
-0.19267142 -0.15046842 0.07308083
-0.032885347 -0.066463485 0.18118511
-0.19313522 -0.054345857 0.091584556
-0.0298025 0.07766241 0.030826457
0.019894969 0.13615678 0.041921858
-0.03960229 -0.028805321 -0.25125706
0.23964131 -0.013160635 0.00541863
-0.22660568 -0.15674584 0.07507238
0.116055675 0.14850046 -0.3557183
0.05822836 -0.0008646156 0.18743365
-0.060266502 0.03705461 0.018691424
-0.2762571 -0.01772056 -0.073376656
-0.017661357 -0.040847506 -0.3194642
-0.121810146 -0.1136736 0.0024148314
-0.021670286 -0.026339872 0.20534389
-0.29412434 -0.056973554 0.045901418
0.12613422 0.013851747 0.101592556
-0.12449885 0.030175349 -0.030735042
0.18297271 0.15533414 -0.27970308
0.08508234 -0.0015832522 0.16915777
-0.07250626 -0.020265412 0.08981099
0.025741316 0.09020266 -0.024000654
-0.0178344 -0.018765073 0.187708
-0.20202674 -0.085139714 -0.33249512
0.22851254 -0.01122952 -0.01318263
-0.009631059 0.026845776 -0.0069598
0.21285269 0.117352724 -0.008409532
-0.04401771 -0.018560415 0.12268871
0.09029943 0.023533473 -0.010283158
0.018957268 0.14319417 0.018273307
0.15818588 0.030724032 -0.44129255
0.012022312 0.074880436 -0.020966178
0.08618064 0.010646981 0.14359856
-0.030142104 -0.036217786 0.01689597
-0.178293 0.034449037 -0.025569914
-0.039120868 0.045672003 -0.006045828
0.15227488 0.083998665 0.10474832
-0.07996704 -0.0046014693 0.22927071
-0.20354423 -0.048613694 -0.11263687
-0.25460383 -0.12727004 -0.09631838
-0.1026011 -0.07786681 0.155069
-0.076887876 0.082836285 -0.024288977
-0.13862064 0.0038077289 -0.16616622
0.15445772 -0.0072149723 -0.14125042
-0.1901282 -0.09918391 0.13086236
-0.15130334 -0.077394284 -0.24670398
0.114820965 0.020195754 -0.119157664
0.21670374 0.008071994 -0.19487432
-0.009353655 0.045726676 0.025652999
0.12063915 0.11768257 -0.45675954
-0.08676613 -0.057869304 -0.3293306
-0.054061588 0.041728713 0.055169333
-0.19217068 -0.10906211 -0.28946906
0.1719816 0.15011954 -0.09491736
0.25424293 0.028032705 -0.15951374
0.1149399 0.067499034 -0.08301466
0.20772989 0.12233785 -0.3087738
0.19445542 0.028537115 0.1061089
-0.004622936 0.03601427 0.03914169
0.16917667 0.03089047 0.20341937
-0.24111965 -0.080449335 -0.17143114
0.18130803 0.028930752 0.19504204
0.038266733 0.13454892 -0.056090157
-0.23465921 -0.07971621 -0.11694376
0.19911188 -0.03014173 0.110100135
-0.16115317 -0.031914324 0.06706767
-0.22301212 -0.06819574 0.1325977
0.06887818 0.09401282 -0.16933276
0.15195507 0.08172017 -0.21955857
-0.233783 -0.060585923 -0.18962607
0.0887002 -0.0008265523 0.1385229
-0.23399033 -0.105658144 -0.110289335
-0.051758245 -0.03632865 -0.124484606
0.10564925 -0.041508764 -0.30402085
0.03680365 0.13403098 0.005458932
0.08461188 0.120660886 -0.24818283
0.1401433 0.10720239 0.009852254
0.062739976 0.028094193 -0.2524141
0.041557256 -0.038889926 0.2183717
-0.08149812 -0.12368244 0.21307606
-0.19613932 -0.07286936 0.12770727
0.006560821 -0.059162267 0.16283087
-0.026119482 0.058455877 0.0017484127
-0.05802755 -0.03431852 0.13545892
-0.15026519 -0.05162443 -0.3632294
0.2793038 0.0799304 -0.049707297
0.10376059 -0.022439908 0.18321194
0.105762355 -0.0073122587 0.22330855
-0.22227834 -0.12970394 -0.092276305
0.03602465 -0.04531111 0.15582916
-0.18671826 -0.047331896 0.027341897
-0.073045604 0.10842065 0.05792354
-0.11180335 -0.024958333 0.054963112
-0.008880564 0.025354508 -0.11517039
0.12822655 0.0015728886 -0.03184512
0.23133561 0.013614867 -0.268234
-0.14356434 -0.08285742 0.14132734
0.119886145 0.03354843 -0.3087299
-0.22882639 -0.05057821 -0.19282167
-0.003827621 0.10781281 -0.024263747
-0.21852735 0.0012770878 -0.26884753
-0.11379597 -0.057384927 0.19279604
-0.12742501 -0.051916227 0.046069693
-0.0063555646 -0.027379015 0.22309874
0.22976902 -0.05585977 0.087858215
0.1078694 0.16841601 -0.36145517
-0.040970225 0.15055205 0.009579402
-0.24928308 -0.047886655 -0.061960377
0.21849859 0.03621446 0.0016767681
-0.049536087 0.045652922 0.048515525
-0.12322316 -0.0034632843 -0.19469616
-0.2309242 -0.05862837 -0.122715466
0.08729337 0.04794076 -0.15416059
-0.10298578 -0.025848517 -0.34206313
0.16299352 0.10628288 -0.19601855
-0.07477729 -0.007918056 0.20046052
0.1552686 0.05462755 -0.004430524
-0.14735244 -0.038644876 0.040035054
0.041888833 0.04918773 -0.114947096
0.0010463618 -0.06787924 0.23223647
-0.1270156 -0.0067874314 -0.058764637
0.07981998 0.060077477 0.13606429
-0.12081175 -0.03910876 -0.07782787
0.23465838 -0.0059525184 0.12434537
-0.0013804757 -0.09597259 0.25525856
0.056656674 0.038112126 -0.26473472
-0.018216008 0.045629915 0.00049235736
-0.024866162 0.051337365 0.10366516
0.061929177 -0.03519015 0.18252406
-0.26474035 -0.026945073 0.04929717
0.025825255 -0.0105292555 0.2648705
0.11195378 0.022763053 -0.13116768
-0.017070161 0.1209281 0.05664143
0.23221937 0.03992486 0.020952243
0.1800851 0.051245153 0.025776794
-0.039871845 -0.037054557 0.20143245
-0.01158134 -0.02449111 0.24650906
0.1024257 0.026025753 0.11203271
-0.21313411 -0.033660978 0.011279579
-0.046975847 0.07258171 0.10248864
-0.046866324 0.0061724093 0.051621243
0.051471803 -0.0060499753 0.1812842
0.014617907 -0.05194972 0.0780254
0.25264943 0.05928576 -0.05206663
-0.08979143 -0.15376033 0.14913566
-0.11935541 0.007789451 -0.27843398
0.04290721 -0.06674645 0.21574964
-0.09881007 0.010743468 0.15122673
-0.055558063 -0.025315885 0.21121393
0.038838245 0.029353805 0.0071916427
-0.1759236 -0.13812248 0.105712056
-0.2968394 -0.1495653 -0.03498569
-0.08724837 -0.12820776 0.23169021
0.17707959 0.086299166 -0.29378593
-0.15621969 -0.016106563 -0.19522949
-0.04681192 0.120669425 -0.18317458
0.04992451 0.13335426 -0.40493026
-0.19276913 -0.040771388 0.13168873
0.18234818 -0.028128235 -0.08509816
-0.09454 -0.019762998 0.092106566
0.1389052 0.014784254 0.04762351
-0.19713157 -0.10012139 -0.25217184
0.0686348 0.008268639 0.14816545
0.21002978 -0.0021691087 -0.17044039
0.10810877 0.072226696 -0.116709575
0.21980576 0.11133275 -0.22344711
-0.20341502 -0.09297892 0.14404076
-0.12141129 0.086623505 -0.034382932
-0.183105 0.0050721783 -0.03372674
0.20911929 0.039510448 0.12244623
-0.18846153 -0.00021684254 -0.17681284
0.12847199 0.0009778156 -0.06380179
0.003175701 0.07847604 -0.039238874
0.2651608 0.06356528 0.0042413846
-0.119716786 0.07946907 -0.03434186
-0.008791265 0.078602165 0.03346125
-0.09926222 -0.16907738 0.1088367
0.05170497 0.034951117 -0.07664319
-0.13640025 0.08207219 -0.054095227
-0.06934982 0.06415085 0.14518464
0.07158689 0.08345597 0.05401095
0.22631751 0.06776183 0.13268021
0.042899325 0.009790665 0.24350676
0.21513999 0.05409581 -0.050746955
0.104158394 -0.055364218 0.009303401
1.7637672e-05 0.029695204 0.20061962
-0.13061097 -0.03210459 0.124648206
-0.15358217 -0.062358916 0.15118107
-0.08447906 0.07808747 -0.120043874
0.22541417 0.030306274 0.056182057
-0.15979156 -0.0028116843 0.13327026
-0.16556549 -0.10362592 -0.3584684
0.06341196 -0.029049544 0.03431492
0.2335978 0.06201444 -0.5019578
0.03931304 0.061301038 0.121425286
-0.01088365 0.036510356 -0.13085423
-0.31688783 -0.16708061 -0.010640998
-0.15117167 -0.03142699 0.027127549
0.10430382 0.024349598 -0.087035164
0.02922155 -0.04588033 0.22790976
-0.250703 -0.03490641 0.077012844
-0.003290947 -0.067134425 0.068197414
0.21971495 0.10652741 -0.17996086
0.15041661 0.018947119 -0.34464654
-0.14788109 -0.04080474 -0.2831257
-0.2119674 -0.015885698 -0.0795436
0.07282829 0.06428564 0.11469448
-0.25073886 -0.12807906 -0.11125595
-0.028238242 -0.07789036 0.17607275
-0.02353981 0.06735863 0.15780263
-0.11593787 -0.12144483 0.13015436
-0.12019154 0.048009727 -0.2051526
-0.17544162 -0.11276604 0.17076807
-0.24301735 -0.15769243 -0.04293622
-0.0181484 0.0018900199 0.17861201
0.07324407 -0.0003673612 0.17990725
0.0060942727 -0.03973905 0.12293446
0.15463725 0.135884 -0.035911787
0.11096914 0.075167924 0.0021622935
-0.10334974 0.026806686 0.15702096
-0.2655932 -0.16254008 -0.08187088
-0.30901107 -0.10662405 0.04173388
-0.04372727 -0.006522862 0.24824722
-0.050428335 -0.045061152 -0.39087522
-0.23166639 -0.087511584 0.13590027
-0.2594482 -0.045209188 -0.17737259
-0.07870851 0.08626791 -0.00831897
0.08329895 0.006215298 -0.30423126
-0.22905764 -0.08247888 0.06795593
0.084913015 0.042634804 0.0890394
-0.037073523 0.09213105 0.0536536
-0.107878044 -0.03213444 -0.20419581
-0.20499215 -0.06604921 -0.0984001
0.038356382 0.08832487 -0.04088694
-0.21737446 -0.06304315 0.050188474
-0.010097843 -0.11470795 0.19746298
-0.071192 -0.0582276 -0.34353533
0.13490683 0.14286485 -0.2464084
-0.01752343 0.034880593 0.13794845
0.026614962 -0.015402232 0.057250936
0.16672122 -0.012562505 0.13719518
-0.048617974 0.03985919 0.052409858
0.13587183 0.07964349 0.024770841
-0.19381927 -0.055143807 -0.03259065
-0.21292312 -0.07453374 -0.16795324
-0.098575495 -0.08260072 0.1514428
0.15403584 -0.008046432 -0.10904549
0.015195278 -0.10584243 0.22350179
0.22570421 0.03361338 -0.22712792
-0.10554472 -0.043858558 0.1993263
-0.1593943 -0.050056268 -0.07763906
-0.20556174 -0.082534075 0.16009581
0.01250415 -0.058971655 0.18461703
0.24574764 -0.02373355 0.11091993
0.099615194 -0.030731305 0.16076471
-0.05394626 -0.004265727 0.034470726
0.11072041 0.033533826 -0.02427808
-0.18186802 -0.11893017 -0.22898273
0.009281044 0.14082743 -0.08866134
-0.006046427 -0.07090046 0.16539302
-0.17362992 -0.12048654 0.024413886
-0.09637694 0.13735285 -0.16817036
-0.12808442 -0.029427316 0.06267033
0.19329314 0.06269805 -0.33453724
0.029412853 0.039423335 -0.44345897
0.014467174 0.08703521 -0.06943968
0.17524755 0.010812749 0.09739182
0.008805232 -0.014198054 -0.24080803
0.21390642 -0.024618829 -0.21904597
-0.21514602 -0.03918905 0.0050010905
-0.015623811 -0.048634533 0.20192398
-0.11127092 0.088152155 -0.025763974
-0.3068118 -0.07583496 -0.05933212
-0.013664939 -0.06763866 0.07602351
0.051523175 -0.004956447 0.1727282
-0.1604421 -0.0019573325 -0.083183356
0.06456578 -0.015124087 0.24749155
-0.069187574 0.036491096 -0.11756285
-0.24437296 -0.16792043 0.112840205
0.11575064 -0.00032207512 -0.057115145
0.1683379 0.0026913993 0.1073883
-0.011444399 0.12597245 -0.13648477
0.019092679 -0.06387051 0.20912278
0.22653317 0.021750268 0.014840763
0.24277824 -0.003933567 -0.1004497
-0.29078794 -0.046351943 -0.044008307
0.15369081 -0.058822595 -0.32706088
0.114030816 -0.049702358 0.23116821
0.1944705 0.0543787 0.03128241
-0.11668819 0.08518913 0.07518413
0.1426514 -0.061601378 0.2017855
0.13734375 0.038204417 0.10956902
-0.10354096 -0.1364079 0.10436755
-0.24156676 -0.12037932 0.07725109
0.13806126 -0.033880915 0.062041175
0.059188224 -0.019768432 0.22234373
-0.050632726 -0.021102704 0.14865531
0.23686196 -0.025095828 0.08618173
-0.23782359 -0.05758538 -0.23683964
-0.14313014 -0.09107901 0.13248374
-0.034046646 0.113163725 -0.024995523
-0.2396589 -0.04299836 -0.029157834
0.20254913 -0.0019395109 0.10455301
-0.1648804 -0.05564149 0.17395404
-0.13979071 0.027793672 -0.026276229
-0.1357063 -0.044489726 -0.110951014
0.06203592 0.07360097 -0.0103266565
0.22720063 0.007585031 0.02433214
-0.043683816 -0.011444048 0.20393224
-0.11352567 -0.06365077 0.013914812
-0.24482648 0.0071347053 -0.20682772
-0.024735484 0.054021746 0.19393301
-0.19814704 -0.05031893 -0.29921076
-0.120846406 -0.054430835 0.20648052
-0.24795248 -0.101436615 -0.12065665
-0.01553045 -0.028207546 0.25078568
-0.17997591 -0.032892436 0.15785195
-0.06501225 -0.10157007 -0.049522605
0.07745351 0.08289434 -0.22725645
0.034204923 -0.0816188 0.25912184
-0.07977277 0.020286737 0.18920138
-0.14411801 -0.09015543 -0.26578468
0.07468628 0.11675889 -0.32709435
0.106378734 -0.014718955 -0.0030493957
-0.06962688 0.083696656 -0.0098876115
-0.1861687 -0.0664754 -0.18262005
-0.07397044 -0.107123435 -0.33408505
0.123265944 0.08923685 -0.17655934
-0.03182671 0.08432629 -0.011457396
-0.10629546 -0.113509975 -0.018353067
-0.052923936 0.09399101 0.029720167
-0.15469383 0.03014217 0.079706475
-0.16467668 0.035436794 0.15392898
-0.23071586 -0.14397237 -0.13595884
-0.061372273 0.10520029 -0.016785663
-0.24648826 -0.13834237 -0.06971413
0.15990092 0.05555554 0.08827021
-0.23466605 -0.055816587 -0.059168946
-0.05650352 -0.098527476 -0.33927864
-0.043809425 0.062020868 -0.022020303
0.004839879 -0.042091604 -0.35795465
0.15990853 0.11139099 0.048640218
0.11811212 -0.044051487 0.19757862
0.18307343 0.0024013203 -0.12672473
0.22259536 0.029130148 0.020818645
-0.18325555 -0.015451906 0.12121452
-0.08090424 -0.051951047 0.1330381
-0.11516545 -0.053775143 0.1085595
-0.018483562 -0.011283145 0.10711086
-0.0381689 0.01583777 0.19600908
0.14244668 -0.040298037 0.088857174
-0.22356078 -0.0007420847 -0.070785254
0.11703661 -0.045196623 0.16972096
-0.026631877 -0.04647684 0.23294452
-0.05844138 -0.033868734 0.13170302
-0.2651861 -0.11643809 -0.06397042
-0.0023384327 -0.06533243 0.26137415
-0.12020213 -0.0425622 0.041202918
0.14970736 0.07195881 -0.057760593
0.10007173 -0.088586144 0.124585696
0.21233247 0.05175141 -0.0075943735
-0.12873177 -0.09479814 0.06287176
0.24579813 -0.023782294 0.11720077
-0.21542166 -0.10852797 -0.029689562
-0.16872731 0.00024062526 0.08409657
0.05984387 0.11069434 0.10354682
-0.2405212 -0.023331016 0.079019025
-0.13325362 -0.12530579 0.045498848
-0.2503621 -0.10419522 0.05683036
0.26140085 0.08186781 -0.07740269
0.08218817 0.048587225 0.22183542
-0.12653787 -0.017024655 0.17644839
0.2046262 0.0025976873 0.12013806
-0.12614578 0.0017131586 -0.045359503
0.1463197 -0.05152319 0.15584515
0.19024034 0.1189238 -0.117848076
-3.901237e-05 0.06648449 0.17745353
-0.14437701 -0.0925663 0.094710894
-0.05635372 0.0043151625 -0.03459447
-0.0015796153 -0.06254743 0.2062221
-0.036829248 -0.09516228 0.0509126
-0.068205185 -0.06269521 0.19442374
0.2003467 -0.0436036 -0.18776163
0.042816184 -0.007850732 0.14865875
-0.19649431 -0.06753488 0.08277742
-0.004928461 -0.057882033 0.18313107
-0.08649328 -0.052121196 0.191681
-0.24198486 -0.11835415 -0.04921418
0.08410071 -0.04644128 -0.3792827
0.07059641 -0.04042308 0.092974894
-0.05596785 -0.07852263 0.16914752
0.014482529 -0.04318688 0.23870808
-0.17359176 -0.12204665 -0.07493046
0.03950459 -0.017822694 0.17201117
0.070640385 0.08467485 0.0044422927
0.015387365 0.035045274 0.1604652
0.16374092 0.0031052623 0.15271315
0.21218194 0.037218183 0.012193737
0.12873448 0.16546048 -0.29764074
0.23211226 0.017144816 -0.10452025
0.22615677 -0.011018223 0.0966865
-0.23651761 -0.15983602 -0.044553123
-0.17391093 0.036683466 -0.1295367
-0.22162431 -0.16346826 0.058104996
-0.13867621 0.078431115 -0.055844348
-0.0995046 -0.017219935 -0.19661814
-0.14342065 -0.020431282 0.16695537
-0.31224948 -0.15718302 0.00041234438
-0.22898297 -0.080361515 0.12731238
0.07238115 -0.06984067 0.14220792
0.08723948 0.014751961 -0.061427914
-0.17819339 -0.079390414 -0.20201376
0.23370036 -0.045074098 0.11490681
0.070649326 -0.0054051806 -0.17783296
0.081163116 -0.012688905 0.055578124
0.016706357 -0.014358498 0.18595225
0.1972491 0.112384506 -0.21047044
0.18195331 0.013188943 0.10131866
0.11522873 0.06431841 0.051866557
-0.2656293 -0.10601426 -0.029312303
-0.0033452222 -0.08423206 0.16922237
-0.29442626 -0.13488623 -0.0068837535
-0.13619804 -0.06610414 0.10273374
0.12319224 0.1171589 -0.30077803
0.13016723 -0.07923233 0.18187775
-0.06542723 0.15101379 -0.16482458
-0.1387611 0.06971761 -0.0381473
0.07097799 0.05006403 0.049365114
-0.15531182 6.9108806e-05 0.07393524
0.17376256 0.12068101 -0.11797905
0.035933245 0.09696822 0.021910273
0.1845835 0.0012190398 0.17862895
0.093401134 -0.060237225 0.1412082
-0.05565578 0.06947068 0.0037495783
-0.25510845 -0.012123215 -0.13226153
-0.3049995 -0.09256806 0.0010387194
0.1367494 0.0071233506 -0.11273493
0.01957372 -0.0002056773 0.27421972
0.09822138 -0.029359143 0.1625002
0.11817982 0.14118579 -0.24836592
0.21560791 0.079894476 0.084427245
-0.20734832 -0.11783514 -0.14754866
-0.083852924 0.0059677633 -0.14006834
-0.17766994 -0.029163843 0.008707884
0.23402232 -0.017230973 -0.018832462
0.014664111 -0.032055788 0.20632325
-0.10408479 -0.08301322 0.1645436
-0.2590424 -0.1684126 -0.03396906
0.08090081 0.01370319 0.20915878
0.02744703 0.1756744 -0.13552639
-0.075087324 0.06307924 -0.031271655
-0.0098833665 -0.009788631 0.23910588
0.033549447 0.10087665 0.05612852
0.11883797 0.023003781 0.1629396
-0.07202672 -0.059691425 0.21672732
-0.24500787 -0.09528418 0.1016241
0.30723622 0.083703876 -0.09455075
-0.19552754 -0.09490533 0.13452457
0.03527495 -0.049818758 0.2352837
-0.0127282 0.19575544 0.012271102
0.10834279 0.0130843045 -0.21976593
-0.15318504 -0.0637989 0.05199641
-0.24230956 -0.07418378 -0.013877745
0.21967432 0.12526825 -0.042388048
0.16021977 0.013718311 -0.17824095
-0.008294915 0.036608167 -0.17186834
-0.108707875 -0.10483689 -0.105962984
-0.042997785 0.16110583 -0.006738937
0.014753954 0.12655741 0.015401734
-0.13525389 -0.123434484 -0.2285077
0.21688882 -0.07347583 0.13663496
0.01616944 -0.055592556 0.22802041
-0.14292462 -0.09057156 -0.021254985
0.10389633 0.023781305 -0.30892697
0.14528193 0.18529217 -0.44593936
0.07527873 -0.0113195535 0.14699303
-0.14788777 -0.067526035 0.13056022
-0.0073682424 -0.070608884 -0.38917673
0.24049386 0.075997986 -0.05800869
-0.026961565 0.11087869 -0.14075583
0.16180928 0.027361812 -0.024800224
0.17835955 0.060914952 -0.2636286
-0.21758002 -0.11794196 -0.13131393
0.1881875 -0.01577054 0.009943134
0.31220397 -0.05446533 -0.016717639
0.12482895 0.0458299 -0.110250816
-0.11088482 0.051365938 0.12050868
0.01835408 0.045372944 0.18654135
0.14992894 0.015895959 0.07187051
0.23440892 0.047323264 -0.02622218
-0.20702031 -0.017290534 -0.058342353
0.02166296 -0.025739979 0.08334826
0.09701495 0.035574 0.13951081
0.08914798 -0.029341258 -0.22290087
0.15329887 0.13735093 -0.01075145
-0.04816884 0.14261855 0.0007769426
0.15981534 0.13207331 -0.2829993
0.2773781 -0.013425747 0.029116483
0.10390075 0.04560479 0.122064
-0.077821225 -0.026222803 0.18745895
0.079356484 0.0120696565 -0.3531228
0.076809034 0.0023505697 0.12119781
-0.16671848 -0.020870812 -0.18182702
-0.064992435 -0.00974228 0.13082108
0.19852793 0.04753634 -0.21009009
0.22743079 0.06099568 0.06179827
-0.05935856 0.14617604 -0.18610081
0.068526536 -0.021190736 0.09284687
0.0852254 0.05045885 0.005568471
-0.275924 -0.073252216 -0.18824555
0.13640428 0.017053576 0.22922589
0.021117305 0.09570576 -0.02260038
0.14402136 0.050499074 0.18476492
0.1868375 -0.033413015 0.11225881
-0.25714335 -0.107635185 -0.13873836
-0.073351115 -0.010355065 -0.2582852
-0.1821017 -0.07851963 -0.2630364
0.08879104 0.05836611 -0.024286414
-0.049895883 -0.03627452 0.109336205
-0.09195388 0.01092996 -0.022620253
-0.02690857 -0.042948674 0.27365354
0.09631858 0.03884087 -0.25575787
0.14644122 0.04430249 0.07614648
0.012639593 0.19280522 -0.11173817
0.13358739 0.05676498 -0.114980124
0.08333096 0.036275584 0.12085931
0.194801 0.07620355 -0.017561939
-0.17535694 -0.017389575 0.07007467
-0.22037543 -0.046978258 -0.025321165
0.17450562 0.050772924 0.057177316
-0.27792093 -0.15826014 0.066715695
-0.07127695 0.09988641 -0.0033290691
0.0937531 -0.07692087 0.14936283
0.08121067 0.09063459 -0.30669364
0.17483205 -0.028319113 -0.12123813
-0.13907664 -0.022606486 -0.1308979
0.24729422 -0.037776478 -0.16646013
-0.11109172 -0.10579726 0.05704628
0.10514119 -0.0011970225 -0.2856952
-0.07919994 0.12179208 -0.12440532
-0.0013762767 0.052266493 0.075658
0.06946446 0.03808108 0.18950607
-0.18206239 -0.044477712 -0.018299768
0.16219497 -0.0340092 0.19494538
0.015625324 0.11078957 -0.04341737
0.14126153 0.033409327 -0.2906233
-0.26737535 -0.17535017 0.01032672
0.17578837 -0.037343413 0.06736876
-0.024943568 -0.10329853 0.23946886
-0.14964847 -0.06402601 0.1832657
0.2920672 0.030940175 -0.05121195
0.051252607 -0.11812434 0.23754935
0.11422467 0.04737505 0.12144685
0.1443814 0.003890826 0.13808796
-0.001073443 -0.018015211 -0.22264795
-0.02478105 0.05031121 0.062489107
0.14720027 -0.022949632 -0.21850824
-0.26482266 -0.05161775 0.011725115
0.17746346 0.11614631 -0.29578832
-0.18452357 -0.10620492 0.13508008
-0.12989457 -0.0735283 -0.11929161
-0.11021745 -0.073183425 0.22112188
0.24380472 0.05470772 0.06668733
-0.10651918 0.15176179 -0.16766925
0.10743972 0.08461689 -0.2485924
0.04439681 0.075632274 0.050960045
0.008955695 0.01303861 0.15848854
