# .PCD v0.7 - Point Cloud Data file format
VERSION 0.7
FIELDS x y z
SIZE 4 4 4
TYPE F F F
COUNT 1 1 1
WIDTH 1000
HEIGHT 1
VIEWPOINT 0 0 0 1 0 0 0
POINTS 1000
DATA ascii
0.02925393 -0.17168212 0.08328076
0.03054246 0.10317941 0.034693826
0.071559265 0.046863325 -0.0040238383
-0.053982712 -0.19708003 0.042279202
-0.17530568 0.16432685 -0.17773448
0.17476568 0.07854664 -0.052249033
0.0037182083 -0.19401218 0.025705066
0.06593772 0.06811298 -0.2086846
0.007539596 0.08491952 -0.20860487
0.0031911125 -0.13595529 0.08073469
0.12328051 -0.1790298 0.033387642
0.18249711 -0.23265928 -0.043835673
-0.14578602 0.14562087 0.13839103
-0.18932799 0.043895137 0.094494045
0.18840796 -0.20089173 -0.07374588
-0.08839766 0.1739949 -0.14388531
-0.04917892 0.09091499 -0.10256194
-0.17573674 0.05335485 0.19284016
0.08276605 0.101687185 -0.062337026
-0.21871313 0.15392005 0.17955452
-0.016881818 0.21089657 -0.23035137
0.053471323 -0.30669302 -0.000575913
-0.010400699 0.04100568 -0.084202275
-0.23874943 0.13697775 0.13493589
-0.22385947 -0.12765999 0.16556127
-0.18827304 0.17895684 0.15151948
0.055498544 -0.19316308 0.03729027
0.060806345 0.037367877 0.103786506
0.15788682 -0.21552339 0.06954784
0.10436064 0.017256208 0.05766508
-0.020886289 0.04975406 -0.040861435
0.040242787 0.14628637 -0.09148579
0.23146658 -0.19928074 -0.15769173
-0.08454387 0.15825097 -0.18792741
0.06529169 0.16321018 -0.2573856
0.05201162 -0.16272411 0.07277815
-0.17854404 -0.07717211 0.15017025
0.10565931 -0.247639 0.04764197
-0.03523645 -0.1123066 0.096122436
-0.15074974 0.2496588 -0.104061015
-0.2681548 0.042528834 0.12554723
-0.19585422 0.15192635 0.047439817
-0.14289184 -0.020454744 0.13209525
-0.009882325 0.10871744 -0.03505102
-0.13454716 0.10696793 0.096770406
0.0649297 0.0708374 -0.14942104
0.23536056 -0.09449115 -0.2665122
0.09586506 -0.23215821 0.07223098
-0.20918892 0.13475214 0.16182151
-0.0710705 0.13316792 0.06396627
-0.02515429 0.034918886 -0.034781605
0.008776264 -0.1291969 0.091522604
0.15362677 0.04974898 -0.16113688
0.015464869 -0.19992405 0.10396021
-0.11485593 0.17539234 0.15260924
0.107581265 -0.30503446 -0.049133155
0.022055192 0.12655 -0.08886471
-0.06516399 0.26213995 -0.2122761
-0.00840178 0.19749096 -0.08281694
0.14705418 -0.13341178 -0.14002429
0.13507955 0.019880306 -0.0548965
0.09251412 -0.022493966 0.035960127
0.24819633 -0.105328456 -0.18713711
0.120226495 -0.112423345 -0.04945681
0.2690427 -0.27185538 -0.12268976
0.14107156 -0.011772349 -0.18202491
0.19943333 0.0060662488 -0.029636752
0.014104172 -0.08351792 0.112093985
-0.15008648 0.22040573 0.055457268
-0.043141842 -0.12494832 0.12688863
-0.21979828 0.1041872 0.19453338
0.024683807 0.08602477 -0.17022781
-0.16240892 -0.011568462 0.051833823
-0.0022146613 0.15653522 -0.19168267
0.029036948 0.14278768 -0.09388074
0.030320147 0.012680673 -0.06710151
-0.11562067 0.19789542 0.028402025
-0.18090189 0.11654494 0.1578994
-0.040194754 0.20466173 0.0055781687
0.044338074 -0.2210618 0.07884491
0.038161453 0.15186384 0.03776317
-0.21310188 0.21137716 0.17616545
0.20752472 -0.19037841 0.00260399
-0.1932466 0.15158771 0.18602431
0.025102725 0.13620508 0.011230447
0.15895514 -0.1072425 -0.15060973
-0.035622675 0.16874875 -0.13610286
0.11656089 0.2079298 -0.182122
-0.105254106 0.071849585 -0.010818394
0.0451642 -0.22203307 0.07118122
-0.17604789 0.03085148 0.11928131
-0.03131492 0.19326086 -0.1430214
-0.19614737 0.16654833 0.21565908
0.016215809 0.053137347 -0.12923703
0.18356682 0.11192671 -0.03633986
-0.12106166 0.19679913 0.12331977
-0.102278605 -0.0684629 0.08395738
-0.011229795 0.08783075 0.01586942
-0.2129996 -0.032081917 0.07579333
-0.01861834 0.1646397 -0.07080016
0.14845917 -0.18287934 -0.029868448
0.17085843 -0.18034336 -0.045956243
-0.036381163 -0.20257829 0.15013565
-0.093151264 0.14346193 0.054457437
0.0756298 0.17955007 -0.20021096
0.01160682 -0.04539494 0.0010243768
-0.06643587 0.22836344 -0.17278068
0.16255611 0.10180673 -0.04621884
-0.04370162 0.18423226 -0.068523124
0.08851284 0.08555882 -0.16084063
-0.08935821 0.07048018 0.077998206
-0.13657591 -0.007893387 0.14099821
-0.2399047 0.031960797 0.21489087
-0.2436699 0.18088037 0.24463551
-0.11176058 -0.027838921 0.09762044
-0.14866388 0.19093753 0.13191617
0.062035665 -0.06540559 0.016013786
0.24169727 -0.15542774 -0.07769688
0.13201968 -0.21006879 -0.0133379325
-0.15589732 0.15518798 0.09655298
0.20222263 0.11083487 -0.08836202
0.036173396 0.15739825 -0.074649125
0.07448097 -0.0553034 -0.025072252
0.07858982 -0.14726788 0.078516
-0.068849206 0.011419829 0.014593915
-0.09115477 0.124215566 0.006928693
-0.060263205 -0.17097253 0.16105919
0.08165675 -0.12418992 0.03142294
-0.24942686 0.060968753 0.23888409
0.041010108 -0.16044624 0.06518438
0.197289 -0.25876158 -0.07163373
-0.052930553 0.19859482 -0.09206793
0.030434621 0.014626353 0.039820213
0.15658484 -0.18337345 0.08562322
-0.029292038 -0.07206869 0.07176228
-0.07247607 0.0493146 0.055274665
-0.21079908 0.1335025 0.16483928
-0.14130613 -0.10471103 0.12837388
0.12495186 -0.11555902 0.03004339
0.013026891 0.048551194 -0.013804008
0.089575894 -0.040411726 -0.004574686
-0.24716961 0.098262966 0.10444628
-0.012704413 0.18022728 -0.05342078
-0.20923443 0.24385571 0.16107993
0.097463876 -0.005149793 0.036661528
0.066065185 -0.24388182 0.11555888
-0.2305614 0.08269663 0.1914939
0.1156282 -0.2964373 0.0051318975
-0.003445826 0.07019195 -0.08455917
0.12597016 -0.029436234 -0.014915785
-0.14614944 0.17765509 0.12001704
0.28305483 -0.017497279 -0.24943036
0.14511873 0.12739749 -0.09096912
-0.09760043 -0.09024394 0.06023339
-0.11813664 0.18381682 -0.0603195
0.14158788 -0.018109554 -0.06302127
0.11620283 -0.3181295 0.0070423763
0.07719975 0.13697553 -0.3084643
-0.28935242 0.19149198 0.17807369
0.21977444 -0.10316489 -0.12533596
0.17447793 -0.075701654 -0.0062642554
-0.0028839419 -0.045132216 0.021052603
0.07973275 -0.14719158 0.1006747
-0.04773025 -0.050304145 0.08636341
0.16103035 0.06694207 -0.06775147
-0.0033819026 -0.042312767 -0.023418833
0.0971718 -0.1607248 -0.025903502
-0.04942221 -0.0169286 0.0036832208
-0.09636336 0.17964672 0.0993457
-0.13792571 -0.17225394 0.13112436
0.2388854 -0.010112375 0.044750076
-0.108793296 0.1314639 0.024310581
0.11276476 0.057021875 0.0022629967
-0.12940319 0.07599675 0.0589105
0.16671424 -0.22649598 -0.10215003
0.25623015 0.07133631 -0.2980047
-0.21835473 -0.09458991 0.15820003
0.056568515 -0.15578665 0.014075086
-0.049868647 -0.041490514 0.036468666
-0.013501947 0.18194894 -0.00044913535
-0.20346932 0.19981813 0.14944467
-0.1289776 -0.13529082 0.05807785
-0.30707487 0.14508705 0.21112883
-0.31548437 0.12945622 0.111518525
-0.10283864 0.06671101 -0.0066663404
-0.16602214 0.079456955 0.16922761
-0.0008396043 0.15091182 -0.27978858
0.19446391 -0.07258447 -0.2341037
0.034181073 0.094525985 0.05731117
0.009586122 -0.1346274 0.15219133
-0.16196111 0.024716787 0.11142361
0.17085356 -0.28277832 -0.10991058
0.13558114 -0.28012118 -0.026978718
-0.026103854 -0.10181899 0.12223937
0.038430825 0.1405111 -0.15181884
0.10945112 -0.16405761 0.037911765
-0.055549987 -0.22650994 0.092268564
-0.2757295 0.09067636 0.1643987
-0.19075653 0.05780285 0.1063781
-0.14721099 0.12177202 0.032428727
0.015414546 0.011564097 -0.029301284
0.19384342 0.012604057 -0.37189957
-0.12586631 0.23538387 0.086222224
0.103372075 -0.21215744 0.086691424
0.016378982 -0.08186369 0.09331927
0.16701822 -0.17593697 -0.069679976
0.09229565 0.15846305 -0.20714377
0.13757339 -0.18179934 -0.029293526
0.082470514 0.13878892 -0.119081184
-0.17592219 0.18814866 0.13933904
-0.18326426 0.0868696 0.014396376
-0.23550342 0.20454061 0.1504884
-0.13570152 0.12937194 0.10847286
0.10807386 0.027943682 0.017429743
-0.004402299 0.12768467 -0.20345306
0.11347531 0.18293516 -0.05306825
0.23223372 -0.06613685 -0.27747232
0.25981578 -0.16531697 -0.113870814
0.17265809 0.09320179 -0.32636815
0.15980129 -0.21147116 -0.10622624
0.060046665 -0.22351943 0.022529965
0.16009362 -0.24532276 -0.015665123
-0.019506965 0.15546575 -0.0049407985
0.11692868 0.09623463 0.08605919
0.23442706 -0.1505509 -0.059004504
-0.2762584 0.1749736 0.19611946
-0.23047046 0.1468597 0.13883495
-0.050377667 -0.17426382 0.12784652
0.035634957 -0.1678452 0.083300814
-0.0068608737 -0.26895565 0.10479854
0.18929772 -0.09116664 -0.12770002
0.20310669 -0.029874345 -0.18146798
0.20098859 -0.15300287 -0.15190929
0.18157549 -0.039686013 -0.17258899
0.008316519 -0.19659764 0.038944863
-0.22269168 0.079724245 0.16757862
0.102755085 0.014058555 0.03644402
-0.02014831 -0.1223013 0.0907429
-0.13286245 0.013760187 0.12616888
-0.10620612 0.19612633 -0.20977749
-0.06328138 0.047573753 0.05944841
0.07154214 0.18005785 -0.19202498
-0.022548776 -0.031717088 0.056159306
-0.04016706 -0.088626735 0.0756267
-0.15240635 0.19785726 -0.106330566
0.092142195 -0.11289622 -0.0792198
-0.25853756 0.1295672 0.14666745
0.18881573 -0.26169685 -0.030909173
-0.08472353 0.18910202 -0.08630042
0.098763995 -0.28541744 0.000585872
-0.051146828 -0.07964187 0.096251994
-0.14979337 0.13831854 0.22068265
-0.13863933 -0.04598404 0.091598235
-0.03413173 0.19840384 -0.06322173
-0.11139538 0.07297256 0.031361803
0.10547909 -0.32293904 -0.03578915
-0.22014037 0.028936481 0.22989304
-0.09812294 0.27576357 -0.18806086
-0.08256409 0.1404157 -0.09473084
0.098633386 0.14491394 -0.06723752
0.20100097 -0.038757376 -0.16063073
0.23641624 0.06114621 -0.12604076
0.10506832 -0.20679285 -0.014190172
0.2221243 -0.3032411 -0.019090965
0.014748551 -0.013537021 -0.065939546
0.066456765 0.038490925 -0.19885296
0.18489438 -0.14258248 -0.11514312
-0.2583095 0.030730406 0.17889418
-0.14402302 0.20689481 -0.23710501
0.023498211 0.06934599 0.007750746
-0.112681694 -0.030150032 0.14030421
-0.07259701 0.08587963 -0.09667374
-0.25422856 0.13718478 0.07227373
0.08647343 -0.19128075 -0.010907293
-0.034522355 0.04693772 -0.05224408
0.19738357 -0.23480049 -0.12748002
0.07128777 -0.14026527 0.054704875
0.13135575 0.13846551 -0.07337611
0.029463613 -0.09234885 0.06643862
-0.11094344 -0.09976565 0.15560897
-0.20437312 0.11617297 0.17895879
-0.17532429 -0.14826202 0.12760575
0.07562562 0.11795004 -0.098598465
-0.09278127 0.17180598 0.08289404
0.1680453 -0.039168935 -0.031916548
0.17713253 0.057113543 -0.15620106
-0.18305618 0.05148005 0.105057634
0.016775306 -0.11669072 0.017140098
0.19176495 0.00043456798 -0.34040177
0.075941466 -0.012614688 -0.027897917
0.10320276 0.09032358 -0.23266342
0.22058788 -0.16884081 -0.14820342
-0.09891704 0.21576196 -0.17349896
0.056276795 -0.034439016 -0.05759099
-0.07196507 0.1767083 -0.050286345
0.118163556 -0.09432285 -0.030175807
0.08321904 -0.1551724 -0.031400785
0.0146413995 0.21292533 -0.2817258
-0.07928691 0.18656783 -0.007944262
0.107750796 -0.06252959 -0.060997233
0.074424095 0.1234285 -0.26904288
0.020603314 0.08673253 0.07996956
0.029141944 0.225367 -0.2719661
-0.03713537 0.007317725 0.090528905
-0.027980695 -0.104837865 0.1510097
-0.22081536 0.06944131 0.12765488
-0.0495247 0.24085248 -0.1742314
-0.13054745 0.18961938 0.11019633
0.13100874 -0.06140947 -0.15308885
-0.06632099 0.1967006 0.050424702
-0.038316417 0.19380002 -0.042135503
0.018096553 0.03718419 0.06913618
0.22277941 -0.056336105 -0.06984179
0.04352423 -0.17301926 0.07034519
-0.13017507 0.10421309 0.040660743
0.045608863 -0.1251888 0.04947131
0.20733795 0.046409618 -0.34445333
-0.08668141 0.12848684 0.055248536
-0.12988916 0.16930614 0.03839518
0.21861039 0.12102445 -0.10043607
-0.028272143 -0.087492764 0.09649202
0.2140644 0.0016551518 -0.20386255
-0.07038566 -0.009854381 0.08784739
0.09508068 0.1678403 -0.003909083
-0.11123946 0.1564856 0.054245446
-0.024163134 -0.07432913 0.10330358
-0.2580951 0.14595635 0.11439196
-0.17594147 -0.07123787 0.037410766
0.24449308 -0.15174238 -0.15794401
0.03477306 0.13336863 -0.1648161
0.04817316 0.03794728 0.013466043
-0.013138996 -0.18115157 0.09063881
-0.26891297 0.06724464 0.12570494
0.117494546 0.048993595 0.039551925
-0.19419889 0.030903684 0.15761298
-0.0059334943 0.100742385 -0.1583816
-0.25250578 0.14312248 0.09701435
-0.23069564 0.048271544 0.066467576
-0.162282 0.19794555 0.06399467
-0.12167943 -0.043155786 0.19250794
-0.17103477 0.16224682 0.055440772
-0.12620763 0.14116825 0.12931299
-0.20885015 0.19226176 0.17409423
0.18545273 -0.2599961 0.028974602
-0.112165816 0.10243091 0.076739155
0.21408051 -0.3031827 0.0039022982
-0.020104509 0.07844855 -0.074579336
-0.14474432 -0.116807684 0.1149754
0.027693707 -0.26214188 0.08831589
0.25113258 -0.12417754 -0.25926492
-0.101287924 -0.1069514 0.07272424
0.22283523 0.026560998 -0.03315025
0.056052435 -0.092139654 -0.050543975
0.1591236 0.10762172 -0.32484895
0.120105885 -0.11101119 -0.09814227
-0.18012054 0.061470162 0.15807047
-0.28063977 0.12085483 0.1511898
0.15331341 -0.23064965 0.051346593
0.021170942 -0.17030999 0.07660433
0.16675639 -0.15499206 -0.007961485
0.16758157 -0.3106092 -0.051405586
-0.19715132 0.032603953 0.1332426
0.20332143 -0.008951167 -0.2707113
0.017632825 -0.1015764 0.060786996
0.19737181 -0.07967262 -0.12444052
0.023550296 0.19755103 -0.21272878
-0.13878497 0.063824974 0.09860937
-0.009420664 -0.2400652 0.12942308
-0.019587293 0.019394413 0.019099131
-0.25822794 0.07525509 0.0792346
0.06906169 0.122152224 -0.019740667
0.22385235 -0.28740993 -0.024672385
-0.036056817 -0.040368874 0.044652652
-0.021198662 -0.055784322 -0.015700765
0.10896269 -0.0018545849 -0.1608916
0.020325597 -0.19372347 0.08269573
0.15067148 0.015989168 0.106266655
0.1467005 -0.2733071 -0.0595945
-0.042111807 -0.006816607 0.0007694708
0.20474368 -0.09791913 -0.16005155
0.1693867 -0.07823161 -0.09127582
-0.32064843 0.16210696 0.10544136
-0.06212686 0.06696554 -0.10708742
0.10554542 -0.05455793 0.0135852
-0.15340582 0.15040183 0.17836
-0.073721655 0.20528436 0.006816841
-0.16974144 0.034212433 0.09228991
-0.025103854 0.011248989 -0.04592304
0.20541371 -0.02350089 -0.15875115
-0.23964523 0.16877878 0.1736331
-0.11924667 0.088347495 0.06994063
0.11950076 0.0042698537 0.05363116
0.066837914 -0.066350184 -0.0009871256
0.077826545 -0.10087325 -0.11453613
-0.0325603 -0.21427533 0.08275953
0.053434994 0.09712076 -0.14096926
0.1455094 0.11787287 -0.24957393
0.007563547 0.084517665 -0.10090156
-0.25886562 0.17663324 0.12642284
0.056583144 -0.30181774 -0.022364464
-0.111341774 0.024856193 0.07379763
-0.2321028 0.060489904 0.018624075
-0.06944053 -0.20965144 0.108414315
0.038753867 -0.06363024 0.13181594
-0.04399134 -0.12753533 0.16105855
0.1647187 -0.1397203 -0.052008584
-0.12659234 0.18989885 -0.041009426
-0.17373058 0.1653409 -0.08438066
-0.023025278 -0.04811442 0.14556791
-0.16323532 0.17947894 0.18117906
0.14054292 -0.2123088 0.015985547
-0.18675822 0.04741392 0.22996075
0.14401601 -0.13269925 0.03408334
0.21545392 -0.12950343 -0.06218535
-0.04113112 -0.22449525 0.0847089
0.17710708 -0.0054606954 -0.14128515
-0.16550565 0.18569206 0.17344871
-0.07398958 -0.087454244 0.09560584
-0.16240858 0.15618993 -0.10551393
0.12033482 0.099009715 -0.08476176
-0.08384983 -0.045703035 0.1001056
-0.12368835 -0.066518515 0.087685995
-0.077059925 -0.20232935 0.14390118
0.102062166 -0.14285617 -0.1184075
0.09063324 -0.24226312 0.04395904
0.21350898 -0.10108483 -0.05112213
-0.011902824 0.18460849 -0.059744745
-0.070572674 0.12933837 0.015697595
-0.15388998 0.018362885 0.03419645
0.1609608 -0.06842491 -0.15209603
-0.16844428 -0.09843549 0.14165919
0.17218807 -0.018058157 -0.21678118
-0.075275384 -0.1243013 0.11115489
0.11567744 -0.2467514 0.07348973
-0.117218636 0.25473338 -0.114537604
-0.20842898 0.20481674 0.15270358
-0.089216754 -0.11656759 0.09534418
0.076598406 -0.13411745 0.00666469
0.18895404 0.014034982 -0.2564125
0.049454875 -0.09303885 -0.02915406
0.0035501926 -0.1890601 0.099581204
-0.08476633 0.19956148 -0.1962481
0.14015478 0.116792224 -0.123059876
-0.035630547 0.0032134235 0.10147255
-0.21466099 0.10674916 0.21161659
0.21148546 -0.16780803 -0.118294775
0.09946285 -0.055107307 0.055386137
0.20432292 -0.0055588773 -0.31006622
-0.053285506 -0.028588196 0.111369744
0.106851555 -0.2767697 -0.071820185
0.20530161 -0.19545007 0.017427005
0.29215738 -0.14989968 -0.1986678
0.0919325 -0.23522581 0.10908589
0.1960501 0.050730295 -0.058146603
-0.11901235 0.00013034396 0.03288096
0.24124578 -0.23819648 -0.030313779
-0.043421462 0.06651353 0.0154887345
-0.124408625 0.087046124 -0.012280767
-0.06627903 0.123555094 -0.054994367
-0.17488359 0.0981843 0.09606294
-0.14823845 0.003871977 0.16087686
-0.2702804 0.0861847 0.13919583
0.095592484 -0.071534745 -0.057316434
0.020978218 -0.09637519 0.08860436
-0.10547262 0.21186031 -0.19938484
0.20689923 -0.04508573 -0.17827916
0.06727753 -0.033617675 0.05260909
0.12389024 -0.1292646 -0.041780125
0.06518042 -0.1034933 -0.12929812
-0.29051155 0.025889503 0.20405774
0.2664827 -0.20264518 -0.13614316
0.21122716 -0.21958944 -0.089472
-0.102044486 0.20286377 -0.10562154
0.0021047585 -0.16846013 0.10485071
-0.07999576 0.042940557 0.06345412
-0.21778004 -0.087775216 0.12002569
0.24036595 -0.2513711 -0.0863193
-0.1701725 0.129346 0.14490171
0.011008419 -0.04942587 -0.0152948415
0.033790965 0.11370945 -0.032025505
0.16675693 -0.11445257 0.00101107
0.046023097 -0.23863623 0.021254353
-0.06938743 -0.12183769 0.07636618
0.15298973 -0.13522731 -0.08527173
-0.09721886 -0.1354229 0.13900676
-0.14196455 0.06735296 0.016257709
-0.1609972 0.2331597 0.09103087
-0.09998833 -0.028236132 0.15693958
0.12536512 -0.13363793 0.012475002
0.27646488 -0.015080499 -0.19380604
0.09120622 -0.21992178 0.0033914999
0.18846315 -0.030985996 -0.20665856
0.19402568 0.045562495 -0.1374659
-0.099922776 0.057268802 -0.0021155276
0.16491488 -0.15653193 -0.06311043
0.15384863 0.03210201 -0.019661276
-0.043660615 0.02193622 -0.036304753
0.21111219 -0.027813558 -0.14832221
-0.08625458 0.21447612 -0.21858306
-0.11580159 0.16605352 0.06463724
0.14458914 -0.082133554 -0.05155683
0.1851725 -0.031376906 -0.1420809
0.23299074 -0.05205113 -0.2657803
0.01915487 -0.1318956 0.048171394
0.14331372 -0.17923929 -0.051659074
0.15282834 -0.2821676 0.027397044
0.06093624 -0.2293809 0.048220802
0.010068371 -0.19826946 0.080511995
0.2008766 -0.10085501 -0.0406777
0.18907388 -0.1263006 -0.07235643
-0.18065695 -0.033563696 0.07871309
0.050390635 -0.03535666 0.020191913
0.1568203 0.05844077 -0.20800033
0.20868284 -0.07082558 -0.18568791
-0.03718597 0.038403034 0.11449729
-0.056204684 0.17213994 -0.017972372
0.099002 0.010437284 -0.0040281857
-0.05258902 0.1150317 -0.08671821
-0.10800903 0.13573883 0.0404173
-0.14092736 0.10769474 0.21957393
-0.0061639315 0.0036911953 0.033476233
0.23242366 -0.052876014 -0.09586497
-0.09264743 0.064512566 -0.00015594695
0.18192872 0.072570756 -0.05701806
-0.16701354 0.090919256 0.21599583
-0.13934761 0.075133875 0.08546248
0.04137524 0.103681535 -0.18242142
0.22488138 -0.09978323 -0.2716288
-0.19028212 -0.009640543 0.09300059
0.04563355 -0.1792641 0.014160328
-0.24818635 0.07797131 0.18876846
-0.22738604 0.19888495 0.162409
0.08015533 0.09107044 0.034131184
0.053962927 -0.045556303 -0.007406558
0.13931264 0.045165043 -0.21872647
0.10289302 -0.30665627 0.029481051
-0.08535518 0.22308533 -0.15211673
0.05712353 0.0867028 0.02620931
0.19722576 -0.11404046 -0.10035091
0.022185134 0.08434035 0.03630023
0.13780111 -0.25519648 -0.019313714
0.04785651 -0.14386885 0.02217976
0.06638434 0.115006275 -0.09630733
0.09754441 -0.10433576 0.01809291
-0.16545287 0.1420658 0.14843662
0.09433704 0.07125511 -0.12646067
-0.13625327 0.11536109 0.19165523
-0.304555 0.19062611 0.1691145
0.20375371 -0.085442156 -0.22184438
0.07461484 -0.10379116 0.03446158
-0.01729382 -0.053914472 0.051704712
0.08349485 0.039653175 -0.19443613
-0.094037905 0.15340777 0.032453705
-0.017540012 0.1400532 -0.06860932
0.14815575 -0.05024864 0.07293202
-0.008476005 -0.05713838 0.08512497
-0.18418212 0.053862907 0.09191381
0.14735855 -0.0040031136 0.041319754
0.13166633 0.080644876 -0.10051128
0.11868744 -0.104002036 0.024578152
0.03786844 0.17955148 -0.30736405
-0.028217528 0.013885064 -0.038528066
-0.017275346 -0.19164723 0.14100097
0.2189781 -0.09631934 -0.24922465
0.047285892 0.034225404 0.034592584
0.13289955 -0.07969544 -0.13164036
0.026439836 -0.16216038 0.054993574
-0.24968933 0.06690711 0.17151341
0.15598692 -0.27055526 0.038849715
0.105184495 -0.25970927 0.06930241
-0.27431536 0.15066615 0.12569232
0.12434782 -0.0056175883 -0.0010033217
-0.025528831 0.21220565 -0.27951604
0.012418095 0.036847282 -0.106815055
-0.17477374 0.06431282 0.03804388
-0.085037716 0.06685671 -0.0059120865
-0.104258545 0.16773619 0.13225368
0.08053172 0.0116837295 0.036418766
0.17831768 -0.05467582 -0.22976933
0.21968035 -0.00782313 -0.23674208
-0.11147796 0.09183189 0.029114744
0.073528916 -0.314489 -0.02412915
0.12854028 -0.00020465795 0.014085659
-0.071059845 0.05428394 0.025586912
-0.033608656 0.048300155 0.030299485
0.057711206 -0.09796996 -0.04665813
0.23865454 -0.18905456 -0.20458382
0.17214532 -0.21108031 -0.090410836
0.049565494 0.08886972 0.0046552587
0.17879145 -0.34898937 -0.024283916
-0.1213484 0.06305513 0.11304477
0.07156048 0.05600624 0.081192724
0.0019460685 -0.068635695 0.022965575
-0.08072401 -0.0617843 0.07923357
-0.16414446 -0.0003187902 0.12329743
0.1846143 -0.13064693 -0.031164367
-0.053061992 0.11599878 -0.09682484
0.17926356 0.1357915 -0.22686002
0.09401151 -0.15002942 0.07436952
-0.1591797 0.12269761 0.15516973
0.14229387 -0.022746008 0.016535334
-0.062002946 -0.24723768 0.052223902
0.12473951 -0.17030756 0.092217535
0.17600705 0.06665165 -0.22482067
0.1354507 0.037761286 -0.22444718
-0.072075 -0.15964527 0.103182636
-0.20442118 0.077445894 0.05548799
-0.15704551 -0.01527774 0.10956229
-0.15041122 0.18413255 0.17897412
-0.093478516 0.12763497 0.08831807
-0.20736128 0.17673384 0.21790442
0.022923479 -0.08666746 0.13693574
0.09490918 -0.21311088 0.03014462
0.08485237 -0.14671302 0.0821087
-0.06690373 0.09603074 0.056088496
0.10494343 -0.2184795 0.0152235385
-0.21261632 0.16870083 0.17823042
0.06378219 -0.031354446 -0.0069177668
0.09061207 0.12461392 -0.14415407
0.07830666 0.19700767 -0.24787967
0.04075039 -0.018693373 -0.02267327
0.041927584 0.08561191 -0.133687
0.04024943 0.14135018 -0.18682696
-0.24458642 0.24102654 0.13762227
-0.11093581 -0.18327974 0.08239771
0.13671713 0.08064968 -0.19796796
-0.17218627 0.074817576 0.14570466
-0.230038 0.027690355 0.1547525
-0.07093981 0.03326058 0.03562697
-0.16291343 0.17869776 0.108332925
0.05827767 -0.07644458 0.07361855
0.23191497 -0.19119194 -0.14494452
-0.08917509 0.01173392 0.08571707
0.20455737 -0.15472817 -0.00035909796
0.033900958 0.17477298 -0.10302111
-0.16748604 0.1228766 0.1817957
-0.084251 0.15247427 -0.06331646
0.19692601 0.025803316 -0.35945994
0.2272127 -0.2390718 -0.10166632
0.006423685 -0.24300592 0.059552312
-0.056338903 0.012616849 0.10227266
-0.1652168 0.031267606 0.024537997
-0.2118887 0.11711487 0.06652263
-0.10390165 0.13096453 0.025442103
0.21126306 -0.16935946 -0.15481055
0.17697944 0.16520421 -0.24941993
-0.09692092 -0.14034562 0.13300657
0.03382315 0.06649908 -0.0956527
-0.09085088 -0.06330068 0.1260409
-0.33019385 0.06397017 0.15453622
0.06469003 -0.2437033 0.03869421
-0.2068508 0.08700913 0.17506471
0.21172296 0.06929906 -0.07040028
-0.13049667 0.058062293 0.08013823
0.117477104 -0.17200461 0.012011672
0.07099059 0.015006906 0.032661177
-0.04363889 0.090234004 -0.03057228
-0.25262463 0.16952537 0.12545192
-0.2733937 0.07894537 0.26227856
-0.13040514 0.1097046 0.061577152
-0.10720486 0.23823722 -0.20843881
0.120259665 -0.1410818 -0.017529255
0.17375447 -0.19342908 0.032846093
-0.08897581 0.013598844 0.11790888
0.04607522 -0.23727313 0.09684432
0.09148836 -0.19940595 0.068737485
-0.065771244 -0.06466343 0.11399009
0.25252488 -0.09540451 -0.1950285
-0.3513265 0.09105883 0.21544817
0.19059728 -0.059196338 0.041930553
0.2591002 -0.21524109 -0.050531425
0.06314401 -0.05107883 -0.0063688727
-0.14259732 0.2419714 0.068070464
0.117989376 -0.10213444 -0.07199688
-0.23725525 0.15393496 0.22974071
0.2193445 -0.21593353 -0.07981339
-0.08617702 -0.06373102 0.12448718
0.16980071 0.04037532 -0.30550948
-0.27703363 0.118590735 0.15662922
-0.04602693 -0.009368503 0.0410658
0.10399233 0.16365829 -0.2882759
0.09244561 0.072620794 0.07707712
-0.22035499 0.1818447 0.1809904
-0.08296977 -0.16170034 0.14588986
0.010989532 0.21737051 -0.16728248
0.04220506 -0.21633588 0.029924044
-0.0244032 0.028227462 -0.033136252
0.2730055 -0.10994615 -0.2147511
0.019295752 -0.2622311 0.06828537
0.27578422 -0.101291046 -0.24516006
-0.017159704 -0.022044525 0.023140848
-0.11815956 0.21020347 -0.21072675
-0.10231781 0.06398909 0.08771986
-0.13078858 0.25619787 -0.1869728
0.010858367 -0.17125426 0.042898886
0.2158885 0.00035266756 -0.21749936
-0.14611422 0.07375728 0.18924876
-0.17926972 0.2310745 0.048657313
0.008715855 -0.28719103 0.12108234
0.11510474 -0.0077529964 -0.02279409
-0.13677406 -0.08168408 0.11071219
-0.08877968 0.033493906 0.03353254
-0.13386315 -0.012952782 0.11307689
-0.24859896 0.13567394 0.20536347
0.18369395 -0.10920471 -0.16386274
-0.19528557 0.08098174 0.23649132
-0.27728927 0.07859355 0.18066435
-0.19946992 0.16285953 0.17581911
-0.10894139 0.05277016 0.06849071
0.24245083 -0.077186875 -0.2697901
-0.14998738 0.16149464 -0.0007351906
0.20404774 -0.0005866267 0.034742527
0.206783 -0.32125595 -0.116368234
-0.19244966 0.19713405 0.15553175
-0.18145753 -0.07767268 0.09920947
-0.04629086 0.24980609 -0.17981361
-0.18162037 0.11433721 0.13156109
-0.009768989 0.081184916 -0.07334181
0.09655139 0.22299604 -0.184061
-0.16157122 0.115074456 0.16437112
-0.14228642 -0.030571023 0.12780197
0.12633693 -0.16781336 0.060059574
-0.021108713 0.118860975 -0.03491224
0.029604772 -0.19888873 0.08648588
-0.018738009 -0.012781339 0.0667468
0.031043606 0.15998784 -0.07957894
-0.114128284 0.24148835 -0.11137981
-0.03140265 -0.12786892 0.11561699
-0.036425103 -0.09967295 0.043093257
-0.0014738111 0.16394216 -0.102120176
0.010642704 0.23160508 -0.10957013
-0.102342196 0.11784846 0.09397174
0.19759145 -0.278016 -0.013123492
0.17875864 -0.25292373 -0.025461795
-0.16353294 -0.09538984 0.105090916
0.16441335 -0.31575072 -0.0028832816
0.14205964 -0.103374355 -0.10406863
0.0035222436 0.20534642 -0.24228925
0.19163792 -0.14247961 -0.1334879
-0.19423778 0.008478359 0.07350436
0.18174915 -0.0053838445 -0.23024607
0.25990486 -0.23049039 -0.096373186
-0.24115622 0.056216832 0.025902294
0.14308736 -0.13138239 -0.051927216
-0.096382566 -0.010411614 0.035167404
-0.043053236 -0.1960517 0.09654621
-0.06308562 0.16728513 -0.10663664
-0.13220201 -0.09854172 0.14896415
-0.14315751 0.16964854 0.10873878
0.055687666 0.046244178 0.03712535
0.18198848 -0.095249996 -0.1256174
-0.039864473 0.1523816 -0.051094804
0.15189956 -0.23948357 -0.02276399
0.12507206 -0.044007927 0.006699723
0.17163092 0.032249246 -0.13462846
-0.08870965 -0.1307157 0.115472786
-0.27609563 0.06930197 0.20654453
0.07111257 -0.18138349 0.08892195
0.11396804 -0.12968987 -0.1381323
0.031448696 0.02401838 -0.019154038
-0.17854719 -0.03471822 0.07403656
0.10815977 -0.2410704 -0.008379343
0.2627352 -0.09000591 -0.10882427
-0.033889633 -0.053279478 0.10587164
0.0050203395 -0.08141756 0.07966046
-0.07785925 0.0048415447 -0.006958429
-0.012268782 -0.08040047 -0.038978565
-0.11424245 0.18915553 -0.16726089
-0.12603906 0.17693223 0.13243254
-0.085682094 0.20906676 -0.06238694
0.0018598099 0.070282236 0.009016153
0.05483988 -0.18820608 0.08276799
0.24276024 -0.3195669 -0.065000884
-0.23533264 0.10253932 0.025630211
-0.11059361 0.1133211 0.07615127
-0.18633485 0.10988068 0.016748758
0.14088503 -0.18039271 0.047623754
0.09430639 -0.1736336 0.022200726
0.058650363 0.104579836 -0.18134208
-0.019032268 -0.15010759 0.06610011
-0.06812558 -0.028101858 0.09389915
0.12999485 -0.0074122096 -0.17645194
0.21528193 0.044156857 -0.108053885
-0.02663686 -0.02215236 0.043040615
-0.012224267 -0.12810296 0.117928654
-0.00970994 -0.084771805 0.06958551
0.08613987 0.016869389 0.046333596
-0.22195742 0.14641738 0.20167229
-0.015547964 -0.045041762 -0.029517554
-0.11688999 -0.0064327274 0.1262456
0.00988456 -0.03904762 0.06905103
-0.2531454 0.02042594 0.101938955
-0.15004951 -0.012552572 0.13931835
-0.097628064 0.059852805 0.12506938
0.09960244 -0.07867192 -0.07654939
0.045838166 -0.123600364 0.093171954
-0.00070876605 -0.23693173 0.07209424
-0.26062402 0.22506323 0.20054463
-0.0037644035 -0.17047828 0.0736541
-0.29874745 0.14373402 0.18522777
0.066997476 0.050456498 0.07647888
0.13240549 -0.12834768 -0.013685506
0.18294005 -0.18088573 0.033889987
0.030258477 -0.17294078 0.054467935
0.24366951 -0.027972845 -0.020666532
-0.13917397 0.0033207776 0.1444749
0.25310162 -0.0014779759 -0.1698977
0.21395366 0.09952386 -0.27847606
0.23370686 -0.25236833 -0.044640753
-0.1576853 0.13162383 -0.14485233
-0.20563206 0.09770881 0.17462577
0.109862976 0.04588437 0.08133981
0.22958885 -0.07937003 -0.12804198
-0.025664276 -0.031989437 -0.024037577
-0.0053488263 0.19234635 -0.22188869
0.17934245 0.16471052 -0.09954366
0.05840269 -0.11051967 0.05980778
0.03635933 -0.27122778 0.094790876
0.067148305 0.15271746 -0.14835666
0.022313936 -0.17113279 0.080736205
-0.16285716 0.08963775 0.041439723
0.10716702 -0.1927306 0.08196416
-0.075145625 -0.054726433 0.04840442
-0.28827515 0.024191342 0.21124019
0.033646878 0.13580596 -0.031114584
-0.06087963 -0.11224985 0.13160984
-0.25781152 0.234294 0.1518785
0.11286383 0.036201634 0.034601554
-0.10999582 0.16070938 -0.03194533
0.05326659 -0.15827729 -0.046192486
0.09208763 0.20640935 -0.19558293
0.09779967 -0.16265607 -0.11206731
0.0457159 0.23088087 -0.16939479
-0.17578006 0.13882113 0.14768344
0.21753749 -0.21191862 -0.050161287
-0.017785296 0.089049555 -0.07749729
-0.016510375 0.070590995 -0.033554878
-0.04766417 -0.08313755 0.10362556
-0.079788364 0.20160395 -0.122803144
0.09085091 -0.10934552 -0.043892235
0.010447139 0.04345018 -0.035590004
-0.30917895 0.20100313 0.2225081
-0.18090133 0.07423209 0.12038832
0.15241325 0.029945884 -0.13164136
-0.13708626 0.13638814 0.15307738
-0.18733886 0.08089971 0.20555218
0.21956545 -0.28573447 0.021172605
-0.18427889 0.17905204 0.07278606
0.06342272 -0.19995768 0.039165534
-0.17688385 0.051811244 0.10765685
-0.017279292 -0.22141686 0.07958553
-0.11529625 -0.05455876 0.14411981
0.20182016 -0.27673957 -0.0463147
0.17118168 -0.053685352 -0.10953075
0.056350954 -0.04212933 0.017749613
0.00080136454 -0.22695427 0.11885829
-0.29809466 0.1882972 0.21312372
-0.324401 0.18039736 0.21624145
0.12315465 -0.066325285 -0.14996336
-0.011896047 -0.045738384 0.039744608
0.0550474 0.21539035 -0.15954322
0.19108434 -0.15716676 -0.12911615
-0.08734453 0.112613104 0.0076519544
0.1752522 0.069912374 -0.118997954
0.13809022 0.025864718 0.03288931
-0.0043442147 0.19917384 -0.085639946
0.14625572 0.17429182 -0.21105021
-0.081118226 0.05375446 -0.053276353
0.10183178 -0.03233699 -0.06722145
0.12462537 -0.05010893 0.040901937
-0.21451116 0.15355255 0.1422056
-0.19631323 0.17811543 0.189709
-0.16803104 0.037558313 0.20126534
0.22783267 -0.082103506 -0.17674987
0.22944522 -0.16313688 -0.118335485
-0.2467572 0.07749806 0.19659795
0.22580889 0.04518384 -0.27094343
-0.10417094 0.22879338 -0.08412495
0.1697139 -0.070569865 0.0424977
0.0007215596 0.021130215 0.0054783304
-0.35106513 0.09310042 0.15605177
0.10679384 0.11652442 -0.10006547
-0.096284665 0.15464413 0.05093899
0.24499339 -0.041243777 -0.31866297
0.11536134 0.1523192 -0.20992714
-0.07323557 0.18525292 -0.08477914
-0.31356004 0.1543993 0.23292165
-0.05972503 -0.03290278 0.092158526
-0.06663762 -0.034772344 0.07512467
-0.041096054 -0.20573236 0.08406002
-0.13496591 0.04481355 0.0061086654
0.14310028 -0.10385341 -0.058369834
0.10858513 0.17893913 -0.052382134
-0.20611097 0.12625915 0.18803592
-0.051989205 -0.15391538 0.09306709
-0.34203398 0.1618117 0.13777943
-0.12289366 0.09630011 -0.03782662
0.20150328 -0.2528546 -0.06889697
-0.15937974 -0.12746109 0.09636887
0.021203773 0.20137091 -0.15922743
0.12841226 -0.1650511 -0.021517867
0.17004941 -0.014312497 -0.17896135
-0.17240453 0.14825329 0.13987058
0.012016111 -0.10903235 0.123500116
-0.060558174 0.1849705 -0.095992
0.18688683 -0.12041541 -0.16978218
0.12652749 -0.09258914 -0.06675768
-0.15396821 -0.14448214 0.15502298
0.028813459 -0.115762405 0.098118305
0.05156032 0.03978443 -0.24841459
0.08311131 0.092258915 -0.03216211
-0.062716305 -0.15598647 0.08860379
-0.14010961 0.1888609 0.20285061
0.22799468 -0.066435166 -0.2618181
0.0799873 -0.23363245 0.10173971
0.23952915 -0.106112815 -0.12531166
-0.09914462 0.25750384 -0.16218923
-0.05519983 -0.14785989 0.114413545
0.06323837 0.19010288 -0.23772556
0.21280092 -0.038278554 -0.21555546
-0.01834114 0.22406693 -0.17600387
-0.10155861 0.22071844 -0.06792618
0.16252092 -0.12280865 0.04139629
-0.24955632 0.03009698 0.16465063
0.027222576 0.084189914 -0.17287949
-0.097444154 0.0015779426 0.09383624
-0.16539343 0.110291846 0.2181905
0.12055484 -0.24051374 -0.023031687
0.033039812 -0.26722932 0.076327085
0.052789137 -0.0034516887 -0.0021431032
-0.17312545 0.205108 -0.07344318
-0.0449128 -0.0985969 0.06473979
-0.040127266 0.012460794 -0.05113699
0.035531238 0.22196525 -0.16915989
-0.019172803 -0.2813729 0.09713067
-0.11428171 0.23937504 -0.09540709
0.04193266 0.04466333 -0.010241517
-0.18201293 0.06584662 0.13139865
-0.14653546 0.1854015 0.1049772
-0.13242601 0.25779524 -0.22033393
0.11559233 0.12194276 -0.18744226
0.20649879 0.06585846 -0.18240058
0.1367394 -0.17843127 -0.003203944
-0.046555866 -0.16083601 0.124140985
-0.13565104 -0.00941219 0.092360355
-0.013184956 0.07532224 -0.11785173
0.05084274 0.0969735 -0.1122608
0.122361876 -0.106942676 -0.18766835
-0.17861955 0.12965102 0.13116781
0.21043077 -0.28060922 -0.040674366
0.092717655 0.015225633 0.039822318
-0.13670467 -0.082171775 0.1329312
-0.019461712 -0.17619772 0.097067334
0.04604356 -0.062808245 -0.019756641
-0.04905557 0.015488041 0.043740764
-0.050774507 -0.043803364 0.09680862
-0.076516695 0.23207277 -0.020724319
0.11309858 -0.07651154 -0.08201634
0.16307703 -0.3343695 -0.08922082
0.24409114 0.014075141 -0.30247423
0.003806215 0.08787626 -0.038308803
0.06658649 -0.25743508 0.012831876
-0.019817103 0.22442478 -0.1723737
0.20269436 -0.027855733 -0.16435353
-0.2844612 0.07170863 0.17995034
-0.013014869 -0.08173787 0.03991656
0.08272358 -0.21938834 0.011082827
0.20246008 -0.0472203 -0.17557777
-0.09037897 0.17456539 -0.10912216
-0.12107974 0.06038183 0.007227252
0.2838783 -0.085083835 -0.30033484
0.10193677 -0.096061446 -0.009237012
-0.23460917 0.12928647 0.05921708
-0.2088339 0.014111269 0.05082385
0.058667954 -0.06658659 0.003261311
0.028109765 -0.18897952 0.008629122
0.09257095 -0.048943713 0.05170081
-0.034829345 0.19668193 -0.22216956
0.23742394 -0.1894281 -0.15089
0.19369717 -0.07375367 -0.09199192
-0.038050845 0.13744463 -0.09186715
-0.048123512 -0.089619964 0.07299248
-0.19794069 0.10675685 0.17364205
0.15422773 -0.057318445 -0.076212436
-0.08059245 0.003971977 0.047717497
-0.016189415 -0.015143541 -0.011030979
-0.0064356015 -0.12482925 0.027613843
-0.27573976 0.091756634 0.1359383
-0.18026449 0.06895811 0.19325055
-0.099469386 0.17633234 0.07872098
-0.24047093 0.23570947 0.14419648
-0.20718944 0.16114888 0.11373689
-0.11280753 0.24303848 -0.11688792
-0.02214712 -0.12541196 0.1387754
0.20166506 -0.09547888 -0.17919442
-0.00997774 0.031068841 0.029221619
-0.13170882 -0.004741186 0.0896382
-0.16152143 0.004171762 0.05537386
-0.02001361 -0.18050581 0.08856775
0.1487834 -0.14386727 -0.034452524
