# .PCD v0.7 - Point Cloud Data file format
VERSION 0.7
FIELDS x y z
SIZE 4 4 4
TYPE F F F
COUNT 1 1 1
WIDTH 1000
HEIGHT 1
VIEWPOINT 0 0 0 1 0 0 0
POINTS 1000
DATA ascii
0.14577578 0.21092919 0.23221745
0.004053429 -0.116261095 -0.11918624
-0.14140359 -0.21691856 -0.1300296
0.15810034 0.18485971 0.16986819
0.14781854 0.22437905 0.307628
-0.13546833 -0.1332263 -0.23745975
-0.0346859 0.0054069576 0.05320641
-0.020823423 0.19715624 0.15676491
-0.0022889331 0.0717087 0.27961683
-0.14058751 -0.23153624 -0.2090709
-0.028583607 -0.087779194 -0.06346528
0.015755955 0.23487724 0.17933886
0.027193844 0.27941704 0.20700659
-0.07066458 -0.22361413 -0.24172162
0.075403325 0.21859783 0.13012359
-0.073984586 0.19300136 0.17478348
0.18189329 0.052060507 0.27330142
0.020487128 0.2618049 0.10219382
-0.098217614 0.18099655 0.19837739
-0.054796446 0.04004262 0.0003524044
0.20200928 0.09691702 0.2567626
-0.00050553435 0.13386153 0.31687418
-0.03867557 -0.021942617 -0.042035516
-0.015534285 -0.23592383 -0.2326095
0.037910398 -0.015559009 -0.27910414
0.07045885 0.3021794 0.16483386
-0.13790254 -0.21936187 -0.1349175
0.1781814 0.20496601 0.23624933
-0.13210754 -0.2518465 -0.19071086
0.11241426 0.15873995 0.23250769
-0.09878435 -0.0458647 -0.27275637
-0.18848597 -0.19930601 -0.1938802
-0.17430253 -0.20923321 -0.15218292
0.004136154 0.042156782 -0.3359506
0.14938731 0.020442316 0.23585749
-0.023676928 0.18946782 0.322306
-0.0013088698 -0.2233428 -0.24441642
0.12710838 -0.13081218 -0.2936364
0.014932195 -0.07285968 -0.25611538
-0.07016388 -0.11122169 -0.27283752
0.056560732 0.13183904 0.3259057
-0.058100987 -0.08966385 -0.03390591
0.055238876 -0.17204419 -0.26577955
0.027456542 -0.28561264 -0.21166952
-0.03161911 -0.00064249506 -0.30466273
-0.10473494 -0.091983765 -0.22764723
-0.1436347 -0.19772844 -0.23197179
-0.023657283 -0.20507978 -0.20138791
-0.16746926 -0.0087322965 -0.22344804
0.13531357 0.1114031 0.29709733
0.0016938876 -0.027038416 -0.30036876
-0.20700175 -0.20683376 -0.21251307
-0.06657866 0.019161372 0.009387153
-0.13334964 -0.20701742 -0.25074542
-0.094319224 0.003130564 0.021775944
0.011978344 -0.02717274 -0.29597628
0.037282802 -0.27830154 -0.21762075
0.09703923 -0.17275463 -0.22781655
0.1981049 0.06915235 0.15262933
-0.07722556 0.023452958 0.031990148
-0.00093785184 0.28043646 0.15661813
-0.004339775 -0.28927073 -0.21901272
-0.15880324 -0.11922382 -0.26839787
-0.09287551 -0.28465962 -0.2236088
-0.013670394 -0.3020357 -0.20471442
-0.027992528 -0.076510325 -0.062318478
-0.01904392 0.025280707 -0.016200464
-0.018482767 -0.24671154 -0.1407688
0.08046087 0.19645259 0.27754825
-0.09527964 -0.08568489 -0.13766903
0.082241505 -0.056979943 -0.33489934
0.09258873 0.15597233 0.22721209
0.020920597 0.034728028 0.14825152
-0.084875815 -0.19095747 -0.23817581
0.04423545 0.020048654 0.2277442
0.03330635 0.17486669 0.2813759
-0.038048413 -0.040379617 -0.014676939
0.100181796 0.30291775 0.21067236
-0.14635119 -0.10942336 -0.24224448
-0.117379725 -0.22805241 -0.2224034
-0.15044129 -0.14725205 -0.19249442
-0.11152276 0.0760232 0.18663213
-0.1027011 0.088621646 0.24776359
0.031061636 0.17496462 0.23669451
0.03942226 -0.043044105 -0.3406707
-0.031307008 0.19552296 0.33135164
-0.075154796 -0.13370267 -0.18510714
-0.19263265 0.007364882 -0.32750225
0.064988084 -0.21121353 -0.21940069
0.07686571 -0.26669693 -0.21532568
0.093318775 0.28547063 0.26191828
-0.13759801 -0.22233012 -0.20493038
-0.06893353 0.1804412 0.2884976
0.15446562 0.010788677 0.17713188
0.07948664 -0.05572715 -0.08100293
-0.03275603 -0.22603686 -0.19962637
0.03329865 -0.2515387 -0.19594824
-0.033720125 0.062216416 0.13021517
-0.00797591 0.10793997 0.33283523
0.13015719 0.24009322 0.17955355
0.079355806 0.16920201 0.24933569
0.018868562 -0.061003257 -0.041563433
0.103597894 0.21578568 0.09757101
-0.08104927 -0.24615169 -0.22600994
-0.15681216 0.005784114 -0.31362692
-0.036270246 -0.07929343 -0.04354429
-0.03397884 -0.24154896 -0.12832505
0.1786521 0.12996416 0.2729689
-0.023329426 0.0283406 -0.3641518
0.10925163 -0.13641797 -0.2779371
0.019869035 0.07360725 0.24863724
0.09292816 0.2991285 0.16210431
-0.02416057 -0.30775502 -0.16428332
0.09134564 0.15204449 0.21862604
-0.09513737 0.13643794 0.21237993
-0.12796915 -0.06964079 -0.25024605
0.08250517 0.074732676 0.19656515
-0.08948448 -0.006847554 -0.24445012
0.11863391 -0.09856155 -0.25801712
0.14774363 0.022102904 0.29991716
0.10297733 -0.11479826 -0.30520272
-0.08319453 0.13036866 0.3652086
-0.04147478 -0.04564017 -0.12674601
0.015675465 0.063771136 0.30856338
0.13883951 0.22549383 0.1666752
0.09167182 0.25014412 0.15666783
-0.14370026 -0.062838025 -0.29724586
0.0700409 0.17942023 0.23696424
0.009697227 -0.2439534 -0.2231341
0.007431558 0.14457338 0.26133627
-0.06759521 0.24223974 0.27392963
-0.05373617 -0.24123994 -0.12303096
-0.07103253 0.02851279 -0.33073857
-0.0016540564 0.057906687 0.24113983
-0.04030634 -0.17871056 -0.22118239
0.089453265 -0.20176291 -0.27554998
-0.0014061426 0.07419623 0.21338052
0.06141741 0.09405352 0.29158467
-0.10589803 -0.11451376 -0.17226286
-0.007815834 -0.08113964 -0.12348112
0.041588325 -0.21445327 -0.17879865
-0.21844845 -0.053716883 -0.32983413
0.11498664 0.030081293 0.22972728
0.024965331 0.02884889 0.011315473
-0.020643055 -0.029558202 -0.013682681
-0.0066829147 -0.015580257 -0.38524613
0.12122656 0.13319467 0.28295645
0.034324612 -0.17705823 -0.28694823
-0.020519977 0.016665844 -0.04830403
0.08591199 0.098859474 0.1496379
-0.07548765 0.09572578 0.29576045
-0.01603918 0.02705931 0.018118683
0.05798852 0.049717885 0.16907288
0.12366912 0.15456297 0.2607486
-0.15536362 -0.041313596 -0.25910255
0.105393104 -0.17758033 -0.22542053
-0.098175906 -0.02609277 -0.27474996
0.05884176 -0.2708355 -0.22531463
0.09812546 0.15739696 0.3296648
0.02308096 -0.03647938 -0.2808014
0.025982687 0.21562797 0.24803908
-0.16146249 -0.14487566 -0.2503387
0.011824191 -0.13268395 -0.2031732
-0.043211494 0.13270786 0.35911566
-0.22766168 -0.2065312 -0.24448039
0.039486002 -0.15141983 -0.24448292
0.19260651 0.17380774 0.23885876
-0.06490505 -0.22709404 -0.3085914
0.15576783 0.08936909 0.28129578
0.13146397 -0.27237964 -0.22615634
0.038520705 0.058100957 0.35301775
0.09610773 0.3164712 0.22004785
-0.046831824 -0.18913049 -0.20654477
-0.007923753 0.07747381 0.2470312
0.03428504 0.002784198 0.0047083185
-0.06987746 0.0015713867 -0.34913263
0.048188552 -0.10533574 -0.26463336
0.04202557 0.03868325 0.07948642
0.052712787 0.12862445 0.205745
-0.028282061 -0.17210588 -0.22845961
0.10220764 0.06088166 0.32651588
-0.10197818 -0.23029025 -0.12640028
0.103130735 0.121015884 0.2677424
0.014124353 0.0968805 0.31607547
-0.04266171 -0.097962 -0.08409767
-0.10723568 -0.10562907 -0.26122728
-0.044172186 -0.023669526 -0.36848778
0.053841457 0.2720602 0.10340752
0.10253105 0.113984376 0.29969263
-0.0082681645 0.24717523 0.25123778
0.10530425 0.23995015 0.23403622
-0.02579121 0.14379582 0.26107407
-0.036429465 -0.0240993 0.022577416
0.0956542 -0.09509607 -0.33536148
-0.025174117 -0.23058844 -0.24409305
0.015892139 0.26454923 0.11643821
0.041221946 0.116988435 0.33029687
-0.032689575 0.19988546 0.26348546
-0.05954686 -0.045720577 -0.31167713
0.07678246 0.10623916 0.31311134
-0.18393148 -0.091313474 -0.22646202
0.06605975 -0.014449162 0.08809947
0.0261545 -0.2121383 -0.1433387
0.08553135 0.066181205 0.23237285
-0.04429229 -0.14099379 -0.06373712
-0.1804246 -0.09524026 -0.23544662
0.09312206 -0.18485315 -0.28920364
0.06192213 0.0328542 0.30410334
-0.00842431 -0.0859261 -0.26604238
0.11422306 0.11172464 0.24525146
0.05158393 0.18893278 0.2581314
-0.036563933 -0.20083243 -0.20614757
-0.094044246 -0.23182444 -0.26938885
-0.18242927 -0.095545724 -0.24607117
0.19092616 0.15768349 0.24364682
-0.050708443 0.21847814 0.22977951
-0.065839656 0.14049622 0.2847176
-0.012442556 -0.09292896 -0.18932208
0.10618217 0.15146708 0.2609578
-0.073918656 -0.051977523 -0.24815698
0.06278625 0.032703646 0.26347047
-0.07279601 0.021560477 -0.017935028
-0.16360465 -0.035424277 -0.30678153
-0.13692072 -0.22340487 -0.22327621
-0.02017801 -0.035173837 -0.07201231
0.03193527 -0.015690105 0.027673783
0.1357442 -0.06231957 -0.28332934
0.1808647 0.2042162 0.23619774
-0.07812767 0.081349745 0.25302055
0.10480846 0.011221304 0.23498498
-0.13684398 0.0013218888 -0.32627574
-0.20379965 -0.15683691 -0.22434562
0.015084512 0.24248874 0.2803432
0.055506982 0.07811754 0.046492007
-0.010369604 -0.0031364674 0.06997978
0.047929533 0.11089704 0.2772793
0.031089842 0.16470343 0.2593901
0.18677141 0.15623954 0.28688478
0.13891555 0.0454993 0.26320773
0.10136556 0.23981225 0.17979872
0.011843075 -0.051641643 -0.13571346
0.0065206913 -0.17467012 -0.1666136
0.15251648 0.1556465 0.23855992
0.09039828 0.0378887 0.28401703
0.06495473 0.18431406 0.26639485
0.06714512 -0.017440798 0.25534365
0.109826274 -0.00934104 0.2917125
-0.118136354 -0.19046046 -0.20509501
-0.17120054 -0.16303565 -0.19556095
0.037867993 -0.205325 -0.2218077
0.13335738 0.25386265 0.27565604
-0.03350132 0.27094606 0.27631438
0.147166 0.027278291 0.22999653
0.14464547 0.19387895 0.26652712
-0.05951684 0.13687389 0.27372307
0.0924204 0.21775763 0.2667261
-0.1132819 0.18556942 0.13550858
-0.0059079165 -0.07254189 -0.12812918
0.09572991 -0.31529555 -0.15439841
-0.077746645 -0.06204362 -0.19896027
-0.086087525 0.25242004 0.24752103
0.039071567 0.22377086 0.23583414
-0.024835574 0.17496735 0.21282378
0.011182038 0.11327783 0.29454058
0.08472637 -0.24520233 -0.23903833
0.05709143 -0.26091832 -0.21972279
-0.023900317 0.14172241 0.3154841
0.06605521 -0.03394678 -0.3547751
-0.0848189 0.042711478 -0.26064074
-0.17179318 -0.13409416 -0.20263948
0.20301709 0.18261969 0.2745055
0.13388163 0.14466922 0.28403986
-0.009470132 0.25042844 0.17379215
0.06143213 0.0045908685 0.09250276
0.01061403 0.22300316 0.13836777
-0.07600937 0.045881808 0.23091781
-0.11578009 0.020198036 -0.25796
0.1057036 -0.08419944 -0.30284742
-0.09308644 -0.22256811 -0.2181293
0.21926117 0.07777368 0.17017913
-0.037535626 -0.1658631 -0.19991598
-0.06843011 -0.23374115 -0.17635693
-0.052876912 0.04857739 -0.37315008
-0.009570109 -0.1731648 -0.25669652
-0.071447305 -0.17837293 -0.21983108
-0.076035045 0.088260286 0.2211833
-0.015000885 0.13149118 0.23453659
-0.09827014 0.17689323 0.30494785
0.02872385 -0.12122381 -0.048936162
-0.03864893 -0.30249462 -0.27236375
-0.12757823 0.10586102 0.17003293
-0.014990739 0.18181399 0.30090314
0.04141102 -0.14891532 -0.13610901
0.041785657 -0.075078085 -0.2879639
-0.06715985 -0.12829088 -0.20992905
-0.16057076 -0.13425826 -0.25734127
0.033392254 -0.010426881 -0.34490874
-0.12032937 -0.1477188 -0.19412354
-0.06856794 0.017978197 -0.00996321
-0.06780651 -0.20880234 -0.22926332
-0.064581096 0.06292316 0.29737467
-0.17162022 -0.1631018 -0.1731386
-0.0005505814 0.054016702 0.057631843
0.08662464 0.23404822 0.22813827
-0.021987477 0.014775905 0.039106995
-0.13614294 -0.0035093839 -0.18965699
0.029883463 0.09516382 0.29708263
-0.09481087 0.0988483 0.24531007
-0.051031824 -0.035169877 -0.063441806
0.12826021 0.17161158 0.27054027
-0.07534789 0.13934802 0.21962072
0.09604901 0.18252562 0.2959236
-0.14843723 -0.12641017 -0.2687376
-0.16907795 -0.042546134 -0.29389563
0.093987666 0.17087951 0.28328812
0.054584093 -0.04906518 0.25905928
0.1140454 0.05252987 0.21337163
-0.090432696 0.13336092 0.23581934
0.08296926 -0.1849652 -0.28348163
-0.12933637 -0.20752032 -0.22872747
-0.024461402 0.12473815 0.31105655
0.07761803 0.20261015 0.28859606
-0.06842176 -0.22290187 -0.19828783
0.074475735 0.079361826 0.26012146
0.10262185 -0.098441966 -0.3122724
0.033735104 -0.0127248345 0.121940196
0.03179611 0.26883152 0.22925691
-0.019473862 -0.1753931 -0.28784698
-0.027766502 -0.2423702 -0.21406434
0.10157742 0.18903553 0.2702836
0.17591639 0.1558462 0.13644555
-0.05638643 -0.16410443 -0.25245184
-0.011548247 -0.15005316 -0.2335659
-0.20106438 -0.05151629 -0.22147852
0.1489837 0.09522945 0.30474114
-0.09849348 -0.22463657 -0.12773015
0.11804506 0.031548932 0.3056672
-0.00020887144 0.08600524 0.312435
-0.06536816 0.13141586 0.19617246
0.008409317 0.071398415 0.2742014
-0.070490114 0.23512577 0.21507642
0.09535041 0.3363449 0.17861642
0.061175674 -0.2222663 -0.17209786
-0.056026284 -0.22441395 -0.32781976
-0.0064586727 0.12553062 0.31633076
0.08158257 0.19442701 0.18309365
0.11412646 0.06987935 0.2865926
-0.10293768 0.08914433 0.21034516
0.021521779 0.025554538 0.14473756
-0.059118092 0.2193361 0.24923483
0.010511289 0.026260955 0.20623468
0.15167528 0.12460724 0.24878608
-0.13637382 0.20516881 0.22675669
-0.06655233 0.015328237 0.1123667
0.027314348 0.031795587 0.28091228
0.0003005017 0.12013643 0.27925307
0.18517439 0.22069101 0.22516876
0.15172924 0.10127686 0.23051387
-0.104853 -0.09269768 -0.21703196
-0.16125591 -0.20224997 -0.17758329
-0.01681936 0.07296856 0.033257604
0.15084954 0.081429265 0.294917
-0.17892094 0.030386528 -0.27702954
0.07491314 0.03860736 0.25624174
-0.035134796 -0.20954189 -0.26106122
0.22694068 0.18493424 0.26246276
0.17099875 0.19189307 0.24372774
0.023131464 0.03248397 0.27389607
0.11601171 0.17749518 0.3144638
0.091163345 0.048851576 0.29680443
0.038982283 -0.011652624 -0.37880448
0.12450881 0.17382006 0.12477562
-0.057063766 -0.09836026 -0.15705061
0.019645335 0.1511434 0.23977579
0.096878216 -0.24532694 -0.19942908
-0.12512992 0.017016958 -0.24352953
-0.06366802 -0.2835813 -0.17774145
-0.058690283 -0.04794445 -0.11069795
0.10452536 0.13643605 0.27382025
0.15147957 0.105833344 0.26231083
-0.01667049 0.13458148 0.26726145
-0.023890775 0.160839 0.25809932
-0.04461578 -0.05236357 -0.11410565
-0.045359075 0.22019252 0.27681586
-0.055795055 0.23562485 0.3129228
0.028116126 -0.024203511 -0.30059597
-0.086760856 0.08005817 -0.3030849
-0.07630382 -0.12447765 -0.1881295
0.056326807 -0.03674017 -0.30214453
-0.10320156 0.009311684 -0.2677111
-0.1887789 -0.021058394 -0.37281948
9.8000346e-05 -0.0992658 -0.052634016
-0.06636173 -0.20885298 -0.24087976
0.0075246524 0.15088187 0.27167544
-0.049217254 -0.29700246 -0.18026349
-0.009914561 -0.11003627 -0.1669077
0.09393125 0.033106446 0.27298063
-0.034705658 0.06402956 0.11758086
0.05799169 0.07427138 0.16638954
0.03491889 -0.24001335 -0.18708147
-0.036145817 0.110999286 0.25302812
-0.06343052 0.13678026 0.2820739
0.09212233 -0.029229714 0.22873184
-0.006769455 -0.15068413 -0.20626418
0.120209835 -0.051006824 -0.33777165
0.0017218513 -0.19979018 -0.18868527
0.06011137 -0.16218832 -0.24222809
-0.06437336 -0.20344149 -0.16710714
-0.09385173 -0.24375173 -0.20058729
0.06163116 0.065422185 0.33006305
0.120400004 -0.08012946 -0.34606335
-0.13822266 -0.16852725 -0.17645168
0.041009776 0.2554799 0.18791357
-0.16236176 -0.25940433 -0.13615546
-0.02076544 0.18700776 0.22191733
0.04050447 0.14920941 0.31502602
-0.14052758 -0.23280674 -0.2185852
-0.15876886 -0.04651716 -0.33939216
-0.03697912 0.11301646 0.29766876
0.019459829 0.09900459 0.3461806
-0.059755806 -0.13493635 -0.23194493
-0.10801282 -0.27158624 -0.19948821
-0.060304727 -0.19554813 -0.2326206
-0.17311636 -0.18426898 -0.17591728
-0.062383965 0.24571064 0.24373217
0.049041353 0.2351879 0.2550033
0.05691086 0.02176611 -0.37664378
0.13947748 -0.074488886 -0.25211564
-0.06725135 0.018983254 0.024151744
-0.10882776 -0.14272255 -0.1990131
0.16198395 0.09798231 0.23888704
-0.03133423 0.18728548 0.26775092
0.15576956 0.13388866 0.2406789
0.08574712 0.057834312 0.29687843
-0.10241117 0.0059731617 -0.057773452
0.034074396 -0.1366093 -0.3195597
-0.032739844 -0.16730213 -0.11845529
0.084950134 -0.19015633 -0.2813951
-0.09007469 -0.07923765 -0.27099165
-0.015432203 0.017427657 -0.3412258
-0.020989805 0.11718924 0.032364827
0.18438397 0.23247926 0.18066809
-0.029954132 -0.11109463 -0.059507146
0.03602597 0.02564871 -0.35021874
0.045949884 0.24172091 0.26718023
0.041575372 0.050502848 0.17399536
-0.008827665 0.10277091 0.32883286
0.031263128 0.017475603 0.1112177
0.10185986 -0.2706654 -0.18300948
0.095944226 0.23863816 0.21648552
-0.20481968 -0.08056465 -0.23893896
0.0875832 0.047141347 0.28577906
-0.06425986 0.110380255 0.24023023
-0.040361162 0.0697453 0.15024763
-0.029140634 0.15424453 0.27453697
0.06529333 -0.2566454 -0.18774845
-0.0060434733 0.019810636 0.24859296
0.06924323 0.121915005 0.29004917
0.17448021 0.24321927 0.24348788
-0.088352166 -0.13613978 -0.19741876
0.2028778 0.24293405 0.26833022
-0.17586717 -0.12488511 -0.22411394
-0.030873822 0.22500232 0.27125326
0.08724738 -0.2286067 -0.2257649
-0.12141159 -0.008027557 -0.25070092
-0.2076307 -0.04383112 -0.2723567
0.12169264 0.18689594 0.2607309
0.12630016 0.049428254 0.25679496
0.15378399 0.16174562 0.2499866
-0.023709457 0.028127734 0.10321714
0.023414996 -0.2125496 -0.21055305
-0.09561719 -0.028644029 -0.16814488
-0.009936926 -0.007403198 -0.3191991
0.049242854 0.0898378 0.28532347
0.057518348 -0.20491403 -0.22766344
0.03967816 -0.18418758 -0.20804772
-0.0064900825 0.12567507 0.32681507
0.04049874 0.08552491 0.3395964
0.026274042 -0.24695961 -0.23312256
-0.06086505 0.10022685 0.37709567
-0.094882466 0.08878257 0.16093847
-0.04853561 -0.06293215 -0.066025496
-0.02219512 0.048744045 0.24940783
-0.07696591 0.16386046 0.33090624
0.08248009 -0.0019166478 -0.34627816
-0.0068288096 0.06205444 0.03239182
0.0012354938 0.085247874 0.2716419
0.13857618 -0.064668685 -0.31808195
-0.18542883 -0.18526937 -0.1770916
-0.08498947 -0.08091214 -0.15548778
0.007301153 0.2293501 0.23952407
-0.0057275305 0.06282398 0.08654408
-0.047535077 -0.13455318 -0.10697492
-0.004269561 -0.26859626 -0.19746386
0.017501166 0.20328288 0.26351857
0.017818192 0.09536342 0.33963153
-0.058035895 -0.07226048 -0.1495167
0.01993575 -0.03200617 -0.25330997
0.00013818423 0.13577895 0.022295618
-0.062324177 -0.15313727 -0.2030401
0.07884667 0.046856947 0.26927444
0.0166933 -0.09302431 -0.27165133
0.047790144 -0.27260536 -0.14919244
-0.092858344 -0.09459214 -0.13127576
0.057532288 -0.032562874 -0.3029746
0.18013567 -0.13050748 -0.27843642
0.04370444 0.284463 0.24398923
0.05063697 0.2554679 0.18310206
0.18673004 0.19177875 0.20804138
0.08615119 0.025797602 0.11033952
0.19189903 0.022996707 0.21252084
-0.09867098 -0.0032088938 -0.07181558
0.017292757 -0.022372184 0.050447073
-0.0010093375 -0.07176119 -0.1690923
-0.00516282 0.058399156 0.09179032
-0.014669209 0.017593404 0.069519565
0.0124629205 -0.010473368 0.11477891
0.12245617 -0.15197192 -0.19582096
0.02073933 -0.1983104 -0.20787099
-0.015464943 -0.06278737 -0.014809796
0.04082408 0.14302605 0.35595354
0.04657247 0.25961116 0.28840908
0.13784595 0.12516873 0.266142
0.04012838 -0.23214242 -0.28109112
0.083474696 0.0014030113 0.25977615
-0.03908213 0.24066466 0.09378812
0.032572355 0.18760617 0.23829299
-0.0667086 0.022518247 -0.2921849
-0.023000048 0.104944296 0.33000243
0.003257417 0.036788747 -0.30159009
0.04364876 0.24161394 0.1973991
0.14165363 0.1593708 0.25907156
0.07865377 0.15155481 0.28328767
-0.15867141 -0.19674936 -0.16151649
-0.08907175 -0.1163602 -0.20001748
-0.037369143 -0.27827904 -0.18687956
0.041359033 0.23874779 0.27290934
0.10601102 0.1639615 0.33461642
0.13623095 -0.11748475 -0.26274168
-0.200032 0.025293805 -0.25799447
0.03790947 -0.05927 0.033259302
0.05785765 -0.088983744 -0.34440437
0.11586272 0.1922384 0.2681409
-0.14500575 -0.07115584 -0.26829067
0.004873355 -0.042215686 -0.03449453
0.08200077 -0.013856025 -0.35034195
0.09883845 -0.15993693 -0.29293364
-0.00035215245 0.02835789 0.30510688
0.010882693 -0.031243151 -0.021386605
0.12171647 -0.0053645074 0.26512384
-0.12862065 -0.19419439 -0.19939363
0.06956298 0.18152875 0.20801142
0.07987945 -0.026854923 -0.39072022
0.1252797 -0.059032284 -0.31113952
0.012996696 -0.2227512 -0.20310049
-0.058924742 0.23954064 0.14375973
0.0076161018 -0.21942317 -0.14693002
0.11102349 -0.21219699 -0.22296017
0.05269601 -0.04413494 0.28116167
-0.095350035 -0.13400763 -0.21503508
-0.09358959 0.06541621 -0.29428837
-0.013303403 -3.9329276e-05 -0.36648795
0.016585557 0.2950019 0.22142053
-0.0005932339 0.13940372 0.26533607
0.023533989 0.18985815 0.20591769
0.0032590656 0.21209893 0.23197643
0.10289087 0.20597774 0.32786682
0.038131714 -0.102543004 -0.13002688
0.11470988 0.047093403 0.20351498
0.17181672 0.14412758 0.17029291
0.16734315 -0.15998675 -0.23312409
-0.2167772 -0.1584664 -0.18647692
-0.011013245 -0.22023514 -0.20227665
0.17585312 0.17328098 0.16442011
0.087582685 0.0015038416 0.20773745
0.12410333 0.10252786 0.3172972
0.020077407 0.21273549 0.22542039
-0.08262458 -0.0036163998 -0.08411178
0.042267274 0.05506211 0.28827876
-0.048223846 -0.14494957 -0.18136655
-0.04637592 -0.24069184 -0.2135444
0.0297885 -0.07114652 -0.28872478
0.03615723 -0.058079652 0.016558725
-0.09972452 -0.07498168 -0.06917512
-0.19504386 -0.13750613 -0.2419744
-0.021000294 -0.05477522 -0.3043446
-0.008523723 0.02408166 0.29931852
0.10838877 -0.19681796 -0.27418098
0.054350987 0.28014714 0.13078693
-0.084931 -0.17226127 -0.20018126
-0.25760522 -0.14217544 -0.27506864
-0.13317615 -0.13746047 -0.16988978
-0.061379895 -0.261759 -0.17154415
-0.013663611 0.17294371 0.2508844
-0.034381587 -0.13352944 -0.23517625
-0.078322224 -0.18393388 -0.1893627
-0.0231944 0.14120771 0.19187742
0.037821267 -0.035466243 0.062309988
0.06803279 0.25936934 0.14065865
0.16003153 0.20976174 0.23834471
-0.1943098 -0.046167284 -0.2562172
-0.04781653 -0.1006122 -0.13395274
0.059762858 -0.21915409 -0.27722275
0.06636766 -0.1457291 -0.2921678
0.012891588 -0.23839833 -0.16507967
-0.012036559 0.027345583 0.089161396
-0.04538904 0.14923196 0.2302605
-0.031532142 -0.06432347 -0.324203
0.08584169 -0.15209936 -0.29813462
0.08716371 0.030368933 -0.32424572
0.041235197 0.05599329 0.30211294
-0.0650053 -0.11660545 -0.20661221
-0.018401213 -0.26217932 -0.1698189
0.10796273 0.08612401 0.23127005
-0.17178977 -0.12722139 -0.2096387
0.005693284 0.02160107 0.2452143
-0.18336183 -0.19110437 -0.21374637
-0.14865491 -0.23806995 -0.20394541
-0.05666936 -0.08412858 -0.084200695
0.051498715 -0.030711183 0.121285915
-0.11637057 -0.18723017 -0.1513589
0.04232004 0.10663719 0.2659854
0.094145596 -0.0037046191 0.22944209
-0.010468867 -0.19526176 -0.2303034
-0.063083425 -0.057319496 -0.33027482
-0.032999124 0.23099208 0.23078549
-0.062432427 0.2522712 0.224417
0.021454204 -0.23813038 -0.15405747
-0.03282657 -0.006054612 -0.36222363
0.06582433 0.2767911 0.21164976
0.08965553 0.056668375 0.27584296
0.0431656 0.10186383 0.32325676
-0.043970946 -0.052334428 -0.3319345
0.062408898 0.0018539402 0.0953258
-0.13685481 -0.24697913 -0.19665554
0.110984564 0.24496424 0.2632342
-0.04368017 -0.014792084 0.02066425
0.050981555 0.19656701 0.24846269
-0.015649365 0.24766038 0.2794048
0.06549664 0.087982684 0.17619546
-0.0795549 0.16217385 0.26994196
-0.035809897 0.18103051 0.3102131
0.11406826 0.18526734 0.13134801
0.16938624 0.12109315 0.29593602
0.06382452 0.029396703 0.05859112
0.023041831 -0.23019037 -0.26231134
-0.00023371441 0.07641857 0.33365044
0.23304565 0.05359013 0.21392584
-0.11308356 -0.016850954 -0.062803224
-0.0656623 -0.11870737 -0.16970834
0.13050504 0.09025098 0.3379058
0.0027803823 -0.002118083 0.1055657
0.07596038 -0.27573416 -0.18029262
-0.005652103 -0.03877754 0.010311463
0.06451407 -0.100481674 -0.2992154
0.103607796 0.213213 0.24424039
-0.114091374 0.12128537 0.23953325
-0.25109702 -0.10448335 -0.20850039
0.12137183 0.21765304 0.15453039
-0.07913199 -0.20011963 -0.2383002
-0.022959912 -0.2424591 -0.1604897
0.0364684 0.22967342 0.22064735
-0.097256616 -0.061222546 -0.13939816
0.019830955 0.06533091 0.37457082
0.16304769 -0.17077392 -0.2590315
0.03716517 -0.18446475 -0.23079199
-0.12877703 0.037036154 -0.32251763
0.10195215 0.06630499 0.27235514
0.054702286 -0.12232372 -0.24696974
0.07236036 0.010812197 0.11562986
-0.03694896 -0.23583707 -0.22065705
-0.047753077 0.065318376 0.17452614
0.074959986 -0.06929765 -0.33739465
0.0005635303 -0.034870755 0.056459226
-0.037617933 0.10323617 0.10155542
0.055936113 0.1887069 0.3271874
-0.05164174 0.27712235 0.18126844
-0.18069887 -0.096023016 -0.27411056
-0.044951793 0.038586628 0.20831609
-0.013704661 -0.11206907 -0.15148929
-0.21429674 -0.045317758 -0.30106288
0.015812565 0.21602008 0.16744006
-0.032975033 0.19625205 0.3205914
-0.026624314 -0.12217915 -0.2202356
-0.01977976 -0.23961543 -0.15002976
-0.0228064 0.05030509 0.20201601
-0.1258784 -0.051007114 -0.27942225
0.11721414 0.115381554 0.30293584
0.14683355 -0.19001342 -0.2281785
0.15482801 0.18884307 0.29321805
0.120865375 0.029362207 0.23288369
0.16205566 0.19069567 0.22601236
0.07071234 0.1184982 0.31169394
0.02679755 -0.22867006 -0.19676583
0.13906825 0.09593913 0.30072713
-0.014748437 0.028457716 0.14778917
0.02118698 0.13227138 0.2862124
-0.036526687 0.11148243 0.31270275
-0.021713518 -0.24295194 -0.1876513
0.09526362 -0.13628124 -0.26446593
0.016340198 -0.048489884 -0.2826037
-0.054466415 0.092017986 0.35148016
-0.09529699 -0.07398007 -0.2830072
0.021091325 0.060654555 0.31185138
0.016098797 -0.060956534 -0.0032996295
-0.061173342 -0.29078528 -0.27551216
-0.06537418 -0.24211653 -0.19448943
-0.012998999 -0.051374525 -0.27194774
-0.07073896 -0.049463235 -0.011756562
0.0062607084 0.008900099 -0.023341527
0.01621631 0.17519969 0.3127787
-0.07215583 -0.16940165 -0.1739571
-0.1266468 -0.07444881 -0.26642022
-0.14358008 -0.1629953 -0.18918078
0.0116836615 0.016174188 0.30725458
0.15443744 0.21950845 0.1909043
-0.072060116 -0.31417695 -0.1481544
0.043510806 0.11824208 0.2793115
0.0063353316 -0.0942464 -0.060517326
-0.10012755 -0.04662277 -0.3486444
0.12472318 0.15598442 0.2409627
-0.10418174 -0.13077062 -0.28423446
0.10623445 0.009146562 -0.2933458
0.13755368 0.13088211 0.34752864
-0.07832382 0.21155842 0.29431733
0.052297167 -0.13490956 -0.24857956
-0.03127048 -0.2270141 -0.1724885
-0.1387011 -0.20779316 -0.1662301
0.13291447 0.11175373 0.23648395
-0.07687017 -0.018697439 0.25443617
0.12110617 0.28369808 0.27655283
-0.091360345 -0.031864107 -0.3595641
0.038126245 0.07578839 0.24510328
-0.16108662 -0.21701722 -0.22178546
-0.12514545 -0.04036547 -0.26067042
-0.012828413 0.042561274 0.03065404
-0.11437242 -0.091203846 -0.1251887
0.07207259 -0.107584044 -0.33282778
-0.07466533 -0.12969628 -0.13146831
0.04844125 0.043904368 -0.33214852
-0.21058975 -0.13610302 -0.23575546
0.092235185 0.23560855 0.28909814
-0.07778976 -0.10587818 -0.21770844
-0.17698035 -0.25166428 -0.20855221
-0.08664629 0.027420804 0.10434991
0.12807447 0.009853008 0.2471502
0.006298713 0.15677692 0.29762074
-0.10247111 -0.2320761 -0.17197657
-0.11272637 -0.0066380305 -0.06039727
-0.036947746 0.19451669 0.3229448
-0.051724557 0.05608592 0.27811214
0.069702 -0.10822105 -0.30787665
-0.010607194 0.20683965 0.25582808
0.006013778 -0.02901104 -0.01102394
0.02677542 0.0364906 0.15691419
-0.0007980848 -0.082083665 -0.05888424
0.012898439 -0.030762652 -0.31199142
-0.1486575 -0.21514511 -0.16773675
0.06351472 -0.00903219 0.28665134
0.084498174 0.27823377 0.0896431
0.03327167 -0.2587734 -0.15686405
0.09899976 -0.04105567 -0.16282168
-0.033351097 -0.13269189 -0.2655614
-0.096265286 -0.10000595 -0.16124612
-0.08091363 -0.17268218 -0.2114666
-0.08379826 0.17556621 0.3199055
0.06087275 -0.039579604 0.13532256
0.13772093 0.23394582 0.24549311
0.037124887 0.2430193 0.2415913
0.12005182 0.16712011 0.0864122
-0.029344296 0.19640473 0.32314563
0.07624558 -0.051712908 -0.3198404
-0.0020702358 -0.06872201 -0.31440654
0.010136973 0.070475675 0.3502289
-0.12223412 -0.19440903 -0.17769861
0.10959976 0.12121008 0.3100186
0.10950907 -0.07804783 -0.33803755
-0.08476478 0.1424308 0.2194016
-0.050397564 0.06585061 0.22181553
-0.029649863 0.17139487 0.2284231
-0.080306225 0.017480077 -0.03518054
0.14471443 0.20943579 0.20658354
-0.14027879 -0.06475906 -0.25700733
-0.08269768 0.059414197 -0.09876875
-0.04363078 0.2127996 0.21934073
0.050705872 0.043212906 0.31871706
0.038742177 0.21255529 0.28604388
-0.014285944 0.08507546 -0.023055157
0.018758899 0.25310996 0.18394078
-0.034621544 0.003379822 -0.10468346
0.11463876 0.23558152 0.1954613
-0.019993346 -0.12073395 -0.15366203
0.060228486 -0.030651566 -0.3709027
0.045086984 -0.10355105 -0.24216717
0.071857356 0.0061502657 -0.35754713
-0.16188295 -0.28605837 -0.14996642
0.01672372 -0.14064087 -0.113679454
0.021861799 -0.19738638 -0.22446111
-0.01610858 -0.089525685 -0.15691859
-0.13132614 -0.19581395 -0.19638623
-0.06449358 -0.13748771 -0.22841807
0.1219412 0.22299421 0.23563518
0.1613309 0.19576807 0.2808964
-0.017702509 0.23186968 0.18769935
-0.20572753 -0.09996877 -0.3006903
-0.07504376 0.201919 0.34342143
0.020557307 -0.02720334 -0.0057566147
-0.019138152 0.24012105 0.23306628
-0.205229 -0.17131747 -0.25650775
0.061072804 0.12547718 0.3273683
-0.018706985 0.2621867 0.21756922
-0.0031817853 0.20123643 0.2268244
0.055973053 0.2760223 0.16814981
0.035827924 0.015714599 0.06970073
0.134966 -0.14424849 -0.21728823
-0.13082442 -0.25043157 -0.20768596
-0.065600395 0.0034095617 -0.2610065
-0.08689487 0.22757895 0.26526335
0.21676074 0.1534769 0.19359115
-0.019239508 -0.26932752 -0.18527052
-0.0003600126 0.20516801 0.2798283
0.035147194 -0.0026530658 0.12849532
0.0048690992 0.08675085 0.2349822
0.08163288 -0.06579822 -0.13572563
-0.08439724 0.1727647 0.21057533
-0.18738763 -0.039355647 -0.27564496
0.019662932 -0.16947092 -0.2558016
0.02531255 -0.22954144 -0.2464845
0.09690207 0.096364245 0.21591575
0.024898151 -0.18091863 -0.19386798
-0.012632851 -0.2543388 -0.24213797
-0.023844738 -0.2755003 -0.3116028
-0.029767377 -0.16523409 -0.12421729
0.017812487 0.19548143 0.236055
0.16500732 -0.15459505 -0.31850424
-0.045120347 -0.011141784 -0.077366285
-0.1310104 0.031725414 -0.30421135
-0.039870117 -0.21906517 -0.21433982
-0.10000006 -0.16573237 -0.24028932
0.042042375 0.17895292 0.27366677
0.17781468 0.12278148 0.27849144
0.11358566 0.012761266 -0.33826315
-0.10705961 -0.0065292735 -0.3238336
-0.056409143 -0.3039226 -0.14291207
0.10365944 -0.19203185 -0.2353452
-0.13669987 -0.14518622 -0.15104277
-0.11387299 -0.053060714 -0.2846852
0.022597825 -0.016826969 -0.31311256
0.15083174 0.0700695 0.30194372
-0.00035038032 -0.18944862 -0.19219695
0.030207185 0.19788012 0.24917886
0.084026545 0.16501059 0.3301451
0.13914351 -0.13966379 -0.23826654
-0.20351975 -0.1373605 -0.27998313
-0.1438468 -0.24471956 -0.1685838
0.12592 0.10294054 0.25296116
-0.047738485 -0.30495214 -0.21517992
0.12153805 -0.18162894 -0.27092206
-0.0553143 -0.057461955 -0.09333021
0.10657847 0.20561272 0.25659472
-0.12183461 -0.08867442 -0.3205489
-0.0022806055 -0.07632989 -0.14332606
0.077573426 -0.07596329 -0.31889698
-0.050161738 0.044420872 -0.36925817
-0.18385725 -0.09152924 -0.21462703
0.0335792 -0.0052770297 0.23063181
0.024537453 0.32221046 0.17785926
0.16145222 0.07670821 0.22800407
-0.0043546585 -0.16219893 -0.1888866
-0.21060388 -0.087918416 -0.23358443
-0.114068195 -0.17831188 -0.21299651
0.016654525 -0.038969066 -0.36749235
-0.05117832 -0.0006019598 -0.30758426
0.1374599 0.030431442 0.3054667
-0.009691534 0.14917248 0.30760294
0.060850993 0.18438348 0.30863443
0.022181563 -0.099848166 -0.26276374
-0.011771474 -0.12115279 -0.24697217
0.04679969 -0.031809837 -0.009384356
0.21132417 0.08339643 0.1998067
0.05445748 0.023914764 0.0063571967
0.19654536 0.15574884 0.3019914
-0.20680307 -0.14488928 -0.16186179
-0.05878583 0.015955469 -0.13220929
-0.00975544 0.094265684 0.27711812
-0.12956321 -0.18445364 -0.31282702
0.067003936 -0.100958005 -0.2796533
0.0026423808 0.1198372 0.2517085
-0.06624606 0.07160468 0.00068249047
-0.03296958 0.12986475 0.36316854
-0.07253571 -0.014887527 -0.29302135
0.12557997 0.2595497 0.24893916
-0.08310326 -0.18156506 -0.21919978
0.034999963 0.13274658 0.2560493
0.056276124 0.20621245 0.251119
0.044486478 0.27591154 0.21132737
-0.037400022 -0.057063118 0.019860568
-0.0005954512 0.024326298 0.29461727
0.12418181 -0.14023101 -0.26544857
0.055144478 0.03117818 -0.33050537
-0.056706034 -0.17253393 -0.17802458
0.0065389164 0.09478994 0.31630254
-0.072693646 0.124613605 0.26921582
0.08574708 -0.2909649 -0.17211281
-0.010298182 -0.07800032 -0.33325428
0.022136468 0.040878706 0.118392944
0.08402494 0.07630163 0.22284357
-0.07697528 0.04354419 0.23436421
0.033413418 0.13155219 0.31276265
-0.17593023 0.018285904 -0.2540791
-0.103104755 -0.2645741 -0.13760152
-0.12268755 -0.23774874 -0.14567941
0.038811427 -0.0686104 0.0051708473
0.056038048 -0.27935988 -0.20655805
-0.043044683 0.14401278 0.31723508
0.028924288 -0.029236374 -0.29983616
-0.018719865 0.058116797 0.24829921
-0.037860923 0.1755968 0.27308047
-0.068309896 0.10161868 0.3201995
0.07257789 -0.18857236 -0.21289432
-0.22373135 -0.016706973 -0.27598768
0.084573366 0.19693223 0.2402012
0.06697122 0.14462847 0.26818708
-0.008659341 -0.110718936 -0.116128
-0.10128255 -0.11768659 -0.27254987
0.078566305 0.114157535 0.28442118
0.080375835 0.18527752 0.25475803
-0.08307104 -0.20948926 -0.23528895
0.032021444 0.29784465 0.2634741
-0.031056626 0.048320055 0.34879997
0.072877415 -0.11662661 -0.2977585
-0.20556466 -0.1884567 -0.20767206
0.034220263 0.030725418 -0.3046306
0.14094792 0.17958775 0.24714918
0.0091474885 -0.18271613 -0.21236108
0.030438008 0.16651085 0.23988146
0.050038002 0.25396255 0.22881365
-0.07220889 -0.15257244 -0.21088266
-0.06733691 0.104865216 0.27988392
0.010402974 -0.1256239 -0.2056866
-0.00165828 0.21797998 0.18024114
0.09892465 0.04455117 0.25077647
0.09250816 -0.14829051 -0.2970978
0.043951474 -0.057341572 -0.061215274
0.0042263204 0.124040924 0.33738756
0.12240812 0.043550797 0.24717508
0.039363965 -0.08090589 -0.2717981
0.12812819 0.22259161 0.2581405
0.079527594 -0.027775386 -0.35874256
-0.135591 -0.15152033 -0.20642269
-0.17405848 -0.23123175 -0.15443826
0.08290226 -0.18159924 -0.24811381
0.051085457 0.06105996 0.24103494
-0.03910869 0.09060284 0.26391837
0.07499431 -0.10710841 -0.2830231
-0.009451331 0.29459712 0.10374463
-0.10242024 -0.026285248 -0.34731093
0.082445174 0.22631954 0.26204827
-0.018830203 -0.315232 -0.14571817
-0.16044724 -0.007592683 -0.30013937
-0.01989095 0.2833941 0.12725581
-0.005986153 -0.24745557 -0.14232987
-0.0032399765 0.10153198 0.27584687
-0.18393391 -0.22040741 -0.1607886
0.017848423 -0.21351643 -0.20454054
-0.15759656 0.03249059 -0.3218664
-0.15469587 -0.11734633 -0.26223454
0.051833455 0.26412916 0.12720849
-0.13923617 -0.23142958 -0.19512253
0.14934161 0.18001166 0.19649701
-0.112547144 -0.10298797 -0.2249684
-0.08144746 -0.016561855 -0.1058295
-0.06523184 0.007994682 -0.10814158
-0.055324595 -0.031051494 -0.028686726
0.012383047 -0.029701702 -0.121383354
0.108609 0.10208981 0.2127798
0.07015079 -0.11717485 -0.3157372
-0.0064105773 0.210772 0.3240139
0.004556477 0.29478168 0.1792801
0.05028285 0.19223014 0.23735671
0.026502063 -0.18787162 -0.22957239
0.019129677 0.10117065 0.26132044
0.10294984 -0.16058673 -0.2811326
-0.08024513 0.020362463 -0.35665083
-0.033679564 -0.017912382 -0.042397004
0.065455824 -0.15107019 -0.304534
0.1289262 0.14728251 0.2634817
0.060304992 0.06823926 0.35124588
-0.11100033 -0.16319905 -0.19931331
0.07305278 -0.10519609 -0.28088665
-0.061712302 -0.28681564 -0.13439168
0.15497816 0.21816564 0.18497264
-0.079085596 0.0074440474 0.12110358
0.033669826 0.060765095 0.14555916
0.1360243 -0.035447344 0.28069845
0.13427053 -0.09958706 -0.25509706
0.1602868 0.08595402 0.34750143
-0.025080267 -0.13194866 -0.20549318
0.05432731 0.06230938 0.3408348
-0.057619076 -0.20767346 -0.2543484
