# .PCD v0.7 - Point Cloud Data file format
VERSION 0.7
FIELDS x y z
SIZE 4 4 4
TYPE F F F
COUNT 1 1 1
WIDTH 1000
HEIGHT 1
VIEWPOINT 0 0 0 1 0 0 0
POINTS 1000
DATA ascii
-0.08824502 0.014631866 -0.30707848
0.1617819 -0.03171021 0.23634768
0.039618224 -0.11193136 0.41570663
0.082053676 -0.077512115 0.34047472
-0.05270587 -0.17982712 -0.34536925
-0.14518724 -0.013871507 0.3544068
0.047459353 0.103650354 0.37736672
-0.0821017 0.0034653787 0.3761955
-0.15052843 -0.11545246 0.34165636
0.030367099 -0.13550124 0.3564752
0.1918909 0.03383072 -0.39968184
0.0017030189 -0.10843227 0.39166635
-0.119807735 -0.13332184 0.1884606
0.12362481 -0.10444588 -0.3721325
-0.075904116 0.11877268 -0.30344772
0.11500055 0.18909295 -0.34501007
-0.13373311 -0.013689668 -0.40565556
-0.088823095 0.12866475 0.29162833
-0.028021567 -0.18154094 0.30466506
0.18508819 0.09049297 0.30834505
0.19076408 -0.02173635 -0.34206253
-0.02727879 0.06904531 -0.15064427
0.11974161 0.06444465 0.32736835
0.14012575 -0.20977585 -0.3882912
-0.13764265 0.010372168 0.35222405
-0.016174944 -0.11986045 0.34125882
0.12717044 0.12318071 -0.38199717
0.14178634 -0.0875341 -0.37440205
-0.07663491 -0.0052141827 -0.3535662
0.17226106 0.0330004 -0.38490018
-0.19660588 -0.0099361455 -0.367359
0.0051508034 -0.010246317 0.34654835
0.113068715 0.15547238 -0.3027793
-0.068830736 0.17695466 -0.3694261
-0.026590586 0.04660639 0.36335465
0.00045762648 0.09553524 -0.2695373
-0.1937902 0.06778629 -0.3492486
-0.060405158 0.052230164 -0.35892463
0.023441486 0.10856332 -0.16328341
-0.0054459693 -0.17449377 0.4146228
-0.040864065 0.04443228 0.33321494
-0.013694427 -0.19353056 -0.36032388
-0.27291173 0.042824052 -0.3747526
-0.049223177 -0.07894483 0.3319156
0.10854749 -0.050054424 0.2283179
-0.12626243 -0.12152257 -0.3251993
0.16463901 0.053876493 0.3503109
-0.020137755 -0.16045989 -0.33606282
-0.016262554 0.13445449 0.30163127
0.11291726 -0.1264991 0.39392057
-0.09010505 -0.031709142 0.3550106
0.13702165 0.070675 -0.3333838
-0.080825284 0.044277463 0.33253643
-0.06209776 -0.16314636 -0.35089716
-0.08661061 0.003152897 0.05881404
-0.04758458 -0.048451867 0.38561085
-0.04640146 0.19135132 0.24055646
-0.027187673 -0.09388447 0.3437776
0.03187687 -0.05481866 -0.31861296
0.059035644 -0.15528885 -0.3696846
0.13089179 0.10582668 -0.31675506
0.13793689 -0.09897092 0.34969947
0.16132163 -0.07771827 0.37762296
0.098322704 -0.098599516 0.3775655
-0.03737614 -0.09090037 0.38901424
0.21993911 -0.14086092 -0.39471862
0.035539392 -0.09994532 -0.07829604
0.02817498 -0.11430276 -0.22003882
0.08846216 -0.05499069 0.03948968
-0.108041316 0.0813888 -0.03603009
0.015526473 0.07800752 0.31378597
0.05504124 -0.056270663 -0.40373296
-0.14676237 0.06934543 -0.39596397
-0.06430175 -0.07114622 -0.40054682
0.02904552 -0.030246286 -0.17924058
-0.09723731 -0.11694541 0.38578045
0.015779553 -0.0010656706 0.3588317
-0.0022289495 -0.22835535 -0.39037433
-0.102697186 0.036098197 -0.05099439
0.12193195 0.042603817 0.38152525
0.085124254 0.086473085 0.25406036
-0.05738717 0.08353305 -0.06379082
-0.12713347 0.10328282 -0.39971614
0.1070718 0.22459841 -0.3050942
0.12950009 0.15477125 -0.37882486
0.009266798 0.0033157857 0.4025492
0.042570386 0.07172806 -0.29037344
-0.12465037 -0.061862264 0.27910742
-0.22252792 0.07137165 -0.34131843
-0.17912613 0.016924528 -0.37276953
-0.08366384 0.07113704 0.05837676
-0.08234759 0.07911587 0.35556293
-0.1774188 0.009976972 -0.35527268
-0.01842516 0.07237986 0.32398444
-0.20737848 0.026017567 0.30553237
-0.0048488295 -0.14399497 0.34982342
0.02797072 -0.1331922 0.3840473
-0.022138672 -0.14598277 -0.3382005
-0.16099268 -0.070073664 0.33629754
0.10806861 -0.14937164 0.3450124
-0.12318731 -0.14013414 0.28001928
0.11682425 0.020733133 0.35562778
0.14076297 0.030179279 -0.31507075
0.07289184 -0.016177978 -0.2575477
-0.20156144 0.07039636 -0.39109936
-0.073418885 0.116606034 0.4132556
0.18216667 -0.061773077 0.35977885
0.011010934 0.091965236 0.06073131
-0.11759665 0.056037508 0.3177449
-0.075857565 -0.043329086 0.3250958
0.015703153 -0.10984388 -0.34002757
0.161307 0.08957177 0.34804296
-0.08287539 -0.23391151 -0.32506126
0.15316482 0.038527165 -0.34569308
0.17007619 0.044890042 -0.32342836
-0.18374333 0.036430426 0.3291476
-0.013974711 0.15117936 -0.31746623
-0.09451662 -0.07545981 -0.07984568
0.05571599 0.05948401 0.42543492
0.062173184 0.20480599 -0.39567527
0.030124653 -0.059889644 -0.3189579
0.09944088 -0.1448003 -0.32789722
0.08514849 -0.23097207 -0.34435573
-0.19450746 -0.108943485 0.25586748
-0.11730544 -0.073125735 -0.3666451
0.12375451 0.0023659142 0.39809275
-0.027864937 -0.11987643 0.35541862
-0.18901454 -0.046488583 -0.41623622
-0.19357854 -0.003412017 0.31980836
-0.0054875296 0.039837312 0.34106642
-0.010347492 0.040811863 -0.17801647
-0.11180548 -0.0385229 0.005027145
0.023517925 -0.08255214 -0.37775275
0.08838839 0.14582358 0.26781777
-0.14917569 0.14475268 0.2026908
-0.116916455 0.120225936 0.19932318
0.039244115 0.18795346 0.29070005
0.1767252 0.09184977 -0.32257956
0.006426081 -0.23199095 0.23627628
0.0068101157 -0.119058296 0.016176928
0.016484983 -0.21376881 -0.38836962
-0.11252011 -0.08305794 -0.32066151
0.26636717 0.045608193 -0.3666293
-0.024929175 -0.13757734 0.36644787
0.050792262 -0.019840058 0.4077403
-0.11040664 -0.053061843 -0.3584378
0.034185123 0.060643204 0.34818846
0.014198357 -0.06679215 -0.32612815
-0.104805514 0.0337084 0.3716229
0.0036690352 -0.110897936 0.33491337
0.15516843 0.01872825 -0.35356525
0.25170276 -0.072337344 -0.30499005
0.18786211 -0.004028566 -0.39551702
-0.07663815 -0.15328366 -0.3376126
-0.17793173 0.011465297 -0.38571113
0.0061521153 0.032484576 0.36988455
-0.13763244 -0.0149394255 -0.33483058
0.15815784 0.117126375 -0.37043834
-0.10420024 -0.15740153 -0.3868013
0.03647058 0.10052977 0.39327648
0.09033599 0.13141596 0.24576291
-0.12238444 -0.06612773 -0.18932159
-0.12091131 0.16543064 -0.3645918
0.21633552 0.13705453 -0.32249296
0.036485516 0.13150924 0.27034488
0.16032632 0.1148154 -0.3578299
0.06944418 0.019262942 -0.33283368
0.074316986 -0.20151673 0.250081
-0.022938227 -0.03768362 0.33571118
-0.10178378 -0.093365066 -0.053668905
0.14712062 -0.16352277 -0.38080025
0.09992401 -0.21167552 -0.37846002
0.08936786 -0.0992135 0.3683387
-0.07191114 -0.017912058 0.41883084
-0.035004295 -0.10558701 0.40840068
0.030460667 0.10830324 -0.21567684
0.029425984 0.06640559 -0.35376278
-0.05171607 -0.060971268 0.30122462
-0.09271471 -0.0435871 -0.40689322
-0.17917019 0.027822215 0.3116757
-0.1383255 0.034392547 0.36055037
-0.11376425 -0.077407695 0.2839906
0.0031084723 -0.11907696 -0.40247673
-0.109277435 0.13165681 0.32016432
-0.03525671 0.087915555 0.38618246
-0.075129576 -0.11390762 0.33568335
-0.03066847 -0.09473104 0.37081915
0.047713723 0.08190642 -0.016111342
-0.052510276 -0.09319582 0.412577
-0.11780862 0.08806791 0.33141032
-0.0822461 -0.016542284 0.050191816
0.020694258 0.0017378964 0.41272554
-0.04602624 0.010145425 -0.12555273
0.037640065 -0.018686973 0.35978785
-0.10538275 -0.061642595 0.40585515
0.061975818 -0.08361064 0.40259668
0.13142122 0.21160482 -0.34260452
0.14721513 -0.18310994 -0.33426493
0.085271336 -0.18914598 -0.3122823
0.0007439869 -0.021781769 0.33999407
0.10474106 -0.07031815 0.32475102
-0.08890812 0.12675096 -0.3356752
0.09192851 0.0013240278 0.38179824
-0.11631261 -0.12890466 -0.32261622
-0.10400213 -0.023119474 0.41781986
0.22317685 0.04382122 -0.30754232
-0.1547703 -0.078806564 -0.37474823
-0.098342806 -0.083679914 0.29938346
-0.14460585 -0.0835842 -0.4003712
-0.12756556 -0.10634722 -0.36814994
0.16791375 0.033476215 0.34957048
-0.039017923 0.0015197409 0.4001341
-0.11581806 -0.16005829 -0.3455777
-0.10322294 -0.18877508 -0.36834392
0.16621633 -0.023847992 0.2553578
-0.15629022 0.090762146 0.32802764
-0.010840802 -0.13725393 -0.38928562
0.028522735 0.17413276 0.34339824
-0.014541082 -0.117929846 0.34801522
-0.07701631 -0.02323594 0.3237559
-0.13812417 0.12951124 0.26290494
-0.0036362736 0.13704076 0.34842533
0.102288745 0.009090777 0.36246386
0.10363572 0.10853 -0.3757577
-0.16350606 0.068576254 -0.35453397
0.13689283 0.08806523 -0.3425611
0.116001405 -0.008844539 0.24078298
-0.05046719 0.05207681 0.3402328
-0.10434563 -0.117579855 -0.36807215
-0.15375434 -0.03484934 -0.3167721
0.05518252 0.17794633 -0.3884808
-0.053649954 0.14642169 0.30635747
-0.12326366 0.16128774 -0.3666039
0.13871267 -0.027996639 -0.35415232
-0.037294403 -0.1035533 0.3904128
0.13867824 -0.04349147 -0.32321563
-0.022099322 0.04246657 0.03895152
0.08582169 -0.24463499 -0.38777992
0.15087561 -0.03880871 0.3523747
0.012810067 0.12924317 0.391738
0.046551842 0.074704714 0.36339125
-0.19535281 0.14396338 -0.3689078
-0.110301696 0.111536816 -0.3900191
-0.084891595 0.05536799 -0.08315792
0.15493411 0.048104774 0.189507
0.13097693 -0.056296296 -0.30446833
-0.032768663 0.109173626 0.20390248
-0.17253672 0.034975573 0.27387685
0.16435504 -0.039386 0.21369249
-0.16572525 0.1605782 -0.39739552
0.032872222 0.035228945 0.37470436
0.14159907 -0.041154254 -0.3081009
-0.09458778 -0.060867596 -0.3293233
0.090557426 -0.1079856 0.3677346
-0.07881176 0.03451803 -0.25259334
0.17029727 -0.0043661934 -0.3680451
0.15118241 -0.049693182 -0.32215548
-0.013152831 0.09909786 0.265644
-0.027365426 -0.14945646 0.37598857
-0.016832773 0.0049652215 0.36936423
-0.08751831 0.019359848 0.34827667
-0.12490714 -0.015802843 -0.2009184
-0.106691204 -0.1656276 -0.33067706
-0.025043417 0.17754462 0.26477697
0.025282687 0.0029764364 0.33053616
0.064224206 0.21167159 -0.35676154
-0.11030924 -0.16218477 -0.33262753
-0.04230189 -0.09440089 0.33617193
0.06622383 -0.10457477 0.32949814
-0.13722065 -0.116251856 0.26148033
-0.15666555 0.03847409 -0.34543866
-0.018884214 0.0042670206 0.3981766
0.028184647 -0.050654665 0.39632234
0.11063111 0.13607553 -0.37265378
-0.089909606 0.0039660954 0.344517
-0.14573734 0.09426732 -0.31777808
0.1459635 -0.07095905 0.32780072
0.14465752 -0.07430663 0.4017088
-0.11024804 0.017812582 0.32453522
0.12706916 -0.10787284 0.27795094
0.022135895 -0.023776373 0.33812758
-0.07826402 0.031089056 0.3699688
-0.17838298 0.1879739 -0.3359563
-0.013146889 0.056099482 0.3260985
-0.038744554 0.15004097 0.39223328
-0.14030272 0.053323083 -0.39851984
0.025971733 0.08647119 0.33417645
-0.08892504 -0.16399427 -0.3767971
-0.07479131 -0.18457796 -0.35361937
0.114810385 -0.014896112 -0.34770852
0.012766711 -0.05682117 -0.34323612
-0.016391726 0.05751008 0.3745418
-0.13757907 0.04671029 0.24097638
0.028600829 0.015294283 -0.31269005
-0.111124866 0.11902582 -0.3130602
0.0075562443 -0.18083332 0.40743798
-0.08162678 -0.0662969 0.3882679
0.086764105 -0.044916105 0.410125
-0.14247693 0.02548241 -0.31901288
0.08177696 0.11115989 0.23055246
-0.051996406 0.16417098 -0.3104303
-0.15551439 0.01130009 0.33651626
-0.19536309 0.15347609 -0.3524748
-0.04545537 0.020379443 0.35713518
0.030845571 0.17362744 0.23304969
0.04794768 -0.12167296 -0.36751202
0.11829811 0.061107952 0.43018782
0.14718969 -0.15425552 -0.36379147
0.08317364 0.19949494 -0.36382294
0.018415716 -0.0041468623 0.3444157
0.15699582 0.13432822 -0.3583243
0.20903085 0.11992067 -0.30982995
-0.087365255 -0.02585079 0.36969638
0.0992343 -0.16588259 -0.35237965
0.16857804 -0.2012148 -0.34341648
-0.11140915 -0.10542937 0.3788591
0.13646781 -0.030099962 -0.33549085
0.09753763 0.10922536 -0.30544606
-0.009599758 0.07909686 0.29035982
-0.1820727 -0.0128928535 0.39243966
0.2021427 0.1096609 -0.35938665
0.078093 0.10488946 0.3878019
-0.10529469 0.023971954 0.3327207
-0.005324742 -0.05986237 0.38045534
0.089994155 -0.024598444 -0.044363864
0.23798655 -0.018848315 -0.3863637
0.13606593 0.032328997 -0.36643988
0.088534355 0.1347364 0.3715969
0.035296917 0.082335755 0.3589606
-0.020351624 0.14966463 0.35002026
0.007340894 0.15445365 -0.3452882
-0.014679451 -0.09859279 -0.19402161
-0.0058706193 -0.102902524 -0.23444846
0.15147188 -0.12332519 0.20694564
0.035364803 0.106022686 -0.21151191
0.12050486 0.032620743 -0.3417308
-0.06621864 0.009103999 0.3279452
-0.044047184 -0.02829554 0.3462862
0.07015858 0.014607411 0.3655511
0.192332 -0.09212711 0.25152543
-0.17941238 0.019968798 -0.3438542
0.0680045 0.19778481 -0.37111455
-0.2141399 -0.16157967 -0.40527982
-0.09428304 0.18852805 -0.35646144
-0.052140392 -0.046516158 0.40727547
-0.13116671 -0.037577562 0.31232703
-0.1744635 -0.07532873 0.26050493
0.078109056 -0.14770932 0.33479744
-0.034490753 0.03710998 -0.37370676
0.1608946 -0.12543854 0.3994768
0.057516266 0.094612256 -0.21362758
-0.14001065 -0.106950775 0.32552707
0.007957111 -0.09088181 -0.28202888
0.062669985 -0.011692106 -0.35696334
-0.107868515 -0.15704885 -0.3519559
0.11914791 0.12870677 -0.3617473
0.08611532 0.036230937 -0.24902868
0.054390118 -0.14311403 -0.32041362
-0.09355838 0.0547366 0.35999864
-0.18044262 0.00024090895 -0.3493714
0.1472471 0.07326058 -0.359644
-0.08717222 -0.0551082 0.37856257
0.10665828 -0.12736686 0.27907783
0.13203181 0.20338456 -0.32486704
-0.13615058 -0.02958199 0.28723094
0.02484573 -0.1485953 0.31043008
0.03671113 0.030460324 -0.38499954
-0.10377011 -0.10220894 0.37780988
-0.06681317 -0.10245784 0.37537578
0.04233602 0.03212322 0.34925878
0.016222145 -0.007314755 0.016058914
-0.020302184 -0.0903239 -0.269128
0.14303052 -0.13127461 0.21406442
0.119607374 0.22388455 -0.32632935
0.08378975 0.09929915 0.29342523
-0.18920237 0.030048858 0.34510344
0.10686605 0.12111136 -0.30925155
-0.034838937 -0.108985096 -0.06928584
-0.06721911 0.18953905 -0.34430233
-0.044327624 -0.16554853 -0.3650896
0.0070175966 0.13630502 -0.38757882
-0.101624854 -0.19827044 -0.35266364
-0.13982002 0.10584338 -0.35342392
-0.07855074 -0.056355823 -0.3169684
-0.20731005 -0.006494564 -0.32859898
-0.15886998 0.07157933 -0.33351672
-0.15238824 -0.12876196 -0.31522015
0.016893432 0.24236877 -0.3614454
0.03073924 -0.06607444 -0.19544967
0.070133924 -0.12092004 0.23259579
-0.07727392 -0.10621985 0.33934924
-0.17575642 0.092586 -0.37335417
0.043030627 -0.12060449 -0.32101154
-0.08598468 0.05671143 -0.20852585
0.04478239 -0.09860154 -0.123461075
-0.0646983 0.06631597 -0.32267767
-0.030647852 0.12207742 0.3073937
-0.04961596 -0.03949917 0.40433353
0.15912329 0.057751194 -0.36746067
0.1830066 0.05082475 -0.34003952
-0.11675771 -0.025479412 0.34535423
0.16976526 -0.124649175 -0.3493258
0.16534927 0.061957605 -0.31704286
-0.042381786 0.2595599 -0.3344188
0.006449836 -0.03747504 0.40578282
-0.05479439 -0.22278775 -0.33537322
0.07123609 -0.032026913 0.3751314
0.008394753 0.0350945 0.34736976
0.016461229 0.16879268 0.260667
-0.08897887 -0.01654423 -0.34213328
-0.10793663 0.07943891 0.41579458
-0.12171368 -0.14915353 -0.31450573
-0.13444658 0.071227156 -0.37666562
-0.065498434 -0.0026960406 0.34004045
0.2372281 0.08026301 -0.33896574
0.05479843 0.022140704 0.37297451
-0.09478257 0.057561837 -0.35194322
0.15248513 0.10614619 -0.3476798
-0.14121911 -0.049223542 0.21244529
-0.07411963 -0.10925717 -0.38683158
0.07955771 -0.09564267 -0.3814847
0.035639074 -0.1612027 -0.37300614
0.1459861 0.11176092 0.40745303
0.044490814 -0.026595155 -0.27384263
0.10725776 -0.15739413 -0.31679228
0.105826035 -0.025879122 -0.19608916
-0.152504 -0.0722792 0.2494902
0.019039016 0.064002305 0.058447037
-0.020960083 0.06369766 0.3589942
0.05163064 -0.003968339 -0.24738508
-0.1393218 0.13795003 -0.39001432
-0.11698853 0.022114046 0.41093686
0.12797298 -0.09915163 0.37032342
-0.1482724 0.0009117812 -0.31211185
-0.101881176 -0.027021462 -0.20479275
0.022720004 -0.16733131 0.38921508
-0.047736496 0.19333093 -0.3858833
0.2053787 0.11557392 -0.3247619
-0.12688732 0.0937324 -0.3841603
0.037809387 0.051448535 -0.1547885
0.07378892 0.14879721 -0.36966857
0.08821706 0.06553289 -0.35394627
0.018389015 -0.030587256 0.345398
0.100966826 0.013597304 0.33456582
-0.00030971918 -0.05624762 -0.023396041
0.15426973 0.039630122 -0.36043912
0.0171044 0.15823048 0.3864459
0.050655875 0.05187788 0.39151138
-0.036656868 -0.0785579 0.34760436
-0.030921193 0.002249159 -0.1934547
0.091222286 0.102477856 0.28522444
-0.22754203 -0.031309087 -0.34855634
0.09662831 -0.01600571 0.4183683
-0.09628491 0.10866746 0.36166504
0.089761876 0.04845195 -0.37895313
0.067588575 0.19881706 -0.3806531
-0.14269783 0.07279856 -0.31390062
-0.14424793 -0.12062433 -0.36465973
0.08486586 0.013249003 -0.11518429
-0.04434648 0.115726694 -0.37792265
0.17224221 0.014616379 -0.36739773
-0.03181605 0.010517031 0.35888997
0.20272104 -0.12822382 -0.37789762
0.13796706 -0.065588646 0.39612842
0.20478182 -0.042083643 -0.30426905
-0.12762515 0.06856952 0.3441463
0.041742943 -0.22527087 -0.3827044
-0.044941697 -0.14897834 0.3567369
0.13406053 0.019126728 0.3792367
-0.031313602 0.1816449 0.23133849
-0.10449201 0.031711403 0.3634235
-0.011799271 -0.18279256 -0.38974658
0.060827628 0.034811605 -0.22340003
-0.04747003 0.12399941 -0.30220488
0.1333146 0.033386987 0.3615071
0.15455952 0.09220363 -0.37796757
0.061138157 -0.02790475 -0.35270694
0.12783046 -0.07780494 0.3818852
0.2297535 0.04295336 -0.3654598
-0.08336053 0.16252409 0.29402357
-0.18494968 0.055230793 -0.31207973
0.0022988142 0.11986813 -0.18495148
-0.049137913 -0.075828485 0.3062717
-0.0013936475 -0.046060458 -0.37035492
0.050444707 -0.14545733 -0.388628
0.08648821 -0.08733844 -0.34887594
0.04680344 -0.11140138 0.33211592
-0.06211216 -0.010126807 0.3511019
0.056297284 -0.08852812 0.2815636
-0.15073034 0.085879736 -0.32439372
0.058199923 -0.08604517 0.38551477
0.21558456 0.06300937 -0.30236942
0.032635983 -0.11164664 -0.3372888
0.023213802 -0.1284796 -0.40228057
-0.15507993 -0.05120944 0.29291597
-0.040356077 -0.026078777 -0.10309458
0.1167001 0.054236844 0.3328218
-0.03434688 0.0432944 0.37662554
0.06252333 -0.18503192 -0.31132764
-0.17895827 -0.001585974 0.2810329
0.20322095 -0.13948105 -0.3378739
-0.17298815 0.050971247 -0.38526294
-0.07469397 -0.12188032 -0.35785395
0.1442342 0.13420625 -0.35959187
0.11035316 0.17642733 -0.3685887
-0.12848718 -0.027092416 -0.34975532
0.19566016 -0.11288072 -0.38511992
-0.06989119 0.071939625 -0.35332847
0.123310305 0.109946355 -0.3215237
0.1592627 -0.14098635 0.36899492
-0.077293634 -0.12930055 -0.35690442
0.015341791 0.13340363 0.41473374
0.19986507 0.113682136 -0.34293914
0.07188116 0.03614714 0.33912203
-0.0220259 -0.085622795 0.2783064
0.06404662 -0.1580098 -0.357632
0.12254371 -0.08721219 -0.31038046
-0.21825671 0.1354259 -0.37387848
-0.0924119 -0.16528933 -0.33387676
-0.14923456 -0.026610719 0.35716924
-0.008928594 -0.14766093 -0.342872
0.0010309862 -0.036855556 0.35791308
-0.098800994 0.12635893 0.40125766
-0.028949652 0.01695147 0.3358234
-0.13963105 -0.12429052 -0.31188884
-0.07201142 0.13345632 0.36475524
0.16307113 -0.1356947 -0.3492728
0.021359075 -0.19146524 -0.31273153
0.034765642 0.0579776 -0.17754732
0.117007904 -0.0747134 -0.3175815
0.047710896 0.0104709 -0.19835006
0.103782564 0.016445335 -0.19954254
-0.17542318 0.009633418 0.33953586
-0.12091624 0.06285194 0.2887958
0.07508129 -0.039742596 -0.18249768
-0.05582992 -0.122164026 0.30408454
0.0777237 0.09730189 0.31706342
-0.050460063 -0.014210308 -0.3797429
-0.13024823 -0.14475407 0.25997806
-0.050719757 0.16520908 -0.30897468
0.05519385 0.16252327 -0.33438545
-0.12001063 0.06611668 -0.30145139
0.11666849 -0.005710494 0.40055162
-0.09267076 0.059757866 -0.35562623
-0.19488662 0.022544848 0.35137695
0.051498882 -0.061960373 0.35712034
0.11637422 0.1660302 -0.3633085
-0.08789013 -0.06024125 -0.12894191
0.11551337 0.14123625 -0.33623427
-0.11187523 -0.11064418 0.32757965
0.051341347 -0.012897166 -0.06663318
0.05473752 0.021961924 -0.38268372
-0.015059718 -0.21210434 -0.37281483
-0.20715265 0.093710415 -0.37019408
0.035855822 -0.06259479 -0.35274526
-0.022952182 -0.05091423 0.3580588
-0.11728841 0.11923361 0.2499472
0.088003926 -0.026133986 0.010570152
0.13601081 -0.024084985 0.27180937
0.26544017 0.033855923 -0.39776513
0.09889513 -0.02175111 -0.08390838
0.07225187 0.12727143 -0.3827471
-0.18736412 -0.09327367 -0.33809048
-0.11758621 -0.03065649 0.36461264
-0.16249695 -0.077243514 0.34884545
-0.051903885 0.10603086 0.3474797
-0.13982342 -0.2115376 -0.41375712
0.017018056 0.056326266 0.341996
0.032329183 -0.17045765 -0.34712243
0.01133742 0.053536277 0.37123063
-0.12524219 -0.10280231 0.39608184
-0.020926656 0.00010168637 0.42365357
0.13113499 0.21841808 -0.30933532
-0.14598346 0.1509021 0.28080797
0.018516568 -0.023716565 0.3724715
0.032906037 0.10623952 -0.38893014
0.09342562 0.054632463 0.3321286
-0.12251324 -0.08042216 -0.34789085
0.095019415 0.0006310435 -0.31831554
0.122252315 0.0903451 -0.35674453
-0.15929832 0.09372018 -0.4028484
0.08012658 0.10454651 0.33121532
-0.060479335 -0.07794711 -0.3944539
-0.087624446 0.10446739 0.3563341
-0.051987804 0.008905775 -0.29157925
-0.07277103 0.092009746 0.0027473394
0.027932873 -0.16665663 0.31443506
-0.036340196 0.01434446 -0.29284748
-0.21932831 0.07428137 -0.3655379
-0.13065816 -0.16692986 0.29942882
0.02771909 0.0065183723 0.36880004
-0.009254524 0.07527528 0.060406588
0.0650751 -0.030592915 0.3317057
0.2179754 -0.08534948 -0.36557359
0.044546824 -0.016148683 0.42047185
-0.013915377 -0.03596235 0.0011458627
-0.085990116 -0.08100781 0.32954174
0.12673153 -0.12396496 -0.3551832
-0.021116866 -0.11198918 -0.32986248
-0.23472612 0.023869941 -0.36526465
0.06130253 0.08547789 -0.25374287
0.020788629 0.0047106436 0.36480287
-0.0027500128 -0.22100697 -0.35986894
0.058148146 0.05146569 -0.22723202
0.14027846 0.05809255 -0.39823496
0.023498641 -0.037917055 0.3279741
0.0675034 0.050397564 -0.22425185
-0.10016266 0.024174586 0.40675935
-0.09398937 0.08093806 -0.36522818
0.086394764 0.04051907 0.40911996
0.088004544 0.16693978 0.30965385
0.07431346 0.06530816 0.13084467
0.011430984 -0.091004744 0.41388652
-0.03817794 -0.016874516 -0.13261288
-0.14622398 -0.03973142 0.39793345
0.04870814 0.10069019 -0.3212302
-0.07080891 0.009199159 -0.34117022
0.08906062 0.011269779 -0.2639942
-0.044319384 0.041118916 0.34562194
0.01801834 -0.16693407 0.3668592
-0.21933985 0.024864126 -0.4055696
-0.014817217 -0.12340583 0.32111782
0.10894911 0.055341877 0.35779086
0.1745561 -0.021591173 0.31022048
0.04256848 0.030180013 -0.05347945
0.01292467 -0.15651293 -0.31161064
0.13727559 0.11960631 -0.32316947
0.07790928 -0.011849877 -0.17910884
0.04678517 -0.12511186 0.348222
-0.085883 0.1454972 0.39113826
-0.031920854 0.07237143 0.35045353
0.12346014 0.03333718 0.20369844
0.060199637 0.105664276 0.2330429
0.1305366 0.0987454 0.2553184
-0.10504606 0.21036194 -0.37952268
-0.0314102 0.0551625 0.123681575
-0.1445308 -0.005032045 0.35318807
-0.068045795 0.13006768 -0.32895362
0.14130253 -0.009871521 -0.37894365
-0.0061120987 -0.050543796 0.4113943
0.057291258 0.06582771 0.3525826
0.06481256 -0.04984536 0.39706886
-0.22065085 -0.008722398 -0.36127952
-0.09231259 -0.101429366 -0.3810064
0.14724854 -0.046124887 0.36082926
0.0040234956 -0.04644402 -0.21689187
0.1414471 0.025768658 -0.35483798
-0.019801881 -0.06471493 -0.056149103
0.19994213 0.0145335775 -0.32182354
-0.09995402 -0.10893946 -0.36651745
-0.17244491 -0.027619421 0.3067814
-0.04375169 0.13352308 0.21175794
0.10965525 -0.037331123 -0.090004
-0.033881042 -0.1948769 0.3178508
0.029766679 0.04813664 0.42088404
0.04347819 -0.117107876 0.33565316
-0.07280134 -0.024977736 0.41921222
0.05393669 -0.19085413 -0.3253399
0.04723845 0.04202655 -0.33593914
-0.14496078 0.09410314 0.32011548
-0.08666277 -0.0556332 0.36983627
0.04728833 -0.021398192 -0.25215513
0.10136907 -0.13958739 0.35308
0.0010935984 -0.072650015 -0.20268123
-0.162696 -0.054445095 0.38297215
-0.097958304 0.08966673 -0.3523201
-0.09028573 0.046691086 0.35716322
-0.015669107 0.158853 0.35923222
-0.11276944 -0.0701741 0.3445055
-0.1049462 -0.04068708 -0.4018931
0.10854198 0.16299807 -0.34454846
0.1427142 0.032073524 -0.3345757
0.1533516 0.03846436 -0.36425763
0.059618544 -0.0088873645 0.37644947
-0.1372528 0.07240788 -0.34499183
-0.1582481 -0.07997535 0.3762601
-0.07067778 -0.08642059 -0.3594151
0.04567307 -0.071317926 0.38333878
0.015006071 0.01853769 0.3300162
-0.15824755 -0.053684115 0.33333522
-0.0777455 -0.04373468 -0.39814562
0.038813144 0.020848319 0.3423156
0.035036128 -0.12066153 -0.32808104
-0.15042849 -0.04061622 -0.35982385
0.07657936 -0.001570317 -0.13220628
0.028888859 -0.0046263724 0.3275168
0.0009568906 0.08190399 0.11564226
-0.015756078 -0.016617982 -0.34040916
0.07245201 0.084661156 0.31632656
0.014530043 0.045204382 0.41975442
-0.03586168 0.027234195 0.34529817
0.12997131 0.117576234 -0.3092801
0.1372006 0.039094035 0.28334597
0.07254382 -0.15367518 0.19664532
-0.12728216 -0.0939602 0.35257837
-0.044186454 -0.0047762636 0.32782257
-0.1838367 0.015250251 -0.33580774
0.012688142 0.1414899 0.35440725
-0.03217458 -0.16219516 0.40348047
-0.008881282 0.16372536 -0.31710985
-0.0414988 0.06624034 0.31917253
-0.106196895 0.082268454 0.32775024
0.07741998 0.06925406 -0.34161055
-0.097060844 -0.13472302 -0.4066661
0.08790331 0.13757545 -0.3811945
-0.034628864 0.050226994 -0.24478441
0.104738794 0.041501958 -0.23022768
-0.0032740002 0.14733665 0.32293192
0.11148885 -0.2066594 -0.3960779
0.014865798 0.01869343 0.41524544
0.069363154 -0.04424222 -0.22250701
0.09982804 -0.05933767 0.40174258
0.08687595 0.1449513 -0.29889762
0.15721019 -0.10320034 -0.38524336
-0.034599807 0.1350991 -0.3319523
0.17085461 0.09118228 -0.37166297
-0.08407427 0.06195082 0.35525623
0.024929969 -0.11748447 0.3535693
0.0393324 -0.1814446 0.30262524
-0.018018464 0.15433384 -0.34576547
-0.028767372 0.07076971 0.32282472
-0.02658403 0.10585912 -0.16729501
0.2022393 -0.032735437 -0.36191124
-0.061119117 0.037703894 0.34812716
0.10294735 0.06050699 0.361584
0.052956533 0.16798308 0.31352943
0.07647046 0.06302336 0.3423544
0.081646666 -0.06286105 0.33087087
0.106748894 -0.11340646 -0.3448987
-0.13816044 -0.12900628 0.21432891
0.015253725 0.105197154 0.37975305
-0.07982259 -0.06502011 0.39938492
-0.13327819 0.07728272 -0.31810573
0.06957455 -0.07794767 0.3331304
-0.043148745 -0.081662826 -0.08057313
0.11094782 -0.03229 -0.38920772
-0.10159565 0.03980042 0.30900908
-0.017829629 0.045470424 0.3544123
-0.13385838 0.04331425 0.25878596
-0.084319055 0.09427543 0.32018405
0.03845719 0.15865028 0.25348142
0.010130817 0.011623188 0.35890344
0.06834448 0.091482684 0.34358028
-0.06788036 -0.01916089 -0.18984371
-0.12027933 -0.050241847 0.37948832
0.02740208 0.08637989 0.01836493
0.05749455 -0.0101969335 0.41009957
0.13987723 0.065278746 0.36625004
-0.056105886 0.10220694 0.27882627
0.08221225 0.048736695 -0.18020952
0.12718119 0.1483415 -0.36649746
0.08720713 -0.09903731 0.36676365
-0.13947089 -0.09794234 0.32845613
-0.10254959 0.04307692 -0.09805986
0.07003263 0.031160688 0.42048848
0.056945797 0.20357707 -0.33572817
-0.011516369 0.10790485 -0.32035154
0.012381597 0.054692887 0.403999
-0.0035425762 -0.093487345 0.3551171
-0.093355946 -0.012627115 -0.32367173
-0.08132777 -0.011281463 0.40940687
0.04751873 0.10488381 0.33721825
-0.047000937 -0.14173453 -0.334559
-0.18634386 -0.02464904 -0.33037317
-0.104306206 0.07731194 -0.36750916
-0.14148855 -0.030715823 0.3946587
-0.20690458 -0.0031542752 -0.3597686
-0.052405965 0.110095344 0.32519895
-0.10192389 0.11245465 0.24820797
0.110522576 0.043072116 0.26946744
0.0065050498 -0.08218623 0.3717253
0.0763688 -0.044155844 0.37577718
0.04059705 0.12618807 0.285098
0.14690602 0.069189996 0.25367385
-0.06937162 0.026890295 -0.2848814
0.054879352 0.05813952 0.06331873
0.0637282 0.06388736 -0.28109345
0.12444989 0.1983676 -0.35165522
0.06522244 0.06939315 -0.15237194
-0.026572095 0.060468107 0.38647425
0.05388894 0.07756968 0.35130602
0.13168646 -0.051710635 0.3628771
-0.170853 -0.0030356692 -0.34152624
0.020131225 0.050542925 -0.11472414
-0.08224861 -0.103526495 0.33794588
-0.037342675 -0.18967673 0.26187843
-0.2031523 -0.05199938 0.30651048
-0.033068698 0.1261157 0.3187745
0.17154768 -0.018164407 0.38070267
0.21598645 -0.015713703 -0.38633174
-0.09396901 -0.12071394 -0.38377836
0.18199576 0.062448334 -0.37937555
0.112732306 0.061738387 0.18773311
0.1003086 -0.112163976 -0.40228218
0.09199218 -0.11104477 -0.34001848
-0.101350956 -0.09482482 0.40537435
-0.17680597 0.04672378 -0.37578535
0.045078788 0.104859926 0.31260973
-0.018881358 0.078482546 0.36934608
0.009409909 0.05032739 -0.17339683
0.09655907 0.08993234 -0.1758929
-0.14353205 0.09833279 -0.40387014
-0.11079454 -0.022325613 0.32759482
0.10858552 -0.08390901 0.35858786
-0.11967817 -0.062166773 0.34898654
-0.025089653 -0.13833892 0.33938304
0.11329097 -0.013546608 0.33729002
-0.00065369776 0.09082741 -0.3743003
-0.03792188 -0.12875395 0.3910345
-0.056153208 0.09739667 0.4058346
-0.1317046 0.046048563 -0.3347341
-0.00653718 0.016055373 0.421952
0.0034556543 -0.032235295 -0.3550104
0.04408486 -0.12282585 0.20522302
0.15543668 0.09078963 0.34484383
-0.1450044 -0.093523696 -0.3872906
-0.039193686 -0.07542657 0.37571156
0.07359148 -0.038321305 0.33395335
-0.06702508 -0.18056752 -0.360873
0.13512093 0.050253946 0.2307483
0.014762377 0.17635502 -0.3587505
0.053617477 -0.14793481 0.31801304
-0.0010342414 0.1942011 0.21735284
0.13383502 -0.034219272 -0.39604503
0.1966393 0.07337806 -0.32777432
0.009324908 0.0048092254 0.3297243
-0.08169962 0.003899301 0.36895245
0.2589952 0.07290821 -0.42171583
0.095715165 0.0039546946 -0.40166676
0.037684213 -0.16411462 0.33765075
-0.13489251 0.033414677 -0.36811036
-0.21441963 -2.82786e-05 -0.35065916
0.14430532 0.0059453067 0.39717636
-0.113266215 -0.07807677 0.28610924
0.026963452 -0.14185679 -0.37348577
-0.036455005 0.09546877 -0.31532973
0.115374595 0.03624152 0.3404125
-0.07017679 0.04854001 0.41575104
0.19482362 0.1525875 -0.3649589
0.07994664 -0.107233815 0.35566086
-0.07226973 -0.07917743 0.021555983
-0.114637904 0.12442173 -0.3288806
-0.037002858 -0.09105915 0.32150337
-0.01183113 0.15380251 0.37836653
-0.04538658 0.15737502 0.38370442
-0.0030939507 0.25562996 -0.34178784
0.18632364 0.06528456 -0.33288807
0.0039755795 0.022253778 -0.097302385
0.199996 0.011986165 -0.3500305
-0.14899866 0.07317457 -0.32877275
-0.030562982 -0.0017971623 0.3294737
-0.10172498 -0.09764589 0.26493356
0.11826945 0.08788071 0.32291147
-0.010596979 -0.16716479 -0.38078824
0.10314537 0.026482869 -0.38023493
0.028611498 0.039168403 0.42586067
-0.1171278 0.10511228 -0.35895345
-0.120505214 -0.011814542 -0.4007657
0.07285429 -0.0056159697 -0.20538202
0.12913737 0.017557314 0.33650124
0.16410825 0.015147853 -0.39483202
-0.08094126 -0.15130346 0.21263625
-0.113389514 0.017660527 0.40703377
0.0074232114 0.15831429 -0.35112348
-0.09354809 -0.17540812 -0.36536548
-0.06276289 -0.23316087 -0.3630881
-0.18038358 -0.036831554 -0.38106796
0.010389646 -0.029060807 0.362676
-0.091631226 0.018537516 -0.3297723
0.095917754 -0.013676866 0.32727328
0.1029189 0.0038928885 0.3205042
-0.15883031 -0.08762146 -0.3269332
-0.21635886 -0.020828847 -0.31324574
-0.007076523 -0.22217049 0.25607276
0.1604008 0.17828837 -0.31357133
0.09126718 -0.06225606 0.32802412
-0.23470981 -0.025444007 -0.32912365
-0.0010819212 0.14250633 -0.34067807
0.07503524 0.042009875 0.39639524
-0.0940682 0.07390858 0.003441103
-0.011924459 -0.18292806 0.2790602
-0.13321136 0.03211039 -0.3926133
0.016613564 0.17085126 0.3488681
-0.032270685 -0.049968626 0.4252784
-0.16444224 0.09419978 -0.37842438
0.17773564 -0.16865905 -0.35390085
-0.19544467 0.022691086 0.28816113
0.11176881 0.07858484 -0.23393185
0.01829431 0.103656985 0.4122981
0.12727587 0.08790613 -0.31918812
0.021888312 0.09764768 0.01223628
0.04884533 -0.04190164 0.003192546
-0.12117194 -0.056799065 0.34797004
-0.08384152 -0.06521599 -0.38625047
0.029532822 -0.22726253 -0.32919198
-0.133687 0.064164385 -0.37284958
0.029551059 -0.11565566 -0.40606666
-0.04750423 0.0069027906 -0.40092912
0.14275643 -0.047683883 0.3339033
0.13873301 -0.10833606 -0.4024326
0.039229963 -0.022854807 -0.13736804
-0.11403806 -0.1110279 0.38413906
0.165412 0.15680511 -0.3660724
-0.15809318 0.016401993 -0.34859374
-0.10699609 0.1175377 -0.3606849
0.2071729 0.0075655235 -0.3349024
-0.010531657 0.17109002 -0.3588538
0.00723355 0.07035703 -0.2283995
-0.062210623 -0.0017545567 -0.1445089
-0.15077683 -0.087858446 -0.34352583
0.16327909 -0.015462124 0.19392596
0.16704226 -0.11348732 0.17948009
0.15239586 0.13083357 -0.39581212
0.019116255 0.049132615 -0.34719515
0.115766935 0.026266731 -0.09739613
0.16674577 0.065808795 0.25702345
-0.0055917897 0.09077322 -0.31215706
0.0954484 0.0012204838 0.3941772
-0.06713966 -0.03411137 0.10495205
0.06545013 0.16536973 -0.33424968
-0.22963138 0.07386382 -0.38875017
-0.053630345 0.043484513 -0.342165
0.05595194 -0.036202054 0.37138623
0.118804924 0.013811737 0.28278285
-0.09717599 -0.18380368 -0.3943376
-0.115258224 0.009725994 0.4103118
-0.049705394 -0.039797388 0.37121868
0.008928972 0.13121158 -0.30274218
0.022639733 -0.18799976 0.3290247
0.117921054 -0.04404832 -0.3810665
-0.038217105 -0.1283274 0.311883
0.062482405 -0.121011764 -0.36126313
-0.12418227 -0.060017396 -0.37627906
0.17788078 0.098465815 -0.3459621
-0.09133543 -0.08469198 -0.13926812
-0.1277898 -0.015278861 -0.31186017
0.12747529 -0.15504907 0.3221664
0.123364314 -0.055140037 -0.3420123
-0.09250589 0.15579413 0.2462067
0.0313603 -0.13250488 0.41453934
0.029263008 -0.12140825 0.3346386
0.09354777 0.18963826 -0.31156868
0.05391818 0.08333895 0.32503948
0.16648903 -0.13805941 -0.30601108
0.12512816 0.2036515 -0.3113627
0.17587557 0.09188779 -0.38647938
-0.101267755 -0.14700395 -0.31679058
0.04665099 -0.029898813 0.3626672
0.17554465 -0.03943725 0.34927517
0.13404788 -0.003884719 0.39335272
-0.09972241 0.011607628 0.24468967
-0.11318034 0.031954896 0.27245197
-0.113314785 0.10211807 -0.40475866
0.056219257 -0.12257808 -0.34325138
-0.08040426 0.13123919 -0.36249864
-0.12309367 -0.08008885 0.32513905
-0.24003892 0.06508593 -0.40088847
0.079077005 0.067666985 0.35639676
-0.0041845823 0.14454126 -0.33858865
0.14902239 -0.12776095 0.3443633
0.10291573 -0.075396195 0.42645547
-0.0063444697 0.04156852 0.35767806
-0.023766158 0.12234278 0.36806706
0.07451797 -0.108251765 0.327555
-0.08217796 0.05224385 0.32088163
0.043435253 0.007207474 -0.28374782
0.0519321 -0.12629287 -0.19091605
0.000789778 -0.12443632 -0.4064281
0.059071265 -0.17184372 -0.3981279
0.058586176 0.12665784 -0.3861174
-0.091223024 0.0047561983 -0.2894287
0.061815627 -0.10480231 0.10572889
0.058617085 0.07194098 0.3838553
-0.16188242 -0.1492166 0.38152903
0.003966803 0.13165638 0.28773883
-0.08093556 0.011214621 -0.30016387
-0.11448075 0.034277882 0.32191992
-0.034146324 -0.096856415 -0.26776543
-0.02251644 0.0027518354 0.4250931
-0.035575923 -0.002283434 0.33321753
-0.06377221 0.009495736 0.366837
-0.14938734 -0.12325099 0.36846834
-0.14271519 0.1423479 0.2668117
-0.085981555 -0.039107103 0.33467653
-0.092413 -0.049984556 -0.36224046
-0.08133355 -0.010505141 0.3613405
0.05234543 0.13122118 -0.34417984
0.16296072 0.0080357315 -0.36304498
0.18014768 0.09157235 -0.3711512
-0.02023547 -0.051366903 0.4240331
-0.13101253 0.101286456 0.34895328
0.1311743 0.07064509 -0.37165064
-0.14763555 0.029034233 0.3664711
-0.038541406 -0.15301326 0.23499501
0.17912528 -0.122141704 -0.38812545
-0.02393636 -0.030250315 0.4179325
0.042399745 0.065851785 0.32761252
0.044987775 -0.049409926 0.3663059
0.19904059 -0.14268541 -0.37816307
-0.018779453 0.16895762 -0.35323086
