# .PCD v0.7 - Point Cloud Data file format
VERSION 0.7
FIELDS x y z
SIZE 4 4 4
TYPE F F F
COUNT 1 1 1
WIDTH 1000
HEIGHT 1
VIEWPOINT 0 0 0 1 0 0 0
POINTS 1000
DATA ascii
0.28997254 -0.037585165 0.08692756
-0.028913489 -0.02170353 0.26290467
0.072259076 -0.09356127 0.18719101
-0.18046741 0.17791598 -0.24605763
0.09300858 0.045029327 0.2383257
0.16703992 -0.12134568 0.2513137
0.008094386 -0.061881308 0.18062186
-0.12767722 0.16704872 -0.39698178
-0.08010964 0.08639618 -0.39978838
0.2564641 -0.0420246 0.10194957
-0.22612579 0.134173 -0.27260542
0.25725904 -0.084250644 0.082542986
0.1192084 -0.10906957 0.25438988
0.15898368 -0.118513115 0.26022866
-0.15949376 0.09332938 -0.10828339
0.12098115 -0.047512565 0.18553293
-0.116670825 0.04694966 -0.06708009
-0.28522456 0.096986786 -0.26484874
0.22587405 -0.07256326 0.023848955
-0.024768686 0.025225572 0.2273677
0.012310269 -0.06225802 0.06485981
0.22353354 -0.13759503 0.085598186
0.27160868 -0.07895784 -0.0142047545
0.17922547 -0.0018473895 0.21281517
-0.11989802 0.10292159 -0.15320008
-0.19719914 0.19878766 -0.2694928
0.2848058 -0.110522754 0.094638675
0.01836469 0.042858906 0.08997837
0.16400859 0.033409946 0.2417792
0.13076246 0.028733779 0.20070004
-0.21176885 0.170911 -0.1932004
0.09964418 0.036825303 0.21598974
-0.08071239 0.1402242 -0.3300962
0.17492153 -0.009024797 0.22304027
-0.117139935 0.15964426 -0.2357464
0.16774051 -0.02150571 0.14203125
0.31571922 -0.08315688 0.13451548
-0.25544414 0.21174587 -0.23968567
-0.2728525 0.06575867 -0.27006492
0.2243684 0.012982318 0.14936067
0.07677767 0.037717596 0.22044699
0.19063205 -0.04123813 0.16086939
-0.08261756 -0.03819244 -0.09649921
-0.027986059 -0.062339123 0.00042965746
0.24930649 -0.121139646 0.13856941
0.22369842 -0.13860601 0.22235148
0.020705977 -0.008104362 0.19118679
-0.28182817 -0.042743716 -0.24567351
-0.2114093 0.1503806 -0.20461714
-0.19828592 0.09631578 -0.22735672
0.15529315 0.00021412062 0.1712043
-0.09095385 0.024680542 -0.43416014
-0.085004956 0.0017273352 -0.011705929
0.08216065 0.022584336 0.18997669
-0.18930376 0.18746117 -0.26469406
0.24842836 -0.16565555 0.087727316
-0.13033023 0.044381462 -0.11995343
0.0505617 -0.15684594 0.12014845
-0.11181299 0.15553832 -0.3507236
0.11867772 0.081138425 0.18630745
0.07824387 -0.009381009 0.22718327
0.026194837 0.0021856886 0.06781327
0.2070566 0.032785133 0.15584959
0.1910468 -0.0006869942 0.15434535
0.21253553 -0.0558184 0.12985352
0.18188877 -0.06733105 0.22078544
0.18184504 -0.061390348 0.16608346
-0.27072674 0.12093009 -0.24501714
-0.17277467 0.2625758 -0.267434
0.20609891 -0.20538254 0.10066761
0.23309483 -0.17785518 0.10052118
-0.10292589 -0.02217728 -0.08430854
0.1386535 -0.032520443 0.2531451
0.07031875 -0.04294654 0.18151997
-0.0480595 0.05349496 -0.14438209
-0.3224583 0.08857907 -0.26901957
-0.22748667 0.022610174 -0.22885674
0.05155844 -0.18987353 0.121432394
0.0145897735 -0.19780803 0.1545003
0.21083114 0.02482973 0.17649697
0.07058322 0.05626575 0.15450494
-0.2589856 0.1682389 -0.29759783
-0.15309049 -0.04153536 -0.19224612
-0.04754854 0.0694889 -0.3698462
-0.10099411 0.009185368 -0.3764244
0.08557827 0.01163999 0.24746345
-0.2880367 0.08251607 -0.23909992
-0.2723333 0.1268344 -0.1735915
0.121676214 -0.12569964 0.18033794
0.27607688 0.09804793 0.06424061
-0.070848614 0.06598859 -0.25862053
-0.29474115 0.17407851 -0.31655195
-0.070852704 0.021044444 -0.021607254
0.032196682 0.015266507 0.2207824
-0.015344056 -0.059119906 -0.054429986
-0.26378793 0.10053817 -0.22458887
-0.30804154 0.034975186 -0.20633294
0.11667843 0.046866614 0.15040082
-0.15672381 0.20790929 -0.2838287
-0.24479683 -0.020712208 -0.34391725
-0.24665107 0.10848275 -0.17327347
0.013388896 -0.09915034 0.19439934
-0.09541383 -0.050128907 -0.3101872
-0.15146759 0.011137857 -0.2967796
-0.08707069 -0.045817122 -0.09388495
-0.028506085 0.007794061 0.20112681
-0.28322873 -0.008444912 -0.3778153
0.21621056 -0.042224642 0.14713885
-0.29063854 0.120036304 -0.30237183
0.17437682 -0.16349138 0.12146925
0.23898523 0.12400073 0.079428256
0.16798727 0.04211279 0.1354431
0.18257086 -0.17196235 0.072909154
-0.22114517 0.12762512 -0.22871345
0.1367108 -0.078283615 0.22436166
0.2397159 -0.0024856823 0.14654544
0.024006248 -0.13966347 0.12584388
-0.26074818 0.08098576 -0.2575795
0.18854861 -0.15061522 0.07366175
0.11223719 -0.1009015 0.16106577
-0.124503195 0.071118325 -0.16929424
0.04300211 -0.17694992 0.17012382
0.20407926 -0.24418622 0.057856932
0.054386243 -0.04344334 0.20941825
0.22885162 -0.0070336224 0.16588978
0.01154658 -0.1346088 0.12928014
-0.30244514 0.21308447 -0.27845606
-0.12653817 0.06040616 -0.33884057
-0.251294 -0.022019694 -0.2070079
-0.013423433 -0.031939913 0.18928796
0.1109438 -0.031725094 0.19973952
0.083182685 -0.1400039 0.12644431
-0.0366631 0.11601648 -0.050927456
-0.19026454 0.040311854 -0.13027284
0.03988609 -0.22951 0.13547386
0.088436194 -0.061121568 0.23483346
-0.17462301 0.19008407 -0.3182177
0.057544667 -0.18164761 0.17240988
0.033950135 -0.16001432 0.16783819
0.20172502 -0.11536902 0.09663571
0.0684619 0.025257079 0.14847173
0.17885935 -0.063909076 0.11558877
-0.041532237 0.075123884 -0.081177495
0.12691066 -0.05674811 0.2076073
-0.20436276 0.13991807 -0.23334025
-0.16741532 0.038112093 -0.25660017
-0.07270339 0.055681165 -0.12286195
0.31070232 0.00050862884 -0.021439936
0.012933563 0.008095589 0.23539339
0.11691211 -0.07647239 0.20867512
-0.007736778 -0.1293868 0.17403433
-0.29654896 0.09507022 -0.27617761
0.11137972 -0.05673895 0.20668904
0.14896056 -0.043880176 0.18364008
-0.22439837 0.23730129 -0.25923735
0.17738377 0.051498003 0.1699957
-0.13253225 -0.05251667 -0.21435487
-0.30548498 0.16123447 -0.20995858
-0.19280274 0.22861494 -0.29737458
-0.089207865 0.050560117 -0.09220878
0.22954223 -0.16230042 0.10804489
-0.103591405 0.068029836 -0.2078458
-0.106172495 0.17945395 -0.309627
-0.096501 0.058616005 -0.053393554
0.20339212 -0.109604634 0.046120334
0.019502016 0.0884232 -0.0062855044
-0.16535108 0.008642302 -0.17688006
-0.14569227 -0.009535318 -0.37026778
-0.16571207 0.046966217 -0.15309632
-0.047796205 0.029379338 -0.085374065
0.10412421 -0.14285357 0.15381785
0.19279799 -0.08528255 0.20263852
-0.043828215 0.064098366 -0.36389896
-0.16834405 0.22268037 -0.25342515
0.19232272 0.051941283 0.13667355
-0.1649023 0.1421283 -0.20117721
-0.031112023 0.084385484 -0.07119311
0.08947517 -0.074527845 0.24499522
0.19052997 -0.0028865682 0.24559501
-0.23687759 -0.039380517 -0.21207972
0.1685981 -0.13377249 0.14774574
0.13037756 0.015752178 0.21721599
0.13167953 -0.1839824 0.17537998
-0.14529638 0.16710286 -0.18472366
-0.20117848 0.100711815 -0.1793013
-0.12858088 0.09884861 -0.11705991
-0.0299913 0.043465283 -0.054559734
-0.30447304 0.18025276 -0.25144076
-0.20641984 0.055810153 -0.15244487
-0.34330362 0.12876256 -0.2604625
0.13904828 -0.13229913 0.2055395
0.20870279 -0.14579986 -0.053318825
0.10747588 0.016692808 0.25670254
0.06550233 0.10250379 0.2240936
0.2742102 -0.0955356 0.17802617
0.17449322 -0.113769524 0.21973915
-0.26513362 0.16830489 -0.26722583
-0.25940627 0.13567866 -0.18343979
-0.30058277 0.2186128 -0.27454647
-0.22185569 0.17658657 -0.32515812
-0.11734179 0.18648465 -0.36462772
-0.05761272 0.041641742 -0.39662525
-0.08087677 -0.03323607 -0.14288522
-0.29674864 0.081396006 -0.22085318
0.007574501 -0.04209132 0.22405846
0.29867217 -0.0945844 0.09830344
-0.23348294 0.19918974 -0.2297655
-0.15988864 0.014628903 -0.057571195
0.005097098 -0.09992544 -0.022826193
0.21040978 -0.11216908 0.047621004
0.24095224 -0.11522421 0.11139247
-0.2725456 0.013981714 -0.31356335
0.035363857 -0.14834547 0.23526424
-0.1622274 0.041229106 -0.14951526
0.1476984 0.03703015 0.20794831
-0.29400885 0.10987616 -0.226725
0.21871403 -0.1117945 0.022849867
0.091918446 -0.22579677 0.06470784
-0.22750822 0.2152382 -0.3012513
-0.32587197 0.009156808 -0.20384634
0.09045518 0.096685655 0.15390252
-0.22440101 0.035737477 -0.25555074
-0.041395612 0.036785427 -0.3208652
0.09227767 0.09825634 0.08994105
-0.02000249 -0.049946357 -0.07096328
0.25556526 -0.021417342 0.13217703
0.06440334 -0.042773478 0.15560345
0.19453256 -0.07809718 0.19033878
-0.124071695 0.08465663 -0.10243434
-0.27619353 0.1542586 -0.26722705
-0.13769831 0.24427034 -0.25472102
-0.28690517 0.03370502 -0.2603931
0.13494863 0.0004980385 0.2179254
-0.03062194 0.17136516 -0.3583926
-0.124407284 0.016895832 -0.35159487
0.17032039 -0.16322634 -0.022099085
-0.16375111 0.06194276 -0.21343257
0.22196282 -0.14495026 0.2601546
-0.177039 0.21530382 -0.23778151
-0.18619397 0.07704957 -0.17920825
-0.18330485 0.16534796 -0.22795889
-0.08200269 -0.030587766 -0.080423795
-0.05003952 0.073547184 0.0034102348
0.017112805 -0.035120185 -0.008104715
-0.07573579 -0.040164024 -0.02864871
-0.21881549 -0.0003318395 -0.26697114
0.090075 -0.03688713 0.23988332
6.9896196e-05 -0.06613488 0.14157039
0.01328713 -0.003944598 0.17478974
-0.18698956 0.22388914 -0.18373102
-0.34930214 0.14818999 -0.3115935
-0.18522482 0.12869708 -0.3125934
-0.13348377 0.010923527 -0.32750377
-0.10653875 0.033167493 -0.047096763
0.10194144 -0.048486203 0.20656727
0.2581759 0.049820717 0.08723771
-0.10288371 -0.025696734 -0.3325438
0.056525838 -0.08726331 0.24213319
0.01361173 -0.1265876 0.20109075
-0.060304254 0.063290924 -0.3760092
-0.16389538 0.16223715 -0.29266366
-0.24493827 -0.05608398 -0.3194722
-0.14031461 0.047649503 -0.16919939
-0.17334479 0.17398971 -0.24513645
-0.038878888 0.042136118 -0.037984636
0.21312067 -0.15553164 0.034951217
0.080514066 0.0058683585 0.07130904
0.14564833 -0.013373408 0.2553323
0.21972705 -0.07022651 0.100100115
-0.12018554 0.1376271 -0.3645618
0.12056781 -0.1088028 0.18037748
-0.06893615 0.042441987 -0.10016244
-0.09946457 -0.049683414 -0.11563488
-0.2712024 0.14159864 -0.18476109
0.18800396 0.14284153 0.12805104
-0.02012896 0.029584913 0.0014820688
-0.07197215 -0.08609969 -0.016362341
-0.27209786 -0.005989764 -0.2790049
0.020867221 0.09681433 0.16557309
-0.18702897 -0.079455614 -0.29575726
0.12634248 -0.1811662 0.09020346
-0.31058273 0.05086231 -0.26416013
0.07608664 -0.004758453 0.21137685
0.1267439 -0.011622072 0.20013231
-0.26075265 0.062367514 -0.26109615
0.1195978 -0.002990594 0.20525151
0.26728982 -0.15924983 0.012538482
0.062383402 0.036487944 0.104271874
0.121300764 -0.15419053 0.1655486
0.18666755 0.044850055 0.21047305
-0.23538165 0.0674519 -0.21467447
0.1397515 0.01930728 0.2518407
0.099930674 -0.16869767 0.15222491
-0.13386181 0.2356087 -0.32908338
0.23536262 -0.12560698 0.11100941
-0.009599516 -0.0362595 0.0064019673
0.114942454 -0.07881854 0.16059019
-0.24861711 0.038991127 -0.2552955
0.00594752 0.051811922 -0.05734831
0.2596034 -0.009536845 0.035059836
0.27089983 0.017137764 0.0654114
0.07571232 -0.22443956 0.075652756
0.067249246 0.05333725 0.18549643
-0.044893797 0.07381678 -0.4114007
0.0134142 -0.1582745 0.1543027
0.033362307 -0.022558644 0.18328455
0.19048676 0.13891561 0.15422983
0.13683239 0.10518177 0.15726984
0.045067754 -0.103754364 0.20462474
0.09799105 -0.2172717 0.028734783
-0.2800668 0.12244171 -0.21264704
0.024899192 0.063524626 0.022162521
0.13241708 -0.010921206 0.10540472
0.07220573 -0.25031847 0.07927318
-0.28989983 0.05499956 -0.30232534
0.16479175 0.007845474 0.20389678
-0.026079234 -0.094200455 0.22407839
-0.0588583 -0.019320425 -0.019472945
-0.14600527 0.1364864 -0.12159301
-0.065689765 0.08705709 -0.05702098
0.18431938 0.033334933 0.14887773
0.06142579 0.040897936 0.259207
-0.057230074 -0.07794792 -0.12483203
0.2004834 -0.14067778 -0.048934534
-0.06708381 0.05304183 -0.083961785
-0.020019997 -0.13613643 0.17263342
-0.28083363 0.085959405 -0.20263253
0.048638333 -0.21511446 0.14742126
0.2235825 -0.11441249 0.19869839
0.25336993 0.036663853 0.037180375
0.01903817 -0.060126774 0.25614816
-0.13263635 0.08372955 -0.43852425
0.039311673 -0.15984774 0.13712665
-0.066623874 0.102626726 -0.21101229
-0.08235542 0.07456352 -0.08465297
0.26817814 -0.047594987 0.016635917
-0.11406691 0.116242625 -0.23470083
-0.11483744 0.0985983 -0.35151374
0.015070098 -0.011966539 0.26879543
-0.046262164 0.015076929 -0.010644109
0.13508184 -0.007820721 0.24810427
-0.19538434 -0.088173494 -0.37366977
0.076409794 -0.023771768 0.18899374
0.08757623 -0.11112414 0.24981824
0.11456709 -0.113840476 0.20712352
0.030271066 0.026642922 0.059764646
-0.29362053 0.15651993 -0.23881285
0.2723857 -0.08970567 0.1652104
-0.2654321 0.04366892 -0.16628632
-0.1578219 -0.026989225 -0.12548864
0.22186488 0.017849224 0.050977096
-0.09602895 0.13305081 -0.18226703
-0.25963274 0.09895639 -0.18387179
-0.11415483 0.14004107 -0.27599174
-0.00019368254 0.023692707 0.057602093
0.093417436 -0.006996383 0.17092842
0.15246317 -0.05460357 0.18837114
0.1828582 -0.23466943 0.07948041
0.21728635 -0.025212474 0.20113946
0.036213942 -0.07189569 0.14065619
-0.14605273 0.013401543 -0.15882567
0.10285312 0.12433018 0.16603348
0.12421651 -0.19140239 0.13044223
-0.17078173 0.16252767 -0.1889711
-0.11590692 0.09447973 -0.21839012
-0.13431363 0.23760213 -0.34122568
0.1754095 -0.11729853 0.18089494
-0.27884737 0.15278707 -0.28677937
-0.19545639 0.20269156 -0.22969957
0.074582115 -0.16739376 0.23197384
0.21655509 -0.030516492 0.1282657
-0.008483374 -0.074728526 0.25321642
0.0964661 0.013402765 0.2185876
0.024274154 -0.07377851 0.21278377
0.06866549 -0.10703589 0.20412616
0.0744546 0.047049083 0.23380576
-0.24470228 0.1289732 -0.29595903
-0.07962434 0.021595143 -0.050669488
-0.20312186 0.03184978 -0.28634992
0.19418412 -0.17663923 0.16296925
0.10116487 -0.08454378 0.2266837
0.0076012947 -0.18780373 0.13413653
0.2039729 -0.20963493 0.031594336
0.1537056 0.111937396 0.22871083
0.12251761 -0.16723473 0.2041204
-0.22061315 0.20330904 -0.23286815
0.07717466 -0.011537819 0.18968499
-0.05716218 -0.025334748 -0.116817385
-0.011384247 -0.075293906 0.21653894
-0.21270046 0.09594849 -0.22212969
0.24675028 -0.051612236 -0.0016683142
-0.3037146 0.059011173 -0.20350872
0.06343034 0.02300084 0.18240875
-0.33898452 0.0099305585 -0.25563362
0.018662265 -0.0018292904 -0.022263464
-0.058023937 0.08537739 -0.39216235
0.16757669 -0.009593216 0.24935
0.03648381 -0.08184632 0.21113637
0.061452374 -0.15456621 0.16480987
0.014732378 -0.14597648 0.08907814
-0.34847435 0.09308057 -0.25517353
0.022581916 -0.014358054 0.18438716
0.14842746 -0.13570838 0.1519086
-0.25321144 0.14014226 -0.26127896
0.28147492 0.098374374 0.045776647
-0.24058148 -0.07027117 -0.2712895
-0.25849125 0.06505966 -0.22052579
0.14968283 -0.041977134 0.17197603
-0.16133022 0.17810616 -0.30831084
-0.016171375 0.006815818 0.036372583
0.08330061 0.007832984 0.116518766
0.06416468 -0.10152595 0.24492393
-0.26144192 0.15592764 -0.20601703
0.095812716 0.115311645 0.10984731
-0.08373354 0.041318104 -0.09253787
-0.10959598 0.08810043 -0.09528415
0.124856696 0.05404818 0.2028598
-0.14788996 0.10989801 -0.31335738
-0.0870809 0.0075657805 -0.085932285
-0.22302608 0.013686159 -0.22448906
-0.07925266 0.014492084 -0.058086198
-0.18170139 0.21192098 -0.2551477
0.018258085 0.020621967 0.20627105
-0.10082218 -0.04017221 -0.19571593
-0.010682126 -0.14200152 0.16939443
0.1656637 0.13864093 0.17147599
-0.06585836 0.08566845 -0.095806055
0.18234201 -0.13693447 0.19483107
-0.014995673 -0.021231176 -0.03871402
0.16641358 0.15712827 0.11069429
0.060856268 -0.18601021 0.17667101
-0.14779475 0.18481421 -0.2753223
0.021390408 -0.031629678 0.20490882
0.26623663 -0.0015224653 0.1019369
-0.1274906 0.02047511 -0.15353405
0.22012782 -0.0761912 -0.04611784
-0.23034947 -0.024607405 -0.2026789
0.01751696 -0.0728517 0.19111802
-0.19211124 -0.0004942952 -0.32952064
-0.05996934 0.13433532 -0.080732614
0.08477196 -0.008304897 0.17550156
-0.11416672 0.20408334 -0.2548211
0.095217414 -0.26246 0.08382757
0.11530068 -0.017400732 0.26404923
-0.12328122 0.08722677 -0.40112522
-0.05159475 -0.14296214 0.19569375
-0.02614284 0.069986045 -0.14441969
0.008278019 -0.14475518 0.1919423
0.08354945 -0.18127368 0.03521618
0.048833594 -0.02046572 0.23810601
0.2582969 -0.008218164 0.14306536
0.18374015 0.05236477 0.13507947
-0.2467493 0.2181727 -0.26249653
-0.31728515 0.0473483 -0.2540654
-0.07299684 0.07538356 -0.056966264
0.08748446 -0.21140057 0.15906204
-0.16153613 0.16957292 -0.4045638
0.1427147 -0.08649387 0.13860011
-0.29948804 0.082737915 -0.16847375
-0.3289988 0.12146867 -0.19569837
0.2671854 -0.061088346 0.12050147
-0.09432674 -0.052612208 -0.06578449
-0.27252004 0.14203437 -0.22569792
0.038012166 0.021889819 -0.014865031
-0.26803318 0.08597819 -0.25088817
-0.29497248 0.0013655376 -0.23213963
0.07836067 -0.18173277 0.10902934
0.14165229 0.02226184 0.20901415
-0.13049512 0.0906205 -0.16578344
0.23624086 0.02441201 0.068331644
0.16732164 -0.15794836 0.21738032
0.050480593 0.08691432 0.16578494
0.21062948 -0.034392282 0.06805922
-0.026926847 0.016588664 0.24358824
0.1393967 0.049410813 0.16663136
-0.17835757 0.05387794 -0.26525414
-0.22547056 -0.04241181 -0.276026
0.108357504 -0.13224062 0.19200933
0.03768278 -0.16203685 0.139187
0.022089545 0.06935042 -0.060475398
0.24791357 -0.12422625 0.0963237
-0.107509136 0.078463815 -0.23148507
0.08476777 0.10702915 0.18093826
-0.11624274 0.004664303 -0.28070414
0.15742327 0.031791087 0.2210207
0.14320028 0.0392859 0.062798105
-0.27988178 0.014424084 -0.28844923
0.16150025 -0.08411784 0.13449456
-0.29927167 -0.01895643 -0.28970397
-0.3183661 0.06956648 -0.3185065
0.0657665 0.045448333 0.19819413
-0.2560338 0.094790995 -0.23325847
-0.24618497 -0.02001258 -0.23440674
-0.10261924 0.12834166 -0.1567244
-0.17735319 0.080166385 -0.17329657
-0.24057397 0.04670289 -0.28159747
0.1317299 -0.11137951 0.2462898
-0.020257534 -0.08743741 0.17107815
-0.009119816 0.023873018 0.02159362
0.023984311 -0.08163976 0.22328743
0.25708795 -0.011510269 0.20712447
0.20913255 -0.080589935 0.19402075
-0.055082098 0.0892817 -0.06252138
0.09167463 -0.1733584 0.14348702
0.10102124 -0.095086314 0.118407235
0.19769573 0.00897398 0.14987592
0.014034939 -0.15997805 0.07982521
0.20362255 -0.027520303 0.22137712
-0.26887298 0.13665965 -0.24899109
0.07985694 -0.2282431 0.112370804
0.119848855 -0.13224846 0.21472573
0.046247378 -0.17402944 0.069196805
0.20087449 -0.19540742 0.15671283
-0.11758425 0.05502981 -0.13922249
0.07672824 0.021864794 0.21867664
-0.12430436 0.15992254 -0.32475516
0.10073416 -0.027708678 0.22504778
0.18315476 0.09664432 0.1548458
0.25609887 -0.12422735 0.11469249
0.1533042 0.05023932 0.20952943
0.28299043 -0.09410304 0.06903252
-0.005794636 -0.12549055 0.22795488
-0.20036902 -0.040835023 -0.26391315
0.03697218 0.07885016 0.023514079
-0.21261908 0.0020497162 -0.28119442
-0.09588924 0.053945143 -0.07817095
-0.12754369 0.037704006 -0.09776739
0.06999234 -0.09064073 0.25432158
-0.2866228 0.09690767 -0.21110763
-0.21172373 0.056564264 -0.24978107
0.1634146 0.039188698 0.12694104
-0.024093404 -0.004425927 0.16619408
-0.040904842 -0.06969104 -0.06816921
-0.26514375 -0.02980732 -0.21941148
0.14647537 -0.067912504 0.23389213
-0.050648347 -0.04864616 -0.018468857
0.11896208 -0.13732809 0.1643981
-0.3245837 -0.008039998 -0.31273907
0.25018498 0.060314875 0.08971447
-0.14241312 0.18120112 -0.24372874
0.2443561 0.03333796 0.16443852
0.01258491 0.027058264 -0.057495516
-0.0028484445 -0.049006764 -0.037990563
0.19978732 0.12542316 0.11476897
-0.34009472 -0.0075496645 -0.3469603
0.06888214 -0.225369 0.027721502
-0.0724007 0.02757632 -0.39449757
-0.22795191 -0.08146361 -0.34106022
0.07160286 -0.13151146 0.2422858
-0.1632281 0.1041145 -0.31287915
0.07377753 0.0636031 0.18045892
0.30067655 -0.08400444 0.119152926
0.025204962 -0.048263878 0.1371222
0.1721699 -0.15371569 0.09914068
-0.027084611 -0.014288061 0.21319921
0.13326268 -0.049675725 0.16809545
0.1499215 -0.097481154 0.18186554
-0.04835543 0.075759105 -0.005197804
0.061532605 -0.16380371 0.22300343
-0.096072465 0.017652066 -0.25440535
0.2370992 -0.10499337 0.24367727
-0.13449365 0.0020875987 -0.09201051
0.175354 -0.12708864 0.18271099
0.16056533 -0.1376601 0.094520435
-0.04507678 0.044831056 0.027009526
-0.14818424 -0.039946694 -0.17308693
-0.020252848 -0.0966899 -0.032258727
0.14120659 -0.17494933 0.15681364
0.07077103 0.013431157 0.21573815
0.03239689 -0.049741182 0.17789356
0.07611762 -0.08915379 0.20683259
0.2646979 -0.12043739 -0.03609992
0.23421004 -0.0967201 0.15523784
0.14635773 0.14413396 0.1084681
0.05541293 -0.114650406 0.17562084
-0.08146891 -0.014460677 0.024966966
0.13260208 -0.09813387 0.18380918
-0.042562574 -0.14796916 0.13080683
-0.14024429 0.072898775 -0.14065497
0.1542937 -0.010623746 0.21122208
0.0972475 0.028656652 0.23337986
0.01683632 -0.10620974 0.13656773
0.29326457 -0.056643803 0.17670068
0.24239962 -0.015466884 0.15553743
0.15601169 -0.039281577 0.16508447
0.05444166 -0.16805702 0.059516337
0.08295448 0.1330349 0.15022437
0.034638926 -0.003331073 0.21595073
-0.1348299 0.14344731 -0.15619594
0.15480334 -0.06953351 0.22465993
0.16430596 -0.116661295 0.11287559
0.26099822 -0.11692692 0.10149324
0.09461065 -0.21388566 0.12562512
-0.11542274 0.13600293 -0.23869301
0.21159625 -0.05509419 0.18603238
0.18404327 -0.15378569 0.2237196
0.19725114 -0.1830496 0.18488711
-0.29343528 0.05415645 -0.276772
0.11897321 -0.06514086 0.25792292
0.2154679 -0.09262167 0.131714
0.02279969 0.023081215 0.16614498
0.256335 -0.0060098157 0.15600118
-0.2507618 0.19234967 -0.22671144
-0.2818247 -0.023748059 -0.21796308
0.0399281 -0.020515414 0.24726336
0.067150965 0.041568283 0.24885498
-0.03532497 0.04047316 -0.14637889
0.2774115 -0.04487226 0.13790998
-0.09054394 -0.041865624 -0.35292807
0.14054404 -0.17011254 0.13608868
-0.11918789 0.19141059 -0.23000512
-0.08521848 0.114896916 -0.026945984
-0.29932198 0.15794086 -0.23559348
-0.35274327 0.036489468 -0.25378168
0.21618822 -0.11729824 0.14667025
-0.15345092 0.19855203 -0.28513336
-0.29940903 0.15162587 -0.21389005
0.26579478 -0.10352153 0.14011733
-0.049098644 0.14366439 -0.32039174
0.008470527 -0.17532267 0.16758926
-0.21442062 0.18978871 -0.39021215
-0.10166119 0.13081722 -0.22297113
-0.2611742 0.050056353 -0.23601088
-0.09868523 0.08457894 -0.32616135
0.18491851 0.13644151 0.12453394
0.2768781 -0.09886833 0.16702725
0.26541656 -0.12739766 0.05551335
0.22585723 0.0765529 0.14520547
0.010492822 -0.097929135 0.2177946
-0.1188344 0.004813841 -0.062047377
-0.08682131 0.12106153 -0.33433354
-0.052401893 -0.055374004 -0.04045835
0.132497 -0.04028084 0.17627107
-0.023222577 -0.030795323 0.04004107
-0.05679953 0.08212015 -0.076455876
-0.110840455 0.07014958 -0.15435481
-0.17292234 0.15985775 -0.27525532
0.23209211 0.056508146 0.0421488
0.1625687 -0.114152156 0.13139571
0.15986572 -0.096270725 0.16281912
0.03118216 -0.21779016 0.11024174
0.2835207 -0.06379645 0.100364745
0.1836794 -0.14491081 0.111442685
0.11872289 -0.096834 0.16032687
0.15700123 -0.053355724 0.2023794
0.0772623 0.014878855 0.1638313
0.04245346 -0.016406875 0.09659447
-0.12528247 0.054129064 -0.14609018
0.2921275 0.013948397 0.078753844
0.027844874 -0.10647392 0.031139724
-0.25713268 -0.041257612 -0.24078055
0.10136785 -0.0054481532 0.20239337
0.028044347 0.013145018 0.17235835
0.16836613 0.07688151 0.19278347
-0.0073882593 -0.21909481 0.11808044
0.29152283 0.033825304 0.021360556
0.048043307 -0.05871564 0.21173865
0.0013293818 -0.04513756 0.15913309
-0.18417573 0.10752317 -0.2260238
0.18933198 -0.1658209 0.0012813025
0.23237543 0.030008385 0.17042725
0.0209616 0.043228585 -0.07730038
0.06480967 -0.08731722 0.13755095
0.1593961 0.067468286 0.17618808
-0.26581007 0.18034235 -0.29769078
-0.1787564 0.036476374 -0.2197211
-0.24302952 0.022645103 -0.20587695
0.101157986 -0.047360737 0.17863068
0.037526257 -0.01128506 0.14478694
0.1758534 0.032772705 0.14189284
0.018962266 0.0313828 0.18750393
0.11110112 -0.1126518 0.23704408
-0.34936947 0.040456656 -0.21484727
0.1031354 0.013634299 0.28075212
0.22663052 -0.087910675 0.14542839
0.25320613 -0.16876279 0.00028751377
-0.14862585 0.087386616 -0.24870306
-0.1374736 -0.011138262 -0.22767964
0.09665423 -0.16375344 0.17982286
0.08173394 -0.05515506 0.13107401
-0.013820724 -0.011796398 -0.019099839
0.059116766 -0.06279929 0.109862246
0.16279654 0.06678922 0.19354102
-0.01198708 0.09971059 -0.0018504544
-0.16712882 0.061049346 -0.090739936
0.10600194 -0.05711625 0.24749216
0.16189137 0.12265136 0.13928784
-0.024081396 -0.10126864 0.21929267
0.22870876 -0.16737211 0.09866329
0.17771432 -0.085519634 0.22287205
-0.30063 0.08756752 -0.23890293
0.18411662 -0.07946616 0.20636258
-0.110985756 0.19969365 -0.3525153
-0.15246285 0.08227176 -0.24781694
0.06807311 -0.23419432 0.081677854
-0.013161256 0.038297195 0.2290703
0.113928 -0.20184067 0.13022497
-0.27523318 0.107354134 -0.25702947
-0.10422823 0.09699857 -0.11455579
-0.19278146 -0.026220907 -0.2860089
0.011847608 -0.031536352 0.17194559
0.06714213 -0.10242137 0.18291926
-0.21014242 0.06810757 -0.21273795
-0.122515514 -0.026746096 -0.22152919
0.2084419 -0.12322051 0.022087848
-0.21138643 -0.01068018 -0.19391443
-0.05610617 -0.007485292 -0.17760798
0.23944621 -0.12376688 -0.00032892576
0.05568588 -0.13345762 0.26881075
0.12034608 -0.074563704 0.2574481
0.17712057 -0.09356261 0.19379272
0.017524157 -0.091086 -0.05917456
0.00156382 -0.18822883 0.1363285
0.036057588 -0.06059312 0.16724835
0.0719466 -0.052496232 0.18420327
-0.26597956 0.027770406 -0.2292742
-0.24318013 0.002679593 -0.23570067
-0.19823821 -0.030394107 -0.23670037
0.09599478 -0.04645443 0.16221964
0.2154668 -0.049171623 0.2041997
0.25912547 -0.15854217 0.011546978
-0.2859142 0.01038309 -0.30076107
0.14868063 -0.11564092 0.20096773
-0.051769834 -0.0072487015 -0.06286039
0.19651157 0.025395641 0.078774445
0.22760251 0.10571467 0.09850746
-0.03605518 0.105980024 -0.057283517
0.207927 -0.09720353 0.07370117
0.23591903 0.03766245 0.12927765
-0.00792101 -0.00660527 0.26456702
0.00429326 0.079080604 -0.10812408
0.15162624 0.07488221 0.12723698
0.09438699 0.06918614 0.1318552
-0.140332 0.03267039 -0.13391666
0.027949693 0.018795563 0.11435223
0.25023124 -0.0036301443 0.0554628
0.10015411 0.07674556 0.11532397
0.056787018 0.11678983 0.24078642
0.1438549 -0.054440375 0.21805707
0.14659758 0.02034968 0.1736663
0.037530143 0.053212352 0.20696421
-0.07490481 0.0044136345 -0.34146878
0.12115709 -0.068047516 0.21598352
0.26165408 -0.11114664 0.08934646
-0.1617152 -0.001711784 -0.13617913
-0.27821076 0.05576796 -0.20071477
-0.04163507 -0.016892351 -0.035112582
-0.32214636 0.1478466 -0.2595092
-0.14140578 0.113643065 -0.112704456
-0.052586634 -0.03714812 -0.03934026
-0.029395485 -0.048629183 -0.04798467
0.10748827 -0.13081071 0.21967244
-0.34479025 0.026542675 -0.1764982
-0.34825268 0.041061137 -0.16769707
-0.20409451 0.037023373 -0.21157959
0.04939972 -0.023941096 0.20610297
0.020350108 -0.2260874 0.13638456
0.21904689 -0.025437446 0.17411564
0.28049618 0.048495553 0.034123093
0.18822764 -0.21854462 0.1550904
0.14769946 0.09929131 0.15979083
0.11935411 -0.13098371 0.22785507
0.07235086 -0.09616173 0.1832545
0.22533943 0.05469939 -0.004103864
-0.23534665 0.15066993 -0.1759357
-0.26207954 0.05792486 -0.2577185
0.029461479 0.06956755 -0.03363038
0.16256669 -0.1840712 0.13992977
0.14981434 0.018122178 0.1650142
0.2717359 0.05247551 0.01842266
-0.15398929 0.100400805 -0.1926057
0.27441192 -0.1259613 -0.0011642087
0.15035327 0.13584648 0.21579172
-0.097254425 0.1904568 -0.27618217
-0.24571665 0.049262226 -0.23745799
-0.23288697 0.097997025 -0.22209163
0.0053614555 -0.1941616 0.20108792
-0.009023417 -0.0041973963 0.22741742
0.1330195 0.0037907 0.20704278
-0.01371869 -0.16600336 0.16270433
-0.07396198 0.033512168 -0.1107049
0.15744835 0.045995057 0.16949345
0.20329572 0.032902293 0.10923388
-0.015933733 0.09917409 -0.14597222
0.30210584 0.033159036 0.01995774
-0.12206491 0.066019036 -0.046962813
0.06287658 -0.033854526 0.23227108
0.1713387 -0.16835469 0.098652296
-0.17216106 0.2572387 -0.28562456
0.16030438 -0.082566015 0.1591131
0.031947073 -0.068348445 0.23294523
0.14855102 -0.07210147 0.23616984
-0.07224169 0.19646467 -0.28952163
-0.09865753 0.01096403 -0.32975134
0.15873466 -0.16149645 0.008319358
-0.30948773 0.030269165 -0.3141003
0.13796864 -0.046421077 0.173587
0.26625288 0.00029889846 0.10905832
0.10846609 0.055972625 0.17312385
0.121222734 -0.08166042 0.21751863
-0.14524314 0.04613508 -0.12681943
0.07072909 -0.0006499714 0.20738953
-0.36503267 0.08239725 -0.30382735
0.118805274 -0.20676965 0.09160613
-0.18648249 0.11375688 -0.18546037
-0.16602333 -0.033158574 -0.3826417
0.1398011 0.071414806 0.18183479
-0.14486541 0.0010055485 -0.10418463
0.29509798 0.07790508 0.036661938
-0.28148302 -0.041393694 -0.29372177
0.028328791 -0.06107954 0.19416521
0.10949019 0.044551864 0.20630749
-0.36592397 0.18903667 -0.28090775
0.089610666 -0.18113942 0.17488445
-0.25683448 0.13464472 -0.20327716
0.0993019 0.05209465 0.085852824
0.26497668 -0.13375947 -0.04372494
0.12277146 -0.0691554 0.14572889
-0.12531501 0.13169986 -0.14775623
0.10620667 -0.009128093 0.25429654
-0.14591962 0.11518642 -0.30014962
0.14830261 -0.048703298 0.19206272
-0.008589424 -0.084670566 0.20763521
0.23140071 0.05554378 0.0952025
0.054729782 -0.10689031 0.16035736
-0.3014033 0.08729777 -0.25954095
0.26850057 -0.09073399 0.12482503
0.179175 0.029399307 0.22224787
0.19754337 -0.022852302 0.23942232
-0.033880148 0.086375825 -0.09022412
-0.02633371 0.020269522 -0.05954697
0.2231201 -0.035099704 0.17517132
-0.064865485 -0.015202108 -0.37839076
0.07881066 -0.12869485 0.13157573
0.16303907 -0.095079705 0.17676458
-0.17146254 0.071045496 -0.21208952
0.17835274 0.06580457 0.060705774
0.22569172 0.05304809 0.069554634
-0.05291735 0.031137664 -0.092755325
-0.0756975 0.020312494 -0.060862612
-0.01839891 -0.041488 -0.05691439
-0.2976044 0.10787082 -0.23356725
-0.07164868 -0.02017033 -0.0006131307
-0.16849762 0.1424354 -0.18206722
-0.21300979 0.005202244 -0.23975475
-0.03791562 0.041225687 -0.09194887
0.031217689 -0.1299643 0.2157406
-0.082092084 0.0022884973 -0.36102596
0.082742065 0.05078994 0.16210708
-0.2319104 0.1644465 -0.19308375
0.23313218 0.056701005 0.032678783
0.17444019 -0.14657508 0.12875661
-0.02055111 -0.04077507 0.033329908
0.07967736 0.0032840031 0.24059676
0.08345664 -0.019580634 0.23715404
-0.25329995 0.16764267 -0.34087628
0.0316537 -0.0053109447 -0.004715172
0.25003317 0.024966188 0.05677661
0.13605803 -0.1857294 0.094198436
0.19348301 0.10023729 0.046192516
0.22559829 -0.15359001 0.08548801
0.12934968 0.006964558 0.14750175
-0.037154835 0.005691486 -4.753472e-05
-0.13389437 0.107393496 -0.30869487
-0.14095236 -0.0750495 -0.27333826
0.10733981 -0.104513 0.24727377
-0.13742977 0.072763726 -0.15731557
-0.26319593 0.24222298 -0.31442147
0.16111083 0.046487704 0.19449452
-0.2695336 0.2011999 -0.28105578
-0.06453645 -0.014585346 -0.080460824
-0.03807823 -0.003939993 0.040783543
0.24273367 -0.012967377 0.20196745
0.022548424 -0.23639558 0.15265784
0.13730079 -0.25020212 0.01976511
0.2221815 0.11824295 0.1261621
-0.071944445 0.032765143 -0.017704958
0.11984199 0.036185946 0.058999702
0.052365787 0.07930194 0.13141254
-0.23110549 0.14898346 -0.19471905
0.14979273 -0.17503528 0.15829031
-0.13390948 0.09114882 -0.15252703
0.19104569 -0.08269752 0.2534377
-0.043633696 -0.16111659 0.21852471
-0.2075695 0.17469478 -0.27597353
0.15228072 -0.027993022 0.21961719
0.006319211 0.06171623 -0.06257376
0.29823348 -0.11932898 0.008574078
-0.28246626 0.18051617 -0.26333213
-0.27455524 -0.016799768 -0.33275452
-0.1835858 0.16295844 -0.2684544
0.123261996 -0.10814174 0.16400288
0.22282231 -0.051523 0.1667073
0.1653734 -0.07449688 0.24195951
0.19685481 -0.19351102 0.18324913
0.18657826 -0.13611469 0.16117057
0.17181855 0.0048107128 0.19365811
-0.16646649 0.026571093 -0.26441088
-0.033247214 -0.012898061 0.16153094
0.23383452 -0.0018432973 0.033048004
0.21136238 0.14629723 0.12080729
-0.31690547 0.11083096 -0.22711422
-0.25987676 0.02648087 -0.20388463
0.1219927 -0.15820132 0.13334532
0.06479172 0.04562998 0.1757636
0.20206475 0.107927725 0.06996667
-0.07104832 -0.039371558 -0.043770045
0.05508746 0.10341516 0.11529174
-0.15474461 0.010568788 -0.23816401
-0.25390443 0.05074425 -0.21017998
2.0130958e-05 -0.112803325 0.22633584
0.089504294 0.021796905 0.17754018
0.109205246 -0.19657117 0.11319947
0.059790656 -0.027652733 0.17861933
-0.04389963 -0.12740344 0.17259613
0.14309676 -0.11194228 0.22755393
0.20137335 -0.10829292 0.22525693
-0.0035072826 -0.13404356 0.18289877
-0.28720844 -0.07610751 -0.24248953
-0.2259761 0.17387073 -0.1898493
-0.31563964 -0.00809785 -0.16491413
0.27904227 -0.1366205 0.037826426
0.15220618 -0.042525757 0.15615182
-0.16125561 0.08779239 -0.16324656
0.25395846 -0.0039927005 0.18281244
0.058988124 0.0151436245 0.27094692
-0.25807247 0.14543867 -0.1845948
0.15787897 -0.04038731 0.20600972
0.053061195 -0.116304345 0.19551617
-0.24836713 0.13162155 -0.2297465
0.010576074 -0.037552487 0.17443193
-0.24701332 -0.07580202 -0.31938654
-0.23146662 0.08891203 -0.22748244
-0.2385292 0.17768441 -0.20887828
-0.082568996 0.12564336 -0.10554517
0.08468648 -0.1401601 0.08233303
0.16331114 0.1505109 0.0874747
0.026485948 -0.03573746 0.17047289
-0.21134521 -0.016122008 -0.21134324
0.18975896 -0.19842999 0.15889484
-0.070783794 0.20180337 -0.30546233
0.09331374 0.05914014 0.2442703
-0.16494876 0.05597114 -0.14713779
0.15616675 -0.071755774 0.27102178
0.09745068 0.029091382 0.23859704
-0.17525272 0.12565094 -0.2074558
0.0686855 -0.061255828 0.20936653
0.08652736 0.046597578 0.22284222
0.25003403 -0.1545267 0.14088632
0.06545857 -0.2250871 0.0912059
-0.038373362 0.14253533 -0.26250726
-0.28129715 -0.047440182 -0.26693255
0.13913652 -0.0508307 0.19429491
-0.28215644 -0.008226915 -0.25205904
-0.27140328 0.16123201 -0.22928652
0.15731487 0.0328028 0.16148917
0.16424197 -0.10350678 0.18774761
-0.12637015 0.026570419 -0.23967063
-0.15350957 0.06853306 -0.15252903
-0.1495072 -0.016058793 -0.25966185
0.055771936 0.058023527 0.18526737
0.104052804 0.036948107 0.20512465
0.015560353 -0.07747336 0.21594174
-0.25977722 0.09525565 -0.17993134
0.18099594 -0.20860903 0.09158948
0.10090619 0.1101679 0.15659876
0.1512254 -0.22398283 0.18447495
-0.20813118 0.18201642 -0.23683356
0.18727238 0.02259846 0.13215059
-0.19279271 0.10430107 -0.1156729
-0.24639666 -0.026944326 -0.24151567
0.22667375 -0.09195808 0.17503507
0.052169956 0.018415138 0.20895618
-0.03653418 -0.018904904 0.18528944
0.19660625 -0.080493666 0.18547556
0.087405555 -0.1294426 0.1514751
-0.06786662 0.013463682 -0.05445459
0.26079646 -0.047951777 0.16783316
-0.2766398 0.11318712 -0.20112495
0.19765793 -0.08788415 0.21991031
-0.12774195 0.24216063 -0.27323207
0.14751339 0.11362218 0.1500883
-0.08070203 0.23371501 -0.31004676
-0.2177319 -0.019253444 -0.19767182
0.06354524 -0.15740411 0.124640785
0.06739461 0.0945177 0.18935762
0.065630995 -0.056316625 0.19097683
-0.21331945 0.10326354 -0.20304637
-0.34505957 0.046986196 -0.26611483
0.19466212 -0.07487103 0.11233388
0.062010095 -0.038142517 0.18056193
0.061917566 -0.06490417 0.19228669
-0.27167195 0.092140384 -0.32228687
0.11735323 0.04996699 0.16989455
-0.15125932 0.002896359 -0.35571072
-0.16039535 0.001642551 -0.10573022
0.017918082 -0.053904466 0.1424611
-0.014825547 0.04282941 0.2554941
-0.18923399 0.08379288 -0.21192661
0.052468948 0.06064789 0.17742933
