# .PCD v0.7 - Point Cloud Data file format
VERSION 0.7
FIELDS x y z
SIZE 4 4 4
TYPE F F F
COUNT 1 1 1
WIDTH 1000
HEIGHT 1
VIEWPOINT 0 0 0 1 0 0 0
POINTS 1000
DATA ascii
-0.3157252 -0.09161653 -0.021053253
0.24155696 -0.054371882 0.0045264405
-0.071080126 0.2504228 0.09875955
0.037016988 0.29141688 0.0054037217
0.2693316 -0.36804777 -0.016499098
0.12893511 -0.15180644 -0.041023705
0.038607106 0.008615313 0.12710878
-0.25878304 0.24271643 0.025739295
0.209328 0.25736287 -0.011770811
-0.27641574 0.093307264 -0.054729648
-0.23313932 -0.16022155 -0.11832524
0.17029157 0.19082561 0.08399647
0.11744236 0.12799862 0.07698156
0.12552366 0.24670227 0.049213532
-0.07102422 -0.25620824 -0.063805275
0.07805128 0.17837483 0.07251621
-0.21151148 0.007641281 0.015131317
-0.06523188 0.3085735 0.03640129
0.0076968786 -0.19881094 -0.017845038
-0.14933793 0.21294367 0.074102096
0.15888171 0.08325665 0.079451725
0.12572816 -0.070796 -0.04992397
0.11766929 -0.30281407 -0.06139309
-0.31005546 -0.027871888 -0.045814093
0.12016749 0.067234546 -0.010826516
0.109922074 0.20515682 -0.014774259
-0.16592073 -0.03646576 -0.012079607
0.11886791 -0.13909423 -0.032936342
0.09958309 0.018064491 0.01737255
0.21661435 -0.0148452725 0.037748046
-0.34644124 0.06930229 -0.04169114
-0.028196614 -0.108467594 -0.0012265258
0.27467525 -0.063365504 -0.026136165
0.24582599 -0.30462766 -0.056642372
-0.2155898 -0.15974228 -0.04872884
0.048669547 -0.18177877 -0.11332267
0.14320832 0.27259767 0.047291186
0.1778982 -0.06689744 -0.0770841
0.13293283 -0.29779682 -0.02223086
-0.024254976 0.3562747 -0.03698265
-0.23291968 0.045747552 0.018350687
0.24617577 -0.007740133 -0.05036369
0.19922742 0.1967892 0.04454826
-0.049945932 0.1754594 0.0353464
-0.09524762 0.14250006 0.038858235
-0.101886936 0.025491199 -0.010714344
-0.03818339 -0.19496775 0.0066280398
-0.21084586 0.29289007 0.037159786
-0.25591937 0.06495789 -0.035713367
-0.13475189 -0.18637057 -0.107535
-0.21867687 0.08013111 0.079153575
-0.030641755 -0.08042884 0.09318584
0.2522705 0.012434652 0.02548754
0.301261 0.10118242 -0.053040907
-0.22440222 -0.045234486 0.022057751
0.2882517 -0.100175165 -0.05457012
-0.11500648 0.06047121 0.019113516
-0.3072503 0.15574154 -0.022140263
0.11116812 -0.3048553 -0.06358349
-0.09282659 0.17873985 0.09652868
-0.31365106 0.21149191 0.049663488
0.13770492 -0.16596293 -0.09551628
0.019288179 -0.21049866 -0.08652585
-0.088476345 0.2056973 0.06864119
-0.010230877 0.12727 0.11043917
0.07211692 0.2951527 0.030383399
-0.31630033 -0.019774217 -0.03031786
0.0023739312 0.27497628 0.03304267
0.054425396 0.20950165 0.033799242
0.015604678 -0.19935125 -0.058748774
-0.108878925 0.007814991 0.16613542
-0.18174879 0.23837078 0.02053771
-0.2159087 -0.11463898 -0.030517133
-0.065707795 -0.28338578 -0.10094049
0.26343206 -0.2819821 0.0022349178
-0.23068102 -0.06712639 -0.0047749565
-0.05220152 -0.13712057 0.11134689
0.14906086 0.31377965 0.02592759
0.27342844 -0.07508092 -0.042842954
0.13706024 -0.18146776 -0.029335361
-0.059173737 -0.018764155 -0.051860377
-0.004500757 0.24007356 0.046306
-0.12576754 -0.11988098 -0.052006178
0.010898386 -0.10665491 0.04104626
0.10722931 0.29497424 0.0339219
0.21770267 -0.28389552 -0.012504651
0.24093176 -0.2982879 -0.0033676587
-0.2594695 0.22280745 -0.05127197
-0.0670211 0.25100842 0.068932876
0.17482929 -0.25169072 -0.0054131662
0.03172478 0.10055863 0.003697062
0.11345923 0.18713532 0.04142854
0.10158843 0.07246615 0.0065618297
-0.17103113 0.22874583 0.06400824
-0.12741058 -0.20863712 -0.025421431
-0.036566366 0.23918751 0.016473617
0.03553051 -0.2739941 -0.066520534
0.19530392 -0.24857198 -0.035545565
0.20365928 0.06118316 0.020308824
0.117558286 0.16322947 0.07528523
0.1023606 -0.017931482 0.11782751
0.05869765 -0.10413714 -0.049270973
-0.3161327 0.2060422 0.034345992
0.12666261 0.20611572 -0.01564386
-0.0051797437 -0.11604112 -0.07976649
0.039406452 0.28588995 -0.013313493
-0.18222979 -0.050177656 -0.02981843
0.10878476 -0.30201343 -0.0168224
-0.16970046 0.28420025 0.033178873
0.049761795 0.0017677959 -0.048913974
0.103236 0.2531048 0.070892274
-0.041941494 -0.10537726 -0.024667058
0.26980117 -0.0074039293 -0.060089
0.16987726 -0.15680197 -0.08230007
0.06381443 0.12582746 0.034715783
-0.14247487 -0.04748149 0.010905492
-0.019847367 -0.265793 -0.049980663
0.23165832 0.074742645 0.026453353
-0.122889414 -0.22775047 -0.08412304
-0.11398074 0.25346464 0.06834447
0.16081347 0.0017749987 0.0477344
-0.2989092 0.091875866 0.0024925328
-0.1331155 -0.07512095 -0.017127166
0.12477765 0.015254064 -0.010729347
-0.1553145 0.20747744 0.084346436
0.030289117 -0.08098217 -0.06597991
-0.123290375 -0.043397907 0.048340928
-0.124675594 -0.19786118 -0.011223622
-0.07045996 0.2674475 0.037482817
0.21372986 0.0105250785 -0.031244947
-0.27974698 0.065150015 0.033832505
0.093705945 0.12495389 0.05134763
-0.18586212 0.18175878 0.057960887
0.11889925 -0.042146347 0.13012977
-0.06260783 0.34990492 0.01656674
0.030445328 -0.19564077 0.0017323866
0.19936174 0.02368562 0.00905849
-0.2785018 -0.0095871715 0.03347137
-0.22968614 0.055980884 -0.03153489
0.09483189 -0.16949649 -0.09391494
-0.24773195 0.05606764 0.03703573
0.08046312 0.28385672 -0.007462733
0.08501779 0.26272258 -0.004032462
0.121657394 -0.3193056 0.020401554
0.23076254 -0.22893606 -0.044701923
0.01808171 0.2865134 0.0017304366
-0.23609042 0.16734909 -0.08582765
-0.06309826 0.1127724 0.11456963
-0.042052243 0.030291483 0.10759405
0.15892257 -0.14624335 -0.041012436
0.05991039 -0.051208276 0.0052150823
-0.18051359 0.20932887 -0.0057471003
0.093092665 0.23277354 0.051908433
-0.14197981 0.07115911 -0.054888856
-0.06414447 0.18764214 0.11440106
-0.23694225 0.1298744 0.08811407
-0.009730115 0.19146933 0.031421266
-0.30516297 -0.039959013 -0.03962652
-0.22398654 0.13355939 0.06073894
-0.23057404 -0.15741324 -0.021587035
0.084733434 -0.23993587 0.0117059
-0.31599772 0.15836197 0.017025601
0.2281171 0.06380092 0.009289595
-0.14608093 0.042008623 -0.03991541
-0.13665648 0.10992101 -0.006117559
0.1892188 0.13426353 0.037934333
0.12943585 -0.29208928 0.045312386
0.15474926 -0.28258765 0.039615892
-0.21797259 0.15796246 0.025743037
-0.09328908 0.21091706 0.017295856
0.16583547 -0.33652377 0.033822108
0.21134493 -0.31642517 0.004695635
-0.2173512 -0.16849194 -0.060817275
-0.0855923 -0.046738937 0.07886485
0.16500224 0.2882241 0.07071641
-0.23039377 0.17637354 0.03288043
-0.09689465 0.030752443 0.04854129
-0.1596253 0.114927806 0.040195946
-0.1539249 0.3249035 0.032108996
0.1213592 -0.2638422 -0.045487966
-0.12954284 -0.17491408 -0.024297232
-0.2947823 -0.028726252 -0.05336583
-0.20581831 -0.19768634 -0.16146088
-0.16012529 0.24687532 -0.012307031
-0.14156301 -0.064924106 -0.032379977
0.006335615 -0.11759785 -0.08909594
0.017298352 0.19136886 0.09042048
0.20933817 0.07322446 -0.037097905
-0.18361169 -0.088740386 0.0003865196
-0.30877525 0.038053263 -0.010515984
0.026507683 0.119019575 0.061569184
0.18866849 0.121751115 0.029819086
0.06306592 0.32519156 0.0510976
0.11235058 0.24785732 0.023456426
0.08606815 -0.16368356 -0.05397522
-0.31624 0.10724539 0.021496182
0.1502836 -0.0027147804 -0.004337674
-0.11461687 0.1690341 0.0041301157
-0.22458163 0.036545448 0.0044834903
-0.22759016 0.10962883 -0.0051292474
0.020948676 0.13187158 0.062577434
-0.026793504 -0.21959825 -0.049723607
0.12048953 0.14877327 0.027428554
0.034331433 -0.005210868 0.079957545
-0.035229344 0.16483311 -0.0016598989
0.028479185 0.30087757 0.04079266
-0.17169271 0.2466493 0.0002456498
0.10377113 -0.08660813 -0.058161322
0.1428052 0.2761284 0.068382986
0.13314746 0.26135665 0.013571109
-0.009447374 0.26672316 0.09217121
-0.036774956 -0.23257445 -0.053942192
0.17484954 0.109443694 -0.0042974167
0.24481513 -0.110189214 -0.076810114
-0.22414756 0.027598068 0.022432312
-0.17148328 0.23432776 0.028589131
-0.017824091 0.32074904 0.022998324
-0.19321142 0.27106705 0.021474386
0.08812531 -0.30486393 0.0009776141
0.1280412 -0.18347004 -0.04303747
-0.056818966 0.17942758 0.03432955
0.19686684 -0.32428518 0.022774953
0.08804932 0.13145629 0.022145085
-0.15280698 0.13338108 0.06738869
-0.26038417 -0.0914176 -0.07170266
0.18563235 0.06892682 0.033817682
-0.008598465 -0.20127447 -0.04213056
-0.31891775 0.0474322 -0.049194373
-0.22754487 0.070132524 0.07103892
0.10858159 -0.036651075 -0.044110797
-0.18250823 0.27755946 0.065055
0.2213053 -0.0020431874 -0.011655384
-0.02263814 0.26256925 0.021725941
-0.12959918 -0.20362888 -0.07770265
-0.05182122 0.13412622 0.0757318
0.03421063 -0.20117547 -0.038787402
0.19577692 0.18347506 0.0128625715
0.1500328 -0.22911964 -0.04626638
-0.01144326 -0.11484233 0.05766389
0.2326157 -0.3433367 -0.083440855
0.31856987 0.119714096 -0.10187996
0.027411578 0.05995226 0.07201123
0.0209156 0.16795911 -0.004488501
-0.099955365 -0.12516883 0.023665441
0.17252405 0.13499402 0.035078965
-0.10353781 0.29205716 0.020742794
-0.20537858 0.19394718 0.021404117
-0.17071684 0.14747801 0.092185564
0.2607954 -0.38874856 -0.04571234
0.22372007 -0.30484104 -0.028561266
0.19002567 0.05722963 -0.042355355
0.18493806 -0.30025023 -0.04532207
-0.26639158 -0.19141217 -0.04571492
-0.1920956 -0.20386668 -0.054961983
-0.12832214 -0.18505841 -0.016711395
-0.06406599 0.30787316 0.0020608946
-0.12714624 0.22530003 0.012499558
-0.023324756 -0.2911226 -0.040395968
0.15491626 0.12030621 0.085139625
-0.27779508 0.2088577 0.03761966
0.05094917 0.25041512 0.073072
0.1691746 -0.025461154 0.013555235
-0.16451895 0.1856609 0.019464275
-0.31310692 0.065923 0.040262427
0.11917792 -0.38630947 -0.03078476
-0.20208074 0.02077084 -0.03638798
-0.20375302 0.16187112 0.023658987
0.09941997 0.14661783 0.04671881
0.10521337 0.12754136 0.06254268
-0.14422551 -0.06323957 0.10728937
-0.07778732 0.21239468 0.065557376
-0.06199028 -0.057854824 -0.05156045
-0.096818715 0.12185768 0.03245984
-0.16764402 0.32875314 0.04393018
-0.12438681 0.27733785 0.069061786
0.0023501327 -0.13372934 -0.062714286
0.09285635 0.16560341 0.027677622
0.05204395 -0.27374366 -0.07359232
0.084972605 0.285972 -0.0068948506
0.13176797 -0.2871024 0.029995061
-0.10447165 -0.08471596 -0.006752012
0.20237572 0.18681717 -0.004807734
0.2629067 -0.016786624 -0.030264992
0.16616063 -0.17749989 -0.095504396
-0.14811355 -0.06506334 0.044081558
-0.2979062 0.059409 -0.09193683
-0.0888253 0.14270309 -0.019026708
-0.033347458 -0.29186305 -0.073425636
-0.06785607 -0.11240141 0.0012056002
0.009382878 -0.14310053 -0.060815517
0.18153831 -0.023663541 -0.03198302
0.08727009 -0.16093259 -0.08133967
-0.115212046 -0.091012865 -0.019522598
-0.20067282 -0.09661396 0.038597662
-0.07754586 0.08640943 -0.002985783
0.23233606 -0.026462238 -0.048095185
0.097923644 -0.2602176 0.010241387
0.26894853 0.03108093 -0.009710311
-0.053893927 0.108899094 0.08108468
0.049686566 0.2623657 0.056812156
0.24090394 -0.38894674 -0.053471923
-0.093906336 0.016394388 0.028779766
0.08398337 -0.05172299 -0.009997747
-0.21046872 0.27107632 0.06270933
-0.21559 -0.2708185 -0.081865646
-0.27409342 0.032162257 -0.05066245
-0.07473427 0.033322003 -0.06415214
0.24663806 -0.28125498 -2.2845668e-06
-0.07805478 -0.16400465 -0.059395526
0.30358753 -0.33063972 -0.060834594
0.2798462 -0.05158317 -0.055764902
0.1377615 -0.060018722 0.022248814
0.2352405 0.0853059 -0.11617344
-0.1533544 0.036393773 -0.026949279
0.2098367 0.20184231 -0.0295836
0.24064371 -0.03604252 -0.028989512
0.015721528 0.077697255 -0.069314696
-0.21931419 0.12217595 0.03526641
0.041190755 0.30769357 0.07256557
-0.10720477 -0.0023579341 0.12893598
0.08453724 0.3025179 -0.013624114
-0.21621901 0.061866395 0.055210892
0.24920788 0.0793465 -0.0034360262
-0.19738421 -0.029408855 -0.016826937
-0.22201464 0.08530253 0.0630238
0.22446458 0.051091872 0.0018477386
-0.092977166 -0.050729714 0.06318871
0.050267704 -0.20747234 -0.023902785
-0.011476304 0.20488265 0.078658246
0.06074699 0.24826987 -0.003057703
0.073394075 -0.2538839 -0.052971654
0.18674123 0.14054486 0.022904117
-0.016017096 0.034921203 0.04023947
0.15351741 -0.13494085 -0.062559284
0.062399276 0.14493597 0.03663396
0.079733014 0.23232745 0.083277546
-0.03011062 -0.15382996 -0.041210007
0.18730268 -0.34622955 -0.035977863
0.19619006 -0.35750112 -0.020987807
0.29368803 0.068986475 0.021375345
0.29857233 -0.32347858 -0.06924016
-0.21293469 -0.25214165 -0.15734676
0.010191353 0.0795319 0.11095588
-0.2254789 -0.17207707 -0.10599414
0.3153076 -0.3831608 -0.0559574
-0.20167439 -0.25042534 -0.09542825
0.049956154 -0.08443088 -0.03357855
-0.03490994 -0.09520288 0.07740886
0.13120218 -0.2679796 0.031370346
-0.11993374 0.042030286 -0.015283881
-0.20702548 0.11274188 0.030678336
-0.012580569 0.198308 0.022665747
-0.1563162 0.14955305 -0.036943033
0.08410656 0.07066535 -0.045871224
0.0031381939 0.036569126 0.1606646
-0.15964538 0.02047143 0.06726826
-0.24820161 0.18534295 0.0076056668
-0.04216673 0.24900617 0.10559664
-0.22244482 0.21094266 0.03934447
0.09944716 -0.28325158 -0.022001432
0.19961287 -0.059742216 -0.09217339
-0.2757741 0.18351847 -0.018369284
-0.09494667 0.28888604 0.026514765
-0.316225 0.07651848 0.02906494
-0.10521272 0.1551073 0.070767134
-0.25558624 0.027795205 -0.0031593072
0.07785341 -0.28686148 0.021316472
0.19339754 -0.13494356 -0.055126213
-0.22922747 0.23840779 -0.014070112
0.17433079 0.014195677 -0.0019423121
0.081066914 -0.24881 0.0083142435
-0.12324003 0.035450295 0.014329753
0.21760379 0.06081268 -0.034057774
-0.028385699 -0.117005736 0.034066707
-0.11387412 -0.061063465 0.106573544
-0.030223748 -0.24069536 -0.065786704
-0.0014643453 0.08543236 0.1576642
0.032642167 0.12163637 -0.045377284
0.08313412 0.32611582 0.05613331
-0.31448117 0.071205474 -0.00044157726
-0.23254043 0.11744289 0.060993068
0.066778824 0.305409 0.069971286
0.055594012 0.089183494 -0.04464034
-0.09262859 0.11440392 -0.01190237
-0.08369433 0.07244264 -0.024967365
-0.19997708 0.060476482 0.06524355
0.05172355 0.18192081 0.03286343
-0.23765025 -0.12203777 -0.054334473
-0.12277959 0.33539933 -0.0050005023
0.08462153 -0.11353764 -0.01709245
0.061151292 0.05701278 0.1481924
-0.19551213 -0.010665814 -0.009731502
0.1048605 -0.05896974 -0.06273853
-0.08931221 0.06333448 0.03658109
-0.16811715 0.17699188 0.10084013
0.093319386 -0.053669572 0.06741109
-0.15855245 0.079755135 0.035830155
0.20569015 0.013478648 0.0473965
0.20983844 -0.2609289 0.008724083
-0.07514621 -0.2458449 -0.075916246
0.021561135 -0.07841326 0.07060021
0.2945141 -0.023526784 -0.080019
0.07424421 -0.06180529 0.1217608
0.117683336 0.0006837137 0.024242992
0.30299544 0.10223258 0.027282057
0.15446174 -0.22018771 -0.028846752
0.12360509 -0.29345462 0.045708165
-0.10959587 0.23313254 0.08808427
-0.056018148 0.17512739 -0.036546554
-0.34452507 0.1425316 -0.004547649
-0.14977455 5.3304804e-05 -0.014572111
-0.23890218 -0.1645032 -0.016852127
-0.09953116 -0.056736387 -0.096850246
0.25468808 -0.0906503 -0.03452964
0.10629238 -0.19436982 -0.010701119
0.20561275 -0.33549914 0.010021355
0.2343683 -0.123065054 -0.022525525
-0.016699048 -0.16846335 -0.0355369
-0.0016732417 0.21107097 0.06009106
-0.068389535 -0.12489286 -0.011905934
-0.110698804 -0.030019822 0.092023075
-0.17795631 -0.055389196 0.0059951534
0.013839553 -0.27903733 -0.025854243
-0.20408465 0.0149967875 0.0448875
-0.1631134 -0.1776939 -0.1219707
0.1630119 -0.2686232 -0.01899711
-0.1075047 0.13989611 -0.02377853
0.020159177 0.18127687 0.08560097
0.20809749 -0.070138305 -0.0239846
0.1942009 -0.07468592 -0.0014388711
-0.29050207 0.14439592 -0.01885945
0.20638245 -0.12259802 -0.049635522
-0.09928391 0.149783 0.08543495
0.1987835 -0.31399244 0.0042973887
-0.21504632 -0.22367059 -0.114781536
0.18665949 0.1227969 -0.0041152663
0.0879582 -0.041107774 -0.09535846
-0.17087641 -0.12667441 -0.06418985
0.18749739 -0.35734308 -0.043594666
-0.020852035 0.107614264 0.013391514
-0.10984994 0.058885824 -0.017544376
-0.088653155 -0.09847638 0.06590395
0.12689245 0.02401863 -0.04077771
0.29956102 -0.40484554 -0.046956733
0.09778091 -0.25004157 -0.07547625
0.024006084 -0.065646626 -0.034998473
-0.09379354 -0.2067771 -0.050277352
0.12002764 -0.06495761 0.06879071
-0.06638724 -0.08728955 0.03696399
-0.09166062 -0.1313582 -0.008074749
-0.19154862 -0.13347882 0.030826513
-0.05866865 -0.21811627 0.011874876
-0.17648199 0.2519345 -0.0021280083
0.065131746 0.20521833 0.05302279
0.014694342 -0.11161457 -0.10170162
-0.26509246 0.038968462 0.031360295
-0.083182015 -0.056663647 0.09098467
0.011773486 -0.13625336 0.105959386
0.15790696 -0.35236186 -0.04494109
0.22735909 -0.27848023 0.00964264
-0.16221866 -0.2523741 -0.1689273
-0.30801585 0.04840995 -0.058772795
0.21151815 0.0767648 0.047676988
-0.16460304 0.08588583 0.035682686
-0.04909193 0.3126841 -0.0110103795
0.06888946 0.32031667 0.015998732
-0.18849617 0.17983466 0.01157757
0.19529524 0.1596968 -0.035227705
0.081638 -0.035176653 -0.033329997
-0.061472427 -0.2334408 0.030974388
0.16113248 -0.36083543 0.023206225
0.24630572 0.01544593 -0.014856462
0.05293232 -0.31911063 0.033680253
-0.0034703587 -0.20780641 -0.027637456
0.26432458 -0.020614296 -0.037097212
-0.30598024 0.054971285 0.04045654
0.038348075 -0.10538558 -0.0714329
-0.11624518 -0.15999494 -0.06417798
0.100759365 -0.076486066 -0.013353729
0.11736132 -0.24650268 0.014417751
0.21860586 -0.06427441 -0.0033890286
0.018088078 0.24453056 0.005914274
0.036347862 0.15438749 0.08398444
0.07017543 -0.03008284 0.13290894
0.0023249018 -0.03709403 0.055170313
-0.32511896 0.05034369 0.00068989774
-0.24457659 0.14737566 0.011696776
0.046238013 0.06648701 0.035530705
-0.3020325 0.022864897 0.0055269627
0.14884104 0.15372385 0.04398425
0.20369256 -0.06476009 -0.00948067
0.10395177 -0.23012526 -0.08673488
-0.15494934 0.11120206 0.050940514
-0.074695855 -0.026968181 0.13089852
0.2469315 -0.03270274 -0.057290237
-0.19764729 -0.03147684 0.047189325
0.255618 -0.079708815 -0.072725706
0.14595716 0.21265623 0.01655665
0.14017765 -0.29139265 -0.026398204
-0.1956032 -0.21218926 -0.08980797
-0.24366336 0.07271438 -0.019840209
-0.23134492 0.022410065 0.010305277
-0.1772968 -0.016832722 0.0025726699
-0.21725889 -0.12965761 -0.042515263
0.25687346 0.16605182 0.03439914
0.18762122 -0.1602785 -0.036373973
0.0625518 -0.052405283 -0.066925794
-0.26347736 0.23680754 -0.0009792851
0.27053455 -0.052413866 -0.08043649
0.15354827 0.20141363 0.011900486
0.06789859 -0.12748592 -0.070610605
0.031379413 0.3267856 0.011241433
-0.18597144 -0.18095185 -0.044772718
-0.26932636 0.06325692 0.0055204798
0.27174056 0.02199612 -0.05744351
0.10638603 -0.30198786 -0.040946454
-0.14810319 0.24148877 0.02859445
-0.23504198 0.014293271 -0.008143162
0.18739626 -0.26461574 -0.019179996
0.021938747 0.2546662 0.110244215
0.13828075 -0.037203424 -0.058635928
-0.1094662 0.14386904 -0.039916202
-0.19057721 0.012577651 -0.022340408
-0.24985541 -0.19017681 -0.12799273
0.04117904 0.10252638 0.06694446
-0.26215953 -0.07472817 -0.01842052
-0.12255828 0.037022445 0.098457806
-0.020415872 0.2905459 0.06286569
0.08525228 0.13460939 0.050631456
-0.05950156 0.22217974 0.030858167
0.0132783 -0.13551316 0.086134344
-0.0020240261 -0.1511289 -0.055789378
0.20573539 0.16271916 -0.013866863
0.014441586 -0.21133715 -0.062470336
-0.1588193 0.18758765 0.023922063
0.016857568 0.22484796 0.042621545
0.19745411 -0.33984807 0.03924442
-0.14386548 0.20549959 0.047674514
0.2538434 -0.047379445 -0.025672441
-0.14601131 0.18030469 0.038111523
0.09247112 0.14404023 0.020239579
-0.012369323 -0.17637977 -0.05492662
0.10447826 -0.1463061 -0.030083787
0.11149144 -0.297606 -0.006554866
-0.22246034 0.06765809 0.05730254
0.17135529 0.18390504 -0.011994896
0.17635581 -0.06242967 -0.10652567
-0.23339178 -0.109451786 -0.023695905
-0.2788789 -0.015110704 0.031641982
0.026039215 0.21258484 0.08151819
0.1349916 0.18828861 -0.013262847
-0.20264407 0.23884717 0.07629136
-0.12026992 -0.19320409 0.026402596
0.15919724 -0.15907705 -0.0631505
-0.098631434 0.15564889 0.030526482
0.18442507 0.20785338 0.03943309
-0.12194354 -0.042705122 0.08998442
-0.009473015 0.371471 0.0016553006
-0.24038497 0.2012699 0.036386054
-0.14140408 0.27041525 -0.0039523146
0.26104113 -0.37382808 -0.028298223
-0.13979071 0.057989918 0.17400683
0.18041702 0.23704273 0.010039742
0.14607231 -0.1890746 -0.048490234
0.098661676 0.3248465 0.013891635
-0.27970678 -0.07374861 -0.01770875
-0.027342688 -0.20122547 0.016564785
0.003398034 0.16842341 0.06707502
0.1615775 -0.31617597 0.030416254
-0.13639942 0.28594455 0.07266182
0.14987011 -0.27276558 -0.0150102815
0.15162398 -0.14175074 -0.10726334
-0.08876452 0.17830609 0.076761946
0.07019708 0.0046370747 -0.04625382
-0.07516058 0.018487835 0.11505283
0.140266 0.089258984 -0.002998707
-0.10114764 -0.033011235 0.08163898
0.1330878 0.19672582 0.056046885
-0.20138076 -0.18053217 -0.068078846
0.14329949 0.17899825 0.044988558
-0.09497593 -0.21222156 -0.043595307
0.04295541 -0.2745065 -0.022211488
-0.28544968 0.16049506 -0.0799068
0.17774703 -0.25232336 -0.07422429
-0.23672152 -0.027369251 -0.041959077
-0.19842038 -0.0035255158 -0.0093121575
0.16699861 -0.3794914 -0.08033222
0.018748086 0.15494093 0.0653477
0.33660495 -0.38569555 -0.06921334
0.18733117 0.04759324 -0.00940799
0.31352988 -0.29991984 -0.003480783
0.09349844 -0.23721163 -0.031390235
-0.11121591 0.056452032 -0.012874819
-0.14988571 -0.014902397 -0.016474199
-0.14362432 0.096529916 0.04854156
0.20603168 0.01337651 -0.021871606
-0.19461969 0.089898616 0.006014654
0.14275354 -0.32439137 -0.034892783
0.3144037 -0.29038462 -0.015865726
0.12445447 -0.14136761 0.009804823
0.034493204 -0.31318232 0.0003520525
-0.18053997 -0.18539867 -0.058359936
-0.08265961 0.25041854 0.041430276
-0.24532706 0.12806241 0.005141331
-0.13394707 0.2571086 0.015580386
-0.23358741 -0.20209207 -0.116797484
-0.33639887 -0.09339551 -0.043525532
0.2045422 0.049899098 -0.027591132
-0.004976058 0.15651046 0.06326581
-0.1532638 -0.24131553 -0.06938347
-0.15185942 -0.18373702 0.015390312
-0.135691 -0.13239868 -0.01830175
0.22975717 0.01749875 -0.00095979485
0.12731932 0.15115708 0.018751632
-0.2047274 -0.072647095 0.008267239
-0.100696154 -0.044200126 -0.0262005
0.31662756 -0.0829344 -0.051821347
-0.11530441 -0.14602883 0.010133725
-0.12196499 0.0020227483 -0.015908286
0.06858102 0.21180564 0.06331096
-0.034101166 -0.22561306 0.011795075
-0.017203987 0.07310744 0.169698
0.030487236 0.029382646 -0.072832696
0.25532225 -0.31796297 -0.041288458
-0.24568105 -0.03341677 0.039398093
-0.11742708 -0.04274293 -0.06761394
-0.07627467 0.15809941 0.06685444
0.1313691 -0.28226167 0.028486725
-0.12181378 0.30424476 0.0048919795
-0.0028853351 0.11392272 0.10548836
0.080325805 -0.24459568 -0.007244769
-0.05489689 -0.212159 -0.038831886
0.08117441 -0.026645146 0.090200916
-0.14152694 -0.14543416 -0.019442087
0.29705703 0.08021554 0.0054498627
-0.28319547 0.07913076 -0.055766817
0.0123659875 0.067140974 0.1396071
0.0947288 0.0591594 0.10968001
0.14529395 -0.27856025 -0.041254047
-0.176688 -0.036636032 -0.04085538
-0.0035368933 0.17028674 -0.0093461815
-0.03594628 0.08469211 0.11143223
-0.27976325 -0.01476653 -0.030475728
-0.034822825 0.06978742 0.059710626
0.22685012 0.19031893 0.06195099
-0.0021115425 0.082414895 0.15918067
-0.061327927 -0.27120385 -0.09775209
0.29583701 -0.06096759 -0.071462885
0.16759072 -0.10260273 -0.07131393
0.22440721 -0.12956089 -0.105794415
-0.2058224 -0.11423145 -0.06328109
0.15892181 -0.40892124 -0.02116096
0.15445894 0.17091537 0.024896493
-0.26944798 0.13529868 -0.029376905
0.0036829016 0.3194991 0.044488836
-0.026371038 0.18912694 0.09063908
0.044729386 -0.2908932 -0.03901905
-0.26492846 0.022680232 -0.0003942618
-0.14341524 -0.0742206 -0.039907757
-0.10939127 0.2559347 0.02202859
0.2309988 -0.15338442 -0.03500159
0.3060551 -0.33579552 -0.07095512
0.09119335 0.17208333 0.020402938
-0.2712836 0.029821757 -0.12538056
-0.052826248 -0.13456126 0.09122878
-0.21423796 -0.17200142 -0.124901436
-0.21642105 0.24202174 -0.027371733
0.22783785 0.1782953 0.03546748
-0.030155543 0.07257665 0.1088413
0.08020679 -0.16111737 -0.037997328
0.104596734 0.10254123 -0.014489246
0.06391822 -0.0019903306 -0.09622998
0.12984066 0.19380303 0.06453285
0.24681486 0.03374049 -0.006330797
-0.32070678 -0.01269115 -0.040926047
-0.15025647 -0.14108196 -0.07062086
0.20364548 -0.35969603 -0.030613944
0.18434544 -0.23606494 -0.075054534
-0.10911637 0.056528077 0.10871815
0.12542893 -0.21298152 -0.07398897
0.05057187 -0.08980223 -0.051170554
-0.2860504 0.08290812 0.0051856725
-0.0002048768 0.27576733 0.008577163
0.026642716 0.26128954 0.058696814
0.11230173 0.3135443 0.010670826
0.0007743108 -0.060909607 0.0048226146
0.13740242 0.0033422245 0.024571558
0.09446536 0.22719648 0.025715886
0.24727315 0.16267435 0.0006141597
-0.29098043 0.17749627 -0.034829013
0.02417257 0.12899241 0.0518922
0.18683745 -0.33607998 -0.013114161
-0.13629723 0.24280243 0.047040902
-0.28966793 0.028776167 -0.041085303
-0.27960828 0.05099523 -0.0056706034
0.09766272 -0.2509492 -0.022514647
-0.17002873 -0.10248036 0.018065384
0.17083298 0.08274743 0.068826295
-0.1521974 -0.17056753 -0.04135158
-0.09217399 -0.13035968 0.04287176
0.25580195 -0.0016321916 -0.04772563
0.20036663 0.04530508 -0.038871214
-0.22475637 0.2568916 0.025771681
0.12568864 -0.17173874 -0.08977473
-0.2197776 -0.0728251 0.014165531
0.05731361 0.04046654 -0.017675415
0.08314199 -0.30106807 -0.02744829
0.107546456 0.19358872 0.031700924
-0.18807846 -0.0044633118 -0.010427265
0.25208923 -0.13278832 -0.05917848
0.14443025 -0.17702514 -0.036229555
-0.12916878 0.18057798 0.020049177
0.095482275 -0.13634305 -0.03378682
0.010551395 -0.06357633 -0.077792086
0.23652025 -0.40486026 -0.04201244
0.28813547 -0.11762656 -0.07036449
0.11156443 -0.0074073127 0.13180804
0.07063028 0.05226806 0.03763454
0.12799254 -0.056537848 -0.07222012
-0.00015787402 -0.13096732 0.054434765
-0.04384527 -0.08023395 0.020318506
-0.33628228 -0.06095803 -0.030107668
-0.15202251 0.08677334 -0.056531556
0.042421848 -0.024495097 0.02672528
-0.056220017 -0.21636751 -0.008816173
-0.26660374 -0.13919476 -0.029294254
-0.05938404 0.12996823 -0.02087564
-0.24197894 0.10372663 0.035508025
-0.004175931 0.07736262 -0.09001235
-0.0063407198 0.15584315 0.0874139
-0.18391573 0.052675847 0.04470864
0.2182775 -0.37574217 -0.045174364
0.12922435 0.0072014634 0.018176932
-0.30530152 -0.0035026053 -0.004223079
0.12652253 0.28144598 -0.010281384
-0.1284274 0.043546457 0.10716167
-0.17261893 -0.17025323 -0.10947693
0.19058299 -0.06301707 0.0005184464
0.27782696 -0.07131992 -0.087978125
0.084276214 0.18547495 0.02928124
0.23049983 -0.29487523 0.00046538055
0.06742249 0.06291355 0.009406894
-0.19490692 -0.06251605 -0.011958859
-0.29159862 0.111082956 -0.041535147
-0.14310928 0.079270385 0.00400746
0.08266783 0.22999705 0.050208695
0.03738281 -0.26280406 -0.038927853
0.049986854 -0.19666329 -0.078376174
0.11385215 -0.18371972 -0.03372168
-0.2716523 0.013911728 0.006511072
0.1689801 0.2525986 0.0020038083
0.03931734 0.22692071 0.11455598
-0.10077881 -0.07722434 -0.056447096
0.2091116 0.24099992 0.036447473
-0.19192706 0.03923136 0.040672794
-0.014405846 0.19781113 0.022832211
0.06857356 0.06320301 0.10556003
-0.22798318 0.009426326 -0.022013431
-0.018890025 0.28218257 -0.026885651
-0.09150351 -0.0723288 -0.021895941
-0.093337454 -0.10948374 0.0072287605
-0.22996373 0.054267548 0.062039454
-0.13524334 -0.17189749 -0.0051138923
0.24291725 -0.33489633 0.000735972
0.046877235 0.26309007 0.011083765
-0.06491125 -0.19473244 -0.06949665
-0.20122837 -0.09467001 -0.036727294
-0.07708484 0.112160504 0.05161824
0.21733755 0.080641985 0.051804133
0.010954317 -0.3296554 -0.11095294
0.15675801 0.25008935 0.014121856
0.10547358 0.19300105 0.049307164
0.13979784 0.08970093 0.018268589
0.088268846 0.25226286 0.08764874
-0.0085861245 0.3111659 0.05456715
0.09700071 0.10267541 -0.041458398
0.28576696 0.15266575 -0.008043077
-0.070995815 -0.1914138 -0.01130324
0.013728061 0.22884029 0.09767199
-0.25508845 -0.048203714 -0.008986017
0.13007843 -0.19491549 -0.048243195
-0.055690024 -0.27988923 -0.061672896
-0.19375965 -0.18247823 -0.054889508
-0.0133807445 0.26389953 0.049335904
-0.0031953542 -0.16892307 -0.020504285
0.13212486 0.09654573 -0.005456219
-0.08350984 -0.121075965 0.05066778
0.057729874 0.18814203 0.089217015
-0.059025586 -0.13773501 -0.031035926
-0.19963384 -0.11561712 -0.043440193
0.18536556 0.24914719 -0.00987064
0.034623627 0.032601196 0.08280179
0.14655553 0.011285013 -0.020856807
0.03696219 0.10427136 0.051016007
0.15078753 -0.17144857 -0.088635035
-0.28668353 -0.10619257 -0.06319804
-0.04917387 -0.133004 -0.016984113
0.11926558 0.011210028 0.082937256
-0.0055249524 0.31585476 0.039031014
-2.6822618e-05 0.119853966 -0.01769311
-0.04752219 0.33910567 0.045258854
-0.028566767 0.20261936 0.057569426
0.27254525 -0.29386526 -0.027964583
0.053831942 0.056530774 -0.028082555
-0.11536641 0.12562601 0.0665092
0.31056517 -0.26307178 -0.028324636
0.21796788 0.20804726 0.04651849
0.19832417 0.29340193 0.04705445
0.18333772 -0.2948202 -0.006119504
0.2337137 -0.3716929 0.0028912697
-0.042180672 0.18701963 0.06750469
0.2152298 0.12476048 -0.0107747335
0.1733494 -0.031328104 -0.012207267
0.036471553 0.22430134 0.042098824
-0.03401284 -0.14789039 -0.025876869
0.1916524 -0.21497142 -0.046740126
-0.22254877 -0.06155332 0.035561416
0.066038445 0.25289458 0.034590308
0.155999 -0.17034096 -0.016446399
0.27591714 -0.33473885 -0.02433502
0.014962738 0.0979517 -0.01297588
0.16824609 -0.34591725 -0.021689136
-0.042904798 -0.05888651 -0.03235005
0.30425292 -0.38937294 -0.012670393
0.17904602 -0.22481251 -0.07118459
0.20065959 0.18408982 -0.0033393498
0.056687284 0.22814085 0.044353195
0.30802208 0.03327309 -0.056650024
0.104623705 -0.107800275 -0.07541305
0.159486 -0.34800205 -0.036777556
-0.08066136 0.2662462 0.09671492
0.061654765 -0.020674076 -0.11381941
0.269169 -0.1385287 -0.09150312
0.076810114 -0.041609127 -0.035736594
0.22945774 -0.34798926 0.011853877
0.0509382 -0.0054734712 0.0031618385
-0.13000512 0.08939585 0.024697091
0.11081936 0.0964006 0.050498374
0.14197794 -0.32712978 -0.051646106
0.043320466 0.23453853 0.0061177514
0.1146439 -0.18884848 -0.04642194
0.32720843 -0.061113916 -0.11189312
-0.16493823 -0.25893593 -0.122966684
0.16841276 -0.088273324 -0.033259295
-0.092423975 -0.14050348 0.025137477
-0.04924341 0.16210376 0.025414284
-0.22663192 -0.07719378 0.007772762
-0.18493782 -0.0067734546 0.0123266475
0.004454289 -0.22208035 -0.113031074
0.12392585 -0.22487849 -0.030015849
-0.17586035 -0.03494349 0.0008718672
-0.33405983 0.057618167 -0.037588906
0.25938037 0.17040764 -0.065138415
-0.011138592 -0.18207201 -0.07597772
0.04102633 -0.18862197 -0.03333292
0.18277453 -0.33188698 -0.067293055
0.104398176 0.3067262 0.015169832
-0.08109206 -0.055241883 -0.0050127804
-0.2530504 0.047394536 0.069836475
-0.21088313 -0.017499043 -0.042464525
-0.09391438 0.17244409 0.07943424
-0.050831713 -0.27814102 -0.075960025
0.015328148 0.11782614 -0.0056364103
0.0854106 -0.33614144 0.0045440374
0.17806904 -0.1506364 0.0040512607
-0.1011231 0.030551145 -0.022395018
-0.29794493 -0.05098641 -0.026472153
0.12539479 -0.24184667 -0.08077924
-0.14146467 -0.010568832 0.010456951
0.073256455 0.07941053 -0.03047892
0.2280122 0.017309424 -0.014015151
-0.14907938 -0.17374718 -0.03982873
-0.0929548 0.05987498 0.039649513
-0.35746056 -0.05362547 -0.089518905
0.20903283 0.14348815 -0.07185436
0.13771762 -0.27953464 -0.05901873
0.14733271 0.040061392 0.019671787
0.2451612 0.16466112 -0.0049420367
-0.07947782 -0.10050277 0.06942457
-0.020467814 0.1401841 0.06262628
0.14447626 -0.09629829 -0.0014691219
-0.08578369 -0.11953811 -0.01891363
-0.047537144 0.19270463 0.046033755
0.099600986 -0.08475991 -0.0062485193
0.2373621 -0.14422315 -0.021247366
0.19667298 -0.3208906 -0.06267135
0.04473241 -0.27574283 -0.1199509
-0.08823964 0.14215037 0.061285853
-0.14341901 0.18369737 0.08288276
0.054470718 0.12531629 -0.04238473
0.06842084 -0.12412065 -0.06267095
0.1422272 -0.19010104 -0.021670911
0.2948687 0.015074686 -0.09243604
0.0505346 -0.073750965 0.12406358
-0.05628677 -0.187828 -0.04198431
-0.12790322 0.17840008 0.039673336
-0.07248997 0.24100018 0.092123054
0.16115555 0.054657515 0.04861027
-0.08716007 0.14574441 0.037680272
-0.08560274 0.047121964 0.04142445
0.1247571 -0.12451727 -0.004356274
0.08943641 0.26116604 0.061494537
-0.16626936 0.20005193 0.0588899
-0.20385368 -0.11842966 -0.04003993
0.24285623 -0.276472 -0.053500723
-0.019215174 -0.27928075 -0.05524178
-0.07675351 0.26286516 0.016072107
0.121656075 0.14321344 0.0141089335
-0.20078532 -0.0836608 -0.036960512
-0.059921663 0.22440124 0.04046851
0.17901048 0.24530967 -0.0152001
-0.07976111 0.051732164 -0.008230417
-0.26870787 -0.041218612 -0.083181255
-0.044133358 0.25401115 0.039031044
0.041607473 0.12698153 0.027773703
-0.0013943283 0.0844297 0.120382234
-0.16221213 -0.22525589 -0.121994
0.22157523 0.15209498 0.015490221
0.1739139 0.14490624 -0.03904478
0.28745723 -0.3657767 0.0010513798
0.13567825 -0.05716117 -0.04006817
0.13686407 -0.20856829 -0.057778597
-0.06778738 0.046827406 0.014889648
0.116517715 0.33225214 0.04813377
0.11028891 -0.09146635 -0.021713847
-0.31595013 -0.17946081 -0.066934265
0.13352163 -0.17804477 -0.067104906
-0.13322286 -0.18858486 -0.055789907
0.07689968 -0.17907144 -0.049194593
-0.15923534 0.24669082 0.09328321
-0.2951865 0.14665082 -0.00057735754
-0.055603124 0.25761455 -0.0077791726
0.102367826 -0.07627823 -0.054208186
-0.14964567 -0.038680207 -0.054840293
0.0758986 0.06718695 -0.045197714
-0.06644476 0.07248258 0.034853715
0.18195207 -0.1397176 -0.09647519
0.09057597 0.068750486 0.026197238
0.1556606 -0.0717404 -0.075913176
0.2715214 0.06982947 -0.024347432
-0.08621604 0.2312259 0.09389187
-0.005720861 -0.025323238 -0.04398769
-0.316117 -0.085482135 -0.12854765
-0.06684713 -0.22388177 -0.029850561
-0.2874699 -0.0802915 -0.027083538
0.22215241 0.19214785 -0.0025495423
-0.2556739 0.12520944 0.002193923
-0.2350745 -0.017452696 0.04746524
-0.02901209 0.08745245 0.12631923
-0.06535523 -0.073605806 0.047990855
-0.11115459 0.19660535 0.073524036
-0.29208308 0.11856102 -0.032146268
-0.17360298 0.10111123 0.06469723
0.1368913 0.15040599 0.08404364
-0.14971928 -0.06968053 -0.04117635
0.281415 -0.31487656 0.014023873
0.22208732 -0.17007227 -0.06607048
-0.249153 0.070714295 0.03629371
0.0885929 -0.22245234 -0.014324273
-0.0008352298 0.12280958 -0.0030602687
0.17470644 -0.35746816 0.0033433584
0.029868577 0.14131713 -0.018154934
-0.26597974 0.063567296 0.029922249
-0.26207542 0.03433599 -0.022882303
-0.012824328 0.29736492 0.04108405
0.08261268 0.07860095 0.16959019
0.13390353 0.013025615 -0.007879288
0.18367499 -0.29150063 -0.03323292
-0.121427335 -0.03191362 -0.025862813
0.16815645 0.19777909 0.026737826
-0.27513176 -0.057087455 -0.08325684
0.14239351 0.26891583 0.08076959
0.15125892 -0.26548707 -0.017160667
0.12919252 -0.0721955 0.015329936
-0.32773146 0.12447428 -0.042045273
0.19464046 0.20975423 0.021069609
-0.2568021 0.21591564 -0.031067388
0.14270836 0.057989605 0.002696819
0.16384885 0.2419468 0.053570997
-0.10873486 0.15967849 0.03611322
-0.2036781 0.24154805 0.019046267
0.18993829 0.09963385 0.044441793
0.12690897 0.06531952 0.037527125
0.032765552 0.10010653 -0.0038661803
-0.042025927 -0.17124216 -0.04305091
0.2614227 -0.36261797 -0.014162282
-0.097912356 0.21411553 0.088096626
-0.24015282 0.2865004 0.02552382
-0.24088342 0.14797466 -0.0057442123
0.10739125 0.16750166 0.06533233
-0.15249202 -0.21026269 0.014247633
-0.09849222 0.030753653 0.12285241
-0.0019550784 0.04026537 0.1510262
-0.25950792 -0.02286649 0.012828941
-0.03518612 -0.29072258 -0.053584382
-0.0034056748 0.16901942 0.042364392
-0.30225635 0.032014374 -0.045331404
0.12287621 -0.31380633 -0.028308824
0.2023644 -0.009379151 0.035653457
0.16050686 -0.38665506 -0.04053216
