# .PCD v0.7 - Point Cloud Data file format
VERSION 0.7
FIELDS x y z
SIZE 4 4 4
TYPE F F F
COUNT 1 1 1
WIDTH 1000
HEIGHT 1
VIEWPOINT 0 0 0 1 0 0 0
POINTS 1000
DATA ascii
0.11783266 -0.16455878 0.117266625
0.09106452 -0.17534624 0.2587185
0.06457087 -0.0037333774 0.29188618
-0.1765852 0.053876918 -0.25199378
-0.053866792 0.1657174 -0.28131917
-0.23022503 0.25962245 -0.22292937
-0.024302704 0.020281365 -0.28359693
-0.006867416 0.009460318 -0.053077076
-0.040497705 -0.024016844 0.22611322
-0.13993934 0.04837055 -0.2681595
0.04413306 -0.22224626 0.22179829
-0.06231765 -0.103990175 0.27358955
-0.17003822 0.073873915 -0.22949113
-0.08156552 0.099560335 -0.23623565
-0.2295338 0.11101549 -0.19666596
-0.0105057135 -0.05608734 0.24726285
0.17548397 -0.09680862 0.08359767
0.15846081 -0.17302202 0.14991826
-0.023498334 0.13278471 -0.27009058
0.18923904 -0.21224463 0.1646542
0.18521678 0.005310831 0.16880417
0.10992611 0.021250412 0.29163697
-0.004695453 -0.11588962 0.11700701
-0.08569745 0.09736896 -0.2719309
-0.039822463 0.10217629 -0.26741672
-0.20373927 0.040119056 -0.22501387
-0.24466616 -0.004869035 -0.21365568
-0.034525108 -0.06153573 0.22697942
0.16407333 -0.113924064 0.19745186
0.16422604 -0.0238191 0.23177092
0.11600532 -0.14835529 0.052176304
-0.1384074 0.19303647 -0.21115652
-0.08687054 0.2414152 -0.2747908
0.23799372 -0.10281344 0.029270044
0.081038505 0.056743342 0.16042615
-0.18283312 0.23640554 -0.14993556
-0.043308 -0.16095404 0.20442075
-0.0012184363 0.111590475 -0.29940724
0.120633274 -0.018894624 0.2909378
-0.013391659 0.029605666 0.17428845
-0.028702287 -0.110334 0.20672053
0.030566644 0.015216122 0.13623217
0.09300851 -0.12529765 0.28266105
0.025128314 -0.21238557 0.13572858
0.12557866 0.05011445 0.2552237
-0.12472114 -0.17561592 0.18271142
0.15617274 0.08609398 0.17412995
-0.05837469 -0.033465046 0.19448453
-0.19981582 0.17890823 -0.24857278
-0.08714663 -0.14904012 0.2495269
0.10025002 -0.15023772 0.27489206
0.087987475 -0.11187559 0.25567314
0.0646249 0.018652089 0.2775485
-0.04653279 -0.057836495 0.27652517
-0.002453862 -0.09504681 0.25515994
0.23477052 0.020297516 0.24992971
0.015159875 0.029804023 -0.060151592
-0.21561493 0.0265855 -0.15896654
0.2348566 -0.032383647 0.04518812
0.061557215 -0.039806522 0.29422027
0.08983008 -0.009429637 -0.32849264
0.03281654 0.10980031 -0.31693074
-0.012322177 0.13228866 -0.30955526
-0.15246725 -0.00012494382 -0.22714832
-0.033606835 -0.020179396 -0.25900897
0.06857566 -0.11659042 -0.3839755
-0.07056238 0.005302133 0.22560206
-0.008600975 0.12008694 -0.25045162
0.059672557 -0.10866066 0.28830722
-0.18318175 0.06377377 -0.24767596
-0.065689094 0.050867468 -0.22315998
-0.19945274 -0.068098105 -0.29632795
-0.108030945 0.21359634 -0.2894002
-0.037099592 0.006209598 0.24605426
0.09005515 0.14883016 -0.30613846
0.08249548 -0.055586904 0.2510385
0.07346797 -0.005738114 0.22598834
0.28275266 -0.10107807 0.13451914
-0.14226985 0.072597355 -0.14785798
0.25301662 0.06362009 0.12848406
0.15449414 -0.1826708 0.2707486
0.06292642 -0.08104369 0.26230776
0.124903396 -0.029231757 0.291279
-0.051421694 0.09262984 -0.13521765
-0.02458025 0.1431796 -0.25912777
-0.08976745 0.015714122 0.25822464
-0.092165045 0.21956147 -0.21928947
-0.32374927 0.0448966 -0.19532275
-0.049186338 -0.057068013 0.23995887
0.073984995 0.097708926 0.14172858
0.21775793 0.08586022 0.1444619
0.051937018 0.092162915 0.1525817
0.20704736 0.1426677 0.10188358
-0.07072132 -0.045693636 -0.36339018
-0.17736247 0.22203487 -0.37973663
-0.052229792 0.13650157 -0.23254073
-0.24181323 0.08275871 -0.25102994
0.190048 0.033015314 0.20876737
0.0066195396 0.07694448 -0.2631045
0.08061562 0.008817691 0.28501678
0.1031332 0.01909727 0.17161515
-0.044072427 -0.06736078 0.26113358
0.0029040023 -0.01801466 0.21246362
-0.055138044 -0.124182574 0.10847224
-0.25014898 -0.030933443 -0.25099245
-0.052292123 0.051197868 -0.21219817
-0.10070261 0.15351698 -0.22247984
-0.033680458 -0.15025036 0.29257238
-0.06417144 -0.034365483 -0.30081704
-0.29888174 0.123540044 -0.18404512
-0.18387733 0.065807976 -0.22237894
0.18187796 0.012779144 0.17317508
-0.022939725 0.017531238 0.22757436
-0.102392085 0.09840262 -0.2378836
0.13682248 -0.17761222 0.11327877
0.19735591 -0.096896164 0.11763378
-0.09441257 0.17844038 -0.19429435
-0.02494952 0.0057967748 0.22636573
-0.15574746 -0.0013359686 -0.27717534
0.09012488 0.11875081 0.16618225
0.024430258 -0.20035793 0.19723284
-0.0023234526 -0.04460158 -0.3309762
0.08685911 -0.1226671 0.2270093
-0.006161685 0.10324928 -0.13055138
0.13133879 0.0248951 0.18396579
-0.12307536 -0.045306608 -0.2897967
-0.14291283 0.26715735 -0.2148744
0.0442334 -0.08050804 -0.33256435
-0.21527982 0.18955499 -0.15707937
-0.18480591 0.16498147 -0.23070998
-0.10630294 -0.032513015 0.22233821
-0.067022644 -0.14011408 -0.3109669
-0.16170762 0.09620353 -0.20136832
-0.032366905 -0.048383728 0.20596328
0.10359785 -0.15432219 0.20941366
0.107724726 0.09022096 0.0876762
0.13855386 -0.06629774 0.22119093
-0.0233632 0.14482467 -0.23205253
0.09016647 0.15307114 0.14023522
-0.22157268 0.18099584 -0.18627405
0.03865952 0.041766357 0.23269846
0.29338983 -0.1326307 0.08838852
0.058206663 -0.0015563854 0.2384389
-0.20762876 0.081474885 -0.2231115
0.21248351 -0.04648295 0.042907253
-0.16223386 -0.07578258 -0.28269473
0.050061766 -0.16456214 0.26508692
-0.012673608 0.054828286 0.17943798
0.07987736 0.08461517 0.19113187
-0.13295436 0.16401805 -0.24093999
0.10562622 0.068751834 -0.3692191
0.029214337 0.14553265 -0.2952785
-0.012056549 -0.06503547 0.18283896
-0.026078328 -0.1185559 0.19909039
0.062186908 -0.15593743 0.20775416
-0.014012635 -0.0030216556 0.20353198
-0.03954567 0.09215283 -0.10873881
-0.035427414 -0.0115374 -0.29848567
0.12180985 0.038178377 0.26713789
0.23258841 -0.006042539 0.1465327
0.15006675 -0.14535102 0.098562025
-0.06595441 -0.02619544 -0.3128466
-0.24126716 0.09546914 -0.19414325
0.16445436 -0.13357764 0.20798992
0.15509869 -0.12800813 0.23286054
0.111381635 -0.065641984 0.22700834
0.24198452 -0.034968637 0.26069018
0.17028853 -0.19410394 0.15712671
-0.23754674 0.08187086 -0.15382464
0.06535288 0.023321979 0.28830373
-0.046816427 -0.22477663 0.17278603
-0.09650039 0.03401987 -0.2060328
-0.22104736 -0.0077923937 -0.2563687
-0.07524904 0.007376937 0.20877014
-0.0028952677 0.055878326 0.16072753
-0.042657066 0.054171026 0.1833226
0.052798264 -0.083785154 0.2767515
-0.1417804 0.20984255 -0.25518665
0.19416139 -0.16916624 0.20235947
0.11326089 -0.02255423 0.25306445
-0.003988101 -0.1700598 0.19273983
0.047846396 0.10802801 -0.2942084
-0.20403628 0.24441274 -0.22203957
-0.1281121 -0.09922802 0.1411837
-0.29253948 0.0057333116 -0.23104699
0.051844947 0.024193719 0.28498593
0.05542763 -0.22101131 0.21216913
-0.22566512 -0.055644877 -0.26524222
-0.0046198647 0.018849859 -0.1243384
-0.07662655 -0.07402178 -0.3064365
-0.017386671 0.2719047 -0.23855004
-0.22053342 0.063299984 -0.21070293
-0.17245618 -0.03574652 -0.2872584
0.08552243 0.10302958 -0.3494713
-0.059568796 -0.1521247 0.17733501
-0.24087256 -0.10863556 -0.22065707
0.13128784 0.06588987 0.18725832
0.053213745 -0.13235925 0.21935868
0.12146471 0.0872013 0.15679766
-0.0704605 0.05610624 -0.17290308
0.029023917 0.17679416 -0.26279676
-0.28701144 -0.035772752 -0.2724322
-0.01120034 -0.061653037 -0.3813694
-0.08767801 0.14747645 -0.2734025
-0.09699235 -0.114938065 0.17424363
-0.27701578 -0.0003608153 -0.22846538
-0.09369231 0.2715287 -0.187924
0.04020153 0.07593954 -0.3434083
0.21880779 -0.09256957 0.033493266
0.09203623 -0.18651424 0.09354704
0.0032516588 0.06598088 -0.300417
0.1745479 -0.11726097 0.22672911
0.15755309 -0.22428833 0.044684224
0.23162217 -0.11993623 0.19630672
-0.028858492 -0.006129796 -0.29214084
0.076391056 0.09545794 0.109176755
0.06485711 0.11133583 0.19008154
0.026825443 0.14925271 -0.28679636
-0.0019963018 -0.11347536 0.15956624
-0.038567986 -0.21634799 0.13781765
0.10443485 0.011086884 0.27684724
0.037465394 -0.041735984 -0.3148338
-0.14901064 0.10383305 -0.24418655
0.090703934 0.050329823 0.16661002
-0.06588176 0.2500492 -0.19893377
0.016049834 0.11086682 -0.2858387
0.15995385 -0.14573455 0.1868864
0.16483533 -0.16931383 0.17303897
0.024309535 -0.046267454 -0.37580898
0.1889381 -0.06483069 0.23205182
0.072215326 0.03316666 0.11763025
0.04487823 -0.22364184 0.232988
-0.28586012 -0.019374229 -0.21876444
0.019489318 0.004035916 0.21570584
-0.041473977 0.13184665 0.18727595
0.053916894 -0.060286466 -0.39078742
0.10956938 -0.016726365 0.29849744
-0.17858295 -0.019020604 -0.23051174
-0.08592126 0.15740168 -0.2865566
0.07154426 0.057932984 0.30125728
-0.015307321 0.1649841 -0.27306676
0.11221567 -0.18886243 0.23851551
-0.14966941 -0.09991121 -0.24508466
-0.052584447 -0.076011576 -0.3677105
0.24051009 0.012048956 0.09625231
-0.18590477 0.037625995 -0.3025859
-0.058930095 -0.14854154 0.26899374
0.018597689 -0.09683102 0.2013029
-0.103573434 -0.01627126 -0.109583884
0.07288193 -0.16933216 0.10905804
-0.058025103 -0.038243387 0.16447647
0.018000137 -0.044663496 -0.35286978
0.21659824 0.09288882 0.07881762
-0.07292542 0.16062726 -0.24725813
0.11951943 -0.07879272 0.22460978
-0.15356588 -0.0022317653 -0.24907751
-0.020898692 0.11256073 -0.2972153
-0.05016245 -0.10647514 0.19492443
-0.05675586 0.0620403 -0.12944752
0.14874704 -0.19389254 0.059532065
0.041858956 -0.2467347 0.18491983
-0.04145443 -0.08298945 0.16520134
0.09459812 -0.018572537 0.25439295
-0.16450748 0.119362116 -0.18126588
0.018309804 -0.15384087 0.15725756
-0.19196652 -0.027491178 -0.2086619
-0.13168985 0.028467892 -0.2635003
0.083665535 -0.08734234 0.24463727
-0.0166128 -0.08526365 0.1674238
-0.020052247 0.05042212 -0.15039429
-0.051503494 0.06048728 -0.21498272
0.10109628 -0.21497855 0.1733463
0.2439871 -0.09476007 0.19280969
0.09416344 -0.11881741 0.26331925
0.04334968 0.26695737 -0.27539733
-0.0360521 -0.067194685 0.28134856
-0.0634357 0.20551524 -0.23264968
0.06457719 -0.07210298 0.22124736
0.26392737 -0.13978182 0.14975047
0.23735915 -0.11216698 0.07639686
0.11038783 -0.20682102 0.17892478
-0.03886108 0.12657487 -0.15263046
-0.21004826 -0.035348132 -0.25969
0.11935314 -0.13925089 0.31454965
0.1287264 0.0019366969 0.17341423
-0.042916667 0.0901027 0.16594745
0.16190317 0.10560969 0.17795196
0.12054686 -0.19914436 0.23322803
-0.1427504 0.20990378 -0.20001659
-0.21954483 0.13101296 -0.21667977
-0.20398672 -0.105317436 -0.27085203
0.1862837 0.07155409 0.14738542
-0.08372072 0.023795655 0.24600954
0.0017739997 -0.12465496 0.15402967
0.17309906 -0.19181046 0.15496252
0.073185846 0.06802724 0.23356718
0.22191453 -0.048311945 0.08900433
0.024161754 0.07053062 0.18888602
0.1370919 0.106465705 0.10936085
-0.05793305 -0.10872851 -0.38195306
-0.075548925 -0.105627686 0.12161405
0.17220642 -0.09403466 0.23952119
-0.10149447 -0.16238956 0.1680247
0.047740012 0.14481942 0.22729282
-0.188008 0.02313239 -0.21009293
-0.07261469 0.036395088 -0.31606725
0.16452084 -0.12871154 0.09754397
-0.038004633 0.02668186 -0.27572173
-0.15024504 0.16674843 -0.1977143
-0.19254525 0.19753529 -0.14414729
-0.2275466 0.13500525 -0.17997105
0.06611518 -0.05316983 0.27933893
0.15851466 0.076164916 0.092992224
-0.04791155 -0.07658382 0.16132505
0.018460043 0.09773297 0.19937286
-0.08516324 -0.090793096 -0.32934165
-0.067586794 0.13498503 -0.27112436
0.05120582 -0.122581646 0.31000772
-0.15080386 -0.038600016 -0.28835762
-0.27361953 0.016842807 -0.19912422
0.023357114 -0.1498075 0.10691499
0.04981289 -0.17709355 0.270618
0.10550284 0.017844127 0.17916927
-0.07558892 0.21888286 -0.21822764
-0.019748235 0.044842158 0.22376253
-0.01546725 0.23064604 -0.26156396
-0.048010882 -0.005598919 -0.29174736
-0.17899865 0.1242477 -0.2208204
0.19169395 0.115283355 0.18576849
0.19778821 -0.037438825 0.15958963
0.06796803 -0.16396941 0.27662304
0.19867006 0.036940373 0.21284096
-0.24806426 -0.02546033 -0.2771003
-0.022518076 0.07547732 0.23553878
0.07734069 0.048420817 0.1488707
0.0465219 -0.04786146 0.18603373
0.06288502 0.009239658 0.2381004
0.07173016 -0.133262 0.29799747
-0.07557585 0.096637405 -0.25092962
0.050604608 0.04992054 -0.3327944
0.1393976 -0.23167585 0.13679028
0.022957865 0.26823917 -0.28231207
-0.021121701 0.22364847 -0.19740036
0.13166139 0.05081781 0.111163706
-0.08323895 -0.058127243 -0.2874532
0.14887017 0.07873909 0.1706119
0.041001 -0.04815117 0.26237425
-0.10765816 -0.07094888 -0.3002974
0.16946864 -0.1351732 0.2153084
-0.065300055 -0.04262597 -0.32470918
0.11677532 -0.22601359 0.19895288
-0.2159605 0.0821316 -0.20320694
-0.08910922 0.10712083 -0.26528355
-0.014140393 -0.09642875 0.24440926
0.10574019 -0.15517347 0.17584173
-0.059387196 0.014454607 0.22724456
0.010268239 0.003901125 -0.3312379
0.082478754 0.110102765 0.15932935
-0.11140651 0.03763372 -0.1702932
-0.26299554 -0.107859746 -0.30898607
-0.021226892 -0.09764683 0.17364842
-0.0075059202 0.02595454 -0.07383319
-0.09124006 0.23663764 -0.19346
0.024624962 0.19907543 -0.2479208
-0.21555609 0.09822476 -0.39061412
0.07158108 -0.089586526 0.27457595
-0.024930298 -0.099457994 0.18861128
-0.022186194 -0.025260525 0.21136358
-0.08595738 0.0018794115 -0.27089673
0.006071659 0.020849688 -0.3532943
-0.22366856 0.22344282 -0.25034603
0.16760604 -0.027318083 0.28918222
0.18836723 -0.16606784 0.014134259
-0.23493671 0.2003641 -0.20025913
-0.01387158 0.22706129 -0.28920102
-0.010109075 0.0049573374 0.23421015
-0.037516046 0.04993017 0.19337775
0.13695326 -0.07479194 0.2184719
0.028738791 -0.015399679 -0.33427712
0.10325485 -0.16068114 0.23798461
0.2385029 -0.1326463 0.19309898
-0.052698057 -0.10902818 0.19041319
-0.27528417 -0.066900104 -0.20597304
-0.16780892 0.21744598 -0.24420391
0.21513428 -0.12612432 0.21619888
0.19925062 -0.08680736 0.20539115
-0.23680457 -0.07502892 -0.22522646
0.15245408 -0.011648093 0.20760441
0.11869217 0.034432333 0.12784961
0.05685058 0.059416 0.27252334
-0.0030254351 0.08952887 0.13644394
0.14183731 -0.04129494 0.30778277
-0.18425141 0.07828916 -0.2528459
0.04179676 -0.2816964 0.16396557
0.0010581244 0.20067376 -0.25245163
-0.21878591 0.09654947 -0.18448406
-0.02270111 -0.0798308 0.25203863
0.05517499 0.033634778 0.22079015
0.05378298 -0.07526866 -0.33219764
-0.09399458 0.12783483 -0.21472116
-0.017226137 0.01607482 0.13036168
-0.07328863 0.06536091 -0.04626798
0.23185274 -0.0493285 0.12249016
0.046087097 -0.0018368353 -0.33009556
-0.08321418 -0.025815425 -0.31911713
-0.14098603 0.15792564 -0.21965884
0.20178457 -0.045077257 0.21241547
0.25246596 -0.07826751 0.14247145
-0.05982046 0.17236234 -0.29318675
0.13479677 -0.04682251 0.26638135
0.0003498589 -0.08458943 -0.37546104
0.26283818 -0.120064646 0.16836467
-0.03569153 0.05846527 -0.31750417
-0.2211736 0.13553916 -0.21497384
0.16116548 -0.10108635 0.25968358
0.19477229 -0.15384062 0.024563069
-0.044462364 -0.10079673 0.12030747
0.024259169 -0.11899621 0.23062181
-0.04393631 0.108839735 -0.2007381
0.11295015 -0.06275659 0.28478184
0.0088062985 -0.13857234 0.2875454
0.09700426 -0.18466674 0.18655747
0.02824184 -0.12512971 0.27741095
-0.0018930824 -0.09450111 0.2865773
-0.036628626 -0.1733299 0.16238874
0.17065258 0.079950824 0.17151132
0.024179354 -0.057540108 0.2711664
-0.24669296 0.09368135 -0.2155772
0.22904931 0.10415111 0.1654886
0.1319999 -0.054773666 0.28218335
-0.151712 0.014850969 -0.3027035
-0.26266867 0.18499221 -0.20754908
0.17064685 0.004561112 0.19811006
0.12620029 0.11464264 0.12883826
-0.1077704 -0.12120163 0.19967036
0.06617549 -0.029209945 0.32181266
0.09138193 -0.07978237 0.22458945
0.08362564 -0.1497191 0.08416428
-0.061935272 -0.162705 0.17605078
-0.01081273 0.032886248 0.24086832
0.11836296 0.015028372 0.27005932
0.18643233 0.039966203 0.14419366
0.03429686 0.16577786 -0.28137502
0.009150135 0.000774882 0.23992777
0.007752721 -0.18368544 0.28274262
-0.15496996 -0.028097142 -0.28593963
-0.03503414 0.12508905 0.22393396
0.007988496 0.02346206 0.33077127
0.13254803 -0.06776633 0.20748037
-0.15762936 0.05267725 -0.248083
-0.13773745 0.052980687 -0.2666605
0.1957848 -0.0019461901 0.24384013
0.20847523 0.00030058937 0.24798805
0.25752154 -0.035718985 0.0938561
-0.044641294 0.2972286 -0.2210383
-0.27694565 0.12272204 -0.137793
-0.016369117 -0.07244437 -0.3435327
-0.08371531 0.030199936 -0.28740016
-0.00036072894 -0.098430105 0.18627022
0.14598325 0.06497347 0.23383985
0.13178718 -0.14183563 0.2055998
-0.07981837 0.14889696 -0.3070031
-0.007435049 0.020592118 0.18854785
0.18938263 0.009894326 0.25593156
0.14516607 -0.20869249 0.13116218
-0.14794524 0.14894557 -0.2165167
-0.19884257 0.055593178 -0.19484295
0.08588568 0.044223092 0.18464506
0.03075102 -0.06938009 0.22042376
-0.009834155 0.26164967 -0.29564604
0.013677841 0.043867048 0.21771923
-0.034657795 -0.013653832 0.17829685
-0.0933363 -0.016126031 0.23775497
-0.07096811 -0.064927004 0.16204874
-0.032134525 0.1592077 -0.22274801
0.02599678 -0.122371756 0.3005544
-0.04609831 -0.011987888 0.22330153
0.061314564 0.12581404 -0.33511814
0.16185915 -0.108377166 0.24966885
-0.119072884 -0.027254853 0.22629686
0.13651854 -0.0089800665 0.25656205
-0.104573525 0.18835162 -0.21112522
0.022412872 0.21745566 -0.31856242
0.11710893 -0.17050281 0.1924381
0.096502766 -0.109654315 0.31126788
0.042065397 0.10975945 0.22052413
-0.16528551 0.02022578 -0.26220116
-0.11829255 0.07732456 -0.21718983
0.053289976 -0.10615609 0.3057187
-0.024014466 -0.015604485 -0.2700645
0.22914249 0.0951218 0.17822127
-0.049248792 0.21360753 -0.258327
0.045398664 0.023280993 -0.30871025
0.20573422 -0.18053204 0.1440824
-0.2383585 0.06738914 -0.23098391
0.032728363 0.055007372 -0.3077477
0.06885218 -0.19286574 0.10819747
0.22497527 -0.07040124 0.09890504
-0.07598183 -0.028100055 0.13194478
0.035053365 -0.09732317 0.314825
0.19869226 0.031211106 0.14188929
-0.18712924 0.24201922 -0.18992393
0.1603593 -0.13362713 0.2626313
-0.15015437 0.025079338 -0.24943385
-0.045294765 -0.0347928 0.2084818
-0.060553342 -0.054096512 0.16791116
-0.023990031 0.05402318 0.16446877
-0.15628819 0.06545981 -0.22362418
-0.17425421 0.13142958 -0.22033049
0.09016103 -0.16269542 0.2792328
0.015773617 0.03771453 0.26765308
-0.0025228385 0.059176847 0.1557612
0.20023394 -0.14645024 0.18126623
-0.030726934 -0.006627054 0.2221171
0.13481592 0.009499473 0.18370491
0.16903616 -0.05062599 0.23603263
0.13222063 0.0643237 0.19957481
0.17365547 -0.15178354 0.20832929
-0.19445407 0.19874054 -0.22504626
0.13348076 -0.015343245 0.18548863
0.0021096112 -0.055746168 0.19816515
0.015601068 0.11394592 -0.27461985
0.033938445 0.14557952 -0.3142069
-0.09371602 0.08166573 -0.26273853
-0.10817579 0.033758245 -0.28315386
-0.21624391 0.11112572 -0.24372286
0.031793572 -0.16285998 0.25575343
-0.1671334 0.21701546 -0.20190406
-0.077913076 -0.1784741 0.14912757
-0.038050856 -0.048110243 0.16824368
0.10128723 0.03196919 0.14764652
0.033767194 -0.13501309 0.21243602
0.07456578 -0.13420236 0.24870557
0.18912104 -0.092962444 0.14056003
-0.065135546 0.050897412 0.20806238
-0.13922273 -0.092629895 -0.28797743
0.23185162 -0.14801732 0.1506869
0.19449429 0.02541286 0.18554528
-0.044481438 -0.07747199 0.20914358
0.008211284 0.049411297 -0.1221713
-0.17699945 0.014062463 -0.27803764
0.050729435 -0.096569546 0.24144928
0.05962834 -0.19132195 0.10494179
-0.165014 0.124006726 -0.22114193
-0.033666342 0.04129812 -0.23613408
0.1784054 -0.12973833 0.027175331
0.039756596 -0.2178404 0.13592543
-0.042429335 -0.05856043 0.20207907
0.059041772 -0.070690565 0.24648821
0.065561205 0.00200885 0.25895682
0.023818515 -0.034693304 -0.35116288
-0.11449505 0.06236691 -0.2326332
-0.106926784 -0.037555505 -0.29526114
-0.29835653 0.17908072 -0.1817556
0.0102363825 -0.21358423 0.2586451
-0.09760597 0.26395255 -0.22741178
0.2532965 0.028891673 0.043926425
0.18278849 0.085483626 0.078752175
-0.035883322 0.019536423 0.013279153
0.05858956 -0.075507484 0.29873702
-0.01151854 -0.053045243 0.31378615
-0.09561617 0.19208321 -0.26008502
-0.019635307 -0.17168987 0.23833299
0.103066385 0.050189223 0.21753737
-0.032675594 -0.17314503 0.21858244
0.19024065 -0.23430136 0.049164873
0.01207952 -0.048365396 -0.34297675
0.05405418 -0.09210376 0.15184456
-0.17144275 0.173788 -0.19574182
-0.04691907 -0.007060295 0.28648832
0.060002357 0.007188928 -0.40421
0.07622101 0.051100925 0.2816116
-0.10667726 0.09294406 -0.2083652
-0.12858264 -0.025106087 -0.27653655
-0.060127154 0.083908394 -0.14430076
0.033931322 0.05457652 0.1677867
0.12402491 0.13085915 -0.32563266
0.14608163 -0.10633861 0.21809317
0.13092723 -0.0733839 0.28142697
-0.28183287 0.026767733 -0.21316378
-0.0016223651 0.002530192 0.18898286
0.063839495 -0.23102458 0.23640493
-0.20741113 0.14053315 -0.2442967
0.16706748 -0.042459715 0.23818322
0.02708191 0.04598101 -0.32960588
0.15247205 0.12461786 0.113422126
-0.06301307 0.19937085 -0.23292728
0.021770354 -0.18179995 0.29370144
0.08667236 0.03350443 0.23896451
0.18278252 -0.051176976 0.19700252
-0.16591091 0.21633162 -0.18702747
0.03418774 -0.02846418 0.26443458
0.1816005 -0.028638922 0.26409113
-0.06967628 0.082681924 -0.18340786
0.17742892 -0.103132285 0.19087084
-0.14691812 0.027569637 -0.2300814
-0.18774036 0.07193408 -0.23036982
-0.30257532 0.051660392 -0.17473055
-0.0010919133 -0.087820426 0.19324026
0.13856842 -0.16376364 0.11978883
0.03302757 0.080631435 -0.31062406
-0.036388066 -0.02981901 -0.34891328
0.0016040581 -0.15707155 0.28585553
-0.22109403 0.19270764 -0.1859062
-0.13380149 0.06437922 -0.19639333
0.19946572 0.041655686 0.31001824
0.1126561 -0.08379837 0.27214852
-0.012655358 0.06561351 0.22413513
0.068077035 -0.17579867 0.2056945
-0.0027885153 -0.019843211 0.16195169
-0.051730413 0.05994042 -0.21206038
0.0036698391 0.23313856 -0.20511433
0.01464016 -0.1446762 0.24507621
0.0024592245 -0.06511018 0.18613578
0.044904202 -0.14644717 0.26811352
-0.22165719 0.13349262 -0.25535062
-0.017874852 -0.024952466 -0.34356666
0.077723 0.049843103 -0.36085603
0.16402301 -0.1972059 0.07905581
-0.19578885 0.21477976 -0.16179089
-0.18099119 0.16918465 -0.25923264
0.03923569 0.04571237 0.25803325
0.26901862 -0.11152222 0.10452178
-0.05034914 -0.026433188 0.19258887
-0.17402312 -0.041341726 -0.22607492
0.06721639 0.11451358 -0.31906515
-0.039503157 0.022889204 -0.34262362
0.076725006 0.088157415 0.1812813
0.058187917 -0.21343952 0.24617708
0.020462453 0.06843369 0.19836025
0.1760089 -0.039856296 0.07024168
-0.052045286 -0.09332776 0.12777345
-0.046882145 -0.07482669 0.22372548
-0.01368566 0.11902601 -0.25626332
-0.1027985 0.0433244 -0.18553764
0.23989658 -0.13992938 0.10589009
-0.08962226 0.23397265 -0.20139396
0.087159134 -0.06869087 0.25657094
-0.019675244 -0.025246577 -0.31283996
-0.05403633 -0.0074196435 -0.31938916
0.028890928 0.090707615 0.2488288
-0.13586693 0.21100712 -0.23445077
-0.0039600744 0.10298434 0.21973935
-0.16588818 0.094832085 -0.24185546
-0.071879774 -0.062594354 -0.3614389
-0.08336081 -0.108199984 -0.27071652
0.03793644 -0.14415121 0.22529766
0.15084104 -0.07036224 0.31575572
0.19295627 0.021411177 0.2310801
0.17084953 -0.095624134 0.2554737
0.0005297912 -0.080179796 0.28390306
0.11669725 -0.0039481595 0.17729819
-0.107878536 -0.1116408 -0.3383156
-0.046525776 -0.049290787 0.13944598
-0.015990647 0.09692086 -0.09244296
0.019009965 0.05686971 0.18734504
0.0071052313 -0.09021962 0.25549117
-0.056649763 0.15894736 -0.310049
-0.01294841 0.092376165 -0.36011901
-0.2560671 -0.0014519657 -0.2583923
0.12654385 0.05766194 0.23121566
-0.1607109 0.18391077 -0.22313005
0.047859408 -0.1970494 0.21620317
0.16691808 -0.056194976 0.20888491
-0.19595517 0.10151496 -0.22978467
0.09792015 -0.14527668 0.21806553
-0.042758748 0.13432634 -0.2236247
-0.0460946 -0.16840173 0.25874397
0.10097953 -0.051308308 0.14376993
-0.13569765 0.0043152263 -0.2972014
0.0139443455 0.023719423 -0.13180305
-0.236503 -0.021157619 -0.25222385
0.07643189 -0.10679524 0.22060171
-0.22140695 0.03029959 -0.20765652
-0.025416913 -0.0011100746 -0.32056543
-0.033380874 0.008652792 -0.157584
-0.26067874 0.08231488 -0.34467787
-0.0050556925 0.07315419 -0.2768182
0.16179211 -0.08646316 0.24761589
-0.0731286 -0.17738661 0.14706533
0.013918498 0.23523262 -0.21678632
-0.026580805 -0.10001686 -0.31675842
-0.07038056 0.028110579 -0.2696151
-0.26984066 0.12612374 -0.23509082
0.2389312 -0.06308612 0.07476269
0.25086066 -0.069021605 0.16160081
-0.17255214 0.0049631987 -0.22375172
-0.123670764 -0.016276045 -0.22779027
-0.08883717 -0.14984354 -0.2744127
0.0060559376 0.019464485 -0.13433622
-0.2193654 0.10301338 -0.17133242
-0.28450316 0.042738218 -0.18134262
0.18029913 -0.14293772 0.1029391
-0.10913145 0.054137114 -0.10016332
-0.15495707 0.056898374 -0.2920904
0.18426643 0.050983362 0.19238092
-0.0069980784 -0.0827675 -0.3193596
0.26451468 -0.03528327 0.16820344
-0.099378645 -0.0721075 0.20750208
0.17732409 -0.15403113 0.23217733
0.015760852 0.051452283 -0.29855862
-0.06800952 0.20100975 -0.27953506
-0.044525657 0.1601055 -0.29248154
0.1289052 -0.19745697 0.15544215
-0.024173599 -0.020770006 -0.29204333
-0.12266315 0.013943233 -0.32334855
-0.20166448 0.009820284 -0.29675654
0.059022423 -0.13447478 0.2748742
-0.026163766 0.044982344 0.23309948
-0.16553195 0.0538938 -0.190079
0.057209436 0.12541765 0.17757143
0.023474792 -0.20194551 0.08813089
-0.16177425 -0.051362086 -0.29391143
0.044150453 -0.105807215 0.23208769
0.23133697 -0.051418323 0.24462385
0.12165729 0.06873698 0.27889386
-0.091101274 -0.04191507 0.18172373
-0.02285672 -0.07426919 0.21137768
-0.0013637973 0.019932931 -0.35320616
0.042480633 -0.060978264 0.10347725
-0.27248535 -0.0046375007 -0.23870213
-0.08007985 -0.033435732 -0.305415
0.19448079 -0.098444395 0.21209274
0.061686933 0.02871485 0.19752681
0.15098043 -0.045179304 0.22315232
0.087215446 -0.109031156 0.27453023
-0.03310718 -0.15651383 0.13406336
0.15077265 -0.054841697 0.10582761
-0.04029159 -0.082956396 -0.37666473
0.08922765 0.055548538 0.18459988
-0.09063876 0.18302532 -0.40552786
-0.08978684 -0.09051101 -0.3008136
0.08071173 -0.026625602 0.28643635
0.3086939 -0.039496925 0.18880752
0.05461038 0.05644717 0.05360676
0.13070606 0.042830586 0.23466797
-0.089230366 -0.02632279 -0.14223655
0.018908331 0.112884514 0.20397124
-0.18341419 0.014415379 -0.2630906
0.12994552 0.044815015 0.280642
0.21329667 -0.030886421 0.25841135
-0.1613798 -0.03662762 -0.26755157
-0.015215984 0.01898054 0.23445383
-0.19977196 0.12555651 -0.19964606
0.022974424 -0.07739572 0.18623975
-0.10480087 -0.05948657 -0.3667589
0.16938089 -0.03793356 0.27377027
0.129719 -0.08261662 0.26952094
-0.085674316 -0.09150718 0.12095568
-0.0002016951 -0.021123359 -0.0069811996
-0.1403945 0.253947 -0.18920839
-0.08419035 -0.12071563 -0.36136222
-0.025772415 -0.050920535 0.2092303
0.014758038 0.13855879 -0.24568227
-0.06475552 0.10243094 -0.2630496
-0.024078002 -0.08845445 -0.31476992
-0.100947574 -0.15161529 -0.3103749
0.030363709 0.015378449 -0.3594609
-0.062812485 -0.17537487 0.17101677
0.02693682 0.07989325 0.18218441
-0.056617875 0.09971621 0.18333733
-0.09859574 0.13451228 -0.24649692
0.12286325 -0.14703584 0.09097165
-0.2271761 0.075075194 -0.20326333
-0.23078397 0.18156907 -0.16746801
-0.20448357 0.064761795 -0.2109061
0.12216519 -0.15042356 0.021286236
-0.023761855 0.10745315 -0.1455985
-0.3049683 0.030255552 -0.2457782
0.036252707 0.038821973 0.20810449
0.026698012 0.119342074 0.18065187
-0.19293736 0.07737604 -0.2160893
-0.0077306093 -0.116928786 0.17324553
-0.20344175 -0.0745125 -0.2629063
-0.14754286 0.067018196 -0.2822037
-0.018784817 0.09734472 -0.28803065
-0.1278249 0.09048648 -0.20647563
-0.039848037 -0.17475817 0.14205062
0.25588787 -0.10238005 0.23564306
0.07352455 -0.12615807 0.2149111
-0.09334238 0.019816127 0.22440866
-0.058718275 -0.13027936 -0.3674544
-0.08120342 -0.03823842 -0.2632336
-0.050671924 0.01647715 -0.30138248
-0.058992006 0.024282267 -0.14090872
0.11672478 0.0018619106 0.30915952
-0.18650392 0.014775058 -0.24770503
0.050844125 -0.03775243 0.2802095
-0.12592241 0.07160195 -0.27241105
-0.15517381 0.07512894 -0.2180636
-0.048427496 -0.17109446 0.21647686
-0.04609771 0.07355206 0.1547446
-0.10324032 -0.1745494 0.19553146
0.17089938 -0.167313 0.17711754
0.046378575 -0.007863057 0.2663354
0.11553526 -0.073869795 0.25895628
-0.15790372 -0.07503808 -0.26714185
0.2335207 0.01632918 0.029660542
-0.16890684 -0.057203267 -0.23088583
-0.17888074 0.26031473 -0.16351628
0.13749206 0.04922199 0.17780314
0.020151515 0.026321283 -0.29814517
-0.0155153675 -0.17097647 0.2928632
0.12906492 -0.2042364 0.21593072
0.046484813 0.081224516 0.25640628
-0.041294884 -0.18763946 0.2938341
0.08565944 -0.052270856 0.2557009
0.15403347 -0.12764844 0.20460808
-0.099550255 -0.08844935 0.2484936
0.17505632 -0.24019903 0.091227934
-0.11000109 0.11549442 -0.22192165
0.124891974 0.1482262 -0.3475869
-0.054654494 0.055989444 0.19352849
-0.1256164 -0.033601537 -0.29780525
-0.040471014 0.031429537 0.24266294
0.12232776 -0.14319153 0.2065464
0.26333734 -0.027779397 0.05738202
-0.033383973 0.016492218 0.23720138
0.03492781 0.1259158 -0.30316275
0.12563756 -0.14112888 0.1826998
-0.10362227 0.054304317 -0.19999951
0.20728154 -0.070289336 0.1794436
0.20346749 0.057733458 0.23706089
0.033575874 -0.15556373 0.22360477
-0.24321751 0.068662725 -0.2338918
0.17436713 -0.14494787 0.19896908
0.19364488 -0.06490554 0.117864415
0.03480685 -0.04908674 0.2283586
-0.00870791 0.051804356 0.1506731
-0.11543186 0.010702745 -0.23334923
-0.1956199 0.25958148 -0.16880977
-0.26452446 -0.13458003 -0.25225934
-0.006904394 -0.16949292 0.20591463
-0.2284077 0.13819104 -0.22130106
0.045544885 -0.12576567 0.28189468
-0.005472499 -0.1746711 0.16542183
-0.10861194 0.27271575 -0.25704142
0.13837203 -0.19872059 0.21898429
-0.256731 0.10932354 -0.2193699
0.15947147 -0.15657721 0.015955726
0.11706164 -0.09750706 0.25107956
-0.21442907 0.041369926 -0.19878443
-0.06644659 -0.091525905 -0.33232448
-0.13087662 0.09691041 -0.22414662
0.07547753 0.13572925 0.13366033
0.086537346 0.07097813 0.22589433
-0.0010954805 0.11983005 -0.35850403
0.032335702 -0.13138866 0.23301296
0.091024764 0.07190737 0.105433926
0.14570889 0.0910962 0.24533476
-0.07965692 0.14132476 -0.35874128
0.12003874 -0.17747635 0.2919787
0.08511472 -0.1262732 0.2937678
-0.15528816 0.09936209 -0.19755644
0.15467107 0.021880858 0.09247912
0.022611056 -0.16593362 0.280435
-0.009533154 -0.1041749 0.2081207
0.013509737 -0.06342945 0.19930337
0.059286937 -0.11664162 0.26285055
0.10776352 -0.02787672 0.24951904
0.04163804 0.074995354 -0.35220593
0.09721754 0.051464926 -0.30652887
0.22831179 -0.15072659 0.009958805
-0.06785263 0.1042017 0.21213982
0.19680047 0.041540362 0.18682644
-0.0070611513 0.0018235927 -0.31709328
-0.026401903 -0.19812812 0.1752304
0.099495895 0.095896676 0.1277362
-0.01662674 0.019035574 -0.043251835
0.2550836 -0.03675282 0.07942498
0.05898379 -0.09081469 0.3105232
-0.15349115 0.16093238 -0.26132607
-0.054929316 -0.07195304 -0.31809783
-0.13721325 0.19944915 -0.2623752
0.1989544 0.028741363 0.16001646
0.21061541 -0.21129826 0.15431252
0.23315871 -0.13734245 0.19786221
-0.23678067 0.19939081 -0.13997424
0.15814507 -0.018422363 0.24697988
-0.23555335 0.14368479 -0.21648873
0.021770718 0.053499922 -0.34235856
-0.24237439 0.13885796 -0.2018692
-0.027122121 -0.024508968 0.021429613
0.10743498 0.071434386 0.27987865
0.17417398 -0.16712543 0.16948333
-0.024188373 0.023214862 -0.34675902
0.034284253 0.09460613 -0.10705553
-0.032493193 -0.008107573 -0.3487203
-0.29865795 0.13092929 -0.2261249
-0.005005034 0.014925306 -0.29638958
0.18389945 -0.10925134 0.0777566
0.123872906 -0.024929564 0.1608399
-0.023027463 -0.08004588 -0.37270886
-0.157412 0.101534165 -0.25475937
-0.12007708 0.07752543 -0.21410908
0.018746164 0.13541043 0.16634302
-0.20087616 0.23828764 -0.22695713
-0.1727299 0.02713435 -0.3089905
-0.22689576 0.11027623 -0.16800044
-0.23159887 0.12019476 -0.37422282
0.048473205 0.1331279 -0.35443676
-0.075187184 -0.017097365 -0.26595074
-0.119279206 0.024509454 -0.29036164
-0.099066846 -0.040897936 0.1724927
0.07581189 0.12557676 0.23220286
0.16016649 0.017743157 0.26791987
-0.099553175 -0.086114325 -0.32337785
0.25043154 -0.11425109 0.113431774
0.25539544 -0.07088233 0.055002157
0.081971094 0.017984927 -0.31716058
-0.041395158 0.08681404 -0.27679458
-0.018598543 -0.114781715 0.17770696
0.22071643 -0.15962303 0.11134646
-0.23640065 0.030963127 -0.21292984
0.05619117 -0.18632379 0.16589749
0.019261347 -0.0077272076 0.27570984
-0.116102286 0.06481693 0.22686182
0.24165678 -0.13878135 0.19843195
0.1869985 -0.0070435875 0.06000927
-0.15535165 -0.060673643 -0.24187864
0.17337346 -0.09775644 0.24719398
0.10250928 0.0384367 -0.34119794
0.14947888 -0.12583323 0.23461132
-0.24350677 0.14663054 -0.18184718
-0.20373446 0.23198184 -0.22954407
-0.20552959 0.18559062 -0.15320875
0.07591189 0.034004074 0.24398145
-0.054576747 0.08466772 -0.2549809
0.06621755 0.18284304 -0.26539898
0.034667205 0.1130785 -0.30344513
0.20309927 0.06374898 0.10322134
0.13390958 -0.16988887 0.17492135
-0.0009685934 -0.026454266 0.04979684
0.24790348 -0.067371435 0.2017033
0.102551326 -0.011353798 -0.32017845
-0.022032423 0.0721923 -0.3232716
0.0662062 -0.081636555 0.21353193
-0.07536198 0.12807134 -0.22321461
-0.050566517 0.04449546 -0.29625353
0.016147753 -0.1292107 0.18189132
-0.008517795 -0.037937347 0.057341572
-0.040688954 -0.11380351 0.24821006
-0.117467165 -0.026195813 0.21032037
0.22581725 0.018821556 0.13316268
-0.22074975 0.07068087 -0.14973336
-0.08596335 -0.09899626 0.2280433
0.08944273 -0.1768196 0.17578113
0.059771907 0.12599373 0.17183816
0.013442272 -0.11667922 0.2934849
0.17622992 -0.09157243 0.18911316
0.14349264 -0.19336125 0.19322416
-0.042625815 -0.12517539 0.20526023
-0.052830204 0.0055490835 -0.1514189
-0.005734035 0.07067397 0.1854743
0.007731727 0.068322584 -0.36018464
0.027048225 0.022341466 -0.34116915
-0.2248335 0.001025372 -0.2693323
0.04789517 -0.13109063 0.22328474
0.012100058 0.08450134 -0.35927647
-0.06479037 0.05199442 0.25045738
0.08787628 0.0016868741 -0.38210195
-0.040066678 0.12321318 0.1643675
-0.05510422 0.04923605 -0.20150469
-0.20797691 0.19703753 -0.23995517
-0.10400911 -0.062276136 -0.34007454
0.0022662154 0.0540346 -0.34018096
0.21481949 0.08890008 0.22556324
0.061046846 0.1006221 0.14552926
-0.049543723 0.048875708 -0.28187987
-8.7423134e-05 0.08739332 0.18527289
0.079729654 -0.07897867 0.29648417
-0.14577724 0.22394852 -0.21017046
0.09312322 -0.08280923 0.2376831
-0.04192999 0.2515986 -0.1798299
-0.26928377 0.21727699 -0.15641305
0.043765225 0.06258687 -0.35468218
-0.1240534 0.018645048 -0.2959865
0.00039638503 0.0390703 -0.10407921
-0.19833614 0.15706182 -0.18949457
0.06451867 0.12350537 0.15979671
0.07713785 0.017458176 0.18775629
-0.04292506 -0.030776933 -0.26872352
0.18885295 0.04391084 0.18795231
0.021081723 -0.05073548 0.24981648
0.103579275 0.09647724 0.14151634
0.067975424 -0.14475836 0.21134983
-0.05388068 0.030216977 -0.17474534
-0.12651534 0.14118858 -0.41219598
-0.19599155 0.031810567 -0.20674445
-0.0061132708 0.019151092 -0.3084849
-0.16923158 0.081738904 -0.21489166
0.03437292 0.2241105 -0.27613345
0.061668936 -0.1506322 0.28461888
-0.10174133 0.009246205 0.18056272
0.0065112887 0.022675449 0.2194325
-0.08681538 -0.051013593 0.16676569
-0.04687009 0.037338313 -0.25968713
0.090034 0.17687629 0.11613358
-0.010273138 -0.040847607 0.29015386
0.016208205 0.2000153 -0.27936742
