# .PCD v0.7 - Point Cloud Data file format
VERSION 0.7
FIELDS x y z
SIZE 4 4 4
TYPE F F F
COUNT 1 1 1
WIDTH 1000
HEIGHT 1
VIEWPOINT 0 0 0 1 0 0 0
POINTS 1000
DATA ascii
-0.04564353 0.31964242 0.038120188
0.098277636 0.30492297 -0.04184089
0.13851212 -0.22275062 0.016601127
-0.11470145 -0.21315415 0.02613417
0.0011314407 -0.30758038 0.047638897
0.0554935 0.17191766 -0.3115679
0.06603355 -0.3069616 0.11673422
-0.07848739 -0.28511885 0.09553776
-0.09330214 0.30709827 0.005002459
0.07468653 -0.20747294 0.14991601
-0.15614694 -0.12401533 0.017979965
-0.052045267 0.27439183 -0.038886696
-0.00041469367 -0.1516082 0.09269429
-0.10828005 -0.16182052 0.104420796
-0.013184742 0.24417043 -0.19884661
0.03969202 -0.24586041 -0.07641554
0.0044616135 0.22618984 -0.06363365
-0.043083586 0.06519674 -0.023412624
-0.0457728 -0.13393825 0.19057551
-0.14258061 0.31337908 -0.00418308
0.05491008 0.18874308 -0.08803621
0.110050865 -0.2534325 -1.5890188e-05
-0.07309041 0.29069746 -0.17646512
0.007195093 -0.32728922 0.09935458
-0.17545518 0.219907 -0.1917694
0.02388027 -0.265821 0.030214552
-0.03359252 0.13533673 -0.021746501
0.029567534 0.1325187 -0.014388068
-0.12771457 -0.25408623 0.072813354
-0.003435849 0.09463407 -0.005233925
-0.034097318 0.26289833 -0.012095696
-0.053320363 0.19601107 -0.17475319
0.041502748 0.28439432 0.011374414
0.12231565 0.21919927 -0.017756049
0.092862524 0.2516679 -0.03898848
0.09614341 0.41609877 -0.13486847
-0.021140706 0.20063664 -0.06914853
0.09734229 -0.2636354 -0.0064005605
-0.0929782 0.26741675 -0.00019874127
0.014387387 0.3666029 0.002380116
0.007953376 0.18726768 -0.08548837
0.10138583 -0.27489406 -0.0021535456
-0.010732166 0.28534722 -0.09787265
-0.084620684 -0.24148571 0.15760449
-0.1734283 -0.219594 0.0279953
-0.18711352 -0.17472582 0.07078764
-0.18180226 -0.15306206 0.09250436
-0.094231844 -0.24757412 0.046811346
0.06951028 -0.18388714 0.09338062
0.15539931 0.25245798 -0.037666474
0.14477743 0.16012132 -0.20900728
0.10446457 -0.2530196 -0.010322557
-0.016107751 -0.03144993 0.045495532
0.029019626 0.33092198 0.10246243
0.11667689 0.29747054 -0.04688573
0.067738146 -0.22324617 0.14788806
-0.12719007 0.27089524 -0.06338978
-0.017677382 -0.33347338 0.034522086
-0.013073365 -0.1877613 -0.16662945
-0.035651613 -0.17792253 0.064916015
0.08591913 0.23273645 -0.276444
0.0029367036 -0.25794876 0.1764602
-0.20805883 -0.20453498 0.0056807
-0.06595592 0.30765817 0.039259538
-0.0017162345 0.28117168 -0.015610717
0.049573198 -0.2712065 0.0935537
0.043740667 -0.17014088 -0.1195325
0.019839657 0.33171377 0.10467919
0.04562716 0.29287785 -0.014547168
-0.17122456 -0.18009217 0.008116908
0.06555832 0.16563962 -0.017310554
0.0622188 -0.21605434 0.0635877
0.08212234 0.099902995 -0.061420478
-0.031557772 -0.35721573 -0.06267326
0.09362235 -0.23057611 -0.06261244
-0.07659002 -0.24467641 0.047864538
0.074667536 -0.20683466 0.16544077
0.039053954 0.3825654 -0.11485741
0.021617338 -0.19340618 -0.14325714
0.022741776 0.12916908 -0.06445715
0.039987605 -0.2668464 -0.15873836
-0.035306312 -0.09510817 -0.049654353
0.019055616 -0.35188088 0.09270776
-0.0840174 -0.33053997 0.046836354
-0.10480737 0.28152466 0.0557313
-0.14755608 -0.15985869 0.02272501
-0.1077545 -0.23900555 0.100412294
0.07585153 -0.18114723 0.09588556
0.13695678 -0.23658618 -0.117386274
-0.12704234 -0.16524015 0.039472193
0.08465932 -0.28501216 0.0825707
0.032419734 -0.19429749 0.062208
-0.09129283 -0.109011814 0.12374611
-0.01197816 -0.20362753 -0.028653225
0.15191604 -0.22880939 0.012536679
0.0012883008 0.19060332 -0.034548227
-0.018367004 -0.04828636 -0.02896329
0.021803875 0.093726955 -0.08397736
0.001861368 -0.27230933 0.11440738
-0.12558371 -0.14096294 0.18618819
-0.002834634 -0.24557406 0.077605255
-0.07369488 0.20431018 -0.054691315
0.047081426 -0.16795246 0.0033815103
0.08600403 -0.16895981 0.098084986
0.024699075 0.20619346 -0.26536494
0.02270022 -0.2209807 0.13894552
0.14168234 0.21789256 -0.0557372
-0.12070603 0.21535975 -0.14483161
-0.20598482 -0.16805704 0.008160784
0.14003262 0.16192493 -0.2812747
-0.08672435 -0.124428906 0.011580097
-0.026982885 0.42135942 -0.01746835
0.067163035 0.22563821 0.051561166
0.20425093 0.17215331 -0.08232246
0.0048354417 -0.09183029 -0.045796804
-0.04969088 -0.35131186 0.047951024
0.23527242 0.24580345 -0.027426705
0.009388575 -0.27736527 0.10083475
0.023436112 -0.030646775 0.0019822647
-0.043492828 -0.118566245 0.15383936
-0.0554304 0.21120836 -0.05674086
-0.07818076 0.29508886 0.025782935
0.05338336 0.2660048 0.12945092
0.026292063 -0.28987777 0.06394313
0.020829435 -0.14281173 0.15218072
-0.013938681 0.40442955 -0.13420174
-0.13099694 -0.19439037 -0.0014071312
-0.06962681 -0.2912212 0.10565954
0.0009698224 0.15811735 -0.024138566
-0.17413652 0.26554602 -0.03731957
0.21084042 0.17829753 -0.18054464
-0.018242927 -0.01989426 -0.034899157
0.12227408 -0.25719723 0.07081657
-0.093711145 0.31953776 -0.01693282
0.048276313 0.32601863 0.014353745
-0.008990298 0.17891055 -0.01069602
0.007936637 -0.2699611 0.00036125272
0.14092511 0.24858026 -0.07768572
-0.014316545 -0.04360292 -0.058798965
0.018159878 0.046803083 -0.031222297
-0.09549782 -0.15582766 0.15509987
-0.021134552 -0.28211623 0.043158617
-0.114594005 0.28225964 -0.049111176
-0.069159195 -0.34637654 0.07634512
0.055390466 -0.22226219 0.1067721
-0.083621755 0.2057395 -0.14923997
0.116349295 0.15646586 -0.23767868
-0.13510981 -0.25606087 0.036048807
0.07605861 0.29272658 0.032829102
0.11697904 0.31372488 0.0022335728
-0.09856002 -0.020821571 0.0058573713
-0.02366414 -0.23725553 0.02912085
0.20133613 -0.24254745 -0.070316695
-0.16987433 -0.2879697 0.0801336
-0.05065413 -0.22215024 0.025465202
0.112135515 0.22005084 -0.07226983
-0.13993497 -0.2418846 0.11416943
-0.17505075 -0.26308495 0.10074433
0.0018656661 0.06251848 -0.008501763
-0.032027114 -0.16472171 -0.05084725
-0.028799258 -0.013420721 -0.007895239
-0.00500557 0.40908673 -0.06491132
-0.04215866 -0.1304872 -0.027480798
-0.0064826207 -0.36221212 0.09067991
0.23422422 0.25935927 -0.13092297
-0.15898271 0.24045633 -0.09382085
-0.012629585 -0.31367323 0.080025055
-0.07379861 -0.19027527 0.15041795
0.13502425 0.24784799 0.03228677
0.12120734 -0.31438112 0.08683753
0.061935462 0.35925558 -0.07739332
0.099745505 0.23703209 0.06726345
0.034121387 0.2559585 0.006938254
0.24673755 0.19319613 -0.14081328
0.045430556 -0.28734437 0.08734902
0.0003806107 -0.3060708 0.029582229
0.017435674 0.29633722 0.015963316
0.085963845 0.37324044 -0.15053871
0.07392606 0.37181565 -0.02632095
0.02170744 -0.24938665 0.0694189
-0.014095117 -0.18784161 0.10510354
-0.13917622 -0.32019824 0.073162146
-0.010850546 0.33551955 0.02238756
0.15350747 -0.30115944 -0.014822676
0.117976725 -0.25634295 0.014073181
-0.09669838 -0.17370267 0.16178095
-0.020124488 0.09397667 -0.055963863
0.10227288 0.28929612 -0.08386218
0.06938463 0.34156322 -0.14403811
0.062077474 0.29668263 -0.019333053
0.17963555 0.23462042 -0.14035808
0.16108276 0.22931299 -0.14296615
-0.08342842 -0.20628732 0.08480486
-0.018360248 0.26254073 0.094780415
-0.07846079 -0.19693659 0.1495198
-0.051418677 0.27747515 -0.050912302
-0.059899714 0.2987438 -0.094924
0.14898118 0.27132726 -0.06658307
-0.024128033 -0.16114742 -0.15198122
0.14024837 0.23398842 -0.17764613
0.068215415 0.19094892 -0.20700084
-0.16255574 -0.20398816 0.10141532
0.1655155 0.24836563 -0.034494318
0.035344686 0.26074454 -0.014887168
-0.018827891 -0.010879079 0.0036988975
0.1670377 -0.20504875 -0.03862714
0.08210062 0.00010207021 -0.053253137
0.018040353 0.35989398 -0.01582154
0.065968834 0.29296553 0.08323874
0.14035262 0.24452767 -0.001195013
-0.14583717 -0.1228017 0.19479173
0.08600542 -0.19766691 -0.01759082
0.021229459 0.41297767 -0.034134954
-0.03273284 -0.16354327 0.03256176
0.009563247 0.054077182 -0.05460392
-0.06435617 -0.1824629 0.15547708
-0.10603795 0.25106627 0.005950817
0.15107228 0.2969539 0.015115159
-0.16464736 -0.118922375 0.09100896
0.029469037 -0.17171793 0.08748099
0.03868014 -0.24319589 0.0045260545
0.14185488 0.16361092 -0.23157014
-0.12401558 -0.2383162 0.10321604
-0.040113553 0.05243424 -0.08184932
-0.07856637 -0.36394876 0.10680095
-0.21228276 -0.17939225 0.13165088
-0.113416344 -0.17594695 0.13060775
-0.077607885 -0.17648572 0.17295228
-0.039628364 0.28868595 -0.15361448
0.07842858 -0.3393626 -0.06711309
-0.17141443 -0.21432552 -0.022572521
0.022704458 0.05242706 -0.06250721
0.06851998 -0.34537897 0.040205896
-0.030758936 -0.038050897 -0.032628063
0.0955831 -0.2630231 0.06004281
0.21337372 0.20072904 -0.10955776
0.076149635 0.122473605 -0.023686305
-0.030053023 0.2972633 -0.015217663
0.080645874 -0.22013317 0.14499924
0.11626364 0.29099756 0.013678622
-0.25422207 -0.19713727 0.03168606
-0.20289177 -0.17707509 0.1451276
0.09732306 0.35626513 -0.07577338
0.14471799 0.35818225 -0.08365819
-0.122621514 0.31765613 -0.0028103949
-0.123941325 -0.17374036 0.15326883
0.0247673 -0.12736228 0.11992251
0.023392959 -0.16012025 0.1382772
-0.10589718 -0.3064415 0.057048563
0.16986553 0.2545443 -0.14226747
-0.12792571 -0.113469884 0.056939933
0.014520984 -0.27408075 0.05828096
-0.058519684 -0.050588198 -0.059366282
0.012048832 0.14328946 -0.009960832
-0.042588938 -0.15835999 0.18684104
0.06409237 0.17761326 -0.06343716
0.060243733 0.036408667 -0.008188932
0.04135116 0.01148261 -0.060596358
-0.002346416 -0.058801617 0.0027347833
-0.06985042 -0.16913362 0.20195343
-0.010526861 -0.17976664 -0.0021923424
0.02505281 0.03142863 -0.064217485
0.12255887 0.2178835 -0.24152355
0.09700422 0.127975 -0.027586201
-0.022490101 0.15572532 -0.07948047
-0.011482756 -0.14370322 0.17478067
0.013045869 -0.13094044 0.11661167
-0.16300263 -0.24107178 0.17514117
-0.03223015 0.2939193 0.09243383
0.09280878 0.16747756 -0.23736036
0.11853828 0.2576437 0.007327799
0.13681452 0.24950567 0.020493606
0.0030617043 -0.23413998 0.0971703
0.07349536 0.12687925 -0.14066383
-0.09784753 -0.24342084 0.07769686
-0.17406082 -0.24923907 0.0051970305
0.037939787 0.26602292 0.06515074
-0.004752351 -0.25068346 0.14870544
0.047630027 0.34054455 -0.0647187
-0.08974674 -0.22928533 0.14559317
0.049240794 -0.24118155 0.0442448
-0.008452736 0.31052876 0.063270085
0.21069382 0.22717373 0.042610623
-0.062467102 0.3012159 0.028211968
0.16990542 0.1909023 -0.06572975
0.024150599 -0.2160416 0.035825316
0.08332866 0.24689022 -0.10724361
-0.03488591 -0.07937704 0.011557309
-0.039117854 -0.32118243 0.09017599
0.029331906 0.17699912 -0.22563648
-0.08058926 -0.2741035 0.15769535
-0.009770654 -0.34891886 -0.010160721
0.085802965 0.33288708 -0.0975945
0.069531485 -0.22475313 0.06067427
-0.24553849 -0.22788654 -0.019533169
-0.04852679 0.3181994 0.03659591
0.12824114 0.37333706 -0.15816848
-0.03997021 0.35288113 -0.11804124
0.0071304627 -0.029279415 -0.022892112
-0.15949638 -0.2726296 0.05016211
0.054262847 -0.33021215 0.0032666018
0.056097385 -0.35706064 0.12281125
-0.087023675 0.2648631 -0.15402761
0.035687894 -0.20289545 0.017176462
-0.07068607 -0.2664178 0.04731231
-0.040278073 0.029144319 -0.024455437
0.11280336 -0.31987792 -0.025488002
-0.13757837 -0.08853023 0.16543818
-0.0059515713 -0.15710594 0.13659582
0.06426178 -0.16344242 -0.011134
-0.2084423 -0.14627042 -0.030141871
-0.091982216 -0.26537284 0.05641205
0.14148529 -0.22988546 -0.034940492
-0.07443049 0.34185192 0.08664237
0.0036370207 -0.14045212 0.11849105
-0.023133902 -0.2282824 0.10801673
0.034093887 0.040909342 -0.0048605753
0.0075202435 0.31543455 -0.044487435
0.051981494 0.017282765 -0.020992823
0.074756 -0.21225423 0.06810601
-0.117017485 -0.27929568 0.10217363
0.0038569525 0.3638883 -0.04997081
-0.016999906 0.13699725 -0.0812364
0.13286187 0.17270136 -0.07906625
-0.003336622 0.14648353 -0.05221177
0.20926839 0.30122092 0.02917821
0.16581734 0.24224865 -0.24252523
0.07887049 -0.32943705 0.11880942
0.10716045 -0.1622142 0.08877096
-0.15110397 -0.1667542 -0.13532285
-0.17083609 -0.12633061 -0.019148786
0.0792928 0.28042972 0.061840925
0.006794462 -0.0541443 -0.04690394
0.12649247 -0.30884045 0.02917784
-0.15935403 -0.13003828 -0.02688333
0.06403335 0.23148149 -0.009399731
-0.08326344 -0.3712735 0.12613216
0.07890318 -0.23813143 0.0112501765
-0.014598245 0.06583367 -0.021183318
0.02643468 0.20061488 -0.12946585
0.07652389 0.32056132 0.11578353
0.007999764 0.38527295 -0.019299207
-0.06901658 0.2456769 0.035262335
0.065336935 0.31242594 -0.094597936
0.117081344 -0.2818816 -0.06934808
-0.13297524 -0.3806995 -0.035754718
0.08455158 0.30979759 -0.074819334
-0.096531555 -0.22889434 0.004576048
0.07011266 -0.38046157 0.030571504
0.02263886 0.39377418 -0.10443054
-0.05578541 0.29725346 -0.007827814
-0.14664017 -0.28371963 0.098676994
0.09389194 -0.19354814 0.13274655
-0.13973339 -0.1329236 -0.10216564
0.14378195 -0.26704684 -0.08420192
-0.058328666 0.30173424 -0.053374294
-0.004412948 0.40061814 -0.056996968
0.08426044 0.13542877 -0.092184626
0.15205804 0.19745769 -0.13119788
-0.121042475 0.31796947 -0.11914341
-0.16278143 -0.34022695 0.093772866
0.12098828 0.32508332 -0.07575412
-0.08161465 0.30505943 0.06362557
-0.046344575 -0.1880424 0.06329286
0.06160215 -0.25797918 0.033473562
-0.036521424 -0.35819265 0.065921396
-0.109609246 -0.23650977 -0.12149908
-0.21912396 -0.16143532 0.06774449
0.10476896 -0.24708486 0.10851622
0.016596746 0.27325815 0.059955034
0.10779697 -0.2869117 0.028325783
-0.08240647 -0.34355026 0.1053292
-0.008043558 0.11550279 -0.0736951
0.1947343 0.2779496 -0.07389817
-0.016827216 0.31836075 0.05263958
0.029189473 -0.28219423 0.05654128
0.02807542 0.120546915 -0.065388
0.023108726 -0.22815676 0.018354317
0.11933505 0.26998952 0.04676308
-0.045994796 -0.23462266 0.08560914
0.07831464 0.13872686 -0.053046323
-0.110124655 -0.13928324 0.033930622
0.0023359654 0.29315856 0.028744576
0.02076525 -0.3742537 -0.014246392
0.06062285 -0.27421284 0.0493991
-0.07068776 -0.21853854 0.14583391
0.113326 -0.21505561 0.09709842
0.09606661 -0.14972845 0.15161146
-0.06866677 -0.1911694 0.10593253
0.03984573 0.3132331 -0.12646405
-0.050740976 0.32691684 0.031239863
0.10027157 -0.22841252 0.07050968
-0.012235987 0.082337454 0.010675908
-0.10233192 0.26566818 -0.14223407
-0.06782282 0.3695928 -0.023192596
0.035368226 0.21315776 -0.021103757
0.060912076 0.24130128 -0.19770792
0.02590881 0.32791814 0.06620924
0.10474594 0.2187547 -0.11222914
0.15982229 0.24988478 -0.19235656
-0.060789272 -0.20682994 0.035239294
0.039044093 0.25924104 -0.019011196
0.011781212 -0.1722003 0.1756574
0.020578062 0.32849878 0.008367643
0.064620525 -0.319248 0.10116447
-0.05354824 -0.18368167 0.15893406
-0.030789452 0.33024046 0.05691245
-0.0646498 0.29831985 -0.09298064
0.06661499 -0.19425857 -0.04631919
-0.16227704 -0.2644259 0.040088106
-0.13950793 -0.26948476 0.04663146
0.1469832 -0.2861701 0.06356874
-0.02306969 0.21544307 -0.031234883
-0.16796122 -0.20486164 -0.116209604
0.07331528 -0.19374287 0.06786878
0.03816613 -0.3188271 0.0001511111
-0.11332844 -0.30498114 0.054030567
0.14726368 0.19198641 -0.007308461
-0.0102471365 -0.14461283 0.17485896
0.06733316 0.3367386 -0.021176785
-0.039935615 0.320918 0.038573414
-0.046050098 -0.21343638 0.07512574
0.14526656 0.1596214 -0.19921303
0.09309436 -0.16824612 -0.014806145
-0.08914928 -0.28858227 0.15971117
0.107793204 -0.16609377 0.04585734
-0.011001554 -0.008379122 -0.029364774
0.17338787 0.22279605 0.062214337
-0.15163046 -0.20698112 0.08164409
0.10360633 0.29788065 0.0021834688
-0.16119897 -0.13980412 0.008561195
0.012006079 -0.2002398 0.051520266
-0.022098163 -0.37510026 0.055916805
0.04339619 0.1776639 -0.017889911
-0.069526404 0.27295378 0.037139423
-0.089679725 -0.23129669 0.10185122
-0.08513772 0.35875428 -0.066744275
0.01418481 0.11032169 -0.09425421
0.06158686 -0.20068836 0.12928094
-0.008353747 0.020112788 0.0073286844
-0.046680883 -0.1462335 0.0056182737
-0.1060946 0.21560359 -0.24368674
0.076287456 0.29485998 -0.10432624
-0.030592902 0.23370089 -0.29634646
-0.16253215 0.21060017 -0.19372879
-0.07841205 0.24721935 -0.09564227
-0.035027236 -0.32542026 0.07884111
-0.11596362 0.20918134 -0.16785894
-0.055856634 -0.23441678 0.18158211
-0.18361469 -0.2750053 0.026768545
0.020153737 0.2934809 0.1338679
-0.065005235 0.30099395 0.032605138
0.03262764 0.14597134 -0.01644774
-0.04010793 0.17386864 -0.25014716
-0.12164452 -0.18990056 0.07598561
0.077978514 -0.14364433 0.113059916
-0.05869284 -0.11158476 0.052002717
0.0073524904 -0.15584704 0.08602416
-0.14227748 -0.18840715 0.14366113
-0.031364318 -0.27188358 0.09032276
-0.09939348 -0.20546944 0.11961893
-0.02361681 -0.15502807 0.15021047
-0.10935819 -0.27374232 0.07107786
-0.0062421123 0.097040035 -0.042340167
0.009769638 -0.017089508 0.020479983
0.03986216 0.23729947 0.030287648
-0.06386444 0.3183915 0.00037170065
0.10621228 0.3364022 -0.10757708
-0.055125955 0.27963626 -0.04562329
-0.027306167 -0.18030046 -0.20388512
-0.004569432 -0.22058032 0.0054079844
0.10132887 0.32868627 0.017060233
-0.026372502 -0.20468643 0.159356
-0.060159005 0.054180793 -0.010233666
-0.12971464 -0.18924448 0.13736196
0.03818365 -0.22419858 0.16918644
-0.14761116 -0.28399414 0.07939797
-0.02108727 0.2487179 -0.0296284
0.23141995 0.17112061 -0.06705679
0.07889014 0.3568547 -0.11647009
-0.16860668 0.24260291 -0.022499904
-0.014558102 0.3279782 -0.06666699
-0.09919784 -0.1412303 0.10684293
-0.05036903 -0.09076798 0.0036163956
-0.10068668 -0.2884424 0.07327351
-0.08057676 0.051525634 -0.040176444
-0.047733348 0.25476715 -0.23240602
0.18503949 0.25720572 -0.117777996
-0.06466217 0.25503513 0.05442948
0.10574943 0.31520587 0.06532162
-0.021009307 -0.08031273 0.04415791
-0.07151924 -0.30942813 0.024408486
-0.03850421 0.15108232 -0.038065813
-0.12175587 -0.2840291 0.046573486
-0.14478229 -0.13968934 0.15112811
-0.16675904 -0.12607871 0.09068993
0.03413434 0.36817372 -0.05177554
0.088684775 0.23516448 -0.18734951
-0.043556035 -0.26104262 0.07628592
0.15716398 0.2808219 0.035545442
0.08432914 -0.22900705 0.13076699
0.019134698 0.30731028 0.044896014
-0.0715498 -0.27054965 0.042976707
-0.03478125 -0.12535264 0.15991047
-0.10076326 -0.32569787 0.088268
0.0019896037 0.38626406 -0.07815397
-0.023710724 0.17112793 -0.060448885
0.13541962 0.35794103 -0.1377844
0.0907868 -0.19807166 0.16883819
-0.17511424 -0.3586274 0.025042428
0.11094481 0.42010954 -0.14084221
-0.14565673 -0.25733712 -0.06084084
0.10375005 0.19300832 -0.045940936
-0.15883158 -0.19915986 0.017531103
0.038551856 -0.30593356 0.04610237
-0.05837281 -0.079742976 -0.034923397
-0.06628832 -0.25289005 0.11265287
0.008551133 0.09237264 -0.02597759
-0.06219722 -0.26632628 -0.0026685202
0.107958734 0.3115046 0.10173265
-0.13139644 -0.29862058 0.07541472
-0.04232245 -0.09716093 0.011316188
-0.018782886 -0.2725716 0.06929983
-0.10613897 0.23543738 -0.22429562
0.08884734 0.4306363 -0.026212484
-0.05700677 -0.16496767 0.049701594
-0.04531612 0.1664901 -0.047495384
0.029623495 -0.26632354 0.082471006
-0.06273314 -0.2755185 0.1440072
-0.04667475 0.06423719 -0.01447573
0.18304148 0.20363048 -0.060134128
-0.027454697 0.05159266 0.025036503
0.028408198 -0.0731735 -0.00710512
0.120599 -0.21538647 9.197946e-05
0.06694015 0.18637621 -0.21800405
-0.1827978 -0.28946427 0.035951566
-0.008882657 -0.036285657 -0.06585172
-0.026282528 0.23063375 -0.07316129
-0.08530691 0.19649747 -0.22816633
0.03790204 -0.2815884 0.09702673
0.0289965 0.4211267 -0.068123646
-0.08702088 0.24756515 -0.29241621
-0.0705348 0.27089065 0.09710694
-0.11608678 -0.17679162 0.12701373
-0.046789512 -0.18042377 0.030592373
-0.048997544 -0.334239 0.017928638
0.07833301 0.29591787 0.09098029
0.0010389932 -0.2860198 0.07122779
0.13977727 -0.234735 0.036862362
0.073629186 -0.27223122 0.09968552
0.18004827 0.21847382 -0.030721433
0.125807 0.16547035 -0.22282602
-0.05335772 -0.33574253 0.008257517
0.20501548 0.20780931 -0.14506646
-0.053942714 0.3084298 0.009826018
-0.043485377 -0.3216225 0.018786043
-0.057372835 -0.26025453 0.05204596
0.15928636 -0.3242742 -0.06909015
-0.14888051 0.20910543 -0.23721547
0.16496001 0.34131986 -0.16711122
-0.038250994 0.2595697 -0.2665401
-0.013745571 -0.1140413 0.04203734
-0.02137149 -0.18419982 0.12921876
-0.0919291 0.30307636 -0.08124016
-0.06342006 -0.2272298 0.10259573
-0.01022746 0.39253408 -0.08205773
0.088483155 -0.15806288 0.15310521
-0.08788048 -0.16364136 0.15734568
0.13845477 -0.27846918 -0.039273325
0.030772071 0.24694435 -0.0044681635
0.02578293 0.25913224 0.0072705066
0.069207415 0.41032594 -0.06594624
0.071941875 -0.19412437 0.12796637
-0.15774766 -0.25609565 -0.051270798
-0.016972763 0.19057383 -0.15064341
-0.18350886 -0.22051682 0.088420734
0.06651802 0.111141406 -0.049569283
0.12372932 0.287815 -0.16669542
-0.05011997 -0.29588902 0.06249271
-0.003577791 -0.2345212 -0.01695984
0.15219991 -0.16696756 0.047738712
-0.11300139 -0.2598864 0.19938709
-0.14978096 0.35521623 -0.018339729
0.06420369 -0.2491115 0.0010711852
0.00840234 -0.029178355 -0.03784296
0.008808833 0.24454026 0.07984208
-0.22954176 -0.24556476 -0.08631633
0.082943715 -0.26581994 -0.01929356
-0.063913286 -0.36223066 0.12159073
0.06950317 0.19579959 -0.044488832
-0.018004257 0.020378785 0.02817724
0.078533545 0.2322114 0.12288352
0.02420907 -0.29762346 -0.12982745
-0.0703081 0.0015259715 -0.05303408
0.10418345 0.19151434 -0.2207058
-0.12810409 -0.28967443 0.03128577
-0.14222649 0.21705629 -0.1012041
0.043020613 0.28421247 0.12267185
0.000167022 0.34129208 0.022138482
-0.060574554 -0.17222784 0.050084125
-0.04481825 -0.26421735 0.118719764
0.03894778 0.30759507 -0.0063630505
-0.034599338 0.042145297 -0.025464678
0.08860401 0.33384722 0.102316745
0.019339543 -0.21146111 0.05239226
0.18576519 0.20485729 -0.19709738
-0.030430159 0.2895338 -0.038307484
-0.13289765 -0.23410991 -0.08502744
-0.106869146 -0.14565821 0.015971111
0.027659796 -0.040416602 0.016532276
0.03833651 -0.3205653 0.14414637
-0.052727163 -0.06724273 0.014162111
-0.00028743353 -0.19038731 0.12461667
-0.13457932 -0.29864636 0.048075475
0.13096984 -0.1890948 0.10124179
-0.09395285 -0.25239828 0.10180526
-0.10900795 0.29775393 -0.12644531
0.062525064 -0.20085135 0.061019514
0.032546297 0.28928104 0.05276112
0.16639411 -0.17070112 0.11248724
0.1675201 -0.32802954 0.028707724
0.08855968 0.16792743 -0.050016887
-0.054180123 0.28623113 0.043253373
-0.11050016 -0.36639297 0.044447616
0.1912013 0.14742075 -0.14819267
-0.036589287 0.32460037 -0.13469552
0.11378849 -0.2055044 0.075008616
0.032090507 -0.21082893 -0.16858324
-0.07071228 -0.32169652 -0.11342365
0.15459049 0.24923062 0.041320268
0.037935227 -0.3204601 0.051334783
-0.14422488 -0.35173035 0.06978979
-0.09679724 -0.2257642 0.11688415
-0.010365053 -0.0016891448 0.014822564
0.005305215 -0.26275706 0.08577484
-0.089683495 0.24242857 -0.12863088
-0.041099355 0.00086699415 0.014190705
-0.032996852 0.35075063 -0.16399302
0.08759224 0.11703607 -0.10049237
-0.004851805 0.008396101 0.021327367
-0.0026542519 0.15328209 -0.06862622
-0.055142973 -0.29671466 0.071095996
-0.035942137 -0.24207428 0.09513738
0.012314983 -0.22191523 0.042559132
0.10055586 0.21925086 0.007480207
-0.047549874 0.2577804 0.06452766
0.06329875 -0.2590419 -0.1791781
-0.0029511566 0.27884027 0.011841211
0.14658101 0.3391936 -0.10558654
-0.11564885 -0.11683245 0.1105155
0.018835085 0.3486319 -0.036310308
-0.044730976 0.35592166 -0.029657919
0.13075015 -0.24140756 -0.1396755
0.11569392 0.23544893 -0.08510387
-0.04727186 0.03620397 -0.07396358
0.051409878 0.22535212 -0.03304618
0.05760615 0.1935346 -0.032726757
-0.052189738 0.26490495 -0.15921348
-0.027021686 -0.23981981 -0.017662337
0.023616215 0.27600226 -0.0895346
-0.027016552 -0.3162981 0.12063334
0.0894851 0.31345516 -0.13641362
-0.16219482 -0.22824189 0.083537325
0.22215474 0.24993071 0.00477002
-0.22171503 -0.2715526 0.03016657
-0.02476841 -0.15299326 0.027980382
0.008029148 0.3184016 -0.045866854
0.25830403 0.17148423 -0.12246972
-0.13347445 -0.33726138 0.022155453
0.07192893 -0.2183306 0.14698245
0.003734801 -0.27193668 0.13396597
0.04027714 0.11065797 -0.029209767
0.22216567 0.16792172 -0.1158552
-0.014607909 -0.3496177 0.043279234
-0.030127961 -0.07093107 0.01639697
0.05869185 0.01853343 -0.056039546
0.037187576 0.18340203 -0.19212814
-0.12784925 -0.15831292 0.0935137
-0.06749653 -0.23867911 0.06017595
-0.058602814 -0.23124748 -0.17637245
0.031313322 -0.13110143 -0.036393803
0.09035208 0.26006523 0.030257933
-0.085645206 -0.15089644 0.055235643
-0.03245714 -0.16774094 0.044430185
0.13888706 -0.26965526 -0.06611171
-0.09680042 -0.18113744 0.059879884
-0.020521443 -0.25948977 0.14012092
0.09421185 -0.25501478 0.06475616
-0.01509896 -0.09221006 -0.055016067
0.117406346 -0.26851788 -0.050211042
0.005413041 0.008914635 -0.036726013
-0.08304729 -0.2184859 -0.056507576
-0.0009917315 0.015352836 -0.055942204
-0.1444386 -0.14184195 -0.01575389
-0.00426191 -0.0025252334 0.027269686
0.053330597 0.32247177 -0.04187769
-0.056695554 -0.18591966 0.06016357
0.012014271 -0.29690245 0.035046224
0.006421738 -0.18282816 0.15810697
-0.011055593 0.37981626 -0.03004825
-0.0037464977 -0.21283944 0.067204304
0.0996492 0.21729778 0.09585364
0.21822184 0.25587848 -0.15412061
0.13639756 0.3201154 0.06201339
-0.07454001 -0.33552286 0.04598409
-0.007620777 -0.061693344 -0.0028763479
0.11773718 0.25789273 -0.09995466
-0.12551075 -0.26545787 0.027611386
-0.057215117 -0.40037835 -0.043770794
0.011180685 0.17165656 -0.035055805
-0.181855 -0.24627051 0.01541585
0.107429035 0.1713249 -0.2702981
0.15366168 -0.2862191 -0.0024481642
-0.04178115 0.30462968 0.08617662
-0.01954818 -0.25020513 0.12762831
-0.23030606 -0.20883985 0.008583423
0.010947577 -0.14457114 0.15308966
-0.11913737 0.2951032 -0.081322365
0.058724348 0.34531263 -0.14135918
0.014963954 -0.11821181 0.15190746
0.02629548 -0.19372103 0.1316031
-0.15707624 -0.11875282 0.116581455
0.017714303 0.17200409 -0.05996501
-0.031972893 -0.049011353 -0.0052133375
0.008960812 -0.24891987 0.114496626
-0.03485682 -0.2046863 -0.13207653
-0.013011572 0.33777153 0.072520494
0.11203559 -0.2262271 0.009482652
0.03576246 0.2622511 0.037620988
0.08135857 -0.18050258 -0.05272906
-0.1088207 0.2961086 -0.012064628
0.05320312 0.40450653 -0.10209465
0.0063588936 0.29253155 0.05892168
-0.20239514 -0.2767719 -0.02059606
-0.07099259 -0.10750666 0.12621649
-0.14286439 -0.26741138 0.095352255
-0.15425536 -0.23027824 0.13857816
0.030689277 -0.26417053 0.008178695
0.07441413 0.39637035 -0.07875728
0.06774154 0.0776049 0.0067576715
-0.17834033 0.2976534 -0.11309288
-0.056339934 -0.19319217 0.08177019
-0.19651258 -0.17334136 0.032900423
0.11671506 0.28648725 -0.21115297
-0.07891766 0.25189334 -0.2964538
0.043760017 -0.14813918 0.063746974
-0.007095846 -0.031288315 -0.014877006
-0.08049507 0.36260527 -0.017559018
0.081003964 -0.14197399 0.08970186
0.16350509 -0.23010525 0.0576737
-0.006066673 -0.21003477 0.102076404
-0.21814069 -0.24255039 0.0011719331
-0.1890338 -0.20970143 -0.09512382
0.02442091 0.2842954 0.054479208
0.036953148 0.2583276 -0.02373387
-0.049467754 -0.3307734 0.1147392
0.1407905 -0.27868527 -0.053666856
-0.023148742 -0.17808862 0.028137118
0.1965362 0.16615894 -0.06543727
-0.094661295 -0.23641635 0.11109623
0.19249108 -0.19028333 -0.035437334
-0.008271583 0.43292108 -0.12051787
-0.03613085 0.30291155 0.11187955
0.077035144 0.11877402 -0.07770507
0.04833519 0.34668925 -0.08367905
0.051709253 0.35969958 -0.03206624
0.04011915 -0.0071046427 -0.022027008
0.06934181 -0.34529552 0.020287195
0.014524065 0.22214127 -0.05682053
-0.0082266275 -0.37115005 0.011471988
-0.09914417 -0.35195085 0.057885326
-0.1232853 -0.23496813 0.059228223
-0.045117106 0.06479745 -0.050252676
0.0013396022 -0.26381508 0.10480583
-0.00793641 0.3406773 0.038648106
-0.047005862 -0.1967051 0.059627913
0.020593567 -0.22262216 0.14853351
0.0041593276 0.2470789 0.11352903
-0.15958793 0.3344198 0.010593548
0.1254469 -0.25829875 0.076612175
0.16968888 -0.2455081 0.084446676
0.025126332 -0.036431555 -0.035437282
-0.0022775216 -0.18763193 0.03381173
-0.07516246 0.13260327 -0.029196763
0.018996524 0.28128785 0.046057805
0.12914981 0.22291538 -0.00067056424
0.069720104 -0.06276599 -0.056014
0.10135093 0.21866785 -0.256356
-0.12396586 0.26083022 -0.0821176
-0.20257252 -0.25676095 0.015391555
0.022411605 0.34228808 -0.112833135
0.062267426 -0.23298651 0.13947713
-0.08775025 -0.34412485 -0.07780822
0.030415341 0.34448004 -0.054921944
-0.00638788 -0.27718648 0.101371095
0.020971267 0.150932 -0.096258186
0.20328039 0.1450888 -0.26949015
-0.21760206 -0.17387308 0.09224515
-0.15937768 -0.19497594 0.061997607
-0.0028624814 -0.07858827 -0.039632604
0.13833857 -0.25656927 -0.059436325
-0.12211868 -0.2580088 0.004653033
0.12538153 0.25804606 0.07602876
0.17254485 -0.2635011 0.054790948
0.1944146 0.24411072 -0.047643237
-0.025870448 0.10709664 -0.06164713
-0.047846276 -0.25134915 0.19992928
0.1737137 -0.16773257 0.07006153
0.069121346 -0.21067743 0.052897315
-0.06306895 0.244161 -0.07369147
0.0898089 -0.13663313 0.16773689
0.15087146 0.2082095 0.06926683
-0.056302886 0.36776143 -0.09824108
0.057955503 0.3190747 0.07499085
-0.08367755 -0.16787393 0.17427753
0.033916336 -0.25217173 -0.07805368
0.100155 0.2644604 0.0012989605
-0.011062661 -0.101454996 0.14452608
-0.08135292 -0.3809421 0.027656218
0.021181982 0.049395457 -0.07786181
0.0010223478 0.3506119 -0.076605074
0.019006213 0.34512743 -0.075160205
0.04566359 -0.38488138 0.00039731016
-0.05862676 -0.3344984 0.024553197
0.05003002 -0.27001506 0.04201221
0.15778193 0.24752831 -0.22457337
0.1810686 0.20718138 -0.06983919
0.09941527 -0.1520609 0.10235366
0.09154257 -0.26576594 0.06579112
-0.18705651 -0.3087476 0.04943261
0.017852958 0.082440674 -0.04837274
-0.047154862 -0.06394789 -0.032271497
0.030319853 0.25954884 -0.097140916
0.18619566 0.28673756 -0.15311724
-0.023662802 0.36292082 0.012699702
-0.0029601336 -0.15424813 -0.050597865
-0.0131024355 -0.27748635 0.105641216
-0.062538974 -0.16902745 0.052470725
-0.022471977 -0.3561829 0.058950327
-0.0025917245 0.4290754 -0.1258315
0.1259004 0.2672695 -0.09199348
0.07646476 -0.27537358 -0.08831561
-0.07467315 -0.18715192 0.11841678
0.034022376 -0.1628655 0.2169625
0.100193635 0.17766298 -0.08545228
-0.1347066 0.29141262 -0.11119964
-0.066501215 0.35130528 -0.08404667
0.20012206 0.24928868 -0.0450655
-0.06837287 -0.12234179 0.10490141
0.1435662 0.22850725 -0.11117807
-0.04391803 0.2168364 -0.32019004
0.029196896 0.30481103 -0.020459073
0.07930157 -0.14561251 0.14583008
-0.031038051 -0.20708658 -0.039192587
-0.17619017 -0.2100511 0.064075924
-0.14978485 0.26413622 -0.14060651
0.02488343 -0.10478539 0.013928827
0.07385778 -0.26932487 0.056977347
-0.1286075 -0.21597959 0.10840747
-0.11232949 -0.34961897 -0.019281475
-0.061923202 0.30244994 -0.020914841
0.15871929 0.29176545 -0.15380564
0.062692575 0.2745886 0.0696406
-0.009520286 0.43177298 -0.05376635
0.060103364 0.3205937 -0.14899287
0.108830385 -0.27983305 0.038206782
0.049722683 -0.17075653 0.1103486
0.084642924 0.16617861 -0.11574916
0.060189467 0.26565355 -0.13397169
-0.061508745 -0.25875393 0.09577107
0.01589536 -0.23758498 0.075301155
0.08963486 -0.3049155 0.13018417
-0.05220408 0.058733217 0.016262377
-0.08726551 0.342339 -0.021889867
-0.020132933 -0.1454199 0.04787731
-0.039641447 0.29423207 -0.009964662
0.18871532 0.24246018 -0.22810031
-0.13254751 -0.2435875 0.095288396
0.1683706 -0.24811749 0.0075728158
0.14089295 -0.21758197 0.0070484304
0.02041909 -0.08990876 -0.057714354
0.097151235 -0.27096003 0.060213603
0.07684585 0.3935529 -0.115866125
-0.027406346 -0.29783937 0.16347529
-0.05244947 -0.22265989 0.08473312
-0.053976547 -0.19714683 0.16594006
0.02050607 -0.13834204 0.19164295
-0.16576247 -0.22673123 -0.024593607
-0.13160807 0.3280436 -0.15464212
-0.010823098 -0.1007596 -0.026779342
0.029327696 0.26043883 0.053337533
0.14872682 0.30322966 -0.06723954
-0.021599475 -0.012351781 0.009627881
-0.11376867 0.33931687 -0.15839817
0.15068485 -0.2580056 -0.06163495
0.16551192 0.19035105 -0.13204667
0.07669568 0.37292 -0.046558954
-0.045447595 -0.11709427 -0.034229595
0.118977726 -0.18861689 0.055382587
0.063341446 0.19419982 -0.07657426
-0.035987895 0.38725117 -0.015840946
-0.045663968 0.027697604 0.012104576
-0.17052115 -0.27349737 0.0031914192
0.1461549 0.26170805 0.011901835
0.14300917 0.229131 0.06984446
0.03868365 0.18801525 -0.09972003
0.15793476 -0.21429476 -0.04778357
0.09240396 -0.24646443 0.14113511
-0.10141989 0.24414647 0.01102657
0.004146549 -0.018159732 0.010796105
-0.121338814 -0.17500609 -0.13820638
-0.09941297 0.27038705 -0.13424906
0.14620897 0.3081775 -0.06569753
0.005537626 -0.15010719 0.11444174
-0.013955318 -0.19986537 0.026603434
-0.09026812 -0.17297587 0.04424474
-0.026159104 0.17023529 -0.03743983
0.009336002 -0.007158421 -0.035499174
-0.032651678 -0.347204 0.057113457
-0.067961626 -0.35643873 0.06330982
-0.1441389 -0.16658872 0.08823211
-0.011498446 -0.0700505 0.032818586
0.016299197 -0.33103088 0.07212773
0.098658994 0.23851405 -0.07707314
-0.08022482 -0.16563568 0.038833886
-0.14611386 0.23944184 -0.009652407
-0.06278522 0.32406616 0.049701713
0.20320538 -0.20578039 0.044726014
0.16149414 0.22839661 0.07704373
-0.17472236 -0.25318646 0.09069157
0.23344848 0.16970065 -0.12019391
-0.14446817 0.2556258 -0.11939624
-0.00068052445 0.13195206 -0.009322867
-0.091857515 0.23479925 -0.16343379
-0.0389923 -0.050089367 0.03567125
-0.17597163 -0.25631762 0.06563389
0.16715309 0.33057782 -0.003344203
0.09227118 0.40113077 -0.13871591
-0.08453143 0.26579905 -0.14902379
0.12907234 -0.20722653 0.052604552
-0.021910505 0.29238027 0.021126406
0.09363943 0.32997662 -0.107928805
-0.1884279 -0.292076 0.0929435
0.062893964 -0.13424093 0.15272269
-0.09230979 -0.3061559 -0.004919234
0.15351646 0.2562393 -0.08033798
-0.13717198 0.2847888 -0.0020974607
0.07057663 0.21824427 -0.0052082743
0.18834276 -0.20982167 -0.008282621
0.17756142 0.25158754 -0.16508389
0.02212972 0.0801169 -0.015582128
-0.11213926 0.2907987 0.02938158
0.20888285 0.20911661 -0.035550598
-0.018668571 0.37008768 -0.02683503
0.03259008 0.25408155 0.08692845
0.033418525 -0.22064333 0.12488277
-0.0017846763 -0.19380368 0.10552756
-0.032911383 0.18831003 -0.042840686
-0.020923158 -0.16126767 -0.020001438
0.1258078 0.23685761 -0.19614981
-0.0038382546 -0.3574793 -0.019014876
-0.023812836 0.33249345 -0.103275836
0.047298905 0.2917939 0.053054716
0.11462734 -0.26562148 0.03500211
-0.004474013 -0.15460421 0.0799737
-0.036373105 -0.13289566 -0.026094293
0.11047166 0.30716103 -0.11891501
-0.010525193 0.32136303 0.09553797
0.03491857 -0.28586394 0.09147374
0.013841912 0.2681413 -0.044874467
-0.04405666 -0.07811793 0.049667113
-0.16792476 -0.16089271 0.012303611
-0.07876445 -0.03782264 -0.031187862
0.11223017 0.18023886 -0.13701832
0.051896017 0.24184176 0.023540912
0.070051484 -0.21690775 0.060084045
-0.017123206 -0.13703936 0.1761164
-0.064645864 -0.25312144 0.043961953
-0.0048203454 -0.3025265 0.18565711
-0.21731797 -0.22847217 -0.06953158
0.06499262 -0.27496433 0.052019317
0.021958645 0.3217425 0.024909956
-0.13499607 0.31563452 0.02240556
0.1877876 0.28733265 -0.09140157
0.058717225 0.11799779 -0.04798491
-0.11313721 -0.26324952 0.18509695
-0.12804872 0.31047332 -0.083377086
0.10050955 -0.15303203 0.09711879
0.06901602 0.20069805 -0.08963416
-0.18983722 0.2901376 -0.005501147
-0.21538094 -0.22580498 0.025447315
-0.029088175 -0.16277793 0.11304416
0.06906829 0.11291453 -0.006532346
-0.052172758 -0.3411688 0.11659945
0.11178469 0.23099507 -0.11756937
0.16401841 0.27447665 -0.12332117
-0.07954454 0.31870407 -0.1256109
0.11492674 0.37303564 -0.0831673
-0.04061065 0.09677861 -0.021978984
0.010597786 0.32014063 0.080674686
