# .PCD v0.7 - Point Cloud Data file format
VERSION 0.7
FIELDS x y z
SIZE 4 4 4
TYPE F F F
COUNT 1 1 1
WIDTH 1000
HEIGHT 1
VIEWPOINT 0 0 0 1 0 0 0
POINTS 1000
DATA ascii
0.20805052 0.21423107 -0.16514984
0.15409161 0.065223485 -0.1953917
0.14708637 -0.05245996 -0.07415513
0.309126 0.12498396 -0.12597923
-0.06515888 0.10278714 0.2145912
0.2303529 -0.013271831 -0.18649058
-0.27701363 -0.13048936 0.13683023
-0.26965028 -0.15135016 0.017543038
-0.31115288 0.102075875 -0.04703522
-0.04449325 -0.005489411 0.0018415039
-0.14366104 -0.15242377 0.17217124
-0.22250502 0.04587994 0.13035835
0.15946707 0.18474825 -0.17064695
0.28515306 -0.061505277 -0.11989596
-0.082529955 0.09952763 0.1759935
-0.12120417 -0.15818569 0.14867431
0.3251958 -0.0064384327 -0.08803806
-0.16645695 0.05149524 0.21291958
-0.20959915 -0.10585378 0.15967548
-0.3124575 0.020242646 0.17365713
0.27299842 -0.10144096 -0.10237311
-0.08009013 -0.1760806 0.11391085
0.31289816 -0.15242113 -0.19634745
0.23419386 0.15716605 -0.08087667
0.11743113 0.106109425 -0.23388022
-0.18787774 0.16130161 0.15491086
0.25271356 0.18986206 -0.10778077
-0.1026683 -0.0693256 0.17536221
-0.25983953 -0.0676026 0.12357454
-0.22568353 0.002176668 0.24875411
0.21454233 -0.09344678 -0.23513687
-0.21339637 -0.061141625 0.20895103
-0.2875966 0.060888164 -0.08417871
-0.07625589 0.057394102 0.15583678
-0.3059346 0.013787085 0.1941605
-0.3037927 0.07195044 0.16449076
-0.23495187 -0.057037935 -0.07978043
0.3408066 0.053242534 -0.27516595
-0.10709492 -0.07686722 0.19978407
-0.008685211 0.009690004 0.21077777
-0.24055968 -0.1886312 -0.028741194
0.055804536 0.05481131 -0.1044355
0.09472023 0.014456857 -0.3253098
-0.22521508 0.15972659 0.0018870474
0.35264575 -0.029922243 -0.1997324
0.13929549 -0.028505703 -0.32292998
-0.2284273 -0.15947318 -0.066313244
-0.03674702 0.07864603 0.19592579
-0.030546097 -0.06086717 0.1890407
-0.09914432 0.20438388 0.20570834
0.2998734 -0.0009971757 -0.22043206
0.13670108 -0.04810181 -0.32467625
0.38191962 0.13443114 -0.18143262
0.106746726 0.0640304 -0.28157407
-0.20809126 0.09998959 0.17394225
-0.09854462 -0.091927335 0.18700814
-0.08703054 0.046570785 0.220097
-0.10432097 -0.12187165 0.1699514
0.33432597 0.045623723 -0.2732391
-0.17385665 -0.010767687 0.17265186
-0.2758374 0.15126307 -0.036934607
-0.25500378 -0.004931822 0.18531112
-0.20713583 0.06619775 -0.07132305
0.2794261 -0.06798854 -0.08889734
-0.24733736 -0.019527914 0.20683257
0.28303304 0.13918075 -0.113355264
-0.08887647 0.05829413 0.11024313
0.17015217 -0.14513493 -0.17412977
0.21086751 0.19088008 -0.1077873
-0.23524658 -0.1530995 0.15377982
-0.23082969 0.104087874 0.07540047
0.109918594 0.10947877 -0.36951432
-0.18616915 0.057935573 0.12063384
-0.053452212 0.018050661 0.1483435
0.21413377 -0.13091628 -0.261336
-0.19842675 -0.11432876 0.08762667
-0.29113483 -0.032224264 0.11552389
-0.08839269 0.113290556 0.16447096
-0.110994965 -0.07049636 0.22159156
-0.12688833 0.047512326 0.19426444
-0.2507148 0.06482205 0.17146847
-0.17080165 0.08825251 0.23457058
0.10193356 -0.016286997 -0.14877512
-0.07281439 -0.15134071 0.14954193
-0.21406387 0.15458447 -0.0088884
0.06880397 0.046086412 0.0030300752
0.1444024 0.14418334 -0.23644048
0.3339491 -0.041036706 -0.15878473
0.3445972 0.029678272 -0.16991787
0.21266994 0.0023507613 -0.055466715
-0.24548315 0.1527161 0.04729855
-0.11124642 0.06222275 0.1394864
-0.0754785 -0.19284712 0.17087112
0.30901977 -0.017242268 -0.11261552
0.2692053 -0.0013299615 -0.11005574
-0.2451538 0.029466003 0.24761988
-0.22640292 -0.16089024 -0.04783752
-0.0933826 0.06116751 0.19112779
-0.14392395 0.19940223 0.14198312
0.20616348 0.060929183 -0.11790632
-0.1417221 -0.1438254 0.14965458
0.10356598 0.0032448831 -0.29788515
-0.04144518 0.07583336 0.28030822
0.25894788 0.07202882 -0.2191052
0.23503628 0.093788475 -0.122559994
0.24566206 0.13509959 -0.20985556
0.089986205 -0.044054173 -0.09169717
-0.19985294 -0.078596994 0.042916153
0.206637 -0.070135005 -0.1837768
0.10400389 0.01794645 -0.09824888
-0.25414702 -0.16189764 0.039572205
0.06885206 0.046845343 -0.005273898
-0.2377757 0.03927923 0.16290452
-0.16841738 -0.066939175 0.17008337
0.14277236 0.089126796 -0.22846043
-0.103180796 -0.1243621 0.1680587
-0.068641916 0.047885325 0.19951895
-0.22535734 0.05381187 0.1818562
0.2417207 -0.03136267 -0.079362065
0.22270504 0.048375584 -0.044165518
-0.16117296 -0.19304286 0.1340251
-0.1437641 0.20762178 0.07637724
-0.16752782 -0.19332531 0.087629996
-0.05453779 -0.061093193 -0.00030966164
0.2504562 0.042819653 -0.15991527
0.25878048 -0.09917975 -0.14383784
0.22709759 -0.15392841 -0.15563542
-0.23758301 0.06790568 0.20036146
-0.1650103 0.066615015 0.20339756
-0.070864156 -0.03875234 0.1901361
-0.08300381 -0.073647715 0.2062314
0.3157239 0.13327242 -0.16564094
0.2618168 0.14652288 -0.15475136
-0.0030625882 -0.03191543 -0.008996129
0.052869655 0.014178772 -0.32042402
0.056369036 -0.042759422 -0.06219588
-0.12893246 -0.10520705 0.10063773
0.3790241 0.055566706 -0.04638235
-0.09888908 0.039769884 0.20465222
-0.27256596 0.0076448387 -0.06275185
0.2280511 -0.039547134 -0.12165721
0.18318132 -0.12400735 -0.19377957
0.022643782 -0.034659013 -0.08922461
-0.19146243 -0.033466794 0.15185808
-0.2542129 0.11671395 0.11506028
-0.26181838 0.036189016 0.17310132
0.16052979 -0.031621665 -0.29764706
-0.28047428 0.028514354 0.1442172
0.29076943 0.16960678 -0.062455893
0.30206317 0.054558378 -0.24292846
-0.23667395 0.082035914 0.123514704
-0.13986503 0.08093209 0.13301812
0.26203847 0.053924385 -0.068723515
-0.24233182 -0.10762403 0.15288468
-0.34911674 -0.1192505 0.1371014
-0.29374307 -0.117752425 0.02165853
-0.2104741 0.07572275 -0.047919814
0.2304314 -0.054663025 -0.18194559
0.29935083 0.14656946 -0.22227354
-0.056479044 0.052280467 0.22756492
-0.2741923 -0.17955911 0.046508383
0.33015785 -0.0518081 -0.14314026
-0.22813511 0.1669267 0.11448308
-0.23717125 0.028207874 -0.011032815
-0.2635268 -0.07556344 0.1769883
-0.107891865 0.018988565 0.09275808
-0.22386934 -0.1692174 0.13124314
-0.12626702 -0.010932064 0.22198708
-0.16008982 -0.19688328 0.15017606
0.25613075 -0.11605247 -0.12891647
0.20368963 0.13182698 -0.1437745
0.16810612 -0.020507889 -0.26200774
-0.10811658 -0.12342953 0.11441433
0.22186579 0.12624612 -0.14277342
0.16063592 -0.127413 -0.25145084
-0.028008727 -0.02750247 -0.018865107
-0.282475 -0.052136548 0.1827843
-0.18837018 0.02204935 0.15461142
-0.33703062 -0.021357317 0.121417314
0.2332192 -0.02085048 -0.14690049
-0.18061058 0.1523342 0.11997272
0.30223536 0.14291988 -0.13274638
0.20895815 0.124122016 -0.10473721
0.20698059 -0.20650586 -0.13852136
-0.225392 -0.1278706 0.099515714
0.2839802 -0.09802574 -0.15033203
-0.0029265054 0.067765586 0.19409283
-0.15238649 0.055015225 0.19047152
-0.10918934 -0.08598964 0.15534467
-0.2127169 0.18993929 0.07317719
0.02024845 -0.002457729 0.012565709
-0.2846681 0.01347857 0.16727169
-0.19448094 0.10730168 0.13213293
0.10311355 -0.16380285 -0.24672718
-0.15227567 0.13259622 0.17796357
0.0865989 0.1137638 -0.28416812
0.22895916 -0.09198935 -0.16204922
0.30265227 -0.15534614 -0.15760225
0.16920696 -0.16385719 -0.2577911
-0.24457633 -0.063041285 0.14211641
-0.09550769 -0.21935026 0.14813055
-0.09084168 0.01434571 0.062009677
-0.23156305 -0.06735339 0.19541356
0.29425466 0.04850977 -0.12129796
-0.020114034 0.05364001 0.26190794
0.28759912 -0.010281278 -0.108804986
0.29334038 0.14948918 -0.15238167
0.25894034 0.1647081 -0.21809779
-0.2324282 -0.1453042 0.085211314
-0.120621644 0.14678538 0.22071652
0.2415856 0.1257764 -0.14168353
-0.092679575 0.11310162 0.18232436
-0.11606503 0.06980301 0.11554869
0.055737432 0.018766044 -0.02139746
0.25029165 -0.1505508 -0.2182252
-0.18336608 -0.11075363 0.12243664
0.23743851 -0.026006417 -0.16069911
-0.2385191 0.06660164 -0.08158708
0.11038229 0.016721174 -0.13235323
0.18702514 0.016649624 -0.15173404
-0.17261176 0.1765399 0.029326933
-0.15354025 0.059696354 0.10975993
-0.17376485 -0.017552665 0.13911435
0.24768871 0.114472836 -0.06533895
0.08393007 -0.1279317 -0.27621934
-0.061154984 0.06726926 0.21260138
-0.24235447 0.04114563 0.17524235
-0.120365016 -0.20865157 0.15751785
0.15044506 -0.0075955424 -0.13397603
0.15373147 0.08655621 -0.14376937
-0.17350395 -0.12012854 0.16140914
0.33081728 0.08409728 -0.13456134
-0.1731586 -0.08940134 0.20177379
0.17818253 -0.11251071 -0.22914095
-0.28044748 0.009970225 -0.0048540696
-0.15743917 -0.17739752 0.09868331
-0.17125827 0.17898157 0.09173014
0.2638909 0.19813795 -0.17806236
-0.15820327 -0.15812081 0.073828466
0.22758645 0.18221085 -0.17475544
-0.10717045 -0.04359103 0.18815292
-0.033638153 -0.13682093 0.1920023
-0.1373437 -0.10855089 0.16135114
-0.27670023 0.09460953 -0.053693727
-0.2250373 -0.1985459 0.11275031
0.25134942 0.12936689 -0.1633411
0.27495557 0.122927375 -0.086482614
-0.0988571 -0.25410688 0.04996598
-0.3257252 -0.1059435 -0.04095307
0.21252196 -0.1694868 -0.12971358
0.17131062 -0.022561124 -0.15716246
-0.25170463 0.0324288 0.18690571
0.30222803 -0.065622 -0.1368477
-0.15950039 0.17458306 0.13059844
0.18405195 -0.046833042 -0.09204412
0.18632062 0.018143043 -0.09776786
0.20982417 0.1443226 -0.14530087
-0.02763808 -0.05013905 0.2785351
-0.21709381 -0.1449722 0.040340614
-0.25609186 -0.0058383327 0.14179713
-0.08101805 -0.03819137 0.25444546
0.2161042 0.18174043 -0.16107525
-0.08161569 0.13153702 0.1285011
0.27677393 -0.00070253393 -0.16094254
-0.285142 0.1223368 -0.03277637
-0.09795315 0.21722028 0.07740631
0.103365056 0.025906814 -0.123397864
0.11366026 0.1422268 -0.25198177
-0.03153609 -0.0041600848 -0.064008445
-0.2096527 -0.003501545 0.20614475
0.11394574 0.1583256 -0.25059512
0.30357242 0.010730377 -0.0978258
-0.077442415 -0.051028557 0.037578713
-0.19338807 0.13890809 0.15286216
-0.15978381 0.045761596 0.19186218
0.18028672 0.1990172 -0.19350564
-0.268067 -0.1046317 0.1962355
-0.26740047 -0.0826742 0.073846415
-0.26091012 0.037454665 0.13425624
-0.17045856 -0.09937381 0.14177969
0.30274576 0.02520134 -0.08801084
-0.17345609 -0.05975439 0.17744711
-0.27555814 -0.081186734 0.20265724
-0.22031322 0.008003344 0.21802595
-0.10195922 -0.038352918 0.09598035
-0.08778389 0.0069914716 0.25612405
-0.0776576 0.06562958 0.26078403
0.24735607 0.19833322 -0.1944094
-0.2383717 0.067574546 0.18808348
0.3324108 -0.017706275 -0.08015475
-0.02644161 0.057772744 0.032258682
-0.07570129 -0.0028568394 0.23424186
0.28686935 0.14043592 -0.08266884
0.24963081 -0.014655716 -0.0668659
-0.075773634 -0.13573445 0.1378153
0.30472583 -0.1082101 -0.082142115
-0.23005544 -0.07197844 0.17312251
0.26397586 -0.05903324 -0.067255005
0.11077352 0.17670052 -0.20298609
0.07100602 0.071221754 -0.36937082
-0.0656148 -0.00047429843 0.030657303
0.20313694 0.24129446 -0.20195296
0.22958902 0.00935563 -0.030716637
-0.09411395 0.053753775 0.17173657
-0.16965836 -0.017310087 0.13638149
0.13258597 -0.0053512817 -0.17954016
0.18852776 -0.085063435 -0.30196276
0.4144762 0.00929174 -0.17229596
-0.03479214 -0.12394897 0.1629423
0.3028104 0.03516013 -0.11844003
-0.020377966 0.0338566 0.030176915
-0.28049403 -0.10824482 0.17516676
-0.2674896 -0.12462752 0.1273324
-0.18381678 -0.14265113 0.11235615
-0.27306864 -0.058281764 0.26439127
0.23021369 -0.085533604 -0.08244956
-0.2336065 -0.12193284 0.011025896
0.28493163 0.091068275 -0.0724588
0.121179275 0.03789527 -0.27264604
0.31085372 0.05032327 -0.05170001
-0.1685961 0.12676197 0.07220607
0.24301505 0.015806315 -0.12627336
-0.053177763 0.04908398 -0.0081110895
-0.1800202 0.1324446 0.10123918
-0.12872416 0.15602872 0.19921552
-0.06743791 0.058284897 0.16519138
0.25150666 -0.11807793 -0.09664157
-0.24543403 -0.07915628 0.21464284
0.10763612 0.15817371 -0.2787312
0.29821733 -0.020024613 -0.15875453
0.19021772 0.047909193 -0.22848572
0.18389554 0.19610988 -0.26556018
0.14431901 -0.00062616734 -0.29517463
0.2603249 -0.10914539 -0.063166045
-0.010959314 0.005815065 -0.030383516
-0.18934634 0.07406957 0.14013942
0.023649266 0.081939526 -0.08333606
-0.1979554 -0.14153838 0.13974446
-0.12576039 -0.11670958 0.16650148
0.32877228 0.03976686 -0.25774178
0.39807776 -0.08705349 -0.18157741
-0.121626094 -0.022887904 0.25850973
-0.15742558 0.01566483 0.18287866
0.10599478 0.09528165 -0.31694093
-0.17274883 -0.0405139 0.17230606
-0.20176695 0.016706487 0.15450862
-0.17450252 0.02527807 0.16881162
0.091673 -0.014620968 -0.08025843
0.23457818 -0.039383374 -0.12634052
-0.056148797 -0.059423763 0.056776438
-0.16176695 -0.18490635 0.12610771
0.27292544 -0.03252506 -0.09449331
0.2179145 0.00093926146 -0.15448314
0.3424967 -0.10541364 -0.149486
0.2885392 0.041543245 -0.22416456
-0.17515224 0.17582445 0.09039158
0.30633378 0.03941159 -0.13800168
-0.2434884 0.21102737 0.07165763
0.14254059 0.023108827 -0.24732733
0.21183439 0.027879046 -0.23338778
0.11446787 -0.00051241805 -0.15082067
-0.115492344 -0.18803336 0.19412473
0.19563916 -0.14033183 -0.14927016
0.119592585 0.13926542 -0.30505174
0.28158408 -0.08043791 -0.16224064
-0.22214326 -0.09283899 0.14287369
-0.21519718 -0.21522115 -0.031129187
-0.22548534 0.0071556633 0.23100092
-0.056034673 -0.14156905 0.124213584
0.33216026 0.09144355 -0.2313017
-0.17026226 -0.111817054 0.12582281
-0.12605572 0.07489707 0.19285914
-0.22298731 0.059433952 0.09437359
0.2730993 0.021148724 -0.19753124
-0.12577344 0.12333999 0.14196321
-0.3145702 -0.036545694 0.12107188
-0.15863346 -0.08157169 0.17293495
0.006923694 -0.022406109 -0.007074066
-0.19880824 0.07579989 0.07729461
0.19738786 0.043123286 -0.21131226
0.23797742 0.010528022 -0.09548574
0.2921634 -0.04384976 -0.01465941
0.32093802 0.12102672 -0.062169977
-0.18395406 0.118390895 0.0006060043
-0.00661813 -0.16335627 0.19721009
-0.20836835 0.06680691 0.10195938
-0.10314113 -0.086734496 0.18818371
0.3432424 -0.027452588 -0.09799433
0.14311719 0.19081135 -0.21264133
0.25186718 0.15952879 -0.10779468
0.10733852 -0.056032624 -0.12793036
-0.13587348 -0.13019766 0.1865244
0.38405338 0.05431507 -0.1132257
0.34294742 0.101758 -0.094521
0.21954963 0.052162107 -0.20595662
-0.3253812 -0.0492384 0.16361682
-0.24981155 0.0022947313 0.15667339
-0.19952442 0.0029993746 0.15751514
-0.3030373 -0.04261036 0.13013378
-0.13892272 0.017768681 0.14478953
-0.20118625 -0.016961837 0.22908834
-0.099498376 -0.14362063 0.11288369
-0.23801292 -0.12219325 0.07247238
0.22066364 0.014632389 -0.16953273
-0.2483516 -0.024893787 0.18086235
-0.29715005 -0.051493604 0.07268237
0.37605366 -0.006172112 -0.15655774
-0.10208462 0.06598616 0.16641563
0.018852096 -0.026896963 0.0011232636
0.32629064 -0.055596553 -0.19716923
0.32494783 -0.043857794 -0.062162135
-0.23203166 0.15033624 0.05503203
-0.26961002 -0.040807534 0.21514559
0.33883584 -0.036612205 -0.19756491
-0.09328244 -0.15787901 0.13665925
-0.23728725 0.12886012 0.009388363
0.35453376 -0.083259575 -0.10968914
-0.16488315 -0.17314345 0.1639155
0.27055818 -0.090158425 -0.10468266
0.22585349 0.052416395 -0.20004827
-0.16444427 -0.06992653 0.18674038
-0.10029522 -0.050989795 0.20532006
-0.24436058 -0.11735223 0.059750784
-0.28274125 -0.004783279 0.049129162
-0.19205108 0.048347585 0.13447955
0.19561453 0.0838016 -0.19954158
0.17737783 0.09512776 -0.21979536
0.25889227 0.07394813 -0.11425743
-0.3261165 0.027001152 0.09361061
0.2541238 0.19067739 -0.1702994
-0.26523998 -0.10384099 0.15673679
-0.12432453 0.13290007 0.18044947
-0.1122766 0.14549473 0.1230852
-0.055579342 0.15573056 0.18034497
-0.17311497 0.04058578 0.15708691
-0.21558338 -0.21296875 -0.034048192
0.305446 0.017300297 -0.20836799
-0.15833965 0.0065491553 0.17490712
0.3009629 -0.017688628 -0.072770335
0.2622307 0.0639017 -0.07933381
0.26516244 0.057342555 -0.021192463
-0.05074425 0.11175873 0.2022162
-0.11347995 -0.117881075 0.2124162
-0.1335915 -0.022698117 0.20671141
-0.28544903 -0.013137006 0.17447738
-0.2544204 -0.030436011 0.12232085
0.18392608 -0.0040811463 -0.13318263
-0.28506565 -0.04626427 -0.0841286
-0.092389055 -0.20905091 0.19419517
-0.08714189 -0.030327253 0.2107855
-0.18432258 0.061780885 0.103014015
-0.14679573 -0.052331157 0.17235997
-0.25987 0.03394952 0.2117094
0.17139654 -0.05533392 -0.23924
-0.062336445 0.062023506 0.20561302
0.21461019 0.16109996 -0.17072228
0.17402461 0.027985694 -0.065131396
0.23863386 0.06664108 -0.15347059
-0.22444525 0.09760443 0.09917863
0.3319953 0.023606928 -0.0529236
0.07035407 0.01459146 -0.0045443843
-0.049464736 -0.03719906 0.15876812
-0.2105773 0.1575425 0.06098478
-0.17790675 -0.018317308 0.17941353
0.2901608 0.017368523 -0.12782183
0.17658004 -0.053719185 -0.18646233
-0.20542033 0.034351867 0.17687252
0.15626533 0.13731219 -0.17940442
0.051088315 -0.007851898 -0.048264973
0.04354312 0.013352284 -0.10168105
0.16261604 0.076494396 -0.23548822
-0.0032819856 0.02357309 0.0069716796
0.21568957 -0.10279021 -0.25231802
-0.12719703 -0.004000203 0.22644746
0.16578785 0.24372342 -0.18985385
0.27696997 0.06960833 -0.15018061
0.2009124 0.12887907 -0.25731388
-0.30665657 -0.030333648 0.120340124
0.120682776 0.12979864 -0.22847556
0.13838683 -0.022281082 -0.33659637
0.3001877 -0.027721006 -0.1259613
-0.16279054 -0.046894137 0.2001186
-0.08933192 0.081724435 0.21698081
0.23765807 0.123925686 -0.15416706
-0.054261558 -0.03856437 0.20459148
0.2752304 0.011466237 -0.09108975
0.2589439 0.050117407 -0.16894224
0.09595926 -0.04277381 -0.08447439
-0.09659399 -0.045356013 0.18860248
0.072595865 -0.00021683486 -0.14383896
-0.16097234 0.069282606 0.14638159
-0.13461833 0.036344476 0.11616653
-0.16944045 -0.19813234 0.11006539
0.21664529 0.03796886 -0.21021149
0.33498853 -0.07579572 -0.16614746
-0.23615327 0.07129473 0.1564026
0.2728308 -0.050519828 -0.14039938
0.12880579 -0.11967071 -0.27048087
0.24498108 -0.044964608 -0.112406574
0.29685333 -0.11915235 -0.181491
0.2564816 -0.14627007 -0.21972923
-0.15805654 -0.13059828 0.21901418
-0.15797931 -0.015180875 0.14158514
0.3480406 0.11161253 -0.16692396
0.0061154673 0.009520465 0.05568261
-0.22213367 -0.046960127 0.16362385
-0.27494323 0.061707113 0.10943797
0.20282476 0.00083779753 -0.17570354
-0.15232262 0.020104952 0.19008026
-0.10568766 0.07610942 0.20211351
-0.22527367 -0.01097491 0.15803307
-0.14905097 -0.08193032 0.18591481
-0.23254374 0.107214995 0.070046656
0.1529448 0.1930192 -0.15657787
-0.06883915 -0.16144271 0.14645651
-0.12268368 0.11992817 0.17446433
0.26730832 -0.16868065 -0.13981262
-0.11415897 -0.21290514 0.14828923
0.09701165 -0.17660923 -0.26054612
0.24277171 0.113513276 -0.06467911
-0.17083257 0.1935988 0.102888204
-0.1276076 -0.11977629 0.124614246
-0.11567319 0.18290573 0.18600541
0.14063779 0.11822307 -0.24205038
-0.151405 -0.12260551 0.1662469
-0.28463462 0.050970986 0.13325958
0.1757073 0.13691221 -0.16446574
-0.12854746 -0.033147555 0.06896822
0.23309188 0.06974752 -0.1621121
-0.19405824 -0.13967186 0.09427638
-0.3071093 -0.091271386 0.14163344
-0.09481977 -0.08973515 0.2115679
0.3020519 -0.009923548 -0.16963889
-0.22116022 0.0031133608 0.17188099
-0.27030003 -0.022576943 0.2298715
-0.011509993 -0.045154564 0.062183432
-0.22933926 0.053626515 0.13364476
-0.17844062 -0.023672247 0.17618312
-0.03736507 -0.08367091 0.2635767
-0.26497158 -0.024261802 0.18600874
0.23255081 0.12161466 -0.12438819
-0.3173803 -0.0045706257 -0.048721313
-0.07016047 -0.07745442 0.25320515
-0.20347093 -0.06511954 0.17615035
-0.17776671 -0.124874465 0.074199975
0.36510485 -0.039317675 -0.065380014
-0.28081784 -0.018155204 -0.07900059
-0.13974616 0.0031438947 0.20612109
0.11064887 0.12493717 -0.28655908
-0.021227438 0.07601308 0.01698984
0.25728732 0.057332713 -0.12782276
0.17919707 -0.13919936 -0.20633627
-0.124263376 0.05075057 0.16505101
0.07552571 -0.0027853567 -0.09680677
0.18421523 0.0692492 -0.18570942
-0.21773772 0.022572435 0.21210259
-0.088167034 -0.026527822 0.19394733
0.36268565 -0.009869141 -0.28141615
-0.0226316 0.02167821 0.04082049
0.18769272 -0.13343413 -0.1938046
-0.21825624 -0.07876446 0.16463383
0.17460185 -0.015491711 -0.15725541
-0.29221115 0.08169808 0.033490587
0.25895262 -0.10597994 -0.10134617
0.15861522 0.07097377 -0.20727351
0.13141578 0.044201903 -0.28463742
-0.24713127 0.037681233 0.07146825
0.1989599 -0.026178157 -0.19056284
0.18580393 0.10256888 -0.11073051
0.18472879 0.2113935 -0.10803487
0.16341911 -0.11308329 -0.23657216
0.27968764 0.0065920353 -0.13406011
-0.3067967 -0.06146223 0.073954225
0.2917929 0.049334638 -0.1303113
-0.10130059 -0.05268356 0.21674025
-0.02789174 0.03027436 0.18262333
-0.32072356 -0.06314867 -0.02733008
0.3208293 0.04917108 -0.08731315
0.15121412 0.13480133 -0.31381932
0.26644248 -0.05266355 -0.07866635
0.22560397 -0.103212714 -0.12702464
-0.281601 -0.022765446 0.18584779
0.12546675 0.026261605 -0.20867458
0.23890024 -0.1453775 -0.10916246
-0.2793537 0.13833353 0.044914044
0.28778192 0.0016695587 -0.104267396
-0.23976518 -0.13800114 0.0850275
-0.26027483 -0.03360497 0.12737556
0.23863503 0.008366037 -0.12281886
-0.16080025 -0.077961765 0.18432558
0.15577736 0.0015329751 -0.087415025
0.20380527 0.19235553 -0.14070512
-0.30786794 -0.06801148 -0.053422555
-0.013520926 0.003966864 -0.034228846
0.29721853 0.14935575 -0.06552002
-0.26913628 -0.079466015 0.23974727
-0.057665784 0.14341782 0.1227659
-0.19848718 0.053983264 0.16932292
0.05895199 0.02028583 -0.02325847
-0.116548605 0.12637717 0.16428813
0.14005613 -0.022518912 -0.077794686
-0.19694532 -0.21314825 0.05401998
-0.12546754 0.03589594 0.1815952
0.28136098 -0.0048887995 -0.090951025
-0.08892707 -0.07439514 0.21881604
-0.11037903 0.12650995 0.22678451
-0.15448117 -0.034971792 0.14331405
-0.25744733 -0.12190591 -0.0049826433
-0.06691018 -0.013128107 -0.056827817
0.27650973 -0.093769 -0.12125906
0.15685771 0.010579022 -0.10761305
0.15645617 -0.11767022 -0.26961732
0.16372916 0.1854244 -0.14934526
-0.2604975 -0.16758247 -0.038789123
0.03500419 0.0007905366 -0.09204557
-0.13027859 0.08224897 0.16817309
0.268536 -0.06219583 -0.04014875
-0.18254422 0.16120064 0.09048999
-0.2693913 -0.12682043 0.0657383
-0.12706494 0.19298169 0.12020441
0.12875894 0.14200483 -0.22238962
-0.18937625 0.14409597 0.0652823
-0.06920895 -0.050023876 0.27432275
0.309141 0.041293494 -0.0933658
-0.14913164 -0.072458565 0.18642257
-0.2894138 0.054560896 0.20973095
-0.13378158 -0.17129575 0.097169
-0.23607256 0.045741424 -0.060043424
0.15270203 0.087037675 -0.26753458
-0.24310166 0.037285443 0.15264119
0.19859913 -0.15158252 -0.23913336
-0.034876306 -0.013090038 0.19230655
0.22253732 -0.07031172 -0.06890698
-0.068264395 0.089760065 0.17515677
0.40577877 -0.022546208 -0.2321134
-0.15184346 0.116431944 0.12346315
0.30891088 0.19510527 -0.062575325
-0.12035388 0.03356535 0.20589145
-0.07420611 0.022993622 0.24446502
0.0791878 0.011037811 -0.12921344
-0.29210493 -0.011888836 0.15439303
-0.2369191 -0.06967066 -0.09627176
0.18726397 0.08451026 -0.19306995
-0.19789925 0.05258441 0.13207728
0.0036436147 -0.0081187235 -0.044873707
-0.12153795 -0.12950364 0.17274208
0.20618063 -0.19606881 -0.23792638
0.26859164 -0.03811763 -0.08917478
-0.11705075 -0.17277527 0.19639502
-0.23763198 -0.08250376 0.11744438
-0.21092643 0.081558555 0.18758471
-0.31857938 0.010878802 -0.07896131
0.2428058 -0.13617218 -0.17660506
0.270558 -0.039950293 -0.18773828
-0.07549864 0.12138887 0.19896647
-0.15408596 -0.24062699 0.09655819
-0.1984388 0.12604862 0.0971906
0.029311128 0.035575822 -0.07147232
0.3754553 -0.098072596 -0.068310566
0.100627385 -0.09181198 -0.23567836
-0.10213316 0.13681108 0.18250565
-0.13058794 0.074936956 0.17819604
0.19404985 -0.08625806 -0.16080773
-0.17649497 0.086646385 0.26099405
-0.13723432 0.18001063 0.212502
-0.15193756 0.14544183 0.06898179
0.25385702 -0.0006038307 -0.0851918
0.16440722 0.1626833 -0.20930587
0.35588568 0.063452065 -0.050816234
0.18822609 0.15323485 -0.25750062
0.17682874 -0.014961441 -0.20600323
0.27945447 0.08670542 -0.17428711
-0.2846092 -0.0021743472 0.10483588
-0.21801515 0.15916383 0.11031136
-0.102002434 0.11479605 0.20798115
-0.17588982 0.097413875 0.19000244
-0.2213844 0.21832979 0.030080061
0.097782195 -0.15378726 -0.22731188
-0.24151377 0.1536131 -0.04017814
0.11637832 -0.045469157 -0.29854232
-0.17722332 0.15423118 0.114901744
0.27851638 0.03444064 -0.18392454
-0.24851973 0.019339373 -0.02708688
-0.15685269 -0.22934172 0.15192483
-0.07063459 -0.05445176 0.2120132
0.0054060346 -0.0046926136 0.270766
-0.25771564 -0.06961542 0.23085463
-0.15600961 0.12732767 0.040272016
0.1934094 0.09366801 -0.1705089
0.23483816 0.09125795 -0.13793312
0.09189449 0.06812028 -0.12181462
-0.07977227 -0.19423302 0.16617307
0.30930638 0.18357737 -0.18533704
-0.14376587 -0.08655396 0.16892967
0.21608518 -0.16752887 -0.1794372
-0.31072628 -0.077321626 0.15827437
-0.1256995 -0.2455648 0.10214288
-0.1301773 -0.0055589234 0.14777909
-0.19321689 0.14796492 0.13590783
0.16782083 0.060394775 -0.10734759
-0.16641702 0.13618952 0.122686945
0.18371268 0.011199434 -0.16135886
-0.27791217 -0.07959836 0.17991109
-0.15323745 -0.21031046 0.117059626
-0.23941319 -0.07582286 0.23127979
-0.093105376 0.016189422 0.028066533
0.19584656 -0.08389373 -0.1683781
-0.18254769 0.16330926 0.042220213
-0.17611526 0.09362979 0.15998673
-0.14808539 -0.08478653 0.1750339
0.009783698 -0.04963477 -0.038941067
-0.2709387 -0.090983 0.21651521
0.26953316 0.049180403 -0.12881772
-0.06800658 -0.07272874 0.17064449
0.3652383 -0.06155127 -0.13389514
-0.20412178 -0.13614872 -0.04598678
-0.12799424 -0.15509707 0.17391142
0.07312073 -0.005388567 -0.14524947
0.27062365 -0.06255965 -0.16836007
-0.28418937 0.008535663 -0.09253638
-0.15799628 0.06755413 0.08032631
0.21433987 -0.0393845 -0.20350802
-0.059218347 -0.1931353 0.16016442
-0.2622303 -0.05621267 0.12435727
-0.13840885 0.120864816 0.10068365
-0.11996256 -0.0054661916 0.016658405
-0.24601239 -0.072454676 0.067948475
0.3027055 -0.0133270845 -0.21220145
0.1947564 0.13449039 -0.22210875
0.23944002 0.116298586 -0.13391331
-0.17746048 0.062483974 0.101042256
0.29780525 -0.13805467 -0.31252065
0.1688047 -0.11217843 -0.18333991
-0.08802128 -0.06750702 0.15213479
-0.16022328 0.17512135 0.22529966
-0.17957003 -0.029301403 0.15804335
-0.23520263 -0.18893541 0.06428222
-0.114043295 -0.02277429 0.1965126
0.12059901 -0.07803849 -0.24344532
-0.2989465 -0.01952271 0.23980716
0.03968937 0.03826315 -0.38722533
-0.27471915 -0.13238539 0.14789398
0.19970018 0.07522477 -0.16929655
0.1563554 0.11799855 -0.21534695
-0.15022899 0.21339467 0.06715213
-0.13011423 -0.057972886 0.21690442
0.32811773 0.061125144 -0.19804315
-0.17754462 0.12230166 0.12029726
-0.25084457 -0.04344405 0.09036025
0.25482586 0.1628475 -0.13430732
-0.2389452 0.07903393 -0.016871704
0.14741091 0.031866133 -0.26173264
0.22406322 -0.08991491 -0.1627733
0.23605743 0.10045147 -0.1065548
0.25791216 -0.06339206 -0.07504698
0.24329104 0.1862828 -0.18730928
0.3494971 -0.11275747 -0.21367875
-0.056145366 -0.013280097 -0.0112742465
0.37541664 -0.10028097 -0.17285804
-0.33696184 -0.11527979 0.13518149
-0.110468656 -0.021886073 0.090523794
0.25915772 0.018259803 -0.10446153
-0.102904186 0.1192236 0.18317968
0.27020794 0.16562079 -0.25180176
0.044622857 0.013580102 -0.10308699
0.24028365 -0.07996948 -0.058435578
-0.17587017 -0.0049811187 0.19942713
0.2598028 0.14377357 -0.14663838
-0.24297823 -0.12594794 0.11072245
0.24486852 -0.03412939 -0.16118905
0.2901516 -0.092797376 -0.11586819
-0.10381169 0.1294874 0.114425026
0.30075926 -0.035566602 -0.048688527
-0.15442984 0.005640416 0.15410654
-0.11598117 -0.15074064 0.12716176
0.18140309 0.055038966 -0.20491129
-0.31931606 -0.045938507 -0.029912826
-0.11074279 -0.017610725 0.14277758
0.16317022 0.12371948 -0.14707352
0.29394412 0.09788897 -0.17599577
-0.054060306 0.013177928 0.005727653
0.10391539 0.039076235 -0.115110025
0.28921628 0.009236557 -0.06638714
-0.22191234 -0.12120665 0.1694513
-0.09187253 -0.023737187 0.23176467
0.24271894 -0.00210516 -0.015676664
0.31540334 0.03990119 -0.039237093
0.29986733 -0.12202195 -0.23518047
-0.2042762 0.0075064967 -0.010645999
-0.13638154 -0.0022104704 0.16721283
-0.18710127 -0.15515415 0.08971531
0.3132714 0.027271511 -0.22398981
0.2806771 -0.049427997 -0.07620809
0.28345636 0.014350767 -0.073408686
-0.013209103 -0.06565649 -0.07300846
-0.20414439 -0.028841455 0.19368695
-0.12420448 -0.07381317 0.1429274
0.13551937 0.18950367 -0.2741096
-0.20515661 -0.080718555 0.17406815
0.17292453 0.0917997 -0.17031997
0.25067973 -0.11501547 -0.09272541
0.11261401 -0.018242443 -0.13503693
0.174668 -0.11399441 -0.1750664
-0.16235742 0.14347155 0.05810134
0.056395598 0.023429144 -0.09970962
-0.27171835 -0.09788862 -0.06948078
0.12460353 -0.03206884 -0.2270315
0.40523675 -0.08632698 -0.18549855
-0.10039875 -0.097015046 0.2149758
0.2677298 0.05449531 -0.014482901
0.30565572 0.04087401 -0.25160393
0.2304005 -0.17902048 -0.090186976
0.02609125 -0.06410042 -0.055263285
0.10493147 0.18341562 -0.24068807
-0.18207572 -0.16299139 0.035186466
0.20808342 0.17846772 -0.24643715
0.28279757 -0.16954948 -0.29882357
0.19178557 0.027546136 -0.14230804
-0.11470241 0.02767363 0.1972171
0.28129333 0.056983966 -0.12328742
-0.31833547 -0.094699204 -0.04668179
-0.18218176 -0.12765555 0.13667965
0.22344609 0.1952382 -0.18010874
-0.24364597 -0.1363802 0.10499734
-0.103293 0.14584036 0.1075315
-0.14052978 -0.06082651 0.22658384
0.24196897 -0.06324279 -0.20176777
0.08499951 0.011443499 -0.0067976606
-0.17767385 -0.10748883 0.088844344
0.28661308 -0.09531366 -0.14728124
-0.21996133 0.04148067 0.20028645
-0.210433 -0.11050943 0.1549787
-0.15211947 0.036249287 0.12434585
-0.1810336 0.09957948 0.10131538
0.18868943 -0.07536889 -0.17191371
-0.13035314 0.0018400071 0.16606727
0.15793678 0.10122198 -0.2239687
-0.1747896 0.1846218 0.15468463
-0.28951392 -0.0154453805 0.15182759
0.24407905 -0.1245338 -0.21017134
-0.28964514 0.10588671 0.12315451
-0.24393423 -0.16268949 0.06969367
0.28678125 -0.05709339 -0.05226223
0.17794548 0.16083126 -0.21298221
-0.22872095 -0.15050328 0.025964139
-0.013647656 -0.122949824 0.18271373
-0.29158992 -0.021020224 0.20128688
-0.1512828 -0.021085422 0.21669659
-0.19944759 -0.22499119 0.0723141
-0.12672926 0.07742147 0.14773439
-0.05237067 -0.014086196 0.19445194
0.006292238 -0.031065017 -0.051305518
-0.15042967 -0.22617342 0.12674338
0.2821031 -0.084503256 -0.17400327
0.0870164 0.047796436 -0.052021388
0.24755865 0.018641096 -0.14716333
-0.1140834 -0.11344681 0.068483375
-0.18150029 -0.23938255 0.12400403
0.02686168 -0.0050665257 -0.2940742
0.17273033 -0.114418 -0.2683178
0.1459315 0.025445325 -0.25426304
-0.2223789 -0.05098879 0.15164496
-0.28507775 -0.13819572 -0.09696519
-0.23271607 -0.019739782 0.17197151
-0.024703212 0.04917472 0.20657627
0.26860428 -0.12697391 -0.22047399
-0.17356613 0.0053867428 0.22798231
0.33007857 -0.0034879122 -0.06044271
0.14773047 -0.07507048 -0.23074354
0.0026272598 0.04899068 -0.02559028
0.2801068 0.13845642 -0.24243832
-0.17114271 0.09068682 0.11125026
-0.1679977 0.12583515 0.014097573
-0.21731953 -0.021426419 0.22430786
0.29183707 -0.082875706 -0.11752647
0.2894906 0.13894698 -0.13487655
0.27482295 -0.044908047 -0.13172787
-0.274954 0.08142634 0.16695422
-0.118981145 -0.1757299 0.12454233
-0.0851242 -0.11364223 0.13574252
-0.19400597 -0.084417656 0.16192612
-0.27741173 0.05279621 0.14431319
0.22199725 0.013194155 -0.12649935
-0.08646064 -0.1159954 0.21473321
-0.094501145 0.013065142 0.253399
-0.26298326 -0.040259197 0.18293983
-0.10680907 -0.15060906 0.22967902
-0.14374933 0.00716688 0.18620875
-0.14059494 -0.13862883 0.16453445
0.2674793 0.019191371 -0.0072692237
-0.12660275 0.1388481 0.068753414
-0.13099949 -0.12560724 0.21451296
0.2177618 -0.19064371 -0.19325563
0.23246397 -0.09340839 -0.14335959
-0.15092856 0.04724539 0.12756342
0.16376163 0.0114050135 -0.1671969
0.30502683 0.090306334 -0.051829394
-0.25019565 -0.19261836 0.057366535
-0.0896159 -0.037426513 0.21977335
0.25711057 -0.000587311 -0.2129143
-0.23815498 -0.058464527 -0.012457521
0.09883307 -0.05404827 -0.11797413
0.2990646 0.0188131 -0.2918937
0.077379905 0.09953112 -0.2897138
-0.19337712 -0.23594749 0.035719063
-0.16590448 -0.04275761 0.18499145
-0.045036532 -0.054058544 0.022774741
0.2566859 -0.10017579 -0.14654586
-0.12856789 -0.118366286 0.16643998
0.16465706 0.11907051 -0.17638634
0.31370994 0.09071868 -0.12837471
0.15527362 -0.0147735905 -0.25455952
0.32175505 -0.10190394 -0.17828444
0.24315698 0.086324856 -0.07176084
-0.13624352 -0.059724543 0.16496766
-0.3063719 -0.045522768 -0.09184555
0.30349034 0.020919783 -0.0057687736
-0.17804214 0.14707337 0.08200402
0.1650973 -0.08201342 -0.16514483
0.19324863 0.14905076 -0.17253694
0.03583142 -0.071353436 -0.06426901
-0.21292482 -0.017172258 0.24303961
0.2594172 0.14665051 -0.08896616
-0.2117788 0.19463599 0.1409299
0.2817491 0.17296174 -0.1346602
-0.032607894 0.07066721 0.1949402
-0.2271779 0.18756849 0.06563481
0.085337706 0.09863788 -0.21580341
-0.16983181 -0.08479803 0.20946008
-0.16262326 0.1201825 0.19130552
-0.11471983 -0.048614345 0.16472916
-0.21715342 -0.11824365 0.03866166
0.24492471 -0.13975023 -0.20375273
-0.22642483 0.027420988 -0.037680775
0.1869046 0.19532472 -0.24952365
0.071981 0.0140288025 -0.09012026
0.009238048 0.014801372 -0.01797929
-0.19060352 -0.08375561 0.18043181
-0.037890207 -0.0921504 0.16400321
-0.024381623 -0.0043178094 -0.006426961
-0.15485168 -0.19226778 0.09015247
-0.1308733 -0.037953995 0.20686978
0.18826379 0.12372599 -0.17118602
-0.12414987 -0.14679137 0.17412448
0.29823485 -0.0136302505 -0.07295003
-0.21295285 -0.117032275 0.052422058
-0.22360331 -0.008320188 -0.010916022
-0.25661203 0.09644704 -0.042935606
-0.23862663 -0.14193441 0.084692195
-0.078743264 0.16307275 0.10337687
0.08691316 0.13279407 -0.27204558
-0.047046408 -0.0296336 0.28023076
-0.102076665 -0.19184408 0.20833166
-0.28249463 -0.034606032 0.17252144
0.009671997 -0.066110194 -0.0055341567
0.22617333 -0.07448712 -0.12191946
-0.09685783 0.115278475 0.16075704
0.26279667 0.09513774 -0.09151473
-0.30170625 0.019795848 0.18734391
0.1873568 -0.11770172 -0.23848009
-0.08654754 -0.04264647 0.25017917
-0.32865983 -0.086331956 0.056446638
-0.23867396 -0.21790615 0.023431782
0.19991753 0.028216312 -0.1399652
0.26126713 -0.20621502 -0.19834751
0.056319933 -0.05250348 -0.068221875
-0.24901669 -0.04108293 0.21127027
0.2584082 0.18182099 -0.24683924
-0.27953035 -0.04616768 0.2529403
-0.20090787 -0.012460217 0.19773401
0.08811407 0.031392243 -0.08431609
-0.29521924 -0.0058210543 0.08056651
0.27263704 0.15480529 -0.2415917
-0.11957133 0.17384942 0.078494355
0.29159376 -0.026512584 -0.23046352
-0.07968612 -0.14365286 0.13361284
-0.2727228 -0.00081497437 -0.055185523
-0.16804317 -0.1245377 0.06513231
0.2494775 0.07890911 -0.06748867
-0.17966108 -0.15315448 0.042499352
0.26863414 -0.12131392 -0.1436852
-0.09133964 -0.05682257 0.24506354
-0.13049373 -0.11044948 0.10934863
0.3040199 -0.10119486 -0.20920224
-0.18036513 -0.22903255 0.110027306
0.23293677 -0.04386927 -0.20028739
0.040126223 -0.058135595 -0.12314479
0.11267998 0.06317732 -0.30606
0.09646763 -0.0669356 -0.13019261
0.2809737 0.17414679 -0.16388898
-0.20681563 0.08723511 0.22640288
0.27936134 -0.0019632266 -0.18097039
0.1296689 -0.029099759 -0.17591505
0.1098197 -0.075210154 -0.24080296
0.2374389 -0.04641752 -0.13021506
0.10739719 0.006525889 -0.13033956
-0.04596907 0.110350624 0.27084222
-0.13177371 0.100899994 0.1275453
0.2720507 -0.14466356 -0.2133699
0.2582601 0.1808469 -0.07646088
