# .PCD v0.7 - Point Cloud Data file format
VERSION 0.7
FIELDS x y z
SIZE 4 4 4
TYPE F F F
COUNT 1 1 1
WIDTH 1000
HEIGHT 1
VIEWPOINT 0 0 0 1 0 0 0
POINTS 1000
DATA ascii
0.1880185 -0.12245556 -0.15303662
-0.03132368 -0.16060928 -0.06138432
0.10464764 -0.13144289 -0.10515085
0.12454682 0.06934864 0.07021688
-0.35053042 0.09416275 -0.059683573
-0.08979782 0.07777671 -0.0026710462
-0.019952066 -0.009384152 -0.10123366
-0.36703548 0.02519675 -0.077572204
0.122858964 0.14691302 0.09041453
0.054059204 0.192298 0.1655525
0.15924264 -0.009946278 -0.04505895
0.038471073 -0.08531276 -0.07162591
-0.08349936 -0.17731015 0.26914644
-0.16320466 0.17210655 -0.037930995
-0.2269114 0.1390927 -0.09243131
-0.17313386 -0.29712686 0.33969277
-0.15820536 0.05495337 -0.043720063
0.13896878 -0.18727197 -0.10370627
0.12570983 -0.08068132 -0.020716064
-0.30087534 0.08099675 -0.11240216
0.0008790504 0.029210694 0.032003064
-0.07404908 0.10262174 0.0026872277
0.11221607 0.22854011 0.13524781
-0.07168993 0.10048639 -0.03292374
-0.3025842 0.14259401 -0.03907946
-0.18312246 0.14838283 -0.017290626
0.00081023335 -0.06368089 -0.048055306
0.14928229 -0.01098706 -0.14581628
-0.35197493 0.024320828 -0.088978864
0.15577786 -0.18715422 -0.1627984
0.008242972 -0.0072786952 -0.008167451
0.039479714 0.014162035 0.033782948
-0.21723956 0.08538552 -0.09208948
0.07674185 -0.0012747821 0.049990874
0.012593818 0.19582807 0.10409684
0.00935633 0.16283377 0.04912765
-0.10391666 0.009362501 -0.06627945
0.060964696 -0.013825556 -0.0095837945
-0.08963194 -0.25862044 0.27206185
-0.29877216 0.07773821 -0.07602718
0.025926417 0.023914687 0.07848261
0.08871466 -0.09954785 -0.019328803
0.06617361 0.09773939 0.13141087
-0.20674054 0.099755056 -0.029648116
-0.10870716 0.013436298 -0.07872492
0.084249794 0.02828734 0.083389625
-0.12275671 0.08607701 -0.073109694
-0.28489918 0.1066556 -0.058521777
0.052447107 0.06825396 -0.02467816
-0.11985825 0.08791115 0.025427751
0.11362093 -0.120496176 0.0066627194
-0.14247765 0.08547182 -0.05921735
0.021808498 0.043445896 -0.11316021
0.10952168 0.20541267 0.16383402
0.06323968 0.060065478 -0.012947927
0.008200825 -0.087353416 -0.072921105
-0.06611048 -0.09804843 -0.04728859
0.08293599 0.10375254 0.14952302
0.19101064 0.046261992 -0.13192593
-0.11628995 0.06126101 0.022991534
-0.1446315 0.14568707 -0.022910098
0.061905146 -0.08999992 0.021062918
-0.31051728 0.08361057 -0.10465947
0.010643937 -0.19837391 -0.098602064
0.14874017 -0.068397455 -0.1072725
0.02494589 0.028384035 0.05932774
-0.010079659 0.0213368 -0.030946316
-0.0861183 -0.20643997 0.2669989
0.04185793 0.033879418 -0.27758786
0.20917414 -0.09034938 -0.14150238
-0.03317753 0.06419215 0.03631669
-0.061936762 0.021588407 -0.0055512246
0.16873121 -0.05624379 -0.13773122
-0.0018902632 -0.13992946 -0.08389348
-0.13342933 0.045305554 -0.04572758
0.08778959 0.1603552 0.14817663
0.012183844 0.11270642 0.075390324
0.15747438 0.19713235 0.15460637
0.18933067 0.03662145 -0.130164
-0.19074807 0.1252997 -0.070346996
-0.06563799 -0.01467024 0.02466612
0.091912165 -0.10097492 -0.00790692
0.13390628 0.014657749 0.0063750213
0.17479563 -0.15958297 -0.096053116
-0.038005397 -0.026173914 -0.022611082
-0.24759106 0.19219114 -0.027588071
-0.18724383 -0.29085344 0.36825374
0.10710633 0.00030448296 0.047748316
0.074636176 -0.10856678 -0.013540092
0.095880866 0.16998449 0.103516325
0.050301563 -0.16139133 0.060579237
-0.18296103 -0.31915548 0.4165391
0.19032094 0.022928352 -0.11258205
-0.13258788 0.04403412 -0.018626774
0.24403189 -0.0034113014 -0.109029666
-0.35598728 0.09081694 0.007525197
-0.14140162 0.12574574 -0.013710773
0.19338268 -0.13332695 -0.17430332
0.11153447 0.013537848 -0.037197694
0.09654628 -0.080547586 0.0002777289
0.15526007 0.084947824 0.1358016
0.12048563 0.068350695 -0.031011514
0.021247488 0.02808887 -0.043750845
0.06364755 0.1173306 0.0914315
0.04429204 0.047478307 -0.05939861
-0.08185982 0.09217745 0.023933375
0.25919652 -0.09451754 -0.19192299
0.21941756 0.0056842035 -0.07298667
0.25588235 -0.060092457 -0.13271932
-0.06960569 -0.012746542 -0.055686712
-0.3432147 0.1557233 0.0055696373
0.041061275 -0.020202618 0.07145996
-0.12338688 -0.0140556 -0.09068455
-0.28719828 0.0011304049 -0.11314301
0.049474675 -0.16374989 0.019366154
-0.25769272 0.122858256 -0.026741615
0.16476378 -0.06605951 -0.07338081
0.18463363 -0.07567947 -0.03712587
-0.030338915 -0.109258056 0.09518887
0.004940226 -0.016990257 -0.034925252
0.095242165 0.1298463 0.09491551
-0.08947604 0.1359275 0.011557767
-0.18425621 0.14764287 -0.051340844
0.13266031 -0.16701013 -0.07064032
0.11487776 0.17791976 0.13301983
0.15701261 0.08789082 0.07370209
0.10901702 0.021674877 -0.07205407
0.13890302 0.1065485 0.07067588
0.14732791 -0.040603787 0.005352364
-0.30401608 0.18115745 -0.00762242
-0.04610503 -0.03850566 0.01391998
-0.092666455 0.15882042 -0.014448286
-0.2206804 0.07967013 -0.09049501
-0.117502086 -0.2071192 0.27208036
0.011635046 0.06935056 -0.014134565
-0.011440428 0.0057665617 0.022604417
-0.12380812 -0.05287754 -0.0709968
0.02858459 -0.10232365 0.0839546
-0.30402923 0.08982941 -0.0689037
0.13539049 0.012328396 0.07664113
-0.33781296 0.09198179 -0.024396744
-0.13534513 0.1847546 0.0029659227
0.028246589 0.005182791 0.00045637845
0.06596115 0.026214713 0.014987855
0.20516807 0.045685686 -0.120291054
0.09664681 0.2067421 0.08756863
0.118862845 0.08822224 -0.069093406
-0.19571707 0.105175145 -0.058234617
0.11611431 -0.050434034 0.058806524
-0.16982363 0.16828856 -0.022448044
0.026112119 -0.100446165 -0.011749489
0.08363016 -0.17209452 -0.053374343
0.08325785 0.065180175 0.061486047
0.08393091 -0.17230916 -0.14779782
0.14285143 0.006768642 0.10575691
-0.081175886 0.027403211 -0.00012959552
0.27051502 -0.06585385 -0.115813166
-0.2843371 0.12289489 -0.010556132
-0.07961207 0.018606195 -0.0030431827
-0.26473212 0.1524301 -0.078207344
0.18073642 -0.0026991554 -0.018292991
-0.2867244 0.12562677 -0.01571473
0.0697057 0.10392189 0.062652774
0.16989149 0.09768269 0.059874825
0.118746474 -0.026971327 0.030069571
0.25184596 -0.005173862 -0.06693141
-0.2837522 0.132913 -0.07083883
-0.10477299 0.10494882 -0.06634491
0.12534034 0.024231158 0.014120308
0.06904117 -0.06161401 0.0035406132
0.16775787 -0.03718648 0.10764961
-0.010349916 0.03602984 0.022094749
0.12705085 0.08422312 -0.15973182
-0.23152742 0.1083282 -0.06454973
-0.055833854 0.07981033 -0.035972726
-0.043603443 -0.13885884 0.15557884
-0.013560425 -0.17435162 0.16973704
-0.14336205 0.047247093 -0.05875747
0.072625756 -0.08423678 0.053898755
0.046606112 -0.10714766 -0.028881636
0.04770574 -0.122694306 -0.095225595
-0.30841765 0.20107669 -0.035383314
-0.0651438 0.0053044553 -0.020389901
0.010207829 -0.1358505 0.0051011327
-0.08483078 0.059766725 -0.07299368
-0.055797867 0.033257455 -0.03743561
-0.028170396 0.011196911 -0.038728785
0.0992625 0.19078279 0.055663347
0.21006195 0.048370015 -0.13750377
0.0100829275 0.081837974 0.13876553
-0.12118782 0.10719559 -0.028007118
0.05143868 0.039137773 -0.09365769
-0.19425085 -0.2743547 0.3380232
0.2582987 -0.07827496 -0.101437144
-0.121053845 -0.26899284 0.43236125
0.18319242 -0.08604967 -0.04531133
0.09976158 -0.030058106 0.048279885
-0.37371808 0.10676545 -0.023835286
0.075765476 0.0749834 -0.14377052
-0.03726177 -0.09193099 -0.0863564
0.1719366 -0.15848458 -0.06514673
-0.03561081 -0.0062358957 -0.014256527
0.100283094 0.022583978 0.04548825
0.24514496 -0.010591413 -0.10518088
0.21660788 -0.12480284 -0.1628168
0.16945267 0.0007117053 0.040076885
-0.04909698 -0.19387345 0.17097518
0.063632146 -0.021770202 0.051012166
-0.34361145 0.132059 -0.057339706
0.22282581 -0.0264665 -0.06489967
0.25152865 -0.08977106 -0.06760727
0.08086751 -0.003991589 0.040524613
0.06406054 0.1061527 0.11235601
-0.30764675 0.15165271 0.004569053
-0.065064155 0.06884356 -0.03012313
0.27187562 -0.05883345 -0.14069003
-0.2703102 0.13990854 -0.023944186
-0.33554035 0.12148159 -0.049208526
0.1716114 -0.08154808 -0.03403467
0.1693488 -0.04774463 -0.05054324
0.05779807 0.071398675 0.0406587
-0.03409734 -0.18672667 -0.08512823
-0.031360835 -0.03718973 -0.031853523
-0.17321128 0.03873797 -0.035097804
0.17994829 -0.012215067 -0.0427429
0.27808154 -0.011695445 -0.19590014
-0.27241755 0.09375282 -0.04082674
-0.025678398 -0.027927065 -0.030114876
-0.24184209 0.11860655 -0.04358435
0.2368729 -0.04479667 -0.24036807
-0.06838429 -0.015826073 -0.035742655
0.090643786 0.030579234 0.062571235
-0.25097352 0.08901256 -0.12671123
0.17368907 0.044013526 -0.08543568
0.13963097 -0.12300884 -0.052355446
0.090698056 0.020805633 0.09434934
0.23321822 -0.037820455 -0.087926015
-0.03014789 0.0323783 -0.013176444
0.12864354 0.04342716 0.010034696
0.23769076 0.023466382 -0.06766367
0.106078185 -0.09207631 0.012829434
0.14664008 0.14738661 0.17100327
0.034102097 0.124248795 0.07896433
0.030173466 0.052182384 0.010083023
0.15745643 -0.115908094 -0.123938285
-0.089290574 0.053465027 -0.06094002
0.07484271 -0.14890236 0.04250336
0.044161413 -0.12781131 -0.06641003
-0.078168735 0.027011478 -0.066585906
0.1585808 -0.018117737 -0.02919434
0.021409497 -0.12078519 -0.048863694
0.19133966 -0.15980555 -0.041373298
-0.097779766 0.033331357 -0.012530931
-0.11671138 0.12285338 0.042911034
0.14531653 -0.034441028 0.055358578
-0.03698926 0.0353883 0.020535216
0.14588217 0.013046938 0.068670355
-0.06391356 -0.08332908 -0.019205904
-0.048849273 0.17358556 1.7179713e-05
0.03468587 -0.10951744 -0.0013665486
0.063672185 -0.0010702498 0.08702664
0.18922585 0.01704614 -0.07476331
-0.13176514 -0.25618482 0.29857537
-0.0048011686 0.052185103 -0.010455951
0.06450215 0.04085484 -0.06316138
0.044638358 0.10838702 0.08867415
0.08846671 0.020427672 0.09847744
0.06417654 0.12757415 0.08859393
-0.062172852 -0.020594502 -0.02562864
-0.011080544 -0.23154812 0.16207883
0.08070423 0.18180373 0.18752988
-0.31565738 0.17903537 -0.059332076
-0.28847265 0.10881883 -0.020763475
-0.160592 0.046444774 -0.07871593
-0.11540407 0.09510386 -0.078704335
0.13354327 -0.15032165 -0.009621897
0.19191518 -0.0582463 -0.02340717
0.15723896 -0.13074052 -0.068391405
-0.05598307 0.027671026 0.041571982
-0.3687006 0.14862904 0.006032587
-0.1922978 0.18621306 -0.06757706
0.041650962 0.07098062 -0.040237606
-0.11724063 0.09192871 -0.002071326
-0.17856507 0.13277847 -0.066968866
0.110087484 -0.14665025 -0.055166773
0.09626459 0.106501624 0.10768043
0.27250442 0.0013597561 -0.16916725
-0.11623347 0.053577755 -0.05481437
-0.13575612 0.049726974 -0.05546987
-0.1448867 0.080229215 -0.0043635075
-0.15932548 0.11332106 -0.016632376
0.2058679 -0.115527846 -0.024651747
0.19488154 0.049835328 -0.10835318
0.22773476 0.081366606 -0.088748865
-0.014449743 -0.13538079 0.022169102
-0.032112807 -0.20435332 0.2661748
-0.28858072 0.14958869 -0.032422166
0.2689512 -0.03403808 -0.14589377
0.20316039 0.008430351 -0.17243783
-0.1641426 -0.31205747 0.3889238
-0.13834566 0.14189391 0.0155277485
0.04302491 -0.01006064 -0.12284154
0.027790872 0.16816111 0.11905593
-0.15412 0.11361586 -0.087250486
0.10534944 0.12671034 -0.10054337
0.24657005 0.019557826 -0.14376679
0.050239064 -0.11060745 -0.033555977
-0.12658587 0.08076332 -0.06564327
0.032448415 -0.13362147 -0.05827981
-0.3343894 0.14713354 -0.082692094
-0.07740223 -0.043066 -0.07725176
0.0544365 -0.034444455 0.065083876
0.03441009 -0.021786133 0.012918656
0.100954935 0.11083868 0.08513626
-0.24385767 0.14261593 -0.08437653
0.11199705 0.1057456 0.07968317
-0.077118315 0.107586786 0.045963753
0.035787597 0.1124116 -0.15860137
0.17435361 -0.030690284 -0.027797226
0.010792254 -0.06762778 0.02052846
0.14872617 -0.014302514 0.009517328
0.16225708 0.043821413 -0.032751996
-0.28102735 0.15154923 -0.047504578
0.049998734 0.073982075 0.002381967
0.20359828 -0.115538985 -0.09134805
-0.13520092 -0.22572565 0.30374858
0.04547722 -0.012218757 -0.028069591
0.22232676 -0.17616248 -0.13364977
0.100375146 0.124449715 0.10984291
-0.10718102 0.14089344 -0.009254202
-0.045433942 0.010117456 -0.041933473
0.12438066 -0.026276113 0.054628786
-0.12995723 -0.28028992 0.28586018
0.12592077 -0.13680828 -0.030357173
0.16609122 -0.07661744 -0.075381435
0.14154992 -0.1093115 -0.035279293
-0.31023732 0.12344829 -0.08340899
0.11484799 -0.097509086 -0.042325765
0.075495385 -0.0121579105 0.023769366
0.15521704 -0.032884713 0.010173314
0.10324752 0.04458053 0.055526536
-0.2772427 0.080535695 -0.05159338
0.0013515314 -0.023572188 0.0016819178
-0.027424766 -0.03863485 -0.047596287
0.13314532 -0.056502953 -0.010855145
0.11332386 -0.1257412 0.0063194395
-0.25744593 0.06420384 -0.117582455
-0.006156573 0.019391714 -0.034321457
0.17944811 -0.06991838 -0.10914118
-0.17614411 0.12196596 0.003798779
-0.177948 0.0893279 -0.07792144
-0.15393578 0.08685753 -0.012328089
0.14518294 0.13826632 0.12379088
0.11922207 -0.021501195 0.0050133476
-0.2380467 0.066862226 -0.07812489
-0.011220242 -0.13649869 0.0041686487
-0.07696739 0.026371151 -0.043530475
0.108201206 0.0035063245 0.099993035
0.079325385 -0.05339916 0.03240581
0.037845895 -0.1600932 -0.09657894
0.020138044 -0.09719858 -0.0547351
-0.16741225 0.10010956 0.017141348
-0.10184786 -0.0023605379 -0.09000336
0.04916581 -0.14325832 -0.0054703075
0.1639693 -0.051525872 -0.0793055
0.13947241 0.1265985 0.093098864
0.13027897 0.0944889 0.072664045
0.11775015 0.070745714 0.053795
-0.349599 0.049170606 -0.10368823
-0.25578502 0.20420386 -0.071845226
-0.15119773 -0.32080397 0.37068644
-0.017393554 -0.036520164 -0.007930744
0.0709857 -0.15486929 -0.03811091
-0.1621669 0.09454734 -0.06739119
-0.07115363 0.024838377 -0.022414597
0.06281071 0.085640974 0.058793224
-0.15119365 0.048779506 -0.10486725
-0.0030342438 -0.10385409 0.12108595
-0.14231013 -0.24147688 0.37739715
-0.12615871 0.101101026 0.02185146
-0.17674088 0.102333196 -0.03358698
-0.012198369 -0.14128996 0.031455904
0.23973884 -0.0056639533 -0.18301472
-0.18941121 0.08308771 -0.09615389
-0.09435163 -0.2576504 0.2580617
0.028636955 0.0062455786 0.029826386
-0.076212846 -0.258279 0.2633053
0.15187398 0.13177282 -0.14878935
0.036552195 0.0055076173 0.0036841868
0.036487147 -0.009634882 -0.03817975
-0.25565964 0.15448315 -0.08757078
-0.11622887 0.15643005 0.006882247
0.1995917 -0.044373196 -0.00059823977
-0.0021982233 -0.050688222 0.037622556
0.06337387 0.0053002136 0.049003482
-0.1029145 0.018912625 0.0014558574
0.11523584 0.0055691097 0.014109076
0.24004897 0.04977423 -0.16963689
-0.197432 0.13805741 -0.056487646
-0.008579409 -0.14622186 -0.07785071
0.10387198 0.08476242 0.072736636
0.0031748535 -0.17457305 -0.03498577
-0.14466438 0.124243245 -0.019491367
0.011980303 -0.03830747 -0.04231661
-0.0806151 -0.17701605 0.28633165
0.027641626 -0.008261053 0.03018203
0.06023597 -0.07137386 -0.005106563
0.113323554 0.058576632 0.052943572
0.104958735 -0.030047618 0.028111612
0.018675204 -0.16549088 0.10127926
0.24875733 -0.029162437 -0.0790715
0.15410629 -0.17613865 -0.13527603
0.10074936 0.19292171 0.0723922
0.13458864 -0.02378702 -0.0538768
0.020206144 0.03896921 -0.08328225
0.19141774 -0.014938762 -0.08308872
0.003649517 -0.1271957 -0.08109154
0.06364489 0.0146486815 -0.00030314142
0.20675248 -0.06805824 -0.08030591
-0.050127905 -0.02751086 -0.056358945
0.11232356 0.00046127787 0.034742873
0.18891342 -0.11055319 -0.18886212
0.08404601 -0.030003723 0.04690116
-0.264965 0.15935206 -0.107429974
0.21755219 0.021118024 -0.07441544
0.18683104 0.029656267 -0.11457382
0.17846559 -0.0007761256 -0.017979654
-0.2501477 0.11652313 -0.10938548
0.050762083 0.02442499 0.021565882
0.11368971 -0.080061845 0.049606107
0.09674623 -0.17999679 -0.03498394
0.06707462 0.117693394 0.1439746
0.12764868 -0.17765632 -0.19591223
0.13697974 -0.14689298 -0.14104055
0.16756128 -0.021447727 -0.11178917
-0.12793007 -0.2561965 0.3662826
0.115378596 -0.12632029 -0.104868665
0.0120457215 0.027332682 -0.038870234
0.00010081659 0.021022802 -0.044870503
0.09919381 -0.009467496 0.014703783
0.0060799667 -0.05091632 0.0032677297
-0.17897363 0.1621203 -0.027569516
-0.010503986 -0.060413755 -0.033843145
-0.24544637 0.16148542 -0.10095479
0.10160942 -0.14747076 -0.048216328
-0.33624423 0.0939404 -0.008072869
0.15214342 0.15386185 0.08417744
0.19538172 -0.077811755 -0.08744388
-0.07246627 0.05342575 0.0026290393
0.15834273 0.12104396 0.15920308
-0.07225381 0.01186844 -0.020064952
0.10790614 0.044346537 -0.087360255
0.10876392 -0.08028131 0.08030643
0.08172412 -0.10511212 -0.07434854
0.0036797714 -0.09306873 -0.022732727
0.10214552 0.12325265 -0.14624584
0.21702537 -0.025954807 -0.064449206
-0.060854472 0.08519961 0.02061907
-0.061594445 -0.079924464 -0.069617085
0.15711102 0.106072396 0.07162202
0.26258597 -0.11005196 -0.06136966
-0.23990044 0.19682126 -0.104165934
0.09353598 -0.00038074434 0.051155254
-0.16171062 0.07990964 -0.025603222
0.19609469 0.02467245 -0.06547791
-0.051356886 -0.14087716 0.14120102
-0.21289226 0.08806446 -0.10303752
0.06477257 -0.09169301 0.038505465
-0.3073826 0.091129474 -0.01566413
-0.045247503 -0.026670167 0.005825933
0.1047804 0.044500947 -0.179356
0.051334485 -0.12025849 -0.010338341
0.048331324 0.02643649 0.09146772
-0.042032477 0.03330398 -0.043183435
0.01173925 -0.03225527 -0.056457285
-0.18458585 -0.3028285 0.39788845
-0.07342924 -0.056172024 -0.037002403
-0.33975166 0.17541233 -0.03687693
-0.05667952 0.05908863 -0.0038223665
0.13536394 -0.07285227 -0.06759914
0.15268932 -0.062455412 0.052564465
-0.07223449 0.09410161 0.05045499
0.031119192 -0.03279679 0.014432476
0.19787411 -0.14965421 -0.14613019
0.14894588 0.12319107 0.14932087
0.173054 -0.12550913 -0.060674198
0.085168496 -0.080626346 -0.015764419
-0.299428 0.16046706 -0.08336058
0.00018270811 -0.078238554 -0.008047301
0.12942542 0.16636708 0.11226424
-0.073875114 -0.21833634 0.1757889
0.2768871 -0.061368328 -0.15285082
0.22384329 -0.11777821 -0.16970344
-0.04047046 -0.01326989 -0.0413404
-0.16515821 0.1698479 -0.04792026
-0.060458668 0.050423913 -0.058675773
0.06558026 0.105633825 0.13611166
0.17686193 -0.014454694 -0.08018315
0.16067451 -0.019138753 -0.052257244
0.12786768 -0.002083908 0.060382273
0.10043579 0.13616922 0.07650746
0.070141025 -0.058690965 0.03519388
0.11617277 0.02335497 0.10313941
-0.2985779 0.14044897 -0.055460077
0.041839477 -0.10211931 0.0008546364
-0.077902496 0.037600547 -0.020622335
0.07810029 0.03992987 0.08138971
-0.083339065 0.12574601 0.05870034
0.053941607 -0.053712927 0.02405295
0.103200056 0.1154081 0.11225185
0.03596022 -0.0900888 0.01072646
0.09553861 0.059576333 0.1386432
-0.1498179 0.09996582 -0.08878109
0.08176139 -0.11364005 -0.010370642
0.16277821 -0.07899406 0.020956522
0.032540523 0.029408203 0.0032025608
-0.113852225 0.039565757 -0.05220854
0.15937895 0.166437 0.12327662
0.09903209 0.111591324 -0.17184229
0.015031314 0.050749138 0.010981086
-0.26859975 0.07195147 -0.14480941
-0.10796878 -0.17751874 0.15577047
0.13429426 -0.07283318 -0.020512512
0.19653654 0.06994509 -0.15280953
0.06888327 0.15807965 0.07194084
0.1252619 0.18316999 0.18051612
0.035808988 -0.17288141 0.039682653
0.009319729 0.16255455 0.074195325
0.021330705 -0.07662447 0.012093062
-0.0872617 0.06590233 -0.023109073
0.06213007 -0.08638257 0.017650183
-0.1301763 -0.23903169 0.32670015
0.178343 0.02224127 -0.036795285
0.16537876 0.098528154 0.1773627
-0.2592345 0.08145921 -0.11592629
-0.17388912 0.062494814 -0.09996403
0.109976746 0.058201812 0.097461954
-0.3352902 0.1402328 -0.03249382
-0.052675113 -0.17919652 0.23405685
0.21290223 -0.033254158 -0.036591582
-0.019131055 -0.1126192 0.001942419
0.131349 -0.13651161 -0.11152799
0.13125558 0.025734114 -0.10362366
0.24689159 -0.09953569 -0.08906344
0.19155662 0.037504792 -0.097257175
-0.31071615 0.14349164 -0.09120454
-0.044044774 -0.030644098 -0.06250854
0.18376274 -0.069622725 -0.010951951
0.10375599 -0.0021769868 0.0494814
-0.022400593 -0.074496746 0.0062081697
-0.071186244 -0.23703268 0.32521424
0.01790442 0.07695695 0.07352914
0.083083466 0.046238586 0.107266285
-0.17847702 -0.27383044 0.39997897
-0.039605245 -0.1331151 0.15041277
-0.049273275 -0.12027323 0.100636974
0.014728527 -0.12932003 0.10395229
0.072913915 0.16112818 0.05754342
0.03567826 0.042802256 0.023904927
-0.012446427 0.060741324 0.005607609
0.13347045 0.13233252 0.11917955
-0.036377717 -0.13205953 0.16445398
0.08885692 -0.21891746 -0.047324564
0.16206267 0.016131202 -0.18058869
0.059635542 -0.13217856 0.0018517454
-0.29252395 0.16699854 -0.10033754
-0.17081556 0.17514661 -0.033378445
0.14467515 -0.050485004 0.03241481
0.0936746 0.128957 0.12990995
-0.21980935 0.14686383 0.0022871834
-0.027280169 -0.06982644 -0.06996555
-0.14907935 0.17320096 -0.04909762
-0.28744453 0.078097336 -0.087156
-0.29282248 0.12782611 -0.017470567
0.024490865 0.0023035828 0.017275557
0.12656903 0.014096346 0.086487114
0.111330815 0.2086387 0.14466472
0.057600822 0.06560041 -0.11891764
-0.24986462 0.06921508 -0.113170296
-0.2680787 0.09747672 -0.04827625
0.14722557 0.18746614 0.13433595
-0.26133934 0.16819052 -0.08053179
0.13310166 -0.039912652 -0.010301441
-0.3821324 0.15617295 -0.019994244
-0.09655796 0.120155044 0.0018528033
-0.09397047 -0.19456257 0.22524059
-0.16125125 0.08228981 -0.054232825
0.0047495207 -0.10366494 0.03260951
-0.028469292 0.041567445 -0.009822245
0.061555747 0.058727298 0.058671724
-0.30413547 0.13065802 -0.04096277
0.109272465 -0.1899102 -0.09011729
0.058113754 0.03400638 0.05154534
0.2672605 -0.089709826 -0.12245254
0.040185086 0.080392435 -0.12433138
0.035040412 -0.11861592 -0.04489519
-0.08211603 0.15150923 0.018924216
-0.0028939017 -0.08800319 -0.052675694
0.03559132 0.165314 0.09208374
-0.3343795 0.025594158 -0.02742975
-0.2259297 0.06674666 -0.114674866
-0.13913794 0.13889165 -0.052569937
-0.03253577 -0.05849505 0.012186015
0.21290836 -0.05102285 -0.057431377
-0.16213116 0.077294625 -0.048077498
0.07546471 0.030700928 -0.1289971
-0.06382266 -0.14256565 0.0847827
0.068613335 -0.08152116 -0.0383528
-0.066207565 -0.24742341 0.20929721
0.07669752 -0.13059005 0.044821817
0.1631598 -0.03977548 0.02040446
0.052509706 -0.13761283 0.051284637
-0.23611167 0.14781222 -0.047665566
0.16659902 0.11373574 -0.17414536
0.17149119 -0.006688009 -0.02153892
-0.2667021 0.20023204 -0.060653254
0.012009629 -0.16039036 -0.054880634
-0.30629537 0.04300403 -0.08906244
-0.14710957 -0.3131248 0.3395915
-0.050331112 0.16492581 -0.012230102
0.03191236 0.1728831 0.14044254
0.077139854 0.028708024 0.021680338
-0.09755365 -0.2500821 0.2269471
-0.32049644 0.14660072 -0.037458513
-0.36353353 0.122763835 -0.033649642
-0.00081615074 0.0049755964 0.035515446
-0.12418147 0.028984977 -0.013007787
0.018725036 -0.039427537 -0.0053041507
-0.056355923 -0.1331106 0.108455926
-0.14949615 -0.26191407 0.2531554
0.03238642 -0.10921036 -0.25177065
-0.09960397 0.08890349 0.024163792
-0.020172238 -0.066357896 -0.08422171
0.01695667 -0.05848939 0.0075792433
-0.28081787 0.08717774 0.0051681586
-0.16928619 0.05005267 -0.022499166
0.110153586 0.039338175 -0.10136904
0.22388285 -0.1812445 -0.18634152
-0.04323368 0.07878709 -0.015119139
0.017516676 0.01239539 0.03737931
0.057370882 -0.15439512 -0.04328994
0.064692006 0.009189555 -0.107763365
0.086917095 0.037896022 -0.10528912
-0.09465219 -0.01736191 -0.08342017
-0.07224276 0.054409504 -0.056022864
0.05086912 0.031025961 -0.03563694
0.122683614 0.15744044 0.12398435
-0.12763286 -0.27285695 0.2739247
-0.097976215 0.030608153 0.035989672
-0.057784315 0.07724853 0.02543595
0.1745265 -0.039368622 0.06839454
-0.09754293 0.16846997 0.045346476
0.091617644 0.056619037 0.0784341
0.13269968 -0.055404626 -0.037503585
0.16711928 0.025412992 -0.09557035
0.00041060266 -0.092517816 0.049639165
0.26324657 0.016258612 -0.2168069
-0.07696667 0.14637795 -0.028233645
-0.32234153 0.104958795 -0.09657104
-0.21242431 -0.25080776 0.37036738
0.18417573 -0.069445245 -0.08151634
0.2704995 -0.009328572 -0.11644451
0.05610572 0.059339125 0.039853126
-0.16282761 0.06939373 -0.025306307
-0.21315919 0.1717225 -0.013741771
-0.050565083 -0.03420542 -0.103690594
0.08236812 -0.13218373 -0.03567087
-0.124674365 0.07962545 -0.00753996
0.022129396 -0.080593385 -0.0057729357
0.2080982 0.0066525163 -0.08676682
-0.29256776 0.15950152 -0.05424086
0.25105694 -0.025843041 -0.12724341
-0.013734838 -0.09138965 -0.03424704
0.123747535 0.0860442 0.06940373
-0.08618588 0.09200784 -0.026579905
0.09976383 -0.071776636 -0.04212268
-0.3460383 0.14476477 -0.012560334
0.14920396 0.07830787 0.13653058
-0.008055428 -0.17293978 -0.08065346
0.035035 -0.032385606 -0.08967965
-0.012910664 -0.14400381 0.13120474
-0.09914153 0.007827432 -0.044947866
-0.042806625 -0.15479767 0.14554283
0.071386136 0.024610432 0.09689891
-0.10491192 0.1506921 -0.01269155
0.19852443 -0.07671697 -0.01112838
-0.077733986 0.09219183 -0.028502772
0.05612093 -0.0031889863 0.04020999
0.04081493 -0.16949281 0.091927044
-0.34019408 0.11487917 -0.086675316
0.24086216 -0.08137543 -0.12672184
-0.16671331 0.113033935 -0.055570208
0.18188515 -0.18291335 -0.009068627
-0.112021565 -0.25693017 0.31126872
0.12079164 0.096266516 0.10583304
-0.10299606 0.113777705 0.029935924
0.14071214 -0.10403476 0.031855226
-0.16187578 0.11016037 0.024981333
-0.046485893 0.07439131 -0.023608614
-0.13313621 0.08955407 -0.053052038
0.15766206 -0.13054076 0.022127187
-0.31595957 0.17859024 -0.044819564
0.20033586 -0.19808193 -0.12430671
0.19187242 0.025486035 -0.07314504
0.036288057 -0.124173656 -0.042743184
-0.3147277 0.056504067 -0.07361207
-0.06819262 0.14227322 0.039097734
-0.13971332 -0.25872377 0.30914587
0.056146678 0.051422674 -0.023050847
-0.010307886 0.012383743 0.021431295
0.07877505 0.21339624 0.12524086
0.15594108 -0.10746209 -0.050159186
-0.039577186 -0.16240479 0.25921905
0.26126516 0.050252315 -0.16771951
0.1032119 0.02012624 0.07367648
-0.06169521 0.060623687 -0.022886043
0.16834983 0.023335677 -0.103828
-0.07004371 0.07598471 0.011472406
0.17334579 -0.0596667 -0.0066549256
0.14560373 0.04644475 0.0419559
0.21759185 -0.064139724 -0.13700938
-0.07082246 -0.013383305 -0.022353485
0.13228528 -0.13163617 -0.03931404
-0.28172794 0.12355577 -0.018169878
0.06513493 0.16128352 0.086777076
-0.10057408 -0.014758978 -0.047279008
-0.086749084 -0.14985731 0.18553199
0.030741958 0.039516643 0.03356425
0.16357495 0.06602448 0.06557187
0.08660572 -0.11961537 -0.048437797
-0.2380092 0.10905372 -0.103655815
-0.06347408 -0.029456448 -0.085988335
0.029921098 0.03863993 0.05002722
-0.049261216 0.07983557 -0.015149521
0.044030547 0.09623036 0.13359065
-0.041598797 -0.09850363 0.032002855
0.1317477 0.06457009 -0.1765206
0.109964654 -0.073961094 0.005042907
0.06642141 0.20479473 0.082113385
-0.33840877 0.07845137 0.0040590437
-0.15168357 0.017246606 -0.003830946
0.0684233 -0.0044530574 -0.01869566
0.12162555 0.16974321 0.105452396
0.19650227 -0.11875784 -0.063518785
-0.37440825 0.048107617 -0.068762876
0.051193435 0.035907328 0.036172695
0.010239421 -0.043099936 -0.010593627
0.018639129 -0.10784643 -0.0531753
-0.010942806 -0.18380041 0.09186348
-0.335849 0.10193079 -0.053775053
0.006336769 0.05481585 -0.13994847
-0.055000756 -0.23686463 0.21044621
0.025326584 0.04141695 0.007934279
0.08323045 0.12489374 0.11837826
-0.029629938 -0.04789751 -0.053301416
0.089262865 0.137801 0.12499927
0.060336843 0.13072422 0.16089603
-0.14120701 -0.24426644 0.2661008
0.028097255 -0.18425147 -0.026469123
-0.12920249 0.03695756 -0.054958235
-0.016510667 0.004085529 -0.06534086
-0.28455892 0.15793592 -0.1269889
0.11089535 0.17015848 0.0942336
0.095264584 0.013304435 -0.068931885
0.15523383 -0.048711367 -0.022743851
-0.092354365 -0.18366909 0.20303792
0.25564393 -0.018188765 -0.06859781
0.03770866 -0.11278284 -0.05938798
0.08063921 0.06839833 0.120655045
-0.1220642 -0.19809525 0.21877594
0.11035758 0.0604229 0.08978519
0.14059885 0.09592548 0.08926016
-0.30848172 0.120135486 -0.08087365
-0.025655087 -0.17021993 0.14485094
-0.06745481 -0.055635545 -0.08765607
0.0075940345 -0.09462746 0.014884003
-0.21915862 0.118775375 -0.10718168
0.210527 -0.12085614 -0.05571427
0.2507849 -0.016772758 -0.062916055
0.13321528 0.06041873 -0.14880408
0.14951718 -0.01786313 0.04994589
-0.047341235 -0.1210807 -0.10596538
-0.10251941 -0.22581467 0.26414198
0.0131989755 0.08194645 -0.028015984
-0.04686481 0.02529429 -0.013974484
0.07313111 0.081752464 0.122702636
-0.056874048 0.031073248 -0.027978051
-0.11050602 0.12747982 -0.04254261
-0.28750592 0.102061294 -0.034870166
0.15145114 -0.03130355 0.089696795
-0.02668772 -0.03147163 -0.03035325
-0.0036701572 -0.18066232 0.11931319
0.10137026 0.13225172 0.12250055
0.07017725 0.032059047 0.078186914
0.08008281 -0.058126736 0.026056588
0.16491152 -0.008000347 0.036644503
0.27447927 0.011108219 -0.16017546
0.042265516 -0.1313599 -0.00067479553
-0.13075262 0.12101485 0.0344175
0.08011719 -0.099922426 -0.00730874
0.07240918 -0.086614914 0.017349642
0.046217456 0.084059075 0.06351336
-0.1660288 -0.31662646 0.35133576
-0.08008475 -0.18074423 0.16353665
0.0074668764 -0.15148617 0.07006537
-0.30465794 0.09654419 -0.048747327
0.19725108 -0.10244823 -0.03262921
0.17558117 -0.01716058 -0.055614896
-0.1024811 -0.29009086 0.3680274
0.20485957 0.0079700835 -0.10125379
-0.22680528 0.15336274 -0.090735056
-0.1557926 0.01378964 -0.030366823
-0.16530187 0.191425 -0.08770556
0.118110076 0.20449843 0.18038014
0.03515505 -0.16712397 0.06886353
-0.16316527 0.081089064 0.012186977
0.18268853 0.10300605 -0.093002945
-0.005229436 -0.13510618 -0.02849703
0.22551943 -0.041244622 -0.073837996
0.05756198 0.054503802 0.05394445
0.15193835 0.000869137 0.024373189
0.12790473 -0.13724394 -0.028575774
0.0041199788 -0.14308858 0.07764263
0.03594057 0.16042483 0.11031168
-0.008579388 -0.11046556 -0.05848941
0.11218896 0.11509508 0.1251363
-0.016430052 -0.06461914 -0.021602476
-0.31511238 0.23021296 -0.07236457
-0.26542592 0.1146087 -0.052138932
-0.01128602 -0.13609692 -0.08470714
0.16513966 -0.016856581 -0.028271127
0.16955632 0.021373942 -0.10664551
-0.033098053 -0.03491798 -0.086784534
-0.063395604 -0.014956768 -0.023798341
0.20585214 -0.019340454 -0.014724559
-0.19248347 0.21411127 -0.036070574
0.11094968 0.034169115 0.056545775
-0.23264977 0.13535908 -0.1233928
-0.21388993 0.09639011 -0.06903061
0.09044849 -0.06634089 -0.028981784
0.019128613 -0.14375919 -0.09057466
-0.020377416 0.060202584 -0.026405003
-0.2795958 -0.0003389534 -0.13703184
0.09499524 -0.022546353 -0.008430994
-0.088025205 -0.27015096 0.21294734
-0.07267239 -0.13564146 0.10051565
0.17679279 0.037752166 -0.036416017
0.08753876 -0.04658438 0.046345722
-0.31066838 0.06990627 -0.077923104
0.081159994 0.023479734 0.062404234
0.01991308 0.00858029 0.05113104
0.049700145 -0.087404184 -0.023631658
0.118602216 0.13506371 0.13110805
0.08640668 0.13184921 0.12862617
-0.23932323 0.110295914 -0.124109626
0.17270358 0.13305049 -0.17944564
0.097536154 0.018909812 -0.14868969
0.17734177 0.0009901024 -0.053593215
0.2775356 -0.04929164 -0.17667624
-0.12417122 -0.19930783 0.2685716
-0.23316756 0.17287806 -0.0932294
-0.3556258 0.040208448 -0.0781939
0.024539288 0.059731655 0.05717154
-0.13373202 -0.35663372 0.43198484
-0.047775984 -0.15419583 0.20563999
0.09108618 -0.06786651 -0.02393652
0.061956767 -0.058723204 0.04493763
-0.07238064 0.1113558 -0.018997258
0.1201353 0.063206255 0.06250324
0.02096959 -0.08337863 -0.009249237
-0.30813786 0.1340646 -0.0669029
-0.035097875 -0.18961398 -0.080861755
0.18543267 -0.025952892 -0.079246424
0.117658824 0.09870179 -0.19360727
-0.1529805 -0.26851404 0.34952322
-0.052323706 -0.18981908 0.18164377
-0.09828774 -0.2618759 0.30062756
0.110283926 0.07384894 -0.10974994
-0.3345769 -0.0019308061 -0.08458393
0.041107558 -0.07230561 -0.05657295
0.0114121 -0.057319567 0.006942172
0.12173014 -0.050190277 0.010817423
-0.34234083 0.024658691 -0.06769298
0.108298026 0.05862624 -0.15376496
0.052721303 -0.13411012 0.061504137
-0.10455293 0.008702452 -0.036372364
0.02626909 0.10746026 0.08065279
0.05730229 0.07737895 -0.2376102
0.07084579 -0.17623211 -0.05377497
0.022917578 -0.03696352 -0.04963791
0.015331525 -0.0031722072 0.037430268
-0.03299239 -0.054514185 -0.022939177
-0.05451451 0.09049077 0.037156608
0.18573564 -0.12251728 -0.089246355
0.11987409 -0.06727116 0.002949773
0.0030022867 -0.06347076 -0.071446255
0.12902553 0.15571186 0.10755845
0.16239773 -0.05207601 -0.0886595
0.0456102 -0.013658233 0.052524216
-0.09070092 -0.26099503 0.37730968
0.22518831 0.0344624 -0.15166593
0.020760616 -0.057150185 0.017492699
-0.105368115 0.1373113 -0.03693445
0.08342127 0.20485103 0.1493919
0.06866844 -0.1609135 -0.094088174
-0.026201194 -0.1455324 0.15158424
0.12719244 0.0010098274 -0.035699267
-0.1797833 0.14460292 -0.028301213
0.18483597 0.06661869 -0.12593079
0.024941446 -0.00363406 -0.019141162
-0.19876611 0.18592772 -0.0361086
-0.038375955 0.020138638 -0.010409444
-0.24860306 0.20423597 -0.0925901
-0.03374126 0.087365754 0.037788622
0.13111244 0.0013075226 -0.080901764
0.11558673 0.020737045 -0.0059757344
0.064887516 0.13892001 0.09971245
0.10898361 0.119907394 -0.10526318
0.11430507 0.16399705 0.13756795
0.028880442 -0.1169639 -0.017277235
-0.24850996 0.07020935 -0.034902837
0.110691056 0.11547474 0.119475625
0.030635893 0.05396162 -0.00012775211
0.27586165 -0.024755547 -0.123062484
0.108303376 -0.016438784 0.031190075
0.12511313 -0.109572165 0.023958359
-0.06184788 -0.11854016 -0.09879208
0.2146223 -0.13516496 -0.17496447
0.07062088 -0.12997536 0.037531905
-0.30470982 0.062491626 -0.029480165
0.077132955 -0.18955953 -0.07394811
-0.22507662 0.18416809 -0.057519615
-0.1085477 -0.278146 0.3147206
-0.28076187 0.10249054 -0.024950467
-0.035186682 -0.107609056 -0.038582243
-0.003275101 -0.057901874 -0.025798796
0.115384564 -0.00011519653 0.021761995
0.13600811 -0.11329789 -0.052261665
-0.2670405 0.13092019 -0.07540283
0.15869899 -0.20131893 -0.09290405
-0.1362946 0.07540401 -0.041057944
0.11250612 0.12895894 0.1327278
0.24598497 -0.06353324 -0.075872175
0.0631139 0.050763544 -0.13895608
0.10982792 0.13496158 0.100852564
0.2205662 -0.074266925 -0.046450153
-0.2733746 0.16376954 -0.027076805
0.26240674 -0.086928695 -0.1004581
-0.13445584 0.16896431 0.026374195
-0.13073958 -0.23219863 0.18722336
-0.111551285 -0.0021064803 -0.06342161
0.14380649 -0.15822794 -0.19846743
0.18898119 -0.036993526 0.007040768
0.0061911996 0.0075733815 -0.052493673
-0.24026664 0.067031145 -0.04958267
0.10487981 -0.13066137 -0.025732635
-0.16828693 0.06180364 -0.10498938
0.19266905 -0.12249407 -0.07541798
0.08954854 -0.098088704 -0.04472357
0.12903365 0.08011866 0.12191755
0.051808443 -0.14660682 -0.038612146
-0.18103938 -0.28634423 0.3807151
0.11209586 0.06828028 0.09322104
-0.14050147 0.07664803 -0.050938126
-0.045768578 -0.032423917 -0.023888486
-0.3249803 0.16459951 -0.09782523
0.09418521 0.04523187 -0.03650032
0.094313234 -0.05658407 -0.036799304
0.122621484 0.13911371 0.07955271
0.20197263 -0.06081886 -0.080814905
-0.15177459 0.042224035 0.009321439
0.20422705 -0.11155202 -0.16439103
-0.14155306 0.11938188 -0.012810191
0.034782615 -0.038967174 -0.028325578
-0.0815328 0.11201317 -0.0055712494
0.11215336 -0.06257145 0.073799625
-0.030563403 -0.21591195 0.06466417
-0.039360736 0.0318669 0.032200705
-0.094878845 0.1556351 -0.009552665
0.1448339 0.096923746 -0.1713576
0.18268812 -0.17617166 -0.1609695
0.0058163535 -0.11728095 0.06519982
-0.03281694 0.010449707 -0.0088274
0.123864666 -0.05132738 0.027663365
-0.009601889 -0.1722849 0.1262987
-0.27371436 0.054302227 -0.11303861
0.009632721 0.03718748 -0.032888226
0.049303524 0.11194497 0.07985814
0.04531659 -0.12125684 0.023053264
-0.06862387 -0.20336798 0.1698299
0.06340765 -0.030093014 -0.0055969935
-0.26030958 0.14369467 -0.077681825
0.046213757 -0.010041325 -0.013572495
0.23811285 -0.012960052 -0.10576314
0.19982302 -0.00845134 0.0027031517
0.17979154 -0.06760949 0.031658463
-0.1747465 -0.34198058 0.3852946
-0.31612602 0.11535115 -0.0056037423
0.037698705 -0.034550175 -0.02910252
0.1548995 -0.08943353 0.027745545
