# .PCD v0.7 - Point Cloud Data file format
VERSION 0.7
FIELDS x y z
SIZE 4 4 4
TYPE F F F
COUNT 1 1 1
WIDTH 1000
HEIGHT 1
VIEWPOINT 0 0 0 1 0 0 0
POINTS 1000
DATA ascii
-0.00322151 0.032627605 0.043993887
-0.1387564 -0.060380943 -0.12723728
0.009872894 -0.060676876 -0.03936867
-0.14509585 0.0579474 0.0768887
-0.18670028 -0.041785568 -0.25718516
-0.15255892 -0.1211247 -0.23979278
0.12546831 0.06581009 0.056619603
0.022509657 -0.08189856 0.020271787
0.10626388 -0.27867144 0.08289445
0.116811015 0.063405655 0.013059035
0.1526185 0.046045847 0.06553792
0.0028259626 -0.07922641 0.023361497
0.061617937 -0.37529576 0.04442069
0.042111434 -0.06682023 -0.004634213
0.15204832 0.002964204 -0.104819715
0.15751588 0.16121845 -0.03256626
0.062995635 -0.070303105 0.0559943
0.06593961 0.07484425 0.066864826
0.077460214 0.03767557 0.003032965
0.13082194 0.099137664 -0.010780635
0.15559794 -0.041615758 -0.044610497
-0.095169336 0.05084007 0.055507876
-0.00721192 -0.2241262 -0.042855136
0.10953733 0.12914103 0.038204473
0.09314214 0.18814696 -0.05332363
0.21123132 0.07109258 -0.08849985
0.044779252 -0.3323432 0.12826608
0.13208874 0.066421084 0.056401398
-0.391895 -0.013339976 0.27780154
-0.04801332 0.04713316 -0.03165392
0.07198272 0.1527325 0.016309083
0.0644776 -0.012499922 -0.02152318
0.09986129 -0.07122892 -0.024585824
0.0961497 0.050489128 0.04915856
0.05429646 0.042305797 0.04757558
-0.117598735 0.030900253 -0.17720689
0.02209726 0.020063031 0.05113718
0.0046261004 0.1905324 -0.008913578
0.10489799 0.18958434 0.0297973
-0.041913364 0.014411391 0.03468399
0.03516939 -0.22646126 -0.018597139
-0.14005186 -0.050776977 -0.23582704
-0.108709544 -0.011741431 -0.09793316
-0.0644064 -0.016078906 -0.06577132
-0.018354377 -0.0810947 0.016030539
-0.003182855 0.13061807 -0.05612324
0.16531116 0.031213181 -0.07249197
0.011834887 0.105199344 0.044588767
0.016946552 0.05633081 0.022304116
-0.019349365 -0.037816368 0.02521248
0.19287731 0.0701768 -0.033235792
-0.118109114 -0.066144906 -0.14214863
0.1744589 0.074293636 -0.021476772
0.023467649 -0.28771093 0.009959913
0.2469841 0.14516222 -0.060243182
-0.08222255 -0.09201329 -0.04447042
-0.14762571 -0.11225528 -0.150878
0.008810084 0.15770826 -0.020237364
0.07422761 -0.31473958 0.09395996
0.079530686 -0.27822414 0.018934676
-0.094517425 0.11461867 -0.11001635
0.05706339 -0.28484318 0.07243695
0.16597104 0.19792907 -0.11654349
0.06899017 0.04307568 0.052162565
0.08285231 0.2028416 -0.046157334
0.02856312 -0.24045002 -0.07526348
0.02433831 0.16242166 -0.011825576
0.10177678 0.12311344 -0.014421941
-0.0868828 0.07270699 0.07011884
0.20995559 0.014279133 -0.08582712
0.051282085 0.0928137 0.009678437
0.14104596 0.18562576 0.02614257
-0.04581822 -0.016570227 0.011067275
0.0035580215 -0.05035512 -0.0001310875
-0.0074994513 -0.06744152 -0.051707108
-0.014059898 0.12108915 0.07963411
-0.0716073 0.0888779 -0.06499476
-0.009732933 -0.30595845 0.14434908
-0.3704365 0.03898848 0.21548736
-0.37834826 0.0109899305 0.26052555
-0.11112468 -0.061407473 -0.19247039
-0.06744837 0.1346054 0.015786925
0.06908301 0.18586811 -0.12409119
-0.10863966 -0.08920322 -0.19487521
0.082103126 0.19609025 0.034736235
0.039452784 -0.24694984 -0.015163967
0.090129234 0.17340484 0.004649737
-0.3196265 0.052061684 0.17752086
0.055497535 -0.1894971 -0.036856566
0.08749324 0.21401474 -0.0069016987
0.036521573 -0.01570422 -0.0062581804
0.09213339 -0.28862426 0.099846594
0.03285084 0.10538854 0.09539622
0.15085311 0.13101445 -0.03335089
0.023688886 -0.35464942 0.06169608
-0.02694165 0.10131693 -0.09931504
0.017127084 -0.23994116 -0.041202787
0.04974573 -0.27440435 0.06596677
-0.07446584 -0.029279325 -0.048395753
0.041249547 -0.036383472 0.03685627
0.08583889 0.13876753 -0.006119706
-0.25483865 0.01137769 0.17424726
0.13988583 0.11857148 0.026443958
-0.17795135 0.062532306 0.06309388
0.017112229 0.034252517 -0.06230866
-0.014955135 0.16171898 0.021769205
-0.010306828 0.021624686 0.005465209
0.15656637 0.15717211 -0.122556604
0.07719485 -0.29415244 0.06883343
-0.42245796 -0.012486994 0.2554828
-0.1271071 0.053250927 0.041652333
0.18684377 0.11836389 -0.018498797
-0.1357751 -0.01203317 -0.2016117
0.12425347 -0.010602249 0.05426637
0.24021567 0.11496925 -0.022975303
-0.416466 -0.007276814 0.23685943
-0.10917968 -0.071088985 -0.17172426
0.12230855 0.14460382 -0.017773112
-0.030701203 0.0658883 -0.029004365
-0.14709538 0.034816727 -0.088220544
0.019606005 0.05035797 0.02684539
0.12373215 0.016927376 -0.006946448
0.1911934 0.14611156 -0.09504082
0.09644955 -0.27677414 0.15945382
-0.045111746 0.0028608406 -0.06751354
0.15617882 0.038016133 -0.02069795
-0.16129577 0.060852278 0.09104786
-0.18956357 9.4454415e-05 0.12495513
-0.021718735 -0.205392 -0.044601075
-0.0112467455 -0.13074793 -0.025879553
0.04246091 -0.19828694 0.03988168
0.041715205 -0.05855282 -0.024351887
0.18460475 0.1366903 -0.053923644
0.13248159 0.09015407 0.009126651
-0.032184113 0.04869518 -0.05031193
-0.079470806 0.004779673 -0.11484887
0.04536315 -0.1356927 -0.0027151823
0.012782955 0.055234343 -0.006527726
0.09677575 0.103116676 0.07632031
-0.12237463 0.092089064 0.0916034
0.052172564 0.076091744 0.09270804
0.01646022 0.09961004 0.08257871
-0.4030789 0.015610514 0.22115833
0.15609671 0.076617874 -0.056492906
0.098686524 0.17585666 -0.037497584
0.16437465 0.13302779 -0.061409853
0.102185264 -0.2535088 -0.0064126956
0.2234947 0.035181172 -0.026580507
0.09998647 0.04014252 0.030714298
-0.09282752 -0.013796403 -0.123031415
6.6351065e-05 -0.11543325 -0.05372602
0.0037286887 0.03241557 0.0820533
0.025845071 -0.05172433 -0.062452395
0.040645216 -0.15374412 -0.037361942
-0.039797213 0.055013925 0.03351939
0.055813417 -0.0049910424 -0.088301495
-0.12478579 -0.13486229 -0.21476631
0.054540172 -0.36196256 0.052046172
0.066228144 -0.061722558 0.04980088
-0.15421726 -0.012697049 -0.18114473
-0.1481252 -0.021949843 -0.16209273
-0.21635023 0.02101683 0.1816771
0.04049506 0.043641623 0.0067201974
0.092079565 -0.023469202 0.07212822
-0.014046962 -0.3727183 0.10574156
0.09592119 -0.028333973 -0.048018
0.053858563 0.17620853 -0.18608381
-0.28815627 0.046006348 0.22110863
-0.0246837 0.0703249 -0.0292844
0.12940787 0.16716124 -0.15785798
0.08986427 0.1390175 -0.03778851
-0.2887813 0.05403062 0.17611824
-0.076062724 -0.0037642617 -0.16501981
0.06217093 -0.26719162 0.07922339
0.07598004 -0.0038013088 0.050499782
0.13495722 0.19206582 -0.09227028
0.195029 0.015929492 -0.010742189
0.06061384 0.14717607 0.04492125
0.064704545 0.07966274 0.025450582
0.09524735 0.17295304 0.0027824743
0.0003971896 -0.06449695 0.04406535
0.05437239 0.11609832 0.04465749
-0.07529542 -0.045082774 -0.077285625
0.03593864 -0.21188563 -0.0051260646
0.027099961 -0.3343652 0.11691159
0.074596144 -0.18683614 0.023482516
0.19009775 0.21434009 -0.03778231
0.07365128 0.16225126 0.039067462
-0.1274247 -0.03935553 -0.16949941
-0.1575313 0.021162963 0.11471102
-0.4179039 0.018161593 0.2578803
-0.1042487 0.016434671 -0.2201573
0.18742144 0.017074399 -0.06907676
0.027038224 -0.04214344 -0.06340014
0.11592975 -0.004248089 -0.06033677
0.02082286 -0.11755723 -0.043285735
0.12762524 0.12136539 0.03711868
-0.35132727 0.0023763631 0.28921434
0.04460319 0.1584426 0.04488209
-0.00045770325 -0.105712526 0.0011338807
-0.16480541 -0.11234269 -0.23204392
-0.047527634 0.10715875 -0.021595854
0.11239209 0.11246559 0.027944708
0.054102622 0.0878162 0.0019695389
0.2010649 0.09768835 -0.029869676
-0.006307969 0.09399135 0.0024198543
0.12787016 0.094120055 0.022979762
0.06545931 -0.18216486 0.04129425
0.019383246 0.077618554 0.07154654
0.097791016 0.06312516 0.053022698
0.010283596 0.20201913 -0.002037981
-0.0673408 -0.013486038 -0.13578783
-0.07354823 0.020079894 -0.07499623
-0.05636179 0.10143295 -0.02030219
-0.010708632 -0.14268377 -0.11967625
0.056660123 -0.01233768 -0.022656504
0.10440039 -0.06885547 -0.09165093
-0.03261418 -0.18793869 -0.027814029
0.08309631 0.05136963 0.032974932
0.13647263 0.11980931 0.04399351
0.2534274 0.15789369 -0.09526671
0.04739564 0.0045426046 -0.043437906
-0.020993048 0.062961996 0.042709675
0.004047813 -0.18579409 -0.087033026
-0.09628033 -0.042181745 -0.11629932
-0.41646412 0.0066437502 0.2841988
-0.027860355 -0.24729644 -0.0025859051
0.041627366 -0.058549337 -0.01373612
-0.03427345 0.1236903 -0.013247321
-0.23039618 0.06538862 0.17248034
0.060835738 -0.2867188 0.11915258
0.031290792 -0.11179656 -0.030191094
0.17436539 -0.014480512 -0.004446042
-0.11075582 0.081968375 0.06665981
0.05313105 -0.08318716 0.016448617
-0.03849308 -0.19765127 -0.04651301
0.010662316 -0.11671569 -0.06356707
0.033633165 0.05166379 0.06849589
-0.08406241 0.11701365 -0.06958051
-0.097376876 0.1016439 -0.074792214
-0.05366284 -0.06499067 -0.08136409
0.04654982 0.1687717 -0.15951283
-0.06597739 -0.0077291233 -0.08727642
0.010492082 0.023950657 0.021321012
0.13577741 0.036582593 0.015538184
-0.11267877 -0.020418957 -0.18613382
-0.01081449 -0.08880679 0.046062566
0.16985516 0.07670523 -0.053712755
0.04968802 -0.29114634 -0.0002223427
-0.3564742 -0.017362706 0.22268385
-0.16000335 -0.041438397 -0.16979702
-0.016940573 0.17576842 -0.14259419
0.20076688 -0.007941196 -0.1028855
0.09879996 0.074427694 0.007409291
0.15046474 0.03175957 0.03966936
0.18732044 0.022871537 -0.013016952
0.14962047 0.18417178 -0.106260225
-0.04735952 0.005387349 -0.00521282
-0.004478901 0.07520331 0.05362587
0.20683764 0.103928424 -0.0009376104
-0.08505816 -0.016744558 -0.072014384
0.083714336 0.19723915 -0.005160624
-0.05992713 0.03412919 0.07079858
0.0335852 0.067525916 0.02535007
-0.13881643 -0.06297777 -0.18919852
0.1031966 0.117851205 0.0026842556
0.1847019 -0.0061504124 0.031926528
-0.08069218 -0.11082014 -0.039677482
0.09701129 0.13090858 -0.017663674
0.024710538 0.06877546 0.036295235
0.20577852 0.0335401 -0.093365535
0.1374291 0.20358157 -0.05960198
-0.009490188 -0.041786972 0.025231604
0.009808844 0.12448678 0.057703152
-0.38013732 0.02764903 0.2672936
-0.032829646 0.16728742 -0.019128105
0.12621257 0.17640153 0.015160893
0.14582272 -0.038989447 -0.045095358
-0.17018165 -0.039321482 -0.17002042
-0.13202639 -0.07624329 -0.18987378
0.10405346 -0.004712602 -0.047695085
0.05882977 -0.26445818 -0.022765197
0.02840581 -0.17771572 -0.04865428
0.23953663 0.15698493 0.013611602
0.08624429 -0.24956354 0.062077116
0.01867592 0.119658865 0.07303961
-0.025336558 0.041718833 0.053343635
-0.026003508 0.18032725 -0.044900544
-0.15224141 0.031055562 0.0716511
0.11586164 0.093328506 0.07102045
0.021471638 -0.108574644 -0.041834608
0.009139172 -0.11237447 -0.035167016
0.040206745 -0.0666296 -0.02703466
0.04704479 -0.29944116 0.030864757
0.024077523 0.14596081 0.064139016
-0.109139755 0.08725812 -0.1494039
0.028308533 0.07458011 0.012370683
-0.03497527 -0.08334103 0.012507561
-0.37296647 0.013599118 0.21644479
0.046096638 0.09010779 0.0339031
0.07806064 -0.23753233 -0.022996577
-0.06823016 -0.075639375 -0.12041424
0.1482438 0.1037675 0.03982213
0.16905127 0.19643979 -0.049059685
-0.12549229 0.024416352 0.0570609
0.1856429 0.13899331 0.00081594865
-0.30026066 0.010497788 0.14576608
-0.08023168 0.060342558 0.093681544
-0.36051312 0.040714137 0.22331737
-0.046808876 0.040809948 0.0036307534
0.22217524 0.13323572 -0.08270951
0.008928228 0.13070044 0.02757523
0.043370172 -0.09926505 -0.03702289
-0.15016018 -0.039116833 -0.17736055
-0.35088408 -0.030042881 0.23044701
0.075676195 0.11599924 0.013660105
0.08821735 -0.3611432 0.0500972
0.03641066 -0.05088576 0.04624711
-0.043287396 0.087040015 0.046087313
0.010776621 0.07074008 0.027455023
0.0082247 -0.29206347 0.19920844
0.07391877 0.036699373 0.059636902
0.079785034 -0.059936386 -0.10577891
-0.19600917 0.07384489 0.10320603
0.23958087 0.13524634 -0.06905842
0.0941953 -0.044506136 -0.12654263
0.07650576 0.011487377 -0.031616304
0.14446318 0.21005559 -0.016376879
-0.011840769 0.09649435 -0.022024121
0.070544355 0.073914394 0.0733339
-0.09630271 0.030866235 0.10062974
0.113591805 0.12905031 -0.047296576
0.09132214 0.20169275 -0.08564237
-0.2402662 -0.013946854 0.12705147
0.09723512 -0.024784453 -0.026370192
0.011827579 0.10281927 -0.13081239
0.17539069 0.19477223 0.0014244136
-0.16010766 0.0053648227 0.105865255
0.20702872 0.17169018 -0.10664781
-0.05758847 -0.16563016 -0.051333975
-0.11911237 -0.123010494 -0.17453328
0.005031829 -0.11250082 -0.017670643
0.17093144 0.1376265 0.0041694525
-0.016653685 -0.22012864 -0.018751152
0.08672832 -0.06830737 0.0012197905
-0.018839434 -0.34926298 0.08200973
0.11654786 -0.0021064861 0.029992973
-0.19193324 -0.0134533215 0.16084771
-0.009610303 -0.082014166 0.024689551
0.026196174 0.009455836 0.043015875
-0.02376793 -0.023697311 0.023963567
0.001864738 -0.1960519 -0.041451808
0.012036003 0.047126155 0.037704565
0.0709787 0.15006217 -0.05622474
-0.07821327 0.076578915 -0.11224417
-0.028630804 -0.3402996 0.09864322
-0.03585196 -0.1256065 -0.07453373
0.04609325 -0.17265703 0.022976555
-0.048677012 0.051392205 0.0011042833
0.1121267 0.15056187 0.020977348
-0.11526816 0.03876751 -0.03491108
0.019382177 0.11425186 0.042560894
-0.13650298 -0.011247637 0.07629566
-0.31711504 0.025931334 0.24275096
0.089047484 0.102119364 0.036793273
0.0027195492 -0.067694955 0.058867183
-0.018668976 0.08757164 -0.07523734
-0.27425322 -0.025330134 0.15309687
0.031746402 0.06473149 0.090429805
0.22357431 0.1950452 -0.10586006
-0.2953564 0.081040815 0.16860014
-0.023561463 -0.13019642 -0.019300777
0.10303804 0.10490513 -0.026494429
-0.031106697 0.100872695 0.07222177
-0.4126827 -0.016223103 0.22723076
-0.14862241 -0.07533269 -0.1863938
0.00699479 0.12218925 0.07196963
-0.054554954 0.059858777 0.01879613
-0.30684215 -0.027195206 0.15996528
0.10952391 0.20262969 -0.0027002231
-0.14391191 -0.06286492 -0.19390988
0.20366818 0.095096186 -0.06611315
0.041749414 -0.32336295 -0.019902952
0.13294508 0.036227573 0.018029898
0.09504652 0.06118327 0.071347035
0.046812546 0.049361955 0.06603781
0.0054583536 -0.2628267 0.018181846
-0.07371541 0.025188437 -0.07922832
-0.05168612 -0.17548896 -0.016049622
-0.02534943 -0.1539804 -0.080898784
0.14621307 0.011714051 0.023112098
-0.3677335 0.0104951 0.2056232
0.048551034 0.14048856 -0.004274274
0.1537501 -0.0058956076 0.018603992
0.094133064 0.0021543917 -0.008483994
0.0249491 0.063821286 0.061346777
0.015150382 -0.30717185 0.11638316
0.10335683 0.070746966 0.034362976
0.13501331 0.049074057 0.06325159
-0.039958186 0.12318988 0.020133177
0.060433224 0.17234762 -0.002665282
0.046142958 0.116723135 0.05436693
0.14652534 0.12790063 -0.11136857
0.082675606 -0.35321182 0.057244103
-0.1610665 0.10174469 0.058474127
0.08916626 0.089546494 0.08089023
-0.07987915 0.07307369 -0.11623053
-0.041648746 0.12313576 0.0624943
0.074753225 -0.35912904 0.009565575
0.18165466 0.10409809 -0.023217969
0.09626561 -0.27137375 0.12590863
0.045374576 -0.21255559 0.07939029
0.12050956 0.012460506 -0.0010458032
-0.11078812 -0.0728402 -0.14839563
-0.07578889 0.08710064 0.0114779305
-0.123999305 -0.10252997 -0.1469024
-0.0037470106 -0.07754475 0.052352015
0.23968053 -0.0067188716 -0.09099248
-0.2310731 0.04137101 0.21140303
0.0849485 0.08076275 0.09091657
0.012648158 0.03905746 0.018835532
0.10685907 0.07930646 -0.002455473
-0.20870475 0.09071292 0.09586841
0.11837883 0.20255394 -0.045599177
0.1747992 0.06753939 0.0124389455
0.0023992136 -0.31801695 0.102135964
-0.30429524 0.063533224 0.16501924
0.16506794 0.07182706 -0.029119082
-0.12769441 0.03822993 0.03153677
0.066309474 -0.3103084 0.093826115
-0.060127627 -0.053746004 -0.059800524
-0.13258983 0.087423116 0.075885326
-0.14392981 -0.14217055 -0.1616636
-0.062309835 0.12071381 -0.062005702
0.017646989 -0.015966509 0.027704133
0.01369749 0.17957638 0.02838537
0.03850409 0.14154387 0.010961957
-0.11712947 -0.061606433 -0.13389125
0.076409586 -0.036587887 0.0050758305
-0.07003285 -0.053000644 -0.171843
-0.02941333 -0.039654415 -0.06002213
0.15629955 -0.0036374195 0.010595785
-0.036672335 -0.12659948 -0.09355496
0.07291701 -0.39890894 0.04930087
-0.03929353 0.0416011 0.03191359
0.0030416218 -0.02672959 -0.067731895
0.12167914 0.1817605 -0.09794575
0.04520356 0.053059533 0.04991263
0.03245751 -0.17362107 -0.02981743
-0.0076804818 0.056457076 0.039415717
-0.004709769 0.120746285 -0.04338976
0.18123119 0.15861143 -0.11040486
0.18722749 0.061960552 0.05549928
0.044629313 -0.036920603 0.023336051
0.04082039 0.152425 0.013714088
-0.017062927 -0.1523142 -0.031255774
-0.09941986 -0.0936789 -0.18220009
-0.0053921663 -0.0072350116 -0.09996086
0.13659282 0.12526605 0.03393135
-0.0690829 0.07066148 0.0057655475
-0.31112003 -0.010330596 0.20635116
0.01094396 -0.0041839164 0.033111323
-0.03550138 0.15497221 0.013914092
0.0639736 -0.3764308 0.032597363
0.02204874 -0.22982937 -0.023449011
-0.42157263 0.014523398 0.20244306
0.11715149 -0.28901845 0.090140134
0.028117485 0.025139375 0.084431104
0.02506274 0.1417353 0.0018140079
-0.32340816 0.04058572 0.20727344
0.093354024 0.21948017 -0.050957683
0.19056472 0.06212235 -0.05686596
0.19451107 0.04699979 -0.034536365
-0.041686524 0.047991656 0.072756134
-0.029911676 0.13735801 -0.029668149
-0.13795668 -0.044337533 -0.17263614
-0.018215267 -0.15553814 -0.032179765
0.22255923 0.07172559 -0.04362632
0.05841059 0.07693239 0.01924863
0.04626704 0.12720193 -0.03180871
0.018017663 -0.21244583 -0.036647346
-0.33663467 0.07432718 0.24160872
0.123862304 0.07052473 -0.012822256
-0.22848289 0.09048562 0.12524067
-0.033348784 -0.122728065 0.016836237
0.18593498 0.061673466 -0.004218508
0.008525206 -0.19313784 -0.043664906
0.024636649 0.12973079 0.048445188
-0.3161616 -0.009642065 0.20626624
-0.0016808897 -0.14225633 0.009578695
0.10439144 0.07711653 0.08664034
0.048719436 0.049408656 0.052155543
0.08794572 -0.28791294 -0.023892488
0.03102104 0.16204678 0.01938958
-0.0103595 -0.08249463 -0.007864865
-0.38664526 0.00021668385 0.23301513
0.1325728 0.030184843 -0.026724754
0.0149877155 -0.1861397 0.026637753
-0.27472264 0.07562379 0.15770428
-0.11747859 -0.040019885 -0.15976557
0.038730375 0.049164906 0.078604944
0.1002212 0.15110113 0.05399841
0.2263722 0.10132146 -0.063997455
0.19056249 0.15455729 -0.016129917
0.15881258 0.037586268 0.019287106
-0.075582676 -0.089978 -0.10329375
-0.18458714 -0.09191511 -0.2088283
-0.017334256 -0.1865888 -0.037206765
-0.107378334 0.011026784 -0.07589408
0.14629813 -0.036896642 -0.09464152
0.028393527 -0.1967721 0.04660636
-0.06772138 0.07379744 -0.00970873
-0.039890774 -0.15826713 0.016642299
0.06250889 0.12429069 0.068507604
0.08216637 0.03865196 0.048328295
-0.07722196 -0.036422916 -0.112038724
-0.105640434 0.07115516 -0.10458448
-0.056369163 -0.085820705 -0.007763279
0.031566706 0.034788035 0.03445007
0.06742643 -0.16387811 0.00841592
-0.0019375224 0.15504591 0.022385204
-0.13859147 0.036592502 0.054225236
0.13536891 0.08833027 0.011212925
0.096463166 0.116446465 -0.03719968
-0.006881228 0.04583853 -0.014575656
0.024211816 -0.21002209 -0.018738313
0.055670768 0.115568854 0.037668217
0.05598737 -0.04266866 -0.0013599725
-0.14516911 -0.0374482 -0.23490109
0.10184842 0.24999896 -0.027075758
-0.013462332 -0.06281246 -0.061884157
0.090399005 -0.3617099 0.045411207
-0.1398999 0.05949973 0.1327927
0.18773505 0.2138622 -0.13163674
-0.28955293 0.011718306 0.16958384
0.06415125 0.16509059 -0.007914749
-0.024195476 0.08217696 -0.049494494
0.072122276 -0.30975664 0.061274987
0.15028414 0.11029746 -0.08091312
-0.3560919 -0.037134603 0.28212786
-0.12490753 -0.0013198046 -0.11232774
-0.034676157 -0.15361845 -0.038486
-0.05179791 0.03841304 0.02150868
0.045766782 0.095104404 0.027131353
0.10021445 -0.20927219 0.0009699029
-0.19307198 -0.09235966 -0.17715444
-0.020229423 -0.047631953 -0.0010658458
-0.034559734 0.06386009 -0.036937818
-0.25973976 -0.027128333 0.17435507
0.042579494 -0.18952452 -0.024555981
0.15760586 0.065152295 -0.09738116
-0.17472346 -0.0048781564 0.10544399
0.015652478 -0.25453535 0.1448855
0.06020306 -0.34528798 0.0068347794
-0.014216962 0.11844105 -0.16372731
-0.024538971 -0.059532724 -0.009485049
0.118491516 0.077137664 0.012660818
-0.062028784 0.16394699 -0.026187465
0.044898547 0.1495595 -0.026299702
-0.10862149 0.039349675 -0.037922584
0.24200931 0.10255218 0.00069322926
0.0060266433 -0.14220056 -0.05248051
0.09958119 0.054682918 0.049711213
-0.2850311 0.073330425 0.1734135
0.14562815 0.11350767 0.028087959
0.15597695 0.17349026 -0.0032594216
-0.26470196 -0.0315586 0.11868882
-0.08961759 0.012481089 -0.11710776
0.11304406 0.051888004 0.005517026
0.07617125 -0.2479095 0.11507933
0.055043384 -0.039447736 -0.04167279
0.037641924 0.13391444 0.03537328
0.012696535 -0.10505991 0.004653665
0.0106613 -0.34314737 0.08582057
-0.3219097 0.012157899 0.18864252
0.11573265 -0.27258545 0.0006902859
-0.07769562 -0.02465273 -0.16179965
-0.17102216 -0.057894632 -0.20897211
0.05281427 0.17064974 -0.06499601
0.088415734 0.10296404 0.006418794
0.1713167 0.10191129 0.011983361
0.02631424 -0.20212294 -0.01571911
0.14012663 0.19163205 0.048985332
-0.16459545 0.010711677 -0.2006431
0.06847089 0.13272378 0.048831347
-0.37009248 0.015273273 0.21605583
0.03787378 0.19248913 0.04231375
0.19874914 0.011644013 -0.05996198
0.109069034 -0.0203334 -0.038945314
0.042479943 -0.24061471 0.013771283
-0.10355214 -0.11078541 -0.12372107
-0.060027402 -0.0044810446 -0.12623577
-0.12861374 0.020267243 0.0729898
0.027097357 0.12305829 0.0010182176
-0.038142845 -0.14629865 -0.043857522
0.18495868 0.10501817 -0.025593668
0.11344358 0.18749999 0.050431225
0.099162 0.09292804 0.019834315
-0.15396674 0.007727754 0.060395937
-0.077199884 0.05565917 -0.085767776
-0.11330056 -0.06875829 -0.23090369
0.19534789 0.05913563 -0.055402897
-0.098780096 0.0017780643 -0.050204806
-0.008445254 -0.11982229 -0.032993708
0.011908092 -0.35321298 0.04846867
-0.069479205 0.08298785 -0.037355896
0.03163232 -0.24805696 -0.032649234
-0.0015035876 0.021725342 0.009583373
0.08416249 -0.01993908 -0.06639672
-0.39699498 0.028297191 0.19913062
-0.0622947 -0.07942145 -0.107932635
0.13125417 0.08648364 -0.0015685012
-0.033751756 0.054988533 -0.007920297
-0.3082598 0.047527567 0.17531395
0.050301395 -0.30839774 0.0601722
0.16506572 0.14054039 -0.052111898
-0.081500486 -0.013277335 -0.07655072
-0.19986378 0.08738918 0.075184375
0.048925154 0.10973688 0.07042558
-0.16202396 0.042256895 -0.14507763
-0.052345563 -0.008997847 0.040761854
-0.23792806 -0.008786827 0.105488636
-0.058975194 -0.0062527633 -0.071874246
-0.021572193 0.098299645 0.10215566
-0.03103486 0.027497564 -0.00075904204
0.23299974 0.06863616 -0.067944035
-0.028721029 0.065649204 -0.020264044
0.17700487 0.13565527 -0.11197756
0.16736017 0.15313455 -0.18737674
0.17268194 0.029795764 0.030778605
0.051310126 -0.009522888 -0.09609857
0.1160612 0.14361623 0.03192798
0.002318718 0.09347618 0.01676308
-0.10228252 -0.0235133 -0.2705261
0.10088083 0.17980498 -0.017288143
-0.04314425 0.06729769 0.02254695
0.023922587 -0.05994776 -0.06149878
0.13534208 0.17501538 0.04127228
0.11693375 0.12193211 0.0045233727
0.112437285 0.050221685 0.012984811
-0.10211249 -0.024362305 -0.13887696
-0.085127726 0.088912755 -0.0008532637
-0.029278107 -0.15591025 -0.08621955
0.107533395 0.112568684 -0.036465876
-0.14491208 -0.10321368 -0.21706955
0.07411252 -0.21120681 0.061048586
0.057252165 0.11019836 -0.18898681
0.19917822 0.13317089 -0.055972006
0.08028891 0.12213924 0.027173849
0.05648514 0.21689896 -0.021174183
-0.19551302 0.03589516 0.0762263
-0.11534724 0.020843653 -0.17323427
0.04641275 -0.14178486 0.012975462
0.14884214 0.053418152 -0.009072409
-0.33220994 -0.02940276 0.2475108
-0.2070289 0.039773736 0.14336798
0.06226765 -0.25574896 -0.028235555
-0.012342474 -0.10514648 -0.007020902
0.031060085 0.014857713 0.057884168
0.15843469 0.014808463 -0.08966842
-0.02956226 -0.20882832 -0.06248929
-0.20919296 -0.04091549 -0.2700383
0.16517909 -0.012865131 0.021067463
-0.033668816 0.09828131 -0.022333784
0.010230421 -0.21697208 0.0792291
0.0441894 0.041020542 0.06363569
0.04303991 0.13748097 0.029619826
0.13822986 -0.047542393 -0.07588048
0.16988714 0.1066911 -0.018270785
0.20159666 0.08741115 -0.0012746045
0.059391484 0.0648086 0.053620137
-0.105741955 0.057645388 -0.114890546
-0.030486519 -0.181631 -0.03411921
0.037663184 -0.04798668 0.0055187703
0.15122536 0.15705723 -0.004786362
-0.046530314 -0.1773704 -0.014871868
-0.070576206 -0.0036165908 -0.011077286
-0.08268427 0.14585686 0.0016493265
-0.25282255 0.015156026 0.15302435
-0.37068924 0.03601327 0.22517127
0.16582955 0.1684973 -0.056925066
0.1453745 0.1581485 -0.0855719
-0.040628616 0.14090092 -0.01888913
0.06068321 0.1648481 -0.122448295
-0.15793751 -0.12527896 -0.2732222
-0.08477469 0.118232824 -0.07180745
-0.18468352 -0.101907976 -0.23519021
-0.09425928 -0.011222924 -0.11842856
-0.0940009 -0.11171633 -0.19452025
-0.009573378 -0.22613253 -0.04917556
-0.056994542 0.09079823 -0.012125719
-0.05057399 -0.13797031 -0.018491637
-0.004502711 0.062831186 0.023463255
-0.14143434 0.09187814 0.030040868
-0.021534447 -0.04900252 0.003812321
-0.07146586 0.10191972 -0.046573415
0.13340162 -0.05323401 -0.019296104
0.17555507 0.10608592 0.051815018
-0.016746946 -0.21746355 -0.008986374
0.09287659 0.10347931 0.024772441
0.0108400555 0.07645819 0.054188237
0.03262967 -0.062142275 -0.017793952
-0.09765994 0.122484244 -0.07412373
-0.25901732 0.06298686 0.1939068
0.11975479 0.093538046 0.0041401526
0.14243959 0.071952455 -0.021782508
0.09733527 -0.23700444 0.17273499
-0.027880745 0.07383789 -0.034249965
-0.076038584 0.11082558 -0.10029264
0.1962606 0.06691816 0.028644482
0.12879895 -0.020168524 -0.044949345
0.08198523 0.03967072 0.090636946
-0.01678652 0.14106768 -0.06958414
-0.11350749 -0.026943132 -0.22009388
-0.28849575 0.006758672 0.20730068
0.24096645 0.079507016 -0.07428727
0.07856367 0.081051394 0.01592555
0.03216946 0.13096376 0.0066573243
-0.009509401 0.018457927 -0.071369
0.010412098 -0.0309216 -0.0075909216
0.1456017 0.12955864 -0.07403611
-0.13250251 0.08564105 0.06539894
0.122752786 0.013754181 -0.030334983
0.1197758 0.10726184 0.03713925
0.061120495 -0.24310474 -0.0005123614
0.042026754 -0.24730302 0.011904629
0.01851144 -0.33704704 0.039957013
-0.023761436 -0.0017063436 -0.10072711
0.09747544 0.07071729 -0.014308794
0.021509094 0.08091063 0.08353953
0.025549492 -0.016663298 0.03555855
-0.059131768 0.050580684 0.026207475
-0.12731627 -0.025739925 -0.069608815
-0.11308925 -0.08508343 -0.12873317
0.16659045 0.13111664 0.05753925
0.013782395 -0.34389 0.055231947
-0.17071995 0.015069907 -0.16557544
-0.023592861 -0.22243196 -0.007658977
-0.17082988 0.0071810624 0.07765277
-0.10899137 -0.024328386 -0.14425756
0.217267 0.049923427 -0.07562002
0.1258614 0.001639738 0.035579577
0.1044215 0.18398027 -0.0015067178
0.12057571 0.15598549 0.041194662
0.015594626 -0.262868 0.03247995
-0.0099121425 -0.045293603 -0.0377751
-0.30546626 0.07580908 0.19974189
0.12552239 0.05898113 0.0090315435
-0.05551301 -0.11717499 -0.14036676
-0.1711091 -0.16475739 -0.22632875
0.11919862 0.18246253 0.01500688
-0.17283857 -0.059074316 -0.24952172
0.008282121 0.084476374 0.0055605154
-0.33320224 -0.032579128 0.18315014
-0.0132232895 -0.16288833 -0.046199974
-0.29079092 0.019772507 0.22099295
0.035119344 -0.31441307 0.014283048
-0.0215323 -0.026347626 0.023717172
0.08263164 -0.02314421 0.051642664
-0.025628353 0.02114018 -0.0038769287
0.1448828 0.078335315 0.058707684
-0.06605366 0.02074259 -0.030699309
-0.10834704 -0.030680832 -0.08306853
0.20784774 0.16458268 -0.11453638
0.0013530895 0.11906474 -0.048075072
0.08365999 0.119042136 0.049786594
0.042574234 0.15129033 0.053776998
0.03403959 -0.12981446 -0.023742177
0.16378842 0.2369019 -0.08212123
0.042683803 -0.23188321 0.12731491
-0.037674554 0.13929062 0.012869882
0.004478024 -0.078626156 -0.0043862327
-0.043785434 0.050172906 -0.01797709
-0.08325689 0.034457494 -0.064555064
-0.04115023 -0.027565822 0.03580677
-0.028460534 -0.21389839 -0.13302143
0.0005660467 0.12253195 0.012377575
-0.21204133 0.08018538 0.15368359
-0.04728403 0.061961096 -0.032698
0.008424285 -0.18751176 -0.045827392
-0.044196557 0.05282613 0.03367949
0.14874071 0.11499373 -0.06389124
-0.031202937 -0.112633824 -0.051162653
-0.23913947 -0.004861573 0.14594488
0.15480955 0.108849585 -0.031482216
0.028417248 -0.21102373 0.0038779916
0.06502405 -0.2620586 -0.022679815
0.18647034 0.17335291 -0.09901826
-0.011297973 0.09066011 0.011882403
0.18761587 0.14501229 -0.07428448
-0.071242355 -0.06927458 -0.062286172
0.16760212 0.042572115 -0.018865122
-0.35616624 0.03482861 0.19430067
0.013158116 0.11740302 0.0032217565
0.051043153 0.044754148 0.053922445
0.10985971 0.1289791 0.02415815
-0.35205847 0.06904266 0.23178992
0.06770248 -0.3828498 0.05459728
-0.024963137 -0.16815738 -0.07252291
0.081470944 -0.12615024 -0.044268686
-0.04113516 -0.06095395 -0.12602389
-0.038186144 -0.10134177 -0.055982668
0.08095055 -0.35264555 0.14520843
-0.06060295 -0.050418418 -0.09411555
0.012068152 -0.36664978 0.073506586
0.046335183 -0.29112932 0.0066697546
0.23837344 0.08022816 -0.09653943
0.12757988 0.16606943 -0.04051006
-0.09820163 0.08991764 0.08553942
0.047543615 -0.095212765 -0.005919391
-0.115081064 -0.082315676 -0.20889533
0.15687874 0.06937665 0.030049607
0.026218647 0.060207896 0.09841452
0.03241508 0.12199539 0.08094241
-0.029908383 0.042621545 -0.06898681
0.082385294 -0.19460009 0.011920851
-0.0251661 -0.17242359 -0.09987354
-0.05814864 -0.16833855 -0.087911025
0.14647326 0.071820185 0.030548852
-0.14321364 -0.10596271 -0.18674009
0.14277455 0.19548362 -0.10416878
0.09208067 0.029342579 -0.030115368
0.038245074 -0.02933266 0.066248134
-0.070120856 0.07362994 -0.11349293
-0.0029671874 -0.07151821 0.011535105
-0.011418218 0.04670384 -0.06287662
-0.061010294 0.07695068 0.005684138
-0.39629167 0.05661378 0.29445928
-0.19644175 0.00017683078 0.13908772
0.06446991 0.14045672 -0.13967526
-0.39044124 0.037393153 0.2442094
0.08997232 0.15245813 -0.1036904
-0.2018238 0.039465636 0.105833985
-0.0406715 0.02330721 -0.06894704
0.038645986 -0.05207787 0.050138075
0.19624625 0.015469285 -0.037906013
-0.013024691 0.09112407 0.04704872
-0.17873216 0.07435008 0.09277803
0.030477136 -0.036913514 -0.02843653
0.13412262 0.2212202 -0.04108753
0.1479007 0.01632485 -0.043964587
0.030370755 -0.33390376 0.096377715
0.06338876 -0.28550586 0.069229014
-0.0871325 0.15148269 -0.030162292
-0.059353255 0.018030755 -0.102914535
0.18643905 0.17280133 -0.016828373
0.09658772 -0.033150736 0.015729375
0.19549054 0.106997825 -0.058742266
-0.30490747 0.06737019 0.2309461
0.17402545 -0.03679817 -0.071821414
-0.003254156 0.043185327 -0.012927673
-0.41655797 0.031666983 0.28324124
-0.06882479 0.088023685 -0.03954648
-0.046383016 -0.032205056 0.011399228
0.0930649 0.117107265 -0.051457476
-0.18365008 0.069274716 0.14649402
-0.12773968 -0.048482113 -0.15701218
-0.30733657 0.06407404 0.17491758
0.14838219 0.016026469 -0.06498785
-0.33573803 0.0271712 0.22602676
-0.059725016 0.021396594 0.06525067
-0.05508061 0.06380894 0.030449597
0.14027366 0.08990747 -0.025986288
0.15008071 0.099646725 0.0059070173
0.10239197 -0.35936415 0.015202335
-0.11090268 0.043733843 -0.17238127
-0.05269841 0.03130392 -0.13798365
0.038155038 0.043974925 0.057498984
0.16732569 -0.008040304 -0.040189825
0.029936995 0.12981045 0.104057446
0.06980669 -0.018318586 0.0045956224
-0.26915747 0.008020755 0.22162895
-0.31849003 0.002339938 0.1510603
-0.18297476 -0.095309235 -0.27546558
-0.0011992714 -0.11221841 -0.024866728
0.00441116 -0.0122648 -0.059471652
0.16397324 0.21701762 -0.06003319
0.0034143324 -0.10244713 0.07764182
0.1797704 0.18936688 -0.014863077
0.15326065 -0.045464378 -0.029960936
-0.15311807 0.01262237 0.09759624
-0.012056693 -0.36484054 0.10930699
0.039220974 -0.10149382 0.03828077
0.009533386 0.06122591 0.07394393
-0.08397146 -0.018803483 -0.08106963
-0.07011955 0.13762994 -0.035378426
-0.04254283 0.042631406 -7.77485e-05
-0.06239345 0.02498639 0.052189123
0.046563573 0.040977057 0.0745787
-0.053144474 0.046993356 0.0101423105
0.23723267 0.12547773 -0.025994832
-0.048663575 0.1018906 0.007772149
0.13602224 0.14753447 -0.0145056145
0.07714475 0.13766013 0.031279255
0.098627456 0.005411488 0.06558691
-0.06658652 -0.083046004 -0.16496602
-0.04245394 0.042075798 0.0073746084
-0.35909075 0.03851059 0.24492998
0.115337506 0.10552154 0.0005354951
0.009115016 0.11330277 0.039552186
0.21289364 0.091219105 -0.043619286
-0.07625672 0.067810826 0.11461478
-0.099285714 0.011262989 0.098185204
0.16351674 0.040992875 -0.06360836
0.053069573 -0.13403931 -0.014569102
-0.037057567 0.12324552 0.029421445
-0.0031778067 0.15499428 -0.070154406
-0.03302759 -0.08236963 -0.031286303
0.04445566 -0.035597827 -0.021843152
0.12540382 0.12649533 0.010917328
-0.06742966 0.06263323 -0.0726786
-0.17030825 0.011735334 0.08040069
-0.004524305 0.054870877 -0.0036572502
0.09256358 -0.03350942 -0.042594075
-0.0718788 0.020918304 -0.04114664
0.08707814 -0.27749482 0.13088751
0.2017099 0.044939775 0.006514251
0.034176726 -0.2628123 0.059008498
-0.037553746 -0.22938931 0.03441608
-0.12667187 -0.06572373 -0.22987457
0.055033788 -0.2905341 0.018537655
0.109955914 -0.26543826 0.16081591
-0.029793506 -0.050177567 -0.13102928
-0.32645386 0.07154918 0.21232282
-0.060339693 0.14110015 0.012578021
-0.3844911 0.01759317 0.25278267
-0.014349005 0.015628127 0.046062153
-0.025000367 -0.13907032 -0.014988302
0.07768626 -0.3259126 0.1552047
0.04134359 0.22227484 -0.06910025
0.004380759 0.07617928 0.04761598
0.021695869 -0.35585174 0.034751616
-0.09258412 0.02578094 0.08371521
-0.050660525 0.0056001637 0.033603963
0.030074846 0.14764568 0.019744702
0.05167567 -0.25253707 0.18182164
-0.08687436 -0.0023911651 0.022629775
-0.011517464 0.12870291 -0.017139817
0.012903501 0.097769976 0.021779343
0.17930022 0.06693963 -0.03754677
0.042053375 0.15640396 -0.0043364204
-0.032949217 -0.22522083 0.023539526
0.15886985 0.16996714 -0.004245769
-0.2141818 0.02220543 0.1258529
0.12836844 -0.014274964 -0.0055968193
0.010413142 0.15600334 -9.2127215e-05
0.084434815 -0.20498593 0.05700642
0.06523336 -0.29529446 0.043049287
0.08904896 0.1067029 0.018987114
0.03299143 0.06054469 0.07414339
-0.013367194 -0.15040326 -0.05026561
-0.022886572 0.037101135 -0.09252263
-0.17902377 -0.053808328 -0.180866
-0.07967203 -0.053489592 -0.18678889
0.015083916 0.026279971 0.022172023
-0.23266901 0.09256372 0.13445126
-0.03418311 -0.18096745 -0.07961379
-0.03856927 -0.105950885 -0.07479791
0.04685574 0.018135991 0.036282003
0.115119144 -0.011729227 0.009311465
-0.18429948 -0.057427526 -0.19968632
0.010112351 -0.23992975 -0.00031559882
-0.06123625 0.032043863 -0.09753412
0.047508825 0.01123423 -0.00574948
-0.0026159973 -0.19389664 0.017262707
-0.017892456 -0.011430405 -0.06572827
0.07487073 0.12551552 0.040773798
0.006420698 0.07842024 0.021225145
0.06558423 0.12470537 0.008856878
0.04785617 0.113835156 -0.01001316
-0.022214593 0.085409924 0.04986794
-0.42733142 0.053370703 0.2524312
-0.0352414 0.051221084 0.0031911691
0.082967535 0.11247943 0.04238777
0.0058770464 0.18434568 0.018633496
0.0065082936 -0.21060371 -0.036047664
0.20158906 0.06616254 -0.077953026
0.09494752 -0.33290088 0.1398713
0.10741886 0.18620703 0.012177078
0.020649144 0.09257452 0.027995188
-0.0577091 0.08052463 0.06183752
0.16746762 -0.060980953 -0.010771573
0.122416444 0.17481948 -0.021743806
0.032336358 -0.26776233 0.07954642
0.04077388 -0.014296343 0.05401173
0.16775009 0.044788305 -0.07144737
0.038733408 0.07016592 0.03029436
0.07694119 0.11485317 0.035688043
-0.04713641 -0.034372084 0.029324168
-0.046789233 0.013217155 -0.03925066
0.102934524 0.06528356 0.05469807
0.01696278 0.053169828 -0.0070724604
-0.0011692942 -0.06602929 0.027902013
-0.13724977 -0.030096503 -0.093233675
-0.06405183 -0.0024775115 0.0682773
0.19864753 0.074841164 0.004715561
-0.13748866 0.0072362577 -0.0872517
0.08398459 0.18492027 0.029780667
0.15746902 -0.0056755347 -0.08688466
-0.39047217 -0.032022513 0.2383586
