# .PCD v0.7 - Point Cloud Data file format
VERSION 0.7
FIELDS x y z
SIZE 4 4 4
TYPE F F F
COUNT 1 1 1
WIDTH 1000
HEIGHT 1
VIEWPOINT 0 0 0 1 0 0 0
POINTS 1000
DATA ascii
-0.19302295 0.13714743 -0.02618651
-0.06406072 0.09153223 -0.047569837
-0.15244365 -0.1767208 0.1815545
0.3700874 0.23210457 0.30696815
0.18304467 0.17037559 0.058623206
0.0987757 -0.03412227 -0.043641564
0.11809081 0.0889862 -0.10755621
0.3567225 0.18521108 0.32822806
-0.11801033 -0.10168008 0.09193131
0.09800547 0.012938509 -0.052265503
-0.11374994 -0.18810652 0.24573019
0.058696818 0.013334311 -0.021420714
0.048723616 0.05784891 -0.1370318
-0.06386709 -0.11273124 0.14097025
0.07522045 0.033399265 -0.024992697
-0.17231163 -0.15280798 0.21517502
-0.16637902 -0.2167649 0.12436337
-0.07080026 -0.2001961 0.20105359
0.06753635 -0.08746024 -0.234893
-0.06190318 -0.10987271 0.10865655
-0.21791135 -0.23974918 0.1552457
-0.0867658 -0.121302925 0.080364436
-0.15510397 -0.023639606 0.06527314
-0.1804855 -0.1423736 0.15529461
-0.018631604 -0.26633382 0.15339561
0.12390952 0.09874617 -0.01583442
-0.056027655 0.057620108 -0.25941852
-0.18222466 0.12639335 -0.039723247
-0.11408434 -0.031192163 -0.0020963138
0.006558281 0.031912487 -0.017945059
0.10464158 0.06696147 -0.13218446
0.11437292 0.076223776 0.024776546
-0.12357514 -0.15532842 0.04229685
-0.018935297 -0.10764821 -0.009663819
0.11768451 0.028150696 -0.13881806
0.037635323 0.009697682 -0.04599691
-0.16059354 0.13245519 0.018845517
-0.13071287 -0.003869382 0.08803043
-0.028760292 0.007439859 0.019893335
-0.16706969 -0.22898407 0.22039627
0.0069458694 0.1287617 -0.055349167
-0.11448391 0.17485343 0.028488206
-0.101805426 0.21042317 -0.012268165
0.34660104 0.21483277 0.25516573
0.21806677 0.10675493 0.16786797
-0.06830078 -0.27871853 0.25219086
-0.12685889 0.18638235 0.026861897
0.038473643 0.038804453 -0.05717356
-0.1363644 -0.21724775 0.22397685
-0.14254831 -0.1494415 0.18271154
0.037677944 -0.15665992 -0.1674135
-0.13413942 -0.14507025 0.12892659
0.104544446 0.06067378 -0.0047879643
0.1555778 -0.070179865 -0.08062104
-0.047490463 0.11482089 -0.07002119
-0.068730004 0.012209736 -0.10325657
-0.041105807 -0.10667201 0.061968915
0.11007684 0.0988546 -0.112644404
-0.045204196 -0.111516446 -0.11739098
0.1543477 -0.11842149 -0.24653749
-0.031208422 0.0775556 -0.042973667
-0.13774315 -0.06407346 -0.26077056
-0.10019457 0.093036264 -0.029873496
-0.03894699 -0.08592004 -0.012705968
-0.10540825 0.13890567 -0.08285897
-0.016054302 0.10073157 -0.10346267
-0.07825332 0.17669985 -0.078328565
0.121182926 0.073708534 -0.15050194
0.3386637 0.2384674 0.30547854
0.15028958 0.13308373 0.07815538
-0.08588028 -0.18838356 0.11177801
-0.0319507 -0.123532586 0.024969498
-0.030814687 -0.02043536 -0.18047538
0.09982188 -0.032396127 -0.03074969
0.084438026 -0.09698501 -0.079812415
-0.070216894 -0.13648129 0.058888312
-0.1854396 -0.12515292 0.11899104
0.28976598 0.1874561 0.27263713
-0.038996734 -0.14433719 0.1371
0.14598131 -0.05106062 -0.27793896
-0.0351717 -0.09946717 0.050428614
-0.16535802 -0.25206137 0.22037406
0.023892976 -0.12300025 -0.07012767
0.09970519 -0.021156173 -0.1313974
-0.08013926 0.005608742 -0.048281763
0.20349103 0.0063851806 -0.1231702
0.35053957 0.1713471 0.2688159
0.2296341 0.10542746 0.1084085
0.044054992 -0.04021471 -0.066218026
-0.04580501 -0.2526014 0.23725316
-0.07766912 -0.072816305 0.05151834
-0.105775915 -0.16943324 0.073914334
0.09153312 -0.08206703 -0.22978616
-0.14010528 0.022473833 -0.2131917
-0.12390293 0.17395437 0.03994967
0.021086395 -0.12980357 -0.19247611
-0.14012118 -0.16184673 0.18871468
-0.043290757 -0.098764434 0.019717546
-0.07089207 -0.106723115 0.10446065
-0.022539686 -0.068590775 0.055411812
0.34641618 0.27573907 0.30311826
-0.10169952 0.21966732 -0.01148065
0.12417218 -0.063686274 -0.26045394
0.09072551 -0.102228366 -0.21798986
-0.0770446 -0.03911657 0.041367803
0.013231209 0.01883692 -0.01474652
0.049907718 -0.015730549 -0.023189466
0.1330902 0.10788912 -0.17913467
0.061661165 -0.009807893 -0.061385613
-0.13733836 0.22168496 -0.07272615
0.11775756 0.02229136 -0.059829652
-0.11039312 -0.020178646 -0.11075407
0.18417105 0.030289393 0.045343854
0.23016843 0.11892324 0.21673828
0.025036179 0.06127287 0.007129647
0.045975126 -0.009039431 -0.058309
0.010191019 0.028467968 -0.0033317385
-0.030910246 -0.1458436 -0.1935681
-0.24978302 0.18010192 0.024046289
0.22162488 0.11267424 0.10921405
0.26751685 0.19202526 0.26481614
-0.0031905994 0.012156259 -0.059018403
0.009076579 0.091890946 -0.06649464
0.107304685 -0.09162411 -0.16925547
-0.10350443 -0.18378468 0.18952896
-0.026248476 0.1226185 -0.01311348
0.124341324 0.0060540847 -0.06535877
0.06373906 0.0021848483 -0.070288695
-0.010396404 0.007173555 0.004851815
0.041643206 0.036336772 -0.031024829
0.019367598 0.11423975 -0.0584349
-0.082417786 0.016483191 -0.01964167
-0.13320437 -0.06355965 -0.13936616
-0.10776781 -0.111758865 0.10708838
-0.068589106 -0.046724495 -0.17256074
-0.07212702 -0.060854163 -0.08293128
-0.04506733 -0.12773663 0.06635102
-0.061436053 0.15180124 -0.036824413
-0.1604645 0.24908233 -0.06940671
-0.05301759 -0.08898331 -0.22415666
-0.06423754 -0.092116304 -0.21100678
-0.1437685 0.16871245 -0.05051646
0.09136027 -0.11146299 -0.15557021
-0.074324094 0.12550935 -0.0030921123
0.019099474 0.08270099 -0.28903723
-0.040873658 -0.0044541536 0.006252331
-0.008416211 -0.092375614 -0.10804061
-0.15782624 -0.19736367 0.1481618
0.031068038 -0.17702109 -0.14365548
-0.21577956 0.18774183 0.02564952
0.0060401154 -0.016186021 0.008479567
-0.04717437 -0.2514383 0.23900889
0.057125203 -0.014901858 -0.020555891
-0.12987773 -0.059060793 0.05920877
0.071258985 -0.02781014 -0.088120885
-0.053684864 -0.019161036 0.091699645
0.008808561 -0.03851214 -0.10258739
0.14987 0.038804762 0.032121424
0.03058578 -0.11384109 -0.057534877
-0.09995791 -0.06237109 0.14357844
0.054924533 -0.047299225 -0.0038432833
0.03261853 -0.028801661 0.02871922
-0.1456723 -0.08471333 0.09212544
-0.08050899 -0.23346744 0.20227662
-0.06154379 0.12992232 -0.040595643
-0.101226404 -0.16907437 0.22305045
-0.02991496 -0.066555075 0.030533189
-0.074968435 0.019703422 0.063621186
0.051661436 -0.08889038 -0.09726843
0.17001744 -0.00078977377 -0.12008514
-0.015281255 0.00036409506 0.031646542
-0.010374371 -0.20203249 -0.20990837
-0.0074606305 -0.19067279 -0.20681606
0.1166654 -0.077191345 -0.11805998
-0.06068689 -0.07184013 0.048055798
-0.037720572 0.17769735 -0.11470014
-0.104945526 0.09562703 -0.035672728
0.33524856 0.18505347 0.32668424
0.035365786 -0.13226707 -0.24681331
-0.13570648 -0.15847005 0.22184245
-0.0075384495 -0.123873815 -0.15448879
-0.07970338 -0.21811238 0.24010022
0.044463802 0.033888176 -0.1225151
-0.08166975 -0.15213351 0.10336615
0.2711291 0.19847022 0.19783942
-0.026906714 0.03883511 -0.2117729
-0.010607789 -0.12423981 -0.1419477
-0.09412644 -0.062861875 0.095704444
-0.04276668 0.018815039 -0.018427072
-0.05209866 0.0005465455 -0.02484058
0.045886893 -0.0021640037 -0.058327604
-0.12603359 -0.09083882 0.047375407
-0.015161792 -0.21631823 0.16722271
0.010719263 0.08040013 -0.100133836
-0.15270728 -0.15944645 0.14617568
0.27896598 0.15750818 0.24125405
-0.19003564 0.17305906 0.029573059
0.085179575 0.032890286 -0.057407435
-0.14394166 -0.103958584 0.13663422
-0.23858519 0.1915171 -0.05469851
-0.08205013 -0.044203836 0.06228637
-0.13774814 -0.15266295 0.09257049
-0.0073670596 -0.13456017 0.08872795
0.32540232 0.27333224 0.36957482
0.2022604 0.11812868 0.04196392
0.062430337 -0.15100008 -0.08322726
0.0010973287 -0.2076505 0.16501802
-0.11594826 0.12596677 -0.06727735
-0.1869822 -0.04617182 0.044236682
0.22152285 0.14236692 0.16053478
0.06833545 0.11881832 -0.08192343
-0.12490422 -0.1793496 0.10143115
0.2030741 0.13324322 0.1302816
0.1680159 0.079703145 -0.05538324
0.08225765 0.06647765 -0.041673414
-0.0897965 -0.26200503 0.22548372
-0.050475806 -0.22080864 0.13059133
0.12588014 0.08094802 -0.15451702
0.036289584 0.079140946 -0.114712186
0.2002903 0.027736846 -0.12943518
0.051524222 0.04984235 -0.234851
-0.04919921 0.038817413 -0.07688809
-0.18942186 -0.12209483 0.09184499
-0.13144888 -0.0024284618 0.09377658
-0.13811482 -0.15235993 0.23959889
0.20108666 0.1349119 0.15085477
-0.089383826 -0.11240652 0.083166935
0.18888395 0.0848933 0.061219998
0.1862688 0.095624626 0.059370957
0.10093146 0.12271906 -0.08499035
-0.22802767 0.21273765 0.049384166
-0.041201483 -0.15728976 0.12105226
0.3338498 0.23120354 0.2434537
0.29269886 0.20282225 0.24371801
-0.038189277 -0.11119974 -0.15288353
0.02540315 -0.025081009 -0.08692516
-0.02302414 -0.045746315 -0.13753146
0.119906574 0.08790855 -0.11170765
0.12309095 0.026557146 -0.05175603
-0.12518223 -0.050411798 0.07962829
-0.027966328 0.0083957175 0.016588714
-0.067473456 -0.111003146 0.06744019
-0.04428078 0.0184405 -0.03274406
0.048036486 0.098606355 -0.08690874
-0.08390756 -0.0030942368 -0.09955986
0.10473912 -0.06868574 -0.20215741
0.0028466692 -0.09480356 -0.122331075
0.0269291 -0.06466767 -0.12829743
-0.18018462 -0.16161689 0.19761384
0.04975071 0.089123435 -0.22347336
0.11317338 0.06407898 -0.07713501
-0.108915955 -0.081106715 0.1105661
0.09525618 -0.03349421 -0.035407063
-0.19363807 -0.19591506 0.19580714
-0.17788444 0.16172874 0.032610998
0.011474077 -0.10413577 -0.06824369
-0.13824491 -0.018749531 0.009716548
0.050521247 -0.10603937 -0.07236434
0.00013491619 0.06651652 -0.039941527
0.10171969 0.08251607 -0.18690647
-0.0038247549 -0.13786563 -0.23291096
0.09805371 -0.13353023 -0.13670868
0.06255704 -0.020433206 -0.014361368
-0.06457859 -0.21730147 0.22415493
-0.0095021175 -0.04944571 0.025714714
-0.17875805 -0.21419546 0.19435854
-0.017271906 0.11202625 -0.050005987
0.32052886 0.23808801 0.29763383
-0.049416043 -0.06266542 -0.08600031
0.092022024 0.11186729 -0.058168862
0.22990401 0.10385133 0.07176352
0.12921084 0.06556314 -0.06701914
0.019865954 0.10949376 -0.05741352
0.039280135 -0.11814587 -0.015183553
-0.08370707 -0.119686946 -0.22509685
-0.12686788 -0.0675726 0.048663225
-0.07102789 0.12922886 0.023893766
0.0034792165 0.10867158 -0.104884595
-0.08184001 -0.15491614 0.094051
-0.12834623 -0.25859118 0.24648266
-0.059342444 0.011869716 0.044917546
-0.13750729 0.1733822 0.024517091
-0.11164833 -0.17398943 0.17317797
0.13228999 0.11442244 -0.13508466
-0.04715207 0.020493466 0.015571894
0.13455659 0.060866464 -0.084683865
0.032061353 -0.07839928 -0.047981143
-0.026063409 0.18123567 -0.06728332
-0.0025250823 -0.0024958488 0.0028935538
0.045969542 -0.10564888 -0.0036522662
0.030366492 -0.017774416 -0.08459771
-0.14511639 -0.19440356 0.17359324
0.18497543 0.12713473 -0.038536295
-0.02336609 -0.17090064 -0.24188124
0.07162199 -0.012803273 -0.034136973
-0.037173416 -0.016490817 0.02349784
-0.08854089 -0.08611526 -0.12950131
0.085026875 -0.018946914 -0.25138104
0.052845098 0.14918369 -0.115759745
0.061079383 -0.12858084 -0.13821357
-0.17313746 0.17854123 -0.04492731
-0.10330795 -0.05313148 0.05806155
0.04566138 -0.13625558 -0.15893787
-0.1424107 -0.12613809 0.12468547
-0.03600589 0.07780976 -0.07937567
-0.035313528 0.16444035 -0.05113786
0.092153065 -0.00024141552 -0.1372716
-0.20852084 -0.1972003 0.14419137
-0.14763762 -0.25074628 0.25619283
-0.13666192 -0.20784907 0.12614383
0.12651797 0.08484975 -0.14048904
-0.00091871875 -0.023799794 0.0026631868
0.058285363 -0.012977792 -0.022914773
-0.15056634 0.1124459 0.0024742463
0.30655986 0.19913067 0.24537031
-0.041868802 0.050509628 -0.032154266
0.017930752 0.13041604 -0.045485117
-0.08960229 0.15395693 -0.080560155
0.39112467 0.19514336 0.30469742
-0.09407474 -0.17906764 0.23628832
-0.09261245 0.011933205 -0.12593453
0.14440054 -0.06550822 -0.10947057
-0.052688643 0.09603896 -0.0620805
-0.011755815 -0.07272364 0.045072712
-0.021018278 -0.009762087 -0.024883317
0.11185897 0.08925688 -0.14078133
0.058382314 0.1158395 -0.06419715
0.12556385 0.05646404 -0.0057049682
-0.16747312 -0.02679055 0.112137064
-0.13823815 -0.12598239 -0.21259195
0.111185186 -0.10377203 -0.20645241
-0.091454916 -0.07488878 0.086096376
0.13323171 0.034391545 -0.074167006
-0.004318431 -0.046162516 -0.12023253
0.12792495 0.04734234 -0.1135548
0.09510919 0.025314122 -0.06366596
-0.073201075 0.16368358 -0.019789668
-0.08912456 -0.22565775 0.17576252
0.062305633 -0.11176147 -0.096712336
-0.008168617 0.14399393 -0.23388779
-0.0845922 -0.1943489 0.18926343
-0.0545929 0.0059647975 0.0016762653
0.060241554 -0.0561844 -0.028743211
-0.014003477 -0.012039553 -0.051186793
0.0051767607 -0.076097645 -0.027756236
0.0075082458 0.017840851 -0.06842328
-0.06894062 -0.07805531 0.11608701
-0.0129640205 -0.24141774 0.22768004
-0.0050118407 0.09281048 -0.06197495
-0.07712857 0.1459331 -0.05623688
0.1582873 0.100592874 -0.1788734
-0.17845331 -0.053836703 0.14283624
-0.023599908 -0.024939902 -0.011479983
0.11833196 0.0021128498 -0.08815492
0.07257872 0.07965401 -0.04173358
-0.07145356 -0.05103073 0.11508261
-0.03682498 -0.052613802 -0.014138379
-0.1883437 0.19362377 -0.024148703
0.020721419 -0.049214877 0.030428043
-0.016233884 -0.12270656 -0.18018052
-0.08319033 -0.20543627 0.25727296
-0.1294499 0.01903244 0.08008403
-0.06105293 0.18024403 -0.03588793
0.022557689 0.111773394 -0.08053977
0.02064462 0.046520326 -0.04526355
0.25551718 0.17824343 0.24326093
-0.15297891 -0.20497285 0.22018766
0.096668266 0.0823019 -0.11662213
0.03347974 -0.08378247 -0.0063536437
-0.034408286 -0.13990092 -0.1661256
0.06280508 0.15336926 -0.14002465
0.19909987 0.12350123 0.1381611
0.19850673 0.065958016 0.11837178
-0.1191695 -0.18056388 0.2168666
0.05853886 0.08563153 -0.10136299
-0.09007304 -0.21659441 0.28204882
-0.16608144 0.1591502 0.034470487
-0.03804425 -0.05277463 -0.1308235
-0.16856697 0.22183043 -0.009529795
0.06612778 -0.0045645004 -0.048244357
-0.13583812 0.035552334 -0.2882249
-0.14215477 -0.26413265 0.18502739
0.0667442 0.05231217 -0.087754436
-0.059477877 0.1259562 -0.09582295
0.0072763725 -0.23326196 0.20355435
0.10597654 -0.028114172 -0.06511551
-0.0063005933 0.09614532 -0.043786723
0.074498795 -0.11366427 -0.11118329
-0.07584261 -0.021710955 0.06978544
-0.16294312 -0.12259031 0.13622268
0.28507003 0.19696644 0.21556087
-0.15879719 0.1565375 -0.026154546
0.0074275956 0.08927086 -0.08056777
0.28799358 0.16714631 0.27515817
-0.029719708 0.04577166 -0.046882246
-0.044010572 -0.12396313 0.021012746
-0.107164845 -0.2144038 0.11825859
0.04633209 0.12178651 -0.31272948
0.1311921 -0.02188964 -0.04367219
0.14348848 0.09461029 0.041803233
-0.10679292 -0.0061082207 0.00532515
-0.010177781 0.107558265 -0.22821844
-0.039390024 -0.23930319 0.20374656
-0.080629915 -0.11055351 -0.116340704
0.018800916 -0.06567141 -0.016219499
0.1553375 0.12101071 -0.19709374
0.015339374 -0.16765973 -0.23796864
-0.009324516 -0.029291686 0.02958084
0.028085764 -0.0011135769 -0.044478517
-0.05505606 0.17276797 -0.035519425
-0.027032329 0.07520459 -0.04096872
0.10855523 -0.040497165 -0.07953948
-0.025005536 0.124863416 -0.013040708
0.061912183 -0.16839463 -0.1943527
-0.007935637 0.015578346 -0.065404706
0.09912342 0.04126197 -0.08390323
-0.055516064 -0.13341653 0.100324176
0.26287025 0.2093116 0.25088024
0.32578498 0.21350451 0.26338232
0.3122404 0.17530954 0.32743108
-0.18895361 -0.14076717 0.18496077
0.23383999 0.14665315 0.23471743
-0.12724544 -0.18504791 0.1282193
0.044038985 -0.02243219 -0.02768551
-0.09796473 -0.14125103 0.055316072
0.037916403 0.024721494 -0.092111714
0.046221703 0.010074109 -0.038159743
-0.06270317 -0.04445635 -0.04534051
0.13112384 0.14983366 0.10381734
0.068839036 -0.098531984 -0.23772942
-0.15169391 -0.002780003 0.07124492
-0.14608261 0.19031079 -0.04053279
0.21200426 0.11601327 0.14248884
0.13109265 0.07234713 -0.27005222
-0.13515046 -0.14760487 0.1257133
-0.10522113 0.029722236 -0.0050863996
-0.13106795 -0.049419634 -0.2763811
-0.06358568 -0.21965447 0.2265674
-0.13216913 0.18060677 0.00089622196
0.12313954 -0.0064991806 -0.093910955
0.0071803285 -0.08664404 -0.058561068
-0.08115285 0.14237234 -0.04366136
-0.06819454 -0.12464637 -0.10445122
0.06951026 0.056630056 -0.057972934
-0.029601362 0.08352083 -0.047119644
-0.021214595 0.17322807 -0.032494307
0.1752489 0.09021889 0.09809003
0.13311857 0.0068201893 -0.10415657
0.016055489 0.14098413 -0.13852328
0.009820582 -0.13470124 -0.13382734
-0.16516161 0.17594308 0.015984144
-0.027124263 -0.21617979 0.24846578
-0.08594327 0.021975584 0.050588556
-0.12841634 -0.016269429 0.015010726
-0.1653927 -0.182124 0.10794093
-0.049311556 -0.24416366 0.15612985
-0.07369368 0.07696873 -0.0016872084
0.059089217 -0.1741757 -0.31039932
-0.056028765 -0.1564578 0.120440125
0.04195919 -0.061737157 -0.02808092
-0.025667317 -0.038506933 -0.0024896604
-0.046987362 -0.0011913382 0.043444924
-0.11140226 0.21054073 -0.075608894
0.08959755 -0.113106884 -0.1058599
0.05782063 -0.018644905 -0.034000933
0.21344766 0.12992725 0.25951013
0.30854192 0.2182768 0.37613827
-0.18861945 -0.25225848 0.1936584
-0.15681368 -0.09688064 0.13548717
0.039077427 0.057171945 -0.06687665
0.014409192 -0.01992429 -0.04122723
0.11103961 -0.09159924 -0.15254524
0.06483417 0.10185147 -0.15316834
0.07836963 0.09109302 -0.0851214
-0.08235134 0.22485329 -0.08102971
0.019481057 0.073728666 -0.024874123
0.13745068 0.15259032 0.05044724
0.08013194 0.06488627 -0.07823764
0.07458431 0.065868706 -0.08009567
0.1648372 -0.08377916 -0.2695642
-0.12856531 -0.11488391 0.12487061
0.23293506 0.1381935 0.1586276
-0.146607 -0.15642177 0.1321731
0.13116196 -0.026258156 -0.13845298
-0.1802681 -0.17338562 0.21240255
-0.116976306 0.09457362 -0.011087189
-0.16423361 -0.16317281 0.105852485
-0.09056308 0.018130986 0.022576474
-0.116553016 0.229269 -0.07229522
0.05570298 -0.013801018 -0.10099288
-0.14329897 -0.22441915 0.18031494
-0.12316717 0.0020275086 0.028267272
-0.1520832 0.17357492 -0.02722492
-0.117571935 -0.030754944 -0.17483594
-0.19430846 0.17577974 -0.000748759
-0.11939484 -0.05975487 0.0984369
-0.03800961 0.11246957 -0.027577924
0.17884493 -0.020725988 -0.05771812
0.14665876 0.14347269 0.07334014
0.1487017 0.09460639 0.0076596
0.2073181 0.14880204 0.16934392
0.12258716 -0.07366108 -0.2327758
0.074224025 -0.03264289 -0.051916324
0.00896243 0.06776183 -0.09709388
0.026128719 0.062311094 -0.045733698
0.14781763 -0.0001263611 -0.10051243
-0.16636312 -0.17550531 0.18089104
-0.034175582 -0.1383191 -0.099620804
-0.016416669 0.03637105 -0.0013938223
-0.06759749 -0.26899794 0.22467825
-0.09698503 0.14526193 -0.0664416
-0.16938524 0.123106316 0.002847713
0.22554183 0.18890892 0.18721916
0.0682161 0.040668383 -0.025990574
-0.24135034 0.19970745 0.048845924
-0.054489482 -0.16401544 0.1584101
0.13537027 0.051977508 -0.24724987
0.18255064 0.0687617 -0.014252399
-0.022512656 -0.060847748 -0.07643732
-0.121077314 0.2132058 0.0020629957
-0.11774597 0.17552406 0.025704255
-0.018863734 -0.0069011254 -0.013886457
-0.033042923 0.013025383 -0.13105865
-0.108665295 0.000865024 0.057978448
-0.033669427 0.031984616 -0.1537926
0.14701185 0.09822275 0.104054235
-0.09271596 -0.20932458 0.22013521
-0.041412696 -0.12759507 0.060982022
0.21383543 0.12570153 0.13065393
-0.062369585 -0.07764987 0.065546826
-0.13911968 -0.08534466 0.06648716
-0.035463072 0.091937415 -0.05808629
-0.06793347 -0.19203416 0.12845756
0.30974373 0.24155712 0.2559103
0.0672816 -0.11331431 -0.092912436
-0.20583655 -0.10938578 0.12339574
-0.19205339 -0.21756208 0.26449385
-0.076369576 -0.023457866 -0.14516626
-0.16058493 -0.048246622 0.10701964
-0.07867054 0.19078772 -0.111329734
-0.22105834 0.17553902 0.014897729
0.31632122 0.24893512 0.3082467
-0.017218161 -0.020901836 0.020478705
-0.0153683415 0.15796688 -0.085319325
-0.099997446 -0.09163849 0.1578317
0.108680435 -0.10977373 -0.09174616
0.30917928 0.21396397 0.3488328
-0.11024935 -0.046790432 -0.16558641
0.17828916 0.0050137937 -0.07726441
0.17693575 -0.0018249974 -0.0627484
0.10684613 -0.12732078 -0.25339377
-0.07767001 0.06254034 -0.2572858
0.33267656 0.265463 0.37358484
-0.069518 0.091344155 -0.023117669
-0.101076595 0.019743023 0.07689785
-0.077589825 0.022288295 -0.056900702
-0.015305507 0.05171692 -0.0096035
-0.092010595 0.04327694 -0.25245085
-0.039602485 -0.13529876 0.05531786
0.047957044 -0.1053289 -0.03951223
-0.10206264 -0.07547188 0.10668285
0.087085865 0.023814911 -0.08118693
-0.21559393 0.18654643 -0.024530545
-0.061959706 -0.03839748 0.014200526
-0.13287045 -0.008868742 0.00683145
-0.14612707 -0.23800912 0.21016103
0.0021075371 0.08122944 -0.09175392
-0.09199902 0.028212992 -0.1705145
-0.04785431 0.04256331 -0.056883328
-0.12944481 -0.19201444 0.1893793
-0.112335816 0.22665282 0.023125019
0.023538463 -0.034297455 -0.09789516
0.27049345 0.22049794 0.2869972
-0.23060781 0.133355 -0.017187353
0.061906 0.0037286847 -0.094082795
-0.056889653 -0.15115486 0.093137406
0.29081258 0.26314467 0.28027144
-0.13039392 -0.12433006 0.05456314
-0.1929007 0.21454993 0.014976079
0.17934753 0.02731091 -0.18471305
-0.044115975 -0.0396199 -0.024958387
-0.19832134 0.15538208 0.020366864
-0.13107471 -0.20962028 0.12622516
0.17631233 0.058825597 -0.17686492
-0.06568817 0.059660457 -0.103291936
-0.105683155 -0.21815957 0.21916464
0.14371535 0.035875347 -0.13060077
-0.038309388 -0.06315455 -0.17296848
-0.14301261 -0.20198335 0.11388075
-0.10372933 0.22702499 -0.08818268
0.23621869 0.17313871 0.23706262
0.1755516 0.06590424 -0.15366381
0.03328106 -0.1272175 -0.09641188
0.009966381 -0.051811453 -0.14669783
0.014931767 -0.0022453412 -0.0673036
-0.005073013 0.0591628 -0.048179414
0.0067112967 0.0073382664 -0.031311847
-0.1271594 0.15847841 -0.046808343
-0.0453354 -0.1880366 0.2522834
-0.0038892752 0.023828836 0.049224883
-0.115692586 -0.0042143455 0.00059091405
-0.16203834 -0.25681773 0.1899593
0.0048849317 0.02103513 -0.056844823
0.048558556 -0.031232078 -0.05856622
-0.058930855 -0.00395349 0.061071776
0.046698205 -0.12354096 -0.17494246
-0.11702272 -0.058485173 -0.17653282
-0.120024934 -0.025398377 0.056346644
-0.14511967 0.108680755 -0.042201813
-0.12224145 -0.18216093 0.21392371
-0.05666689 -0.26875374 0.22225504
-0.036754828 -0.060076267 0.00747103
-0.14309774 -0.030979484 -0.2604283
-0.13929264 0.05242775 -0.24348614
-0.009385352 0.12834738 -0.041041635
-0.034096237 -0.07664085 -0.17203549
-0.17365792 0.19943205 -0.0058429586
-0.18770543 -0.092227474 0.11912156
0.37386343 0.22680944 0.2925261
-0.04876111 -0.15865414 0.03989114
0.035360824 -0.09394174 0.013296824
-0.08169789 -0.14234702 0.062497407
-0.0795332 0.067627095 -0.03445059
0.030251542 0.098358996 -0.104218744
0.11407679 0.009643801 -0.07216568
-0.06765361 -0.029165413 0.008573243
0.17200868 0.007299368 -0.16075328
-0.11430526 -0.019268988 0.07543719
-0.14219853 -0.18718116 0.15165928
-0.14462534 -0.22503465 0.1286112
0.31316096 0.24085575 0.32934752
-0.02990339 0.13881932 -0.06671482
-0.10273868 0.061974864 -0.072605334
0.021501128 -0.02521716 -0.031508397
-0.0087404745 -0.016591333 -0.027735194
-0.011995834 0.119843 -0.09608559
-0.05616426 0.072983995 -0.059872724
-0.105935685 -0.25839806 0.2223857
-0.02871358 0.12555721 -0.06275215
-0.11609496 0.047240876 -0.23366852
-0.057147417 0.19741301 -0.1035666
-0.13959451 -0.10917258 0.06569221
0.14388803 -0.0969376 -0.13730398
-0.019791706 -0.121762395 -0.012947194
0.17308569 0.0069628144 -0.09111692
0.075227104 0.019033452 -0.122915566
0.046879824 0.10434252 -0.11048782
0.13780381 -0.086033694 -0.0953086
-0.124336 -0.24186341 0.22545595
0.1743215 -0.007872631 -0.061235495
0.042799056 0.16253953 -0.10742963
-0.22743064 0.1676553 0.015767753
-0.0065178825 -0.05486333 -0.11909169
-0.18402782 -0.1935404 0.15168303
-0.048604317 -0.11283453 -0.16436103
-0.015612086 -0.2219674 0.2144024
0.021311663 -0.05739222 0.0014522545
-0.068722144 -0.11946332 0.0606098
0.34661242 0.19621629 0.32909277
-0.0038005752 0.09639932 -0.11918203
-0.058842678 -0.059692852 0.062905945
0.04868941 0.12789945 -0.29905465
-0.031234797 0.10073993 -0.08970073
-0.05736665 -0.035520718 -0.03653543
0.07164286 -0.13622975 -0.19731447
0.04421764 -0.030117575 -0.053007066
-0.028948838 -0.25345683 0.2679105
-0.006025702 0.008950179 0.018322492
-0.15995423 0.18800123 0.03402274
0.01739976 -0.040897712 -0.013067036
-0.16388652 0.22529994 0.037749786
0.036305077 -0.09632626 0.025620732
-0.13248642 0.13167365 -0.053534925
-0.05883528 0.18781148 -0.08015957
0.28786767 0.2221448 0.20079117
-0.06605885 -0.041088916 0.03452876
-0.010522696 0.028554095 0.035225876
0.029126192 -0.0383887 0.028542018
-0.11266198 -0.017415993 0.062745266
0.05142135 -0.15512805 -0.14935166
-0.06164497 0.083828755 -0.027960092
-0.053599536 -0.21035296 0.19801614
0.18968856 0.18035176 0.13047144
0.03873987 0.18082556 -0.0901355
-0.0010248697 -0.050606113 0.028829245
-0.080538444 -0.07863108 0.030323628
-0.04933464 0.039203193 -0.11097875
0.23178683 0.18576527 0.2687786
-0.12321783 -0.04835812 0.109409966
0.07836456 -0.16365048 -0.12605543
-0.07655489 -0.26259547 0.18272296
0.08770182 -0.03520895 -0.09911513
-0.087888956 0.18728188 -0.033648383
-0.12856594 0.17282432 -0.0678107
0.020940874 -0.102367036 0.011406929
-0.12669136 0.19737084 -0.082652636
-0.12761162 -0.02257772 0.038085155
-0.04513307 0.02048473 0.034086242
-0.12351951 -0.06491065 0.040431403
-0.0701578 -0.20321634 0.1719957
0.0011536198 0.05261188 -0.018750241
0.007947428 0.10745999 -0.02186446
0.30583498 0.20318581 0.28458372
0.13564031 0.059758496 -0.06782939
-0.07523811 0.028069258 -0.17272021
-0.07451446 0.02946595 -0.27825612
0.011259629 -0.17616872 -0.15670292
0.018800646 0.08214075 -0.11046444
-0.061317537 0.06379853 0.037929397
0.11092253 0.084280364 -0.11697738
0.11812993 0.06769972 -0.0047542057
0.10384298 -0.14238027 -0.1877233
0.09311334 -0.0924659 -0.17812593
0.038057588 -0.11277375 -0.26213473
-0.082809806 0.012567489 0.0071044085
0.060634173 0.0023004583 -0.07074263
-0.014336632 0.1572994 -0.12828936
0.12487648 -0.0738875 -0.19204871
-0.06250291 0.1110359 0.0021916332
0.13022386 -0.07269781 -0.24248372
0.3858105 0.26033178 0.29948118
-0.13479562 -0.16312972 0.10111446
0.27333033 0.16453707 0.2587006
0.05568988 0.05408032 -0.11944396
-0.06368637 0.13277394 -0.0767165
-0.12941876 -0.06259545 0.097868346
-0.06633874 0.10984624 -0.013892325
0.057797585 0.053836443 -0.08534921
0.0049905456 0.02865871 -0.03322108
-0.13118108 -0.091008514 0.1157172
0.0043816334 0.03792643 -0.0667656
-0.014749645 -0.16750307 -0.24448723
-0.039188657 0.13896057 -0.006022522
0.14409457 -0.024404434 -0.12208953
-0.09301869 0.005834116 0.057030503
-0.026160466 -0.22488104 0.20379
0.14556192 0.04582815 -0.068936266
0.30741876 0.19374922 0.27217698
-0.14274655 -0.18778212 0.17810524
0.16107033 0.16418785 0.14381863
-0.04712242 0.051360045 0.01632739
0.09062396 -0.06754872 -0.10926057
-0.06469093 0.18141617 -0.071477756
-0.07168597 -0.12854129 -0.18684734
-0.13739263 0.1062505 -0.009818902
0.05261234 -0.12868014 -0.10804901
0.06874085 -0.09629525 -0.16450317
-0.0652998 0.092787564 -0.23350899
0.028614653 0.025549965 -0.09208198
-0.090459585 0.045126054 -0.22471036
0.013717415 -0.12945923 -0.11774793
0.14085506 -0.05499854 -0.10996601
-0.14575334 0.17674953 -0.07613834
-0.0814765 -0.20520756 0.1736815
0.35893872 0.2110845 0.31422836
-0.047445856 0.17052785 -0.078357965
-0.16943882 -0.18178192 0.117790446
-0.10603201 -0.0062556937 0.034147386
0.03354949 -0.036986098 -0.07519799
0.13014619 -0.039968185 -0.1115326
0.094519205 0.07531059 -0.082723975
-0.066939905 0.02817919 -0.1706508
-0.018804967 -0.09374447 0.005267763
-0.13894665 0.16052033 -0.01030742
-0.006969965 -0.16556591 -0.2411082
-0.08291864 -0.09774972 -0.24987209
-0.04764016 -0.0051214877 -0.12011336
-0.079873666 -0.14200504 0.10129691
0.07270631 -0.07949001 -0.2531065
-0.13423759 -0.23692234 0.23062123
0.20665172 0.16017103 0.15172303
-0.009480372 -0.0039282865 0.012187427
0.092376456 0.1110871 -0.09379957
0.02040277 0.08343062 -0.064325176
-0.07605272 0.19878742 -0.06767877
-0.025064653 -0.15597391 -0.21429612
0.049236838 0.012193303 -0.060593728
-0.14529318 -0.1573239 0.09581618
-0.15279955 0.18445751 0.017744068
-0.17151637 -0.10505288 0.098114215
-0.002463915 0.18242452 -0.08122717
-0.07819032 -0.082594566 -0.2480651
0.09113037 -0.003786595 -0.069731645
-0.15933111 -0.010025736 -0.27371836
0.068349645 0.11580242 -0.082015134
0.16334285 0.034557965 -0.022694867
-0.15666604 0.22467123 0.019105274
0.09596751 0.112975344 -0.10218499
-0.13304913 0.10451412 0.036510654
0.12337554 0.11604254 -0.16778232
-0.08034306 -0.04056321 0.0555281
0.27754265 0.1541349 0.2719383
-0.052146234 -0.15086515 0.12190165
-0.12339495 0.19679707 -0.060215913
-0.14156145 -0.17270513 0.19680764
-0.11027789 -0.005822041 0.035460833
-0.08734065 -0.16034858 -0.2352484
-0.019335378 0.045383655 -0.0024747134
0.14594413 -0.0890196 -0.22427978
-0.10120948 -0.098881364 0.116723835
0.023790883 0.124850735 -0.1222131
-0.037324544 -0.16823037 0.21801683
0.052838743 -0.056455884 -0.09509671
-0.16590229 0.24172233 -0.0040548146
0.23900308 0.2148282 0.1421297
-0.12986319 -0.18296167 0.24938904
-0.10013255 -0.21928275 0.10563939
0.091684215 -0.013769269 -0.15618178
-0.16681617 -0.022292947 -0.26357216
-0.11220974 -0.22171204 0.13299222
0.016484167 -0.010126264 -0.0648863
0.042083334 0.031695668 -0.09296098
0.2861901 0.17103808 0.14227015
0.12551777 -0.061035406 -0.16018572
-0.1700953 -0.17818192 0.26006156
-0.15068705 -0.13700585 0.083439164
-0.1150287 0.15681462 -0.051112942
0.11542637 -0.103174575 -0.1836091
0.031437088 0.11595574 -0.098246515
0.040141128 -0.011184441 0.019776607
0.03602949 0.052629746 -0.24782827
-0.20207398 0.1716112 -0.038334224
-0.15161858 0.18238759 -0.07633249
-0.11462912 0.16691886 0.0059775943
0.1021032 -0.15508884 -0.21132275
-0.062093064 0.16868947 -0.11691392
0.11682053 -0.07065754 -0.09809665
0.026326621 0.087168254 -0.05026269
-0.077879995 0.15640809 -0.06218018
-0.13461894 -0.1606594 0.14266501
0.12647688 0.029777195 -0.2564751
0.2557816 0.08230723 0.10375538
-0.050329793 -0.21769889 0.20437074
0.07905235 0.051580675 -0.13390693
-0.10888488 -0.016360123 0.09832733
-0.049221896 -0.024608428 0.025855953
-0.0010161602 0.105783395 -0.13339345
0.11682584 -0.12585539 -0.14773764
0.024105731 0.09404562 -0.0059714383
-0.11122502 -0.20503417 0.21294361
-0.017350055 0.12011251 -0.059466008
-0.114732765 -0.062740095 0.08006729
0.10652138 -0.09637661 -0.26102945
-0.09051363 -0.2510742 0.22356145
0.054313466 -0.014715319 -0.066195756
-0.08429988 -0.16230747 0.13651791
0.26642448 0.15750305 0.18065238
-0.089234054 0.18620746 -0.009823092
-0.06613168 0.059055705 -0.025820537
-0.095302254 -0.09126594 0.06524879
-0.10713867 -0.039753918 0.029165188
0.27529538 0.18613105 0.120856084
0.0046250573 0.023632908 0.015066895
0.039052088 0.015659457 -0.0036986156
0.14334247 -0.013171454 -0.09546456
-0.11839486 -0.066890754 -0.1672593
0.030988136 0.12938257 -0.11553195
-0.08612849 -0.059876073 -0.2688561
0.07761204 -0.1747483 -0.15193479
-0.22674991 0.14694698 -0.031749334
0.15888147 0.134571 -0.21083777
-0.13583894 -0.19853781 0.14074813
0.0056304117 0.058607962 -0.0015014812
0.109967485 0.023623222 -0.08989755
-0.13456197 0.20628947 -0.015487133
0.3436203 0.23500168 0.35016185
0.07492842 -0.037562814 -0.09297181
0.0045875986 -0.12184694 0.0022394452
-0.13942215 -0.2640919 0.2732513
0.12593296 0.1046841 -0.1664037
-0.16202064 -0.17238742 0.15028332
0.05550523 -0.16865177 -0.13502117
0.10871376 -0.0015465276 -0.056316476
0.059625864 -0.08466958 -0.0580854
0.29599088 0.2718529 0.36850825
0.014629229 0.02710255 -0.0489343
-0.009900541 -0.08833009 0.03499303
-0.11666834 -0.076634124 0.08786903
-0.0004702671 -0.060105726 0.02645871
-0.16514416 -0.167312 0.25535166
-0.023555577 0.07202 -0.033589557
0.038907092 -0.02328215 0.041638423
-0.091236874 -0.23825553 0.18410099
-0.15472965 -0.20265476 0.17622885
0.0032890164 0.10568831 -0.057891242
-0.045899503 -0.117962025 -0.12403611
-0.12181238 -0.07457293 0.107502215
-0.12969106 -0.13299395 0.15654194
-0.058883246 0.019190958 -0.1567705
-0.16141343 -0.008355789 0.13631107
-0.07473497 0.1968225 0.009071124
-0.17232944 0.18727669 0.054302547
-0.07190678 -0.060111117 0.03100265
0.036775753 0.014144602 0.0047081695
0.11057686 -0.0054129157 0.0071091633
0.0008717764 0.02698827 0.03898463
-0.083140366 0.034802955 0.04442768
0.24950838 0.22385013 0.23287028
-0.15663774 -0.037182685 -0.33606994
0.044764277 -0.029794456 0.00090717245
-0.009171089 -0.03119358 0.05625215
-0.11907505 0.18964481 0.003531244
0.027343882 -0.040440463 -0.05160914
-0.059665296 -0.0060733915 0.020064913
0.31852266 0.23840055 0.23938511
0.02356105 -0.100704014 -0.12340359
0.00019096464 0.1773359 -0.12401396
-0.15663329 -0.18706827 0.15854251
0.07717916 -0.014739745 -0.09609346
-0.1320816 -0.14641319 0.122479886
0.36067373 0.19724965 0.25610924
-0.03393164 0.16543762 -0.08455447
-0.11428853 -0.033716988 0.10289845
-0.020004759 -0.057804044 -0.025432654
-0.05538936 0.105840564 -0.10058446
-0.039811403 0.06696677 -0.15023749
-0.06607192 -0.089675285 -0.12751575
-0.027313782 0.03533482 -0.066101916
0.080093764 0.010148178 -0.11761337
-0.15282471 0.14310972 -0.022883704
0.0126704965 -0.292191 0.19863242
-0.041212086 -0.1542868 -0.17366415
0.0047964836 0.0799676 -0.08960242
0.016935317 -0.10545337 0.022764856
0.0064879865 0.1238674 -0.07037397
0.09959199 0.05655739 -0.014912342
0.025642758 -0.16491717 -0.15918107
0.001488494 0.12322292 -0.049812797
0.041884106 0.05344662 -0.056262717
0.2623791 0.19017377 0.20370433
0.2904414 0.15675694 0.15654683
-0.100075744 0.085463196 -0.06197614
0.13025616 0.1568861 0.092514955
0.032483622 0.15112373 -0.0553785
0.09056279 0.096853815 -0.0575584
-0.09866453 -0.120675355 0.11081663
-0.07310681 -0.0012068552 0.05367321
-0.14103425 -0.2789181 0.22344479
-0.13007405 -0.11311337 0.13583703
-0.016055685 -0.25022158 0.21044795
0.14468129 -0.07167357 -0.1583712
0.13746122 0.03997471 -0.10066266
0.2054216 0.1568382 0.13182223
0.023346862 -0.0023661614 -0.016321117
0.0014973277 -0.14890689 -0.17945148
-0.16883856 -0.21200511 0.19183217
0.11688237 -0.09916276 -0.2535125
-0.15394378 -0.014353557 0.044904094
-0.026485553 0.035967126 -0.07038013
0.16637088 0.059282944 -0.09963955
0.17908409 0.118617035 0.022165945
-0.11660046 -0.0012512039 -0.15944996
-0.01992748 -0.045024697 -0.12888686
-0.16358341 -0.08846203 0.13646762
-0.038528096 0.03887853 -0.07818628
0.085945874 -0.11777745 -0.075002335
-0.11538704 -0.016807267 -0.0016421997
0.22861785 0.22704205 0.18803109
0.08846041 -0.09729538 -0.026361901
-0.13695496 -0.07518178 0.083608575
-0.23980069 0.18051305 -0.04425308
0.021151407 0.010857678 -0.08615938
-0.024218477 -0.0199263 0.03070746
-0.20580392 0.22784057 -0.028900322
0.07055437 0.004903828 -0.04560903
0.3375588 0.24648939 0.3078127
0.009993282 0.09232074 -0.1203058
-0.16185345 0.2529652 -0.069065675
-0.18596119 -0.19743875 0.16064279
0.08428164 -0.039817818 -0.07606454
0.23006044 0.14925823 0.21151537
0.29838565 0.19574463 0.28213003
-0.16481441 0.18931662 -0.0011781916
-0.007618312 0.026314573 0.002181102
-0.0875943 0.039238423 0.020600993
0.2193819 0.09428626 0.0960485
0.06200588 -0.024139306 -0.053299956
-0.20845059 -0.11047425 0.18710528
-0.016527476 0.10721276 -0.06893692
-0.07288373 -0.010703183 -0.15711723
-0.03130012 0.052816965 -0.036775123
0.05410298 -0.13273087 -0.116282165
0.011924649 0.13817912 -0.14207996
0.19679901 0.103809796 0.13259201
0.043498054 0.056498863 -0.04825857
-0.03703303 0.007406546 -0.13174182
0.17763844 -0.002953062 -0.07018829
0.28095043 0.16903748 0.11782175
0.31454775 0.23593204 0.29337317
-0.04253834 -0.06016915 0.024044136
-0.10184994 0.011271136 0.0070621693
-0.01870362 -0.27131686 0.2000913
-0.15539354 -0.19328031 0.17697717
0.13138801 0.07404368 -0.24138911
-0.10882908 -0.011306034 0.0781865
0.09866691 -0.08523389 -0.24492651
0.00634608 0.0043989974 0.0017404404
0.01969235 -0.014679546 -0.011503923
-0.074424036 -0.111628115 0.0843608
0.3123915 0.19581605 0.3674511
