# .PCD v0.7 - Point Cloud Data file format
VERSION 0.7
FIELDS x y z
SIZE 4 4 4
TYPE F F F
COUNT 1 1 1
WIDTH 1000
HEIGHT 1
VIEWPOINT 0 0 0 1 0 0 0
POINTS 1000
DATA ascii
-0.040986337 0.062330842 0.019344639
0.08256797 0.17126596 -0.17123415
0.05288859 -0.49207112 -0.12513693
-0.11942651 0.20896743 0.07527135
0.101373166 0.24531792 -0.21332504
-0.2045992 0.23583029 -0.192896
0.08440261 -0.33506262 0.022077018
-0.17938231 0.23526444 0.05153121
-0.050163016 0.10397905 0.05478372
-0.20524988 0.25214186 0.053017158
-0.20030011 0.26843968 -0.15373486
0.002510446 -0.19772968 -0.023353953
-0.018726096 0.16706501 0.12188428
0.17640406 -0.20323437 -0.023814922
0.08882138 -0.44852683 -0.07308239
0.002856645 -0.4695351 0.022020072
0.036862392 0.1729284 0.020746013
0.056663614 -0.29544348 0.049502876
0.1064563 0.36249095 -0.16466606
-0.13785838 0.03491546 -0.029707244
-0.025375748 0.014641522 -0.03916678
0.11896701 -0.2581357 -0.017334284
0.019119404 -0.08611511 -0.021356948
-0.023203237 0.065870725 0.024965776
-0.020009626 -0.4291871 -0.011344851
-0.036427084 -0.17872578 -0.03359299
0.1423063 -0.25848755 -0.016220363
-0.032499474 0.13155691 0.054143615
0.13167763 -0.4006145 0.03152187
0.03266871 -0.08990946 0.00631838
0.020103741 0.17934205 0.0332825
0.05706912 0.04309404 -0.031359933
0.095888175 0.31214923 0.020578671
-0.05792506 0.14842205 -0.018911367
0.10245484 0.059829857 0.01290511
0.055335015 -0.14167021 0.047357425
0.06776957 0.19747077 0.058681514
0.024175918 -0.42551073 -0.04183831
0.09169031 0.07120976 -0.0019321697
-0.19068314 0.10487298 -0.057479914
0.0745725 0.2803006 -0.096717
0.154806 -0.45231053 0.027139354
0.030615605 0.31389967 0.02608133
0.09801759 0.3576138 -0.12220074
0.04243223 0.33012122 0.098641075
-0.0702986 -0.034824252 -0.04033963
0.06040193 0.2196317 0.036197137
0.18384556 -0.051477488 -0.12530269
-0.19926064 0.14108075 -0.10225695
-0.01415245 -0.24804999 0.0439251
0.11841752 0.29273853 0.008753576
0.028020348 -0.49104926 0.0050565414
-0.010911805 0.22502479 0.14014183
-0.07839023 -0.1911356 -0.12961152
0.04102975 0.17187443 0.040609878
-0.0017522825 -0.12534292 0.0028802054
0.0810367 -0.049523536 0.046127837
0.044901557 -0.40689722 0.050647024
0.034569684 -0.05574025 0.013534445
0.12639704 0.3111572 -0.015192717
-0.24441965 0.12902738 -0.013551655
-0.08675975 0.15546903 0.057576943
-0.028135054 -0.26965833 0.03721869
0.012748176 -0.17089655 0.015514949
0.08740677 -0.07879167 0.03878
-0.05107279 -0.3880107 -0.046653487
0.026841423 0.17546146 0.04462433
-0.053800426 -0.3091255 0.009255304
-0.06328827 0.15108165 0.124436684
-0.18421929 0.29706398 -0.24202967
0.14380273 0.15699863 0.014383816
-0.034409437 0.0040984955 0.016339758
-0.020268321 0.23764136 0.10128194
-0.053891737 0.11570019 0.059942815
0.15954702 -0.30853677 0.011218301
0.10003788 0.25897002 -0.13839106
0.012858903 -0.20389228 0.04185548
0.095788114 -0.36605573 0.036853615
0.029658565 -0.10703312 0.029472664
0.11759193 -0.21582875 0.027099468
-0.01671324 0.2588174 -0.268807
0.1062536 0.20398276 -0.072411805
-0.081951 0.034708906 0.021664774
0.029336493 -0.15691635 0.040866468
0.15525162 -0.1868483 -0.0011057892
-0.046892136 -0.15425244 0.02930608
-0.081685245 0.2207363 0.092166126
-0.080642335 0.17770076 0.12820542
0.10357172 -0.04612929 -0.13460968
0.023032313 0.058841065 -0.009011615
-0.23760337 0.12019436 -0.06662621
0.008922958 -0.32751468 -0.011578969
-0.19492476 0.11917941 0.020328686
-0.04380648 -0.16534546 0.025721699
0.09649132 -0.11060498 -0.009781965
-0.03249668 -0.045957983 0.0065147076
0.11104437 -0.41110533 -0.018219601
0.033500038 -0.32227713 0.033398267
0.03751595 0.20608336 0.07862758
-0.16148303 0.14127219 0.017495899
0.004309476 0.34259355 -0.25149387
0.1450126 0.3421972 -0.11917698
-0.07796291 0.05113867 -0.029265098
0.046920646 -0.1455617 0.03702635
0.06045938 -0.14743194 0.040683985
-0.26191425 0.258342 -0.021250427
0.06381552 -0.21070705 -0.0071652466
-0.21541 0.28855175 0.046076484
0.111907266 0.22833301 0.04873829
-0.051859573 -0.27747735 -0.028273053
-0.15711354 0.1016458 0.08536934
-0.0353025 0.29624936 -0.1801559
0.011852898 0.16496612 0.088018335
-0.011865527 0.0071665314 0.019629823
0.020740941 -0.32235286 -0.046688233
-0.05293054 0.00036824934 0.009774937
-0.009604736 -0.056002323 -0.012062862
-0.25236326 0.21955171 -0.16441208
-0.120936245 -0.06694477 -0.12414711
0.13487718 -0.13802439 -0.010808292
0.05590337 -0.35545626 -0.010734587
0.03527724 0.0174648 -0.02155594
0.023730265 -0.17997311 -0.0072617494
0.04954376 -0.31699803 0.055521112
-0.035085566 -0.09658476 0.008564584
-0.01141348 -0.14101562 -0.062504396
-0.24008738 0.21111965 -0.12108628
0.09670148 -0.35359985 0.0049164495
0.13908601 -0.07676157 -0.002172519
0.05478882 -0.067798816 -0.018891381
-0.061771 0.10493104 -0.02702986
-0.12688498 0.088634364 0.10480852
0.042957496 -0.251007 0.007337235
-0.069216505 -0.31457716 -0.02839254
0.076293804 -0.33710384 0.019752923
-0.00073559425 0.028191013 0.03411949
0.0060377074 -0.17148905 0.012170924
-0.10139217 0.07507336 -0.016427217
-0.045032848 0.25589588 0.07354455
0.023392806 -0.21702246 0.00817713
-0.24561611 0.19928141 -0.15073866
0.09054258 0.045399606 -0.049931075
0.08514852 -0.38694605 -0.008694997
0.037799176 -0.3865308 0.017708968
0.14134222 -0.25377622 0.006492714
0.12422537 -0.33684403 -0.009900558
0.09315311 0.1513243 -0.03677335
0.05028546 -0.46492127 -0.120791346
-0.11187337 0.0015476097 -0.008296446
0.1115213 -0.44093052 -0.0068453527
-0.04346892 0.0032609764 -0.021392398
-0.21054761 0.07551441 0.016201228
0.0050196834 0.16158773 0.0957764
-0.13093092 0.30846113 -0.27910244
-0.03387121 0.1688191 0.08572505
0.08434163 0.003176101 -0.03586355
-0.04398021 -0.32773128 -0.028086953
0.030007862 -0.07259697 -0.00037813745
-0.13347155 0.09699774 0.017320335
-0.059683353 0.1360834 -0.023661902
0.062170997 0.024649886 -0.011736774
-0.19097894 0.29060066 0.07181353
-0.098321415 0.04129245 0.00687451
0.030931326 0.20290686 0.03437499
-0.032393128 0.109773435 0.03950124
-0.075545944 -0.141131 0.022422723
0.046671707 0.25805357 -0.0019371
-0.15129553 0.25703746 0.023236157
-0.20003927 0.28308976 -0.1960027
0.047261544 0.17568752 0.10916773
-0.07317331 0.28912237 0.0593608
0.07267239 0.20706218 0.02842363
0.16787611 -0.31558836 0.010718821
0.013717094 0.13953002 0.011596031
0.08653629 -0.085655734 -0.1065751
-0.04531012 0.15667742 -0.0036654037
0.038884975 -0.22340237 0.034543965
0.12552226 -0.21865465 0.03236606
-0.054643944 0.20711088 0.14487971
0.07309519 0.30631214 0.063204676
0.046874147 -0.14518534 0.047429804
0.05383893 0.022857226 0.030392058
-0.051658977 0.07451392 -0.035087347
-0.032135345 -0.037296575 -0.026585707
-0.04653071 0.15980543 0.118769296
0.12421812 -0.09572565 0.030899243
-0.033928335 -0.31302768 0.018637626
0.024735782 0.28249562 0.029075129
0.09070696 -0.13989058 -0.025190609
0.0031121601 0.3355681 -0.25548643
0.019105066 0.16490929 -0.011825981
0.029413031 -0.31926185 0.06580328
0.011270062 -0.28256488 0.040504083
0.09533391 -0.37170368 0.008671915
-0.08024325 -0.06935205 0.026333382
0.1904044 -0.46262547 -0.03595217
-0.19929962 0.25652644 0.017029092
0.10350598 -0.22530963 -0.010481038
-0.14734854 0.24253395 0.029603962
-0.008725769 -0.13892123 0.048649102
0.08790495 0.11753752 -0.11718119
0.04941216 -0.2846883 -0.000678838
-0.10424988 0.24678843 0.074322924
0.122255884 -0.33819568 0.013846949
-0.035263468 -0.28616568 -0.035942666
0.15658541 -0.25907552 -0.05500225
-0.1652565 0.14937396 -0.031499963
-0.047886487 -0.18289994 -0.058412187
0.14377835 0.30780703 -0.011561369
0.15950231 0.22138174 -0.16605543
0.101289794 0.32592106 -0.20715375
0.009092247 -0.04890856 0.041020706
-0.012585836 -0.23033442 -0.03049628
0.038738314 0.12767242 0.040138494
0.019779366 0.16021179 0.06585011
-0.047581095 0.3049236 -0.11383479
-0.08897609 -0.22427508 -0.00066291523
-0.15974233 0.19845031 0.03297651
0.09220155 -0.3416005 0.049903475
-0.11776337 0.2023196 0.089281276
-0.1957297 0.092195004 0.027722834
0.042087868 -0.20688045 0.026781615
0.12209871 -0.3042441 0.008132273
0.16686498 -0.40466267 0.008294376
-0.23496439 0.21455751 -0.019826332
-0.08688125 0.20738786 0.063953124
-0.22281991 0.19305481 -0.07948255
-0.22638576 0.260018 -0.017234748
0.08290132 -0.36088136 -0.01740548
0.16751426 0.17386837 -0.029428815
0.05849497 -0.3425293 0.04411164
0.035682835 -0.22814348 0.05620047
0.11411393 0.19286291 -0.044992156
0.109856114 -0.35736948 0.029256472
-0.2702007 0.15980805 -0.0993084
0.08875342 0.25366026 -0.012557335
-0.10331122 -0.1607136 -0.044737678
0.026165584 -0.382431 0.05814684
0.1471975 -0.35290146 -0.046928298
-0.16303588 0.15721132 0.062424723
0.0699683 0.33648515 -0.23339732
-0.03455858 0.23377012 0.13011189
-0.18212496 0.15722275 -0.012828065
0.06203318 0.27736145 0.011620245
0.044948168 0.12906179 0.033542994
-0.0651497 0.27007326 0.07027117
0.009535175 -0.16399485 0.04471993
0.03588035 0.2882922 0.08056764
-0.2032539 0.26489288 -0.06923919
0.050283406 -0.41283688 -0.008879242
0.1056149 -0.37432846 0.0044220136
-0.049738307 -0.23542386 0.038909316
-0.12713929 0.120853536 -0.013273513
-0.27646312 0.22486158 -0.051326513
-0.08535118 0.0020047708 -0.07116993
-0.029364172 -0.15809338 0.039727557
-0.057183705 0.26829225 -0.012101313
-0.16578065 0.20794797 0.04072696
0.026224168 0.10264751 0.014623642
0.11236652 -0.051062457 0.012575607
0.1325578 0.17827274 -0.21572255
0.16050836 -0.43270984 0.02145266
0.21232495 -0.40983102 -0.017743891
0.05894825 -0.27950618 0.048209213
0.1319069 -0.4084308 0.059057187
-0.0937091 0.014434003 -0.051989667
-0.16501011 0.11282247 -0.059690744
-0.21890499 0.20194648 -0.028816065
0.1018032 0.07655185 -0.004875882
0.01862772 -0.02677589 -0.021008102
-0.20290583 0.25381973 -0.1692133
-0.21570319 0.10241757 -0.12998159
-0.18532996 0.22342823 0.08443823
-0.03141125 -0.44527274 -0.049913023
0.06886515 0.3756875 -0.04722503
0.22434223 -0.37810203 -0.04107052
-0.17565179 0.22366762 0.028420523
-0.054197334 -0.15659477 -0.008730839
-0.007071657 -0.42840615 -0.026729695
-0.24172005 0.16471593 -0.08480333
-0.075701326 0.20924413 0.13936262
0.07040183 -0.4197752 -0.15443943
0.078715995 0.30370674 -0.008820163
0.0740858 0.21627448 0.0109838545
-0.20331326 0.13066621 -0.10095031
-0.13389534 0.053489994 0.004540236
-0.04224239 0.024121976 0.0019041955
0.035375092 -0.45003507 -0.08195837
-0.044536263 -0.18738925 0.021382298
-0.105526246 0.24563517 0.066213444
-0.070270665 0.09646762 -0.016520895
0.006415819 0.25059694 0.082086496
-0.010335132 0.14368957 0.07381367
0.041374788 0.006309696 0.005796499
-0.18137412 0.18782447 0.017485015
-0.20939434 0.18487518 0.008237198
0.10624121 0.13739349 -0.11054137
0.08250269 -0.0030638203 0.048380695
-0.28242937 0.1163771 -0.14695753
-0.08201419 -0.04059672 -0.12124725
-0.1529863 0.13372485 0.020183861
-0.26105383 0.19773786 -0.025159433
-0.056191627 -0.034890573 0.036887333
-0.09440919 0.21680942 0.14361908
0.044071324 0.08406045 -0.041537207
-0.055202115 0.06569813 0.046335764
-0.22651327 0.08974551 -0.027264016
-0.025116676 0.01703473 -0.015881918
-0.15758894 0.08388472 0.008968298
-0.00018049382 -0.30109236 -0.008068176
0.026832545 -0.39737523 -0.062350154
0.1476016 0.22135037 -0.041200433
-0.020480499 0.1716391 0.11397322
-0.02656524 -0.3609887 0.021092068
0.10831002 -0.0015159432 -0.026228823
-0.27655113 0.15677115 -0.13513388
0.06910809 0.2928195 -0.03984478
0.05721928 -0.23486127 -0.00019763142
-0.016500778 -0.42217138 -0.060644552
0.12522393 -0.46940348 -0.15851232
-0.13927 0.1234897 0.07262959
-0.07076105 0.19131017 0.11210792
0.0813121 -0.031555258 0.014400657
0.09705956 -0.14468816 0.0070271604
-0.06271803 0.0011461347 0.009474686
-0.021350952 0.110080265 0.028452331
0.11226164 0.2440239 0.021003582
0.06731108 -0.2647218 -0.0058391998
0.05208575 -0.12148344 0.021425974
0.11053448 -0.049756456 0.004932573
0.007990115 0.14436916 0.06792561
0.07833275 -0.07106767 0.0010698444
-0.053009704 -0.30281624 -0.098772965
0.12678567 0.21815401 0.06314498
0.12532105 0.22679745 0.010241877
-0.04501215 0.27261335 0.095896214
-0.03625176 -0.06457498 -0.041696496
-0.093864396 0.014892207 -0.026273439
-0.25413543 0.13138969 -0.09082651
0.111436136 -0.00987048 -0.06714805
0.12842706 0.013665298 -0.008062753
-0.12283797 0.32493487 0.0305225
0.095397614 -0.19498314 0.02151345
0.047480915 -0.13614021 0.026745262
-0.05958213 0.025282517 0.007647522
0.040168237 -0.36342964 0.054536212
-0.0807694 0.21733446 0.10649437
0.19266254 -0.42321303 -0.03311636
0.064688876 0.1428937 0.10480364
0.18916065 -0.32653216 0.0001115652
-0.046436954 0.097312756 -0.035545293
0.064607844 0.32644445 -0.024968758
-0.005245053 -0.31072977 0.015104886
-0.002529391 -0.4046148 -0.032576956
-0.0033486425 -0.24402782 0.02336995
0.15397753 -0.35760692 -0.007595168
0.1377394 -0.044529226 -0.030349784
0.007669488 -0.2624082 0.05703642
-0.10429109 0.1250482 0.12554304
-0.19659771 0.20750678 0.014357214
-0.019218465 0.247639 0.14805362
0.056893375 0.22823846 0.03700642
0.15675972 -0.19881535 -0.032387946
-0.15777673 0.18094063 0.014076368
0.07982094 0.26918048 0.07566128
0.094493695 0.32137367 0.048170034
-0.062755644 -0.052932505 -0.07272383
0.058118884 0.2817399 0.058442514
0.17612699 -0.3103049 -0.033993207
0.048063803 -0.13676791 0.00898396
0.10070711 -0.41465172 -0.12118021
0.013227771 -0.4264283 0.038108688
0.009577361 0.008532694 -0.015742129
0.09356441 -0.41475368 0.059644505
0.08909574 -0.03853365 -0.031538256
-0.07636983 0.01762243 0.004790867
0.019231396 -0.32174405 0.007398897
-0.016573641 0.025255142 -0.03481904
0.057739493 0.27382246 0.07791143
0.00508426 0.105329454 0.12007673
0.04312012 -0.19833915 -0.02189644
0.065479346 -0.12686108 0.004518211
-0.08716448 0.20634408 0.15151279
-0.16364148 0.14877202 -0.050698403
-0.2617189 0.21388236 -0.028403943
-0.09717227 0.05884209 -0.060900614
-0.13135906 0.20372787 0.05883476
-0.12684605 0.115930215 -0.07943729
0.06791377 -0.40756682 -0.0713446
-0.09244383 0.13524732 0.050167527
0.10068308 -0.124555275 -0.0072938306
0.13102913 -0.019655123 -0.005857194
-0.07067453 0.33312514 0.12208894
-0.06648458 0.29782358 0.14527275
-0.014860194 -0.2040507 0.0063624596
0.014079826 -0.3840321 0.005036074
0.016368909 0.1870406 0.08854109
0.10367213 -0.3812724 0.043134164
0.10058557 0.024981136 -0.027561225
0.01593706 0.12653282 0.11314867
-0.04601049 0.03201118 0.021527298
-0.0479047 0.14120719 0.03990942
0.05933719 0.2534334 0.011728191
0.078296304 0.30991197 0.011080114
0.10308029 0.18742734 -0.1184534
0.033760287 -0.12689906 -0.0009369819
-0.0892184 0.29073647 0.11086774
0.053782113 -0.100475825 -0.040983897
0.080730975 -0.26230875 0.058060706
-0.08776135 0.093378566 -0.025286112
0.011860433 -0.42018545 0.004368123
-0.07993828 -0.2419419 -0.024904974
-0.0766841 0.28336552 0.04585815
-0.17022386 0.021671787 -0.0499798
0.07999525 -0.31527847 0.049627434
-0.22511917 0.14168514 0.0020043359
-0.03398787 -0.14995874 -0.03401949
0.12967262 -0.0983346 -0.002574928
0.073415905 0.24480575 -0.016792802
-0.013339411 -0.14776745 -0.016148893
0.070963174 -0.05991078 -0.1177189
-0.19112682 0.18221113 0.050141312
0.03720899 0.03744543 0.05099459
0.096493065 -0.046416394 0.0046594646
0.06587542 -0.17407301 0.041515872
0.031236207 0.16802539 0.07879952
-0.07986073 0.24861765 0.069854125
0.22219533 -0.4304661 -0.020310504
-0.24594076 0.1915259 -0.21626052
-0.016823603 0.06478053 -0.0081216395
0.0039554327 0.1340571 0.017733525
0.048613697 -0.09591235 -0.0130874645
-0.10702298 -0.046256214 -0.0628909
-0.1400374 0.014065071 0.00087567844
0.038399383 -0.13548413 0.021526974
0.006155912 0.3338187 -0.16365723
-0.002027083 -0.029228082 0.050453518
0.016606104 -0.13466981 0.012652238
0.02801571 -0.24517287 0.06435352
-0.19572939 0.23328282 0.05689617
-0.024549518 0.15243456 0.12050587
-0.17491078 0.1560227 -0.06816744
-0.2520952 0.24936931 -0.13113768
0.056250103 0.17291334 -0.13046816
-0.035147913 -0.26372954 -0.020656059
0.11581464 0.25167307 0.03145716
0.10354132 0.064956136 -0.12784639
0.108795814 -0.32210982 0.031125264
0.0077368845 0.06251117 0.011463378
0.05705566 -0.20717862 0.0037705186
0.070411436 -0.26563388 -0.008301905
-0.0061982754 -0.19313699 0.018697105
-0.1413588 0.04610632 -0.10453343
0.10967952 -0.27178967 0.04713463
-0.0512864 0.021389844 0.009434464
0.023305625 -0.2981726 0.017074317
0.11047168 0.25471538 -0.02607689
-0.03285298 0.0053903707 0.05810452
-0.13103259 0.19844091 0.03643146
0.16192155 0.18708792 0.03931908
-0.19035503 0.20735063 0.05968379
0.12606235 -0.35285804 0.079729155
0.007839263 -0.06278839 0.036822382
-0.1365832 0.096897885 -0.10623033
0.11294932 -0.06428726 -0.020726264
0.076947674 -0.22770126 0.014261555
-0.11021698 0.2835409 0.10506272
-0.08760538 0.16031145 0.059673708
-0.1734693 0.14998563 0.016013974
-0.22987668 0.29772845 -0.19097982
-0.106396146 0.17522414 0.08863292
0.18117902 0.21940199 -0.044429343
-0.15709093 0.031443443 -0.06751945
0.07435352 0.08704878 -0.06141601
-0.07863699 0.27721092 0.13196428
0.020434855 0.18744822 0.111368015
0.08952775 0.3000534 -0.024902107
-0.06154293 0.1333088 0.0236016
-0.14136088 0.045749187 0.0285365
0.14718781 0.24403761 -0.020151448
-0.11292056 0.14333817 0.09217378
0.0065832166 0.16785967 0.07737577
0.04299678 -0.09527329 -0.0039792852
-0.014127475 -0.15684178 0.035679635
0.12465483 -0.056992494 -0.06741638
0.020391583 -0.39494157 0.030302342
0.11116874 0.31783462 -0.13543656
0.100652106 0.30975467 -0.18875983
-0.062079124 0.25217268 0.07052925
0.0613531 0.13222696 -0.0041341754
-0.00015451209 -0.16458559 0.03464936
0.08215359 -0.37912723 0.03471219
-0.04209636 -0.35425934 -0.12381369
-0.09647011 0.17087069 0.0745558
-0.027304193 0.14740956 0.13591374
0.04146588 -0.19357611 0.061135314
-0.047165625 -0.15177955 -0.09030372
0.13419707 0.19760028 0.050107557
0.013183191 -0.1867709 -0.032651637
0.09372391 -0.061177433 -0.03873858
0.16574667 -0.4255788 -0.016702862
0.10307373 0.26608136 -0.0146266045
0.06918042 0.28126743 0.01893305
0.10243775 0.16793801 0.05323419
0.06405999 0.1436859 -0.19970241
0.024420645 0.23308289 0.05630692
0.121258326 -0.40254274 0.028428784
-0.02685261 -0.105342455 0.0106560895
0.0005109837 0.077374585 0.002307406
0.12776972 -0.40901586 -0.018664856
-0.09213277 0.2698337 0.081833676
0.038897082 -0.39794204 -0.027750505
-0.09661663 0.3013463 0.08485551
0.11041066 0.22746219 -0.0018412175
0.09128161 0.26738155 -0.17642853
-0.14147101 0.16067699 0.0944291
0.1149543 -0.21667342 0.05224643
-0.07971224 0.26257148 0.08688482
0.024186015 -0.33563295 -0.003229819
-0.023920225 -0.28978053 -0.015716221
0.0466801 -0.07952825 0.021869091
0.039159574 0.007930158 0.0046324977
0.10048269 -0.06843359 -0.023609828
0.14790764 -0.24776587 0.023338506
-0.0019852458 0.36659893 -0.20114237
-0.049502954 -0.0036222572 -0.06782894
0.10182473 0.3158887 0.009052939
-0.18331657 0.23386082 -0.19258244
0.20692357 -0.32511774 -0.074403286
-0.14614469 0.26528636 -0.24063215
-0.035492532 -0.07415641 -0.021959113
0.14124084 0.13320343 -0.1429716
0.07671894 -0.30647123 0.052883293
0.1503639 -0.24029301 0.016863324
0.07844995 0.19258438 0.099251226
-0.068733566 0.06389418 -0.010351772
-0.009638555 0.17112786 0.12016132
0.0024568383 0.20877615 0.15588489
0.067201726 0.10723601 -0.044103496
0.04409127 -0.108736224 0.031887982
0.10517804 -0.34606063 0.072167985
-0.019278876 -0.0022592386 -0.0069170366
0.00083361566 -0.14550757 -0.018427422
-0.110184826 0.19778615 0.056774683
0.05155251 -0.015705986 0.0035225162
-0.08559699 0.11079402 0.07871553
-0.018175859 0.2754303 0.12615517
0.08263258 -0.3005661 0.05956756
0.17248325 -0.087748155 -0.042971563
-0.13585031 0.13950652 -0.024784327
-0.18855329 0.14763284 -0.093310766
0.0286561 0.30973133 0.040948164
-0.04646446 0.12912977 0.12728603
-0.19024733 0.089774445 -0.19536547
0.0152805215 0.18573968 0.12141861
-0.07768445 0.19696699 0.13275185
-0.020422358 0.26021633 -0.103072315
0.012687671 -0.26330164 0.03810952
-0.08344219 0.2834134 0.0973121
-0.11119142 0.105726525 0.12610392
-0.14270213 0.14925802 0.029907191
-0.04641279 0.1664079 0.07789517
-0.0181907 0.28579682 0.108710855
0.05257864 0.046930898 -0.008795679
0.08784276 0.27705792 0.05225133
-0.13213858 0.26358196 -0.065481424
-0.2234012 0.18968125 0.00641676
-0.20294966 0.22269414 0.07735061
0.031149058 -0.066274524 0.047913697
0.06682618 0.26048818 0.010946338
-0.10531517 0.25527042 0.10994662
-0.016784934 0.1312041 0.0760785
0.111730136 0.28885397 -0.05116881
-0.15252328 0.29246768 0.04210315
0.10300496 -0.23295473 -0.039620247
0.17829286 0.21499674 -0.08979493
0.021622987 -0.12021486 0.04905243
-0.2065232 0.16028063 -0.013448189
0.13600056 -0.30965337 -0.016895914
-0.04856175 -0.1877189 -0.07578164
-0.106726386 0.1833633 0.048114404
0.013782104 0.16569956 0.11340131
0.14796242 -0.33464852 -0.008002699
-0.010527519 0.32523218 0.10773227
0.016552282 0.015216697 0.05735689
-0.036062445 0.28306502 0.03094175
-0.14697747 0.28904474 -0.048476107
0.04466448 0.2755309 -0.007080618
0.12319509 -0.09951443 0.029526576
-0.19633117 0.050697308 -0.11668594
0.13532306 0.28718996 -0.055167943
-0.050043065 -0.27213824 0.02239188
0.13151875 0.24354921 0.034673356
-0.26692927 0.1953452 -0.13085511
-0.09694635 0.00054484716 -0.073129855
-0.02223114 -0.19256192 -0.021456942
0.08052631 -0.37352714 0.060496446
0.11432004 0.34345782 -0.024695028
0.026585761 0.04254038 -0.0014785852
0.04936837 -0.07878309 0.07147002
0.14129345 -0.33402508 0.056169707
-0.080390565 -0.17209598 -0.047707934
-0.13036421 0.18814217 0.09434817
-0.029267237 -0.2659127 0.04086932
0.028410103 -0.20990223 0.037751358
-0.012797489 0.17874557 0.07975153
0.06150739 -0.048133288 -0.026528738
-0.19303912 0.3011509 -0.21569628
-0.112088844 0.17284992 0.106268264
0.13508892 -0.15696208 -0.025270218
-0.017317088 -0.3803692 -0.1089797
0.0449959 0.15953116 -0.0066656386
-0.16628978 0.1471831 0.027319994
0.112907425 0.34834695 0.022549672
-0.064110994 0.28741 0.1151127
-0.039156105 -0.0031597689 0.03144367
-0.057261158 -0.19832776 -0.074396856
-0.06984267 0.28626686 0.07133016
0.16449435 -0.1815678 0.022830358
0.08384844 -0.2633057 -0.010947513
0.16576974 -0.28219238 -0.018940542
-0.11568035 0.27010542 0.03553863
0.03743612 0.21332987 0.11210912
0.13148841 -0.23919772 -0.09153489
-0.018141441 0.14066914 0.085382365
0.03450362 0.040914 0.00034781417
-0.1165417 0.10045142 -0.09680202
0.11224474 0.18275161 0.05632371
-0.12241631 0.24352168 0.13401155
0.14721008 -0.21948494 0.0116163
0.051325005 -0.29545924 -0.01288046
-0.11462357 0.23888052 -0.15203638
0.17690879 -0.4132374 0.053535845
-0.18129292 0.1260272 0.07013991
-0.100279234 0.32069868 0.14533179
-0.1284222 0.16907611 0.06876647
0.12719315 -0.3983499 -0.0034105328
-0.1400566 0.2248228 0.10088367
0.07602066 -0.32516372 0.0120152
-0.02713044 0.20954625 0.14227827
0.10072769 -0.36716732 0.014875321
0.1243897 0.2519172 0.025867904
0.015798878 -0.06938985 0.06691763
-0.07568327 0.05335385 0.013485259
0.05028728 -0.082956165 0.042068023
-0.0742273 -0.042784505 0.02231833
0.15837441 0.18005933 -0.053660467
0.096422985 0.26606154 -0.19139683
0.10298833 -0.19931452 -0.024364091
0.13061945 0.27550158 -0.10431975
0.08604725 0.059269216 0.010962263
0.11536587 -0.104052946 0.015124483
0.062404066 -0.21213695 0.034498956
0.11377407 -0.2874162 -0.02361396
0.17917527 -0.4006817 0.04449704
-0.18739048 0.21176134 0.059222087
-0.029468948 0.3242397 0.10156503
0.006842121 -0.42356074 -0.045748822
0.12004223 -0.32843828 -0.01797906
0.045478784 0.20544784 0.0025207142
0.16895492 0.23368791 -0.051689535
-0.2335077 0.27046686 -0.063255996
0.15982191 0.018837748 -0.03663782
0.0139837405 -0.119206704 -0.02632112
0.046078093 0.16745448 0.080332674
0.052018795 -0.4209647 0.025575288
0.058167543 -0.085251756 0.021372572
0.14295182 -0.19257745 -0.043307193
-0.16143899 0.09633499 -0.063021995
-0.18777782 0.27394918 0.10779434
-0.045104846 -0.045316875 -0.028276326
-0.006434261 0.2915138 0.07726242
0.121261016 0.23478931 0.02147995
-0.083407566 -0.19397621 -0.074794136
-0.10996979 0.12687996 0.011970222
0.05985663 0.17958276 -0.08282766
-0.023514919 0.055267427 0.05828308
0.109646514 -0.436957 0.0049586063
0.07631015 -0.12383079 0.013223867
0.050965033 -0.3204533 0.0695492
-0.24008986 0.2268051 -0.12292402
0.069797724 -0.15146826 0.04056148
-0.049245477 0.04991564 0.0096736485
-0.2220335 0.2618399 0.08745998
-0.14920814 0.12760702 0.09683524
0.04168569 -0.40668505 0.034871947
0.16265471 -0.07443029 -0.061939016
0.060589485 0.29427102 0.043279976
0.17280647 -0.4155459 0.04383356
0.10565774 -0.41116172 0.06275345
0.10532646 -0.44234163 -0.002813862
-0.08895069 0.09264803 0.044257544
0.028747058 -0.3560586 -0.044736393
0.14343038 -0.25998777 0.060874794
-0.069625825 -0.08524455 -0.02676567
0.011116872 0.015495177 0.048054542
0.072283134 -0.28326407 0.056493357
0.06204919 -0.41741815 0.0018363808
-0.11925629 0.29767352 0.12397583
0.056896478 -0.38120824 0.04255979
0.060693003 -0.23084918 0.048789214
0.1430239 -0.28913227 -0.08012781
0.11354914 -0.42950737 -0.10531133
0.09136472 -0.20686132 0.036738347
-0.05029971 -0.041326914 -0.03696096
0.012837211 0.0789747 0.012329465
0.105603434 -0.35354424 -0.01133772
0.14531997 -0.17850722 0.040394578
-0.2073142 0.22290027 -0.16706619
0.046194807 -0.47147316 -0.077271484
0.027998218 0.087504655 0.039281346
-0.024769772 -0.26807323 -0.044296287
-0.04948447 0.21618454 0.10237789
0.084760346 -0.12500986 -0.039913666
0.10617677 -0.022779606 -0.08250854
-0.024415003 0.2779597 0.12777539
0.021663774 -0.375258 0.049188837
0.076382376 -0.2675752 0.028136155
0.16565533 -0.38386786 0.06281085
0.16467194 -0.3568885 -0.0075476523
0.027354259 -0.21127832 0.0042126267
0.18905638 -0.37290105 -0.036954287
0.0140194185 -0.15515856 0.052761
-0.061822835 0.16273023 0.08605823
-0.15013859 0.30160424 0.07152577
0.03672375 0.2699124 0.025044259
-0.03140658 0.09001877 0.047921665
-0.036340293 0.15749532 0.1022909
-0.01841455 -0.4130256 0.03051846
0.040634595 0.14606856 -0.10227846
0.028433494 0.2522152 0.09474768
0.040915824 0.29015982 0.05404189
-0.08277673 0.2565539 -0.23749804
0.06719576 -0.39559138 0.057643298
-0.048130434 0.24559318 -0.03214018
0.011343568 -0.27353027 0.028535828
0.16067223 0.13330844 0.04425461
-0.20370156 0.2504509 -0.15075949
-0.039806254 -0.18252537 0.015075903
-0.024829512 -0.102592446 -0.05575621
0.047773268 0.23779218 0.03422937
0.111551635 0.16999221 0.013027612
-0.056396812 -0.081567526 -0.05136616
-0.22055505 0.05886844 -0.056624275
-0.18893991 0.14751472 0.074973285
0.11007408 0.19081809 -0.044899456
0.10313944 -0.06851439 -0.022385104
-0.24785039 0.26084596 -0.15528497
-0.021270825 0.1585941 0.07537247
0.060124874 -0.17952132 -0.004314132
-0.19066589 0.2596842 -0.21914826
-0.27034816 0.10471568 -0.13371472
-0.024980254 -0.06916253 -0.06407494
0.15063602 0.30332953 -0.11317953
-0.25651023 0.110590294 -0.01704957
-0.093182236 -0.011882929 -0.004742844
0.04495784 0.22768004 0.10692475
0.102864884 -0.37391663 0.041402698
0.07215681 0.023956165 -0.01641744
0.09172238 -0.44335198 -0.11912807
-0.14055437 0.28222436 -0.22399254
-0.05380835 -0.2838663 -0.026594875
-0.19384658 0.13270682 0.04271985
0.09990451 -0.21449389 0.014648446
0.010315383 -0.20614249 0.05184697
-0.122669205 0.14128608 0.057735067
-0.16761836 0.24953456 0.06817453
0.060451213 -0.033189382 -0.024183072
-0.07446998 -0.005457033 -0.075739995
0.11475241 -0.42734703 -0.050744828
-0.05887038 0.1481959 -0.025606472
-0.092549525 0.3316427 0.040170133
-0.2235522 0.18259078 0.054247882
0.041869618 0.2070843 0.09995428
0.17208537 -0.24657336 -0.039645497
-0.033204306 0.141113 0.10804703
-0.026639393 0.0010821302 0.009916239
-0.071494736 0.03915104 0.05227702
0.05176194 0.34757933 -0.12399506
-0.002467137 0.16325316 0.1405094
-0.23989975 0.21511354 0.0068343114
-0.08636833 0.1430183 0.099462785
0.15429296 -0.13811164 0.040978387
0.12938328 -0.29132488 0.022881044
0.049715072 0.16647597 0.015970888
0.039069243 -0.12781872 -0.027888067
-0.0360776 -0.2642672 -0.05293923
-0.04287022 0.26366174 0.07250987
-0.028016577 0.18133286 0.08538355
0.049324784 -0.2631746 0.032789007
0.14925528 -0.30399203 0.05279338
-0.14215134 0.0422862 -0.044932313
0.06642862 -0.036671758 0.025461027
-0.12679584 0.17819732 0.06895964
0.018659046 -0.34080124 -0.04944802
-0.13492341 0.102047406 -0.23805849
0.023830937 0.15767194 0.1256181
0.040937286 -0.2872521 -0.016764667
0.11766755 0.29061568 -0.025986897
0.009063939 -0.34316075 0.025760606
-0.11564506 0.27327758 -0.07203643
-0.19070752 0.18097311 0.041357882
0.16148801 0.24389416 -0.075613126
-0.0993761 0.09703919 0.08939763
-0.0993386 0.004179664 0.0040273336
0.030925702 0.041628428 -0.031639874
0.070764326 0.1890266 -0.008010991
0.050283514 0.2846285 0.037366696
0.086067386 0.25189918 0.017725829
0.10028525 -0.29041615 -0.0066311164
0.095919825 -0.32932594 0.0054558096
-0.035353515 0.10636691 -0.018116388
-0.01366031 0.23441623 0.08085532
-0.0025071295 -0.12607473 -0.04217207
-0.054280367 -0.10901248 -0.0020762912
-0.098163076 0.30076382 0.15570454
0.01930686 -0.45615625 -0.123050734
0.05421746 -0.04829232 0.0076464694
0.08736325 0.028171461 0.002513573
0.09906644 0.22711931 0.01041701
0.0932792 0.010187904 -0.033038124
0.04713021 -0.24357985 0.017150182
0.05593359 -0.4452494 0.010343773
-0.083717965 0.2584063 0.13319023
0.07819046 -0.36792973 0.07549204
0.03256017 -0.3211267 0.07367578
0.07971395 0.0036315888 -0.005673311
0.053542517 -0.3881131 -0.024058342
0.10653997 -0.104397535 -0.04156717
-0.030206354 -0.09651938 0.0065699676
0.002912691 0.26633963 -0.24621396
0.047622293 0.11247998 0.034948766
0.0380739 -0.4538608 -0.09201633
0.13525783 -0.3310377 -0.0021353632
0.07753645 -0.06915637 -0.016697127
-0.24265453 0.14627855 0.039364427
-0.27585098 0.23884608 -0.05981595
0.0493125 -0.1643316 0.035791323
-0.09535638 0.23534521 0.11232235
0.049366623 -0.34570974 0.037358202
-0.16486673 0.2583817 0.12756641
0.04011949 -0.33925375 -0.009877644
0.018241473 0.28700733 0.09937417
-0.12688333 0.12081448 0.04106298
-0.18395609 0.26151893 0.11329081
-0.008622924 0.27762505 -0.13940433
0.12948538 0.29396746 -0.11397903
0.14389823 -0.16583252 0.016162956
-0.025187874 -0.44785178 -0.015691217
-0.11624559 0.2022203 0.05297285
0.16508088 -0.23810041 -0.1324458
0.050715476 0.05225649 0.043275014
0.13844441 -0.08615712 -0.011876879
0.051807284 -0.06527662 -0.009751369
0.06772473 -0.120913 -0.010068964
0.024569672 -0.3936646 0.026005788
0.056020338 -0.2783597 -0.009896844
0.10777258 -0.34892735 0.035913028
-0.18973057 0.25237405 0.08046919
-0.010202688 0.21878915 0.09731486
0.08230161 0.30711937 -0.09703236
0.09322676 0.15506038 -0.13619111
0.032353632 -0.41926757 0.006581693
0.0857631 -0.43399075 -0.15848646
0.21585922 -0.33729628 -0.07938826
0.040665343 0.14057343 -0.04143004
0.056949284 -0.28410646 0.03143002
0.014973447 -0.18270676 -0.01431631
-0.043835193 0.08861916 0.070814766
0.035488214 -0.49418148 -0.06314314
-0.134221 -0.013996525 -0.010859168
0.012584386 0.3004262 -0.13436538
0.056746565 0.08763823 0.021127295
-0.0056056394 0.25606462 0.09684534
-0.14556605 0.09482045 -0.10273545
-0.003717433 0.067028046 0.06202656
-0.18039325 0.22271545 0.10048182
-0.00762194 0.28110695 0.01360126
-0.02859105 -0.1507909 0.050885856
0.14343873 -0.41981557 0.017190417
-0.02500338 -0.17528883 0.02750226
0.072752304 -0.116669096 -0.023323353
0.113609865 0.31061003 -0.16181798
0.030720625 -0.33148196 0.038732495
0.016026238 -0.14514582 0.034387186
0.058930658 0.3016393 0.025569556
0.08649608 -0.19229358 -0.019222142
-0.041115895 -0.16141511 -0.0734716
0.047453526 -0.43241906 0.010778782
0.00036800452 0.2304848 0.028733572
0.012505418 0.16740106 0.074506454
0.1210334 -0.081675544 0.037432555
0.066882566 -0.184003 0.07399915
-0.20968331 0.22230597 -0.16490501
-0.041722648 -0.458625 -0.0173246
-0.20969969 0.19051164 0.07892902
0.10344097 -0.21669485 0.06194759
-0.0033445966 -0.4067714 0.041832242
0.08401987 0.058540378 -0.10788809
-0.021748694 0.09239474 0.026842758
0.054542474 0.28988153 -0.07631682
-0.046344575 -0.25061417 0.020011602
0.08263075 -0.11421416 -0.008591297
0.09380446 0.20875274 -0.16666321
-0.040664088 -0.0044863047 0.032610968
-0.05311843 0.04577953 -0.033825677
-0.117953815 0.24705169 -0.1927761
-0.10749314 -0.15837279 -0.025263602
0.075869694 0.21048713 0.045022372
-0.13936219 0.2021308 0.110241786
0.08109737 -0.064162 -0.03532563
0.058904726 0.3280303 -0.011786474
0.022054158 -0.2867758 0.020261664
-0.1358674 0.25200984 -0.28729492
-6.492132e-05 0.18725966 0.07364922
-0.003387218 0.070790544 -0.019277664
-0.2738044 0.29720294 -0.09185637
-0.14319634 0.17902564 0.11390022
0.063047044 0.16623946 0.11448445
0.07462702 -0.07038686 -0.043351732
0.057769552 -0.073530555 0.0008613818
0.016605204 -0.17546901 0.04848992
0.105346955 -0.2834612 0.0289456
0.030015541 0.28383067 -0.1696497
0.035925 0.090930276 -0.05119752
0.0249857 -0.40327942 -0.011494317
-0.06391045 -0.04503342 0.055693362
0.06756208 0.019903958 0.026562972
-0.081143565 0.27715945 -0.2680081
-0.0071148053 -0.28815767 -0.016300982
-0.030994242 0.027484227 0.034406908
-0.11987884 0.062668726 0.019265894
0.180456 -0.25351787 -0.033169117
0.091895066 0.12131434 0.026211811
-0.08918225 0.274927 0.0954443
-0.07511283 0.24536125 0.086168125
-0.09463981 0.23285057 -0.20113015
-0.14215134 -0.04519885 -0.020258658
0.057053447 0.05539626 0.0312548
-0.07850701 0.32756305 0.077871345
-0.052066848 0.09724221 0.039076865
0.15372603 -0.35504028 0.014369168
-0.19610628 0.21353452 0.034097545
-0.019301562 0.13836452 0.069626644
-0.04060064 0.2751645 0.031395946
0.17650592 0.22377521 0.029744897
0.03530928 -0.14012964 0.07318177
0.1563432 -0.35959136 0.024067994
-0.14744093 0.2994106 -0.2356574
0.09003234 0.16202603 0.045582574
0.022576233 -0.23770897 0.069273554
-0.027050272 -0.29415426 0.02375515
-0.031676024 -0.37592062 0.031136166
-0.1468332 0.17302062 0.051577378
0.060336005 0.27596912 0.06982925
0.021797948 0.25456402 0.08377511
0.067761965 -0.4178375 0.01586034
0.085699886 0.22349533 0.08656485
0.001921886 0.22632615 0.04276554
-0.052349698 -0.17699102 -0.07289707
0.026551437 0.2261709 0.037178647
-0.05343371 0.06273635 0.03396915
0.047879558 0.20757909 0.044126354
0.13815443 0.31195727 -0.049924687
-0.028572699 0.35092184 -0.28050902
0.008915681 0.116180606 -0.0011542351
0.040884677 0.08653848 0.018199632
0.07067528 -0.019670432 -0.019988362
-0.13778129 0.048243716 -0.037318885
-0.091016516 0.14167672 0.055415485
-0.1579749 0.0078497045 -0.09237859
0.049787357 -0.19567065 -0.0045738607
0.01970732 -0.34840247 -0.10025741
0.16551527 -0.183931 0.033970322
-0.05610459 0.23106273 0.121446125
0.13192484 -0.30786863 -0.010063171
-0.007375781 -0.046646878 0.029043224
-0.010000054 -0.3317705 -0.041714758
-0.14734082 0.2031146 0.099235885
0.017254895 0.2679782 -0.18145192
0.050453324 0.00897947 -0.08981589
0.048265714 0.14238691 -0.037688296
-0.1400509 -0.0059855646 -0.060226224
-0.060910072 0.13282356 0.104907
0.09077287 0.19321433 0.05861619
-0.013661083 -0.057275567 0.041671235
0.19729277 -0.3137106 -0.06603968
0.0033293879 0.15745544 -0.013270837
0.0642542 -0.26248336 0.04361316
0.01996437 0.19632591 0.050569095
0.02935539 0.31199715 0.09684392
0.012529619 -0.21150465 0.042447302
0.07426609 -0.37896 0.024139978
-0.019448984 -0.08804325 0.02088632
0.0694828 0.2936067 0.08715716
0.12589954 0.06896287 -0.047683932
-0.07604392 0.14426382 0.07412511
-0.026305988 0.050574295 0.030983439
0.12496358 -0.2022728 0.0531
0.101891555 -0.44049573 -0.0141036045
