# .PCD v0.7 - Point Cloud Data file format
VERSION 0.7
FIELDS x y z
SIZE 4 4 4
TYPE F F F
COUNT 1 1 1
WIDTH 1000
HEIGHT 1
VIEWPOINT 0 0 0 1 0 0 0
POINTS 1000
DATA ascii
-0.006498754 0.06961752 -0.29843557
-0.018046238 -0.22206552 0.10378437
0.049382884 0.018042685 0.16773377
0.061927628 -0.20601597 0.17708938
0.15107839 -0.11244918 0.19040082
-0.14210029 0.06985329 0.0655605
0.05480299 0.09496657 -0.35525167
-0.13712737 0.0823172 0.15017262
0.04880175 -0.21628113 0.11859599
0.07064134 0.012538736 0.14402586
0.0720965 0.11499756 0.069597945
-0.1719211 -0.17439337 0.0034202118
0.03952345 0.12334167 -0.4050369
-0.05414822 -0.096991815 0.14853764
-0.062042106 -0.03550635 0.14250413
-0.08480219 -0.2099843 0.11977049
-0.018735643 0.10195886 0.1375191
0.1003028 0.061891798 0.18208048
0.04115616 -0.17569694 0.031360824
0.08128867 0.111402914 0.1840643
-0.22797534 -0.09245243 -0.028618129
0.051538542 -0.0058179614 0.14342491
0.044492893 0.15757708 -0.44466478
0.11037211 0.12940514 0.14324474
-0.060928345 -0.005487768 -0.2837009
0.024128448 -0.05797805 0.17016377
-0.009590158 -0.16105822 0.10332074
-0.14070699 -0.18110736 -0.05192661
0.0413625 0.016138418 0.18632212
0.11585963 0.091398485 0.2020808
-0.07641623 -0.07036798 0.12007683
-0.15464203 -0.001131673 0.13557957
0.07475596 -0.10724133 -0.4524744
0.09189973 0.102746926 0.1942471
0.12958929 0.12769936 0.1580455
0.003797741 -0.13891123 0.07931462
-0.04139442 0.1362406 0.17498593
0.20610054 0.004028088 -0.5683797
0.11271065 0.07941067 -0.157068
-0.11419203 0.19775248 0.1357392
0.09574163 0.12306754 0.052325666
-0.07727841 0.007958931 0.1630962
-0.13481323 -0.11482865 0.08020696
0.01265413 -0.20516376 0.090450466
-0.19107097 -0.12209391 0.11603076
-0.22100963 -0.13760714 -0.06923264
0.014755854 0.067870036 -0.30875534
0.12365841 0.092891015 -0.47252676
-0.0881176 -0.082784496 0.076074705
0.033143893 -0.038826533 0.12375075
0.15698056 0.10642294 -0.54661334
0.010445629 -0.12656556 0.13723251
0.039879996 0.13628748 0.0834417
-0.07303175 0.18063706 0.008432143
0.07897891 0.03449301 0.14589259
-0.0345309 0.056087118 0.18279178
-0.2513142 0.030490942 0.09444998
-0.020141076 0.06557054 0.15402749
-0.059659876 0.029647537 -0.5938732
0.05827804 0.09920212 -0.16706926
0.10024507 -0.10999987 0.15719736
0.04157313 0.065961055 -0.2573165
0.1358856 -0.13942964 0.08019503
0.14064017 -0.07665958 0.15792587
0.042159103 -0.13069606 -0.2626392
-0.1300258 0.03654363 0.13445245
-0.17441644 -0.15230146 0.05217177
-0.027680622 -0.014399466 0.17517088
0.08919426 -0.06640635 -0.25290403
0.10021158 0.12704054 0.12825587
-0.09420328 0.114203766 0.14850067
0.100562364 0.0448544 0.1309643
0.113893956 0.07835581 0.10080968
-0.06434056 0.17619105 0.0015727498
-0.009860618 -0.1546248 0.15388052
0.019304065 -0.15642394 0.10541
0.050098263 -0.21233012 0.022513978
0.08944668 -0.12536837 0.20622139
0.1287256 -0.06982625 0.1747243
-0.14173427 0.011111548 0.12897131
0.0826797 -0.0951211 0.123135805
-0.017801711 -0.08056911 0.081848525
0.11396141 0.15112649 -0.44941077
-0.2120562 -0.13824055 0.17568736
0.04335132 -0.1060097 -0.4386513
-0.13249299 -0.059711292 0.11767895
0.0040141963 -0.11691461 -0.0674127
-0.20408851 0.04941739 0.0816056
-0.11509495 0.18432474 0.17777658
0.03302033 -0.09993187 -0.3183946
0.10855548 -0.06547742 -0.6507295
-0.13648568 -0.15431292 0.08958965
0.12384095 -0.10383339 -0.48145956
0.15234375 0.06673286 -0.61131996
-0.037914082 -0.21729869 0.18494593
-0.098348945 0.16289496 0.017775483
-0.029683573 0.14588964 0.091973454
0.09177238 0.053828795 0.09820952
0.11870857 -0.080837406 0.14808415
0.14461753 0.017125616 0.1683155
0.14977351 0.112580605 -0.52432555
0.012276147 0.06033897 -0.17120779
-0.031468287 -0.15048826 0.109011255
0.09451089 -0.030134011 0.1672328
0.0752714 -0.085008405 -0.43299288
-0.13925561 -0.08548226 0.10837804
0.039169516 -0.056963526 -0.51542586
0.050175715 0.118925095 0.13539197
-0.101176605 -0.038407538 0.14363821
0.011134478 0.09396466 -0.31897488
0.11573504 -0.08481996 -0.5599956
-0.048407767 -0.19860362 0.1408919
0.08453403 -0.020426167 0.11672285
-0.21188788 0.019700577 0.16429505
0.1125378 -0.1738196 0.18385103
-0.06165324 0.14455459 0.10917253
-0.0677695 -0.061010823 0.13342446
-0.04867954 0.0894758 0.118657365
0.13404298 -0.042480137 0.14606571
-0.041499153 0.096906155 0.17832112
0.15606503 -0.037093125 -0.5490687
-0.007806414 -0.17958021 0.087606095
0.122993484 0.14971557 -0.56404424
0.07849486 -0.008764588 -0.31554046
0.13178028 0.11658594 -0.21268678
0.055409838 0.162509 -0.54817003
-0.10075665 0.021519711 0.13821708
0.011242096 -0.19060981 0.1650228
0.008867195 0.07662172 0.13379696
-0.05943457 -0.10090694 0.07856131
-0.22975355 0.02618185 -0.03962588
-0.013788814 -0.04423717 0.16264252
0.016439753 0.086488545 0.10319961
0.009545478 0.056952175 0.117745675
-0.0045540407 0.012702416 0.16943641
-0.11616972 0.009056121 -0.25986755
-0.047448255 -0.07234743 0.08820278
0.034611907 0.13857189 -0.3723687
0.059675876 -0.13912565 0.17456175
0.121084765 0.06884839 0.1457065
0.16002166 0.086937845 -0.44943815
0.104230426 -0.01625683 0.20820703
0.043983698 -0.11856843 0.16268887
0.11585424 0.09210319 -0.16024645
-0.11875557 0.07219781 0.12858424
-0.18458875 -0.03226703 0.032091014
-0.052671883 0.08015977 -0.3025069
0.05834791 -0.22601204 0.099667504
-0.12186392 -0.077249095 0.14672144
0.054796606 0.015774883 0.1315717
-0.0945639 0.09588329 0.1524975
0.12130604 -0.00624219 0.17729542
-0.10416088 -0.1319046 0.149585
0.08590195 -0.12129207 0.19757608
0.03798706 0.15325655 0.04271589
-0.032962613 0.18594575 0.15157463
0.16156976 -0.0052218945 0.20143127
0.017717926 0.093994804 -0.3533486
0.04170876 -0.058402695 0.17521003
-0.11570279 0.09038625 0.16950956
0.06571231 0.1043074 0.14705323
-0.15890731 0.14856738 0.00877541
0.1403676 -0.07507834 0.12412169
-0.06148941 -0.03374812 -0.299746
-0.07007796 0.17667778 0.03169324
0.073644005 0.19623779 0.18165213
-0.09813366 -0.050772313 0.15382789
0.0016563225 0.1034581 0.18589275
0.1063939 -0.08918733 0.1251784
0.18374541 -0.08946413 1.578988e-05
0.11323752 0.15566537 -0.006867065
0.09664353 0.09944685 0.12122164
0.0027673866 0.17947285 0.13478683
0.058011677 -0.13211425 0.092011206
0.19350748 -0.081275806 0.15558904
0.075488165 0.10505264 -0.38704032
-0.049198788 -0.0982442 -0.26338762
0.12704387 0.088381246 0.11409824
0.12995194 -0.14091586 0.12230632
-0.085055724 0.09762224 0.12797438
-0.10490819 0.04684304 -0.61982906
0.043175258 0.19684477 -0.037864503
0.07738349 -0.17852843 0.088742584
-0.15309985 0.08670129 0.088788554
-0.09336378 0.032662313 -0.42010555
-0.10897526 -0.12006274 0.15048394
0.1759519 -0.028351784 0.1453438
-0.0093346555 0.049773816 0.14353648
-0.14368072 -0.1581474 0.03642357
0.18838808 0.0618954 0.1153955
-0.015098292 0.07993666 -0.41188347
-0.10534018 -0.06370354 0.1351457
0.17067215 -0.051023167 -0.27083609
0.08214991 0.08506605 -0.64428484
0.109898835 0.18731764 0.13169427
0.14408286 -0.015801553 0.17223638
0.076273635 0.07529372 -0.5327396
-0.24368656 0.087119795 0.01920154
0.13982452 -0.19873959 4.2472343e-06
0.06063299 -0.021794515 0.09678339
0.020038117 0.16018376 0.13405283
-0.14965901 0.03471262 0.15479138
0.069637194 -0.05362289 0.15946512
0.14160669 0.0773863 0.07164654
0.062578954 -0.08568882 0.15081424
-0.19900794 -0.16967547 0.10450159
-0.07386511 0.08116657 0.12160784
-0.041032583 0.09005037 -0.13768446
0.14438385 -0.04730542 0.14544275
0.058951605 0.079236336 -0.26647365
0.0054076253 -0.23371379 -0.038712412
0.15924715 -0.05054121 0.16266875
0.09010959 0.1167237 -0.35898012
0.0030858112 -0.14359619 0.13075244
0.20273454 0.01102685 -0.51233816
-6.1466904e-05 -0.01529673 0.18050289
0.12964182 -0.035981067 0.11939415
0.0057092756 0.13761446 0.10106643
0.0056141308 0.05812143 0.09311277
-0.15500282 -0.14637817 0.1510964
0.20048231 -0.0655017 0.16321856
0.18989684 0.10901063 -0.43685305
0.10111524 -0.20908737 0.06901269
-0.026907217 0.16125251 -0.023826715
-0.2603842 -0.033520084 0.08954167
0.03140405 0.17352779 0.18677565
-0.036497533 0.1826359 0.11068215
0.13314131 0.07102467 -0.5873136
-0.037307233 0.06425572 0.10552334
-0.107479654 -0.20843837 0.10165824
0.09408117 0.16362013 0.1977814
-0.01938142 0.14482298 0.15999244
-0.19054925 0.04182643 0.08377485
0.075776294 0.15474817 0.11484911
-0.11616888 0.11054729 0.13132451
0.10567089 0.050805897 0.11846701
-0.054400746 0.046050858 0.17153335
-0.18140687 0.005148806 0.10983739
0.03813641 0.11213169 -0.14436162
0.012489591 0.1231371 -0.33606774
-0.1238635 -0.16337943 0.06151137
-0.020076724 0.037058115 0.1646659
0.0009868337 -0.12108649 -0.34655234
-0.08325636 0.15889901 0.03705513
0.074564695 -0.13782148 0.20272423
0.07237727 -0.13472117 0.18313926
-0.092058145 -0.025333865 0.15302601
0.009311527 0.0033832998 0.1655799
-0.07191663 -0.16361098 0.13460459
-0.113886684 0.059094917 0.10690229
0.13772842 -0.08594418 -0.32231075
0.02511074 0.14444306 0.12695068
-0.086175 -0.109169446 0.11952224
0.081838965 -0.045983557 0.16326195
0.019273842 -0.028340988 0.18328243
-0.20665292 -0.11027402 0.14759868
-0.14889224 -0.09712037 0.045071878
-0.09821867 -0.1736025 0.12947462
0.02566556 0.01425546 0.16184716
-0.08342099 0.09774027 0.101073556
0.088140644 0.10686317 -0.44411007
0.100614086 -0.1822098 0.12789793
0.05739918 -0.12074677 -0.3200947
-0.043329395 -0.19168414 0.08484703
0.075669125 -0.11568305 0.11702853
-0.08665625 0.14411496 0.16990891
0.012930497 -0.06693898 0.09889179
-0.03673081 0.0127463 0.16077416
-0.24463639 -0.05426859 0.113599725
0.11594708 -0.033551555 -0.44444427
0.087528296 0.09452615 -0.40879667
-0.06955105 0.10540449 -0.58533317
-0.078231 0.12591323 -0.23589249
0.046706785 -0.21214686 0.1230019
0.11219969 0.10579663 -0.27780312
-0.13603339 0.14382589 0.16431874
-0.025274927 -0.13059813 -0.27745986
0.06513445 -0.0855706 -0.2506976
-0.005477601 -0.16234945 0.14110608
-0.016325187 0.0029546407 0.14784373
0.07718763 0.15733354 -0.29149628
-0.12034934 -0.121436 0.087131254
0.13601974 0.074456125 -0.4430431
0.17061931 -0.06988675 -0.3758799
0.043692786 0.14090946 0.19535641
-0.17166582 -0.015374406 0.12637407
-0.0089869825 -0.10364129 0.091419466
-0.1613314 -0.036356248 0.10340051
0.054853473 -0.17215763 0.0016724834
-0.17300233 0.07371557 0.12917748
-0.15477498 0.072534464 0.14904909
0.061784565 0.18619725 0.09766506
0.11531485 -0.09806475 0.09472709
-0.05308786 -0.08194715 -0.5922417
0.06277795 -0.11814027 -0.48591557
0.10671675 -0.044276226 0.17402464
0.109134175 0.11318009 -0.4129631
-0.10967058 0.022945257 0.14791329
0.21984251 -0.092596695 0.14967656
0.008348326 -0.20080858 0.18750852
-0.18886448 0.05154253 0.08381867
0.01533189 0.07832785 0.11977279
-0.04321657 -0.11295155 0.165964
0.17915423 0.119813345 0.044382744
-0.09623992 -0.23354596 0.03493638
-0.1714372 -0.13080227 0.06058678
0.0676969 0.049835768 -0.2777939
-0.087565415 0.1893631 0.13145407
0.08256573 -0.034420278 0.18014176
-0.17665899 0.031113554 0.06171486
0.050283372 0.1334044 0.19998026
0.15422305 -0.120526336 0.14008723
0.160895 -0.1589569 0.04926399
-0.19502857 0.11360954 0.100113824
0.1274773 0.07086265 -0.34598953
-0.0712946 -0.08356375 0.07895169
0.10731105 0.017318292 0.10898054
-0.14247938 -0.1770494 0.1739407
-0.2348369 0.12321767 0.021356657
0.13703357 -0.039146192 0.16939868
0.07029012 -0.071468905 -0.36824864
0.16588557 -0.04135356 0.21550807
-0.06579318 0.22484328 0.119793855
0.102708265 0.026230903 0.18706243
0.061459415 0.12708993 -0.57133186
0.011563855 -0.2144784 0.14038269
-0.024482792 -0.104763485 -0.27209678
-0.094212346 0.15030196 0.10285368
-0.0042500217 0.146251 0.14424439
-0.041573454 -0.15876022 0.122808106
0.108536825 0.12755384 -0.39103213
0.08019455 0.12957563 0.15656875
0.0865206 0.09440724 0.21014696
0.06193093 -0.055903878 0.16819532
0.012440832 -0.1183641 0.12507032
-0.033177815 0.10469969 -0.5907785
-0.038710356 -0.10762803 0.11632761
0.13388224 -0.05413509 -0.3082289
-0.0011867783 0.04915443 0.113721006
0.1322331 -0.17180012 0.14645575
0.11704748 0.098213 0.18998185
-0.1446437 0.01762669 0.112503394
-0.047229894 -0.19919297 0.1355695
0.12555273 -0.07704529 -0.38609245
-0.014856895 0.021751467 0.10804829
0.051902726 0.16337633 -0.45752427
-0.014070476 -0.1441939 0.15383308
-0.069734916 -0.060573 0.16224545
-0.01158964 -0.174101 0.121367425
0.15950616 0.0597477 -0.35974303
0.16728708 -0.08664919 0.17680123
0.16356346 0.09097236 -0.6027413
-0.084408805 0.12953673 0.14905834
-0.12506418 -0.07730209 0.15817216
0.08348972 -0.11039152 -0.2860629
-0.103646286 -0.09787329 0.14696606
0.1393477 0.12223808 0.17087194
-0.06203575 0.14795794 0.11798404
-0.03177616 0.16484718 0.16281629
0.17347494 0.033491544 0.11737598
0.058262337 -0.21793935 0.15291184
0.119308986 -0.044292197 0.17442177
0.064286 0.13689223 -0.37431163
-0.1221803 0.09014331 0.17270084
0.12508602 0.042825736 -0.38072613
0.057073206 0.08188524 0.17991555
-0.09905626 0.046259597 0.13169506
0.19516943 -0.023753237 0.057871338
0.056325525 -0.18012759 0.16364029
-0.14996259 -0.00078976835 0.10529159
0.08834812 0.12583336 -0.42920157
-0.038149945 -0.13214049 0.15494111
-0.09242347 -0.1511035 0.12749249
0.037285626 0.10688121 -0.5724748
-0.1712522 0.076704405 0.18033314
-0.1824723 -0.12690109 0.12377557
0.023767177 -0.11737853 -0.2819461
-0.09843748 -0.17862663 0.1786462
0.083702944 -0.19323891 -0.016840389
-0.012045423 0.06848551 0.11460148
-0.1888752 0.045880437 -0.068824284
0.07058707 -0.102033146 -0.46481785
-0.070851505 -0.06045492 0.068677045
0.03793276 0.17561932 -0.015264481
-0.058001418 0.084407836 0.16624933
0.15271977 -0.011814342 0.2149685
-0.16414699 -0.023025623 0.09217052
-0.101586364 0.041437294 0.16677429
-0.0639821 0.10781946 0.08055918
-0.06686803 -0.078329794 -0.50750583
-0.14332502 -0.16837062 0.11977045
0.06287365 -0.19928116 0.1758557
-0.15318486 -0.03778452 0.09255309
0.15074061 -0.0124993045 -0.2795676
0.16621168 0.13683662 0.18282771
-0.07089612 -0.11007776 0.1291584
0.052235782 0.124522224 0.11047457
-0.15189348 -0.06741003 0.108240776
-0.16934629 -0.10113847 0.116388656
-0.062234044 0.05349692 0.17180754
-0.16214886 0.020183112 0.098189875
-0.13898373 -0.10112243 0.105087325
0.12320976 -0.057131276 -0.5807868
0.07863468 0.11917381 0.15874138
0.072053604 0.03482468 0.11890243
0.01671486 0.1539222 0.0044230777
0.076812565 0.15177655 -0.4669685
0.014318233 -0.2333315 0.03392667
0.025894254 0.05330502 0.17931825
0.023838608 0.07630886 -0.48231164
-0.0546237 -0.21765877 -0.01297199
-0.052832957 0.14578322 0.13305064
-0.09181809 0.18176052 0.14922395
-0.049969267 0.09473091 0.10219499
0.03361914 0.06309061 0.09023022
-0.016637968 -0.059248984 0.09254664
0.068208195 -0.08059582 0.1285964
0.20245108 0.06394564 0.026717199
-0.060674284 -0.1463662 0.16189262
0.050352883 -0.14126833 0.13838266
-0.11682413 -0.034980327 0.1466675
0.12492763 -0.17055446 0.1298777
-0.13632669 0.093935065 0.11540116
-0.06531211 0.026780041 -0.5775625
-0.23570561 -0.073738314 0.16148718
-0.215748 0.10765415 0.050257348
0.07690533 0.13618407 -0.21050932
0.061334472 0.14459167 -0.35477406
-0.055073947 -0.066132024 0.08116872
0.2320233 -0.07824838 0.08408663
-0.24410525 0.04280628 0.050752215
0.11156883 -0.08275315 0.17224003
0.01209828 -0.009944047 0.15835822
0.1782327 0.06382136 -0.5946545
0.0866015 -0.07893998 -0.5546408
-0.24881697 -0.10374269 0.054310307
-0.11877059 0.090116486 0.14399059
-0.17987747 0.024566893 0.11958019
-0.12015495 -0.08842231 0.14897327
-0.20379984 -0.19617635 0.1085435
0.021740958 0.11309503 0.19078419
-0.15959412 -0.040791247 0.12343735
-0.23865409 0.015711494 0.081388555
0.09980053 -0.059867546 -0.6221841
0.21174267 -0.03098983 -0.0236509
0.158431 -0.09747807 0.16505001
-0.14367943 0.058289446 0.15527472
-0.064993516 0.0620383 0.08023091
0.0938872 -0.061306074 0.08607302
-0.11897722 -0.17911738 0.14755075
0.15120552 -0.0017272054 0.12352827
-0.10265376 -0.17063141 0.09541089
0.035355642 -0.06280508 -0.37315887
0.15926152 -0.13926546 0.13645892
-0.10490459 -0.15891963 0.1583837
-0.08653574 0.2289545 0.045378573
-0.14860028 0.0764661 0.06735367
0.01703314 0.1942058 0.17086014
-0.03770065 0.11946892 0.11672784
-0.1224388 -0.22137272 0.043723993
0.10166785 0.17683552 0.108694345
-0.090982206 0.17052536 0.13716875
0.04791082 -0.1577106 0.14803097
-0.032688297 0.0051246313 0.10774588
-0.07835951 -0.12813987 0.1500955
-0.08611509 0.041996755 -0.3963326
-0.14644292 -0.059641678 0.13513947
0.06291024 0.09817095 -0.1754109
-0.03703522 0.06976969 -0.3246553
0.11083824 -0.18740028 0.1444578
-0.15838124 -0.11337573 0.11628091
-0.121102534 0.11873839 0.11751911
-0.08401981 0.18987508 0.11422978
-0.06616675 0.14235525 0.16712905
0.043256827 -0.26580712 0.13624068
-0.109198816 -0.010390115 0.06838921
-0.0115441885 0.1355881 0.110133894
0.06548101 0.07954091 -0.35265437
0.013384087 0.12921603 0.060521074
0.047688723 -0.0872144 -0.24813549
0.12880908 -0.048103735 0.09952978
0.03470032 -0.14695823 0.09077045
-0.08147826 0.06468607 -0.6101697
0.014548507 0.13205816 0.041832
-0.19242644 -0.052406076 0.119067304
0.076459706 -0.15402086 0.13356207
-0.01467449 0.08587902 -0.43022498
-0.1687726 -0.027893148 0.08785869
0.10683722 0.0006144653 0.11954837
-0.077099 0.13280386 0.11232005
-0.08580735 0.20272104 0.1565401
-0.012736589 -0.22396201 0.05271063
0.058061138 -0.18524459 0.05235823
-0.13278636 0.09655285 -0.04613752
-0.2501876 0.06699821 0.11686866
0.01844448 -0.030847032 -0.60056436
-0.12094915 -0.11510828 0.13190247
0.038628887 -0.06606288 -0.25770393
0.1580813 -0.052267883 -0.48256335
0.07093561 -0.01036225 0.16797574
-0.18098466 -0.08325318 0.08868203
-0.04710567 0.13627212 -0.38086534
-0.19533673 -0.054127656 0.11708215
0.014960922 -0.2399432 -0.05252478
0.10697608 -0.14514682 0.16647376
-0.02937889 0.13890082 -0.31885856
-0.0019655863 -0.15348135 -0.31255418
0.069475785 0.11068283 -0.23511766
0.035356496 -0.21469812 0.12573324
-0.07597408 0.16905794 0.10520454
0.13664043 0.09024113 0.055527683
-0.023607565 0.15205412 -0.4166277
-0.1750915 -0.013059533 0.12658097
-0.05240027 -0.152022 0.08983658
-0.20432413 -0.15046583 0.10737307
0.100685745 -0.0046405336 -0.3071038
0.14485991 -0.017783837 0.015906148
-0.021182239 -0.12343327 0.16148356
0.047450975 -0.15341121 -0.30350563
0.13220242 -0.044143606 -0.6047548
-0.11934563 -0.009890691 0.14538777
-0.021385277 0.1455185 0.104805276
0.19261314 -0.026655674 0.10898285
0.106757835 0.012596061 0.15120001
-0.061819606 0.05178424 0.08518971
0.003453921 0.034043413 0.0914595
0.13883738 0.008807205 0.15166782
-0.04780462 0.016972791 0.17347142
-0.102369286 0.21845251 0.174736
0.1875494 -0.06348076 -0.0010932724
-0.1912538 0.07192201 0.110275336
0.02978157 0.07041487 -0.47695985
0.09294074 -0.025752284 0.13330398
0.077836886 0.03760103 -0.15659149
0.022955954 0.22468564 0.08959396
-0.10271784 -0.041481994 0.07645184
0.08047105 0.12398681 0.1653911
-0.12603433 0.1273117 0.16662705
-0.11853937 0.08569514 0.10517683
-0.024149556 -0.10498916 0.09823371
-0.075709485 0.13987805 0.1578987
0.17242657 -0.08375415 -0.5439313
0.1547168 -0.068557404 0.12869838
-0.08372072 -0.17050011 0.08622992
0.11139873 0.08200283 -0.30019653
0.08202314 0.14348143 0.037144087
-0.020233665 -0.055030655 0.07924886
0.059247207 0.098076485 -0.3104509
0.052344438 0.14300536 -0.31308493
-0.23599796 -0.033521138 0.12761688
0.001604875 -0.12270986 0.15089768
0.1765889 0.09012787 0.046287667
-0.25894257 0.019030908 0.13230693
0.05851657 0.1715947 0.09787184
-0.11036805 -0.06583202 0.09642415
-0.10578678 0.07783103 0.09007499
-0.02488358 -0.04208691 0.15584318
0.17778291 -0.1580726 0.19882606
0.119236425 0.10471823 -0.38799733
-0.25115803 0.023047308 0.13619624
0.12853214 0.13951606 0.054314446
0.076338 -0.008696094 0.1041228
-0.17691532 0.032139447 0.12354992
0.116494715 0.09510987 0.09960851
-0.008413413 -0.07273443 -0.42474607
0.0031763671 -0.21577562 0.122752026
-0.05105681 0.023786107 -0.6127935
0.13208047 0.11561231 -0.5811269
-0.089945704 0.014056545 0.07696113
0.17104039 0.035129376 0.011043719
0.019516308 -0.0062668216 0.17099762
-0.11253469 0.027866049 0.14246131
-0.052165028 -0.05425655 0.15291463
-0.033204917 -0.1517395 0.07771574
0.10030611 0.037110556 0.19859746
0.086108536 0.08385976 -0.58138484
0.020816758 0.16401584 0.16327296
-0.11661184 -0.17054702 0.10149766
0.060495794 0.012106324 0.14601523
-0.00071365706 -0.07730604 0.077045284
0.19680476 -0.024424007 0.1467913
-0.16833942 -0.007793416 0.11236948
-0.035315886 0.14325799 0.10110824
0.123289324 0.042908728 0.099223785
-0.066202395 0.079024285 -0.562172
-0.12941936 0.017506985 0.1338416
0.013222224 0.098297484 0.20432647
0.17070353 -0.019868402 0.15000509
-0.23629059 -0.15007643 0.093826756
-0.009168902 0.0686202 0.14094326
0.13262634 -0.13972534 0.0120138535
-0.009340507 0.019206371 0.13421918
-0.07294251 0.14923346 0.15659869
-0.09878053 -0.04390958 0.136359
0.049873102 -0.12776199 -0.57162106
0.07615783 0.07684823 -0.24234565
-0.1406506 -0.15453719 0.021208514
-0.05725476 0.023588058 -0.4830556
0.041244727 -0.052948542 0.15668473
-0.05040703 -0.13414054 0.07345914
-0.073902264 0.024547506 0.085544586
-0.17733559 0.008695416 0.1282812
0.18448223 -0.031980783 0.038924173
-0.19655381 0.11948623 -0.034845714
-0.02373894 -0.13722907 0.11205072
0.12230018 -0.015776062 -0.17570284
0.14252912 0.0062068403 -0.18618652
0.10002262 0.04118241 -0.42017406
-0.08931379 -0.25443214 0.07826464
-0.09581777 0.17188466 0.1453507
0.12026753 -0.06494409 0.19042689
-0.033493705 -0.21603087 0.07735924
0.07339001 -0.17387474 0.14327025
-0.13849469 -0.16211836 0.15491028
-0.15344 0.10255926 -0.0751037
-0.09924926 -0.015236893 0.14070798
0.12657577 -0.13016263 0.13490997
0.10291787 -0.1518994 0.19729578
-0.008111279 0.021892222 0.10846206
-0.034320846 -0.049250174 0.14854456
0.19184667 0.0661566 -0.54820764
0.13610463 0.0138774365 -0.35644633
0.060756315 0.06783925 -0.3178675
0.019479865 -0.05548649 -0.43672067
-0.2629792 0.053455662 0.1315061
-0.05338511 0.14967406 0.10296979
-0.22567739 -0.10243536 0.08400175
0.08498689 -0.19043165 0.11613052
-0.08748291 -0.17973855 0.025184592
0.14629965 0.0043322365 -0.31533936
0.16320916 0.12303027 0.022047963
0.081112064 0.14909925 -0.4815757
-0.0060071717 0.11180912 -0.5467968
-0.15989983 0.07391054 0.15162534
0.14849676 0.022378156 -0.34618044
-0.06282039 -0.009521607 0.08997944
0.166826 0.059833277 -0.5122948
0.017376762 0.11628825 -0.26734754
0.025979374 0.14652154 -0.558898
-0.055383917 -0.05009036 0.16247362
-0.004839864 0.18589428 0.114682615
-0.044828307 -0.106009595 0.16358487
-0.04256047 -0.1541188 0.07530486
-0.07714734 -0.18744795 0.1207178
0.12223519 -0.044173565 -0.20835513
-0.030080415 -0.094992206 0.1292002
0.17171763 -0.019922696 -0.5840794
0.13424371 -0.08027109 0.13816004
0.09651783 -0.042091258 -0.5583008
0.19789448 0.03307719 0.0023984406
-0.128434 0.1376135 0.0059005446
0.039991282 -0.14126202 0.16228242
0.018278515 0.048374716 0.17067851
0.039468642 -0.06667382 0.0881638
0.10471124 0.1246939 -0.48443198
0.06137912 0.07916468 0.18297298
-0.254112 0.011618022 0.13087562
-0.05005566 0.14424257 0.10663607
0.08263876 -0.109344065 -0.30309486
0.11843585 -0.02414916 -0.12281905
0.010281289 -0.12154425 -0.52634126
-0.07706059 -0.12683362 0.1620536
-0.13683118 0.051091004 0.1365541
0.08948791 0.046051785 0.12806633
0.004240751 0.040886972 0.12271041
0.09252446 0.07984205 0.10201549
0.18729529 0.05393009 -0.54695106
-0.06501978 -0.09740244 0.06907246
-0.10073174 0.04272945 -0.18863012
-0.019618273 0.084611036 0.106144145
-0.1966457 -0.005573405 0.17380857
-0.09435317 0.21834977 0.144283
0.06320862 0.0379681 0.13994978
-0.01877692 0.017452877 0.082754165
0.1616313 -0.08171637 -0.60487914
0.13300005 -0.046878852 -0.54085064
-0.0987546 -0.102787934 0.116226315
-0.08514454 -0.07154616 -0.27663696
-0.21185185 -0.08923762 0.09079521
0.049439367 0.1086505 0.1742059
0.035430472 -0.15841238 0.05248095
0.0041167964 0.13654444 -0.31010994
-0.21080318 -0.13366808 0.109161034
-0.16451125 -0.049994793 0.06284958
0.01947965 -0.10243752 0.15365383
-0.09021131 -0.25277644 0.1773793
0.05553357 0.15920913 0.120216705
0.002248935 -0.15359458 0.088573195
0.09922884 0.12611197 0.0086473
-0.0022217631 -0.019079199 0.111749016
-0.10462202 -0.0699739 0.08247883
-0.2403151 0.030709827 0.054349355
-0.14330657 -0.18667975 0.11675466
0.06497303 0.021503652 0.18085892
-0.060519755 0.2012792 0.06312575
0.09042292 0.112929165 0.18152378
0.011728643 -0.09793397 0.17660832
0.13018095 -0.12310678 0.1568307
0.2039115 -0.11890228 0.14225748
-0.040252067 0.0018409934 0.14591862
-0.08300748 -0.0023662855 0.08418165
-0.112711936 0.1375615 0.0988993
0.12839824 0.14542793 0.008231477
0.10497233 -0.11176233 -0.2747845
0.1499592 0.016482254 -0.15264945
0.17935765 -0.012608693 -0.32402995
0.12915722 -0.018420827 0.112697445
-0.10802966 0.09853818 0.15328662
-0.09240572 -0.007887654 0.104297325
-0.2066621 0.051217604 0.08882782
-0.0073023075 0.10062373 -0.5663495
0.19923182 0.0115527995 0.085165046
-0.12920028 -0.00982814 -0.3604582
-0.08959988 0.1841621 0.06567766
-0.10900758 -0.048045 0.149579
0.076547965 0.03611814 -0.1287501
-0.2058701 -0.15440944 0.042514477
-0.04820929 0.1331518 0.09676235
-0.0409834 0.1069646 0.13562122
-0.15886784 0.08080989 0.122255296
-0.06617634 -0.17179248 0.122109175
-0.045862705 0.13150968 -0.18012816
-0.07159951 0.13589847 0.13207348
-0.0032745865 0.010771735 0.14694333
-0.052205514 0.035479777 0.09405612
-0.025486598 0.021841189 -0.33421004
-0.18095432 0.113656536 0.113526285
-0.08474066 0.13413559 0.057737693
0.053407535 0.15914789 -0.01758872
-0.13628238 0.11143027 0.0823145
-0.009703592 0.07244829 0.12685183
0.09894716 -0.14145532 0.062350832
0.049329314 0.20235696 0.065525554
0.1346373 0.10613779 0.097701296
-0.060655776 -0.05249044 0.08538853
-0.021383606 0.037275575 -0.6284654
-0.11350865 -0.07338444 0.11569844
-0.009024735 0.2128406 0.16524892
0.17356779 0.1070292 0.0772946
0.10964078 0.018054213 -0.27344337
0.11852564 0.06320979 0.16029774
0.10179395 -0.044793766 -0.24578145
-0.051759858 -0.04558659 0.1370744
0.055645734 -0.039785694 0.10928104
0.036624637 0.033481378 0.15983835
-0.19288374 0.073849864 0.05726634
0.080622464 -0.055735096 -0.44273955
-0.0063768434 -0.1742195 0.16586606
0.0021245028 -0.19920997 0.10560015
-0.12065878 0.16095167 0.16356462
-0.14554058 -0.18491343 0.1746214
0.1544505 0.08788339 0.10906142
-0.18919133 -0.0037055137 0.07884968
0.0649798 0.14282782 0.05689547
-0.15913302 -0.019359274 0.13824716
-0.04326406 -0.19813298 0.11003106
0.08367889 0.082935765 0.1673677
-0.052782647 0.00030225248 0.12595655
0.09358853 0.0827324 0.13890724
0.012814043 0.1379804 0.19997063
0.068451494 -0.046793982 0.13447535
-0.20083465 0.04687912 0.14831877
-0.23820226 0.0370265 -0.007919651
0.04693251 0.07927474 -0.614385
-0.023657573 0.16178058 0.088693246
0.007441139 -0.13976723 0.08933419
-0.11148092 0.20479147 0.11033994
0.015924323 -0.17764977 0.1734146
-0.025608933 -0.00397786 0.16857055
0.05081755 0.069489725 -0.15945403
0.031024413 0.13193597 -0.21909364
0.12824453 -0.046597946 -0.45563695
-0.08076098 -0.10643598 0.14726733
0.13823631 -0.042054206 0.19758128
-0.13714314 0.010479288 0.13399188
-0.05286993 -0.23910978 0.025331888
0.015711462 -0.15792434 0.11312603
-0.0033467952 0.16528216 0.18485564
0.09359512 -0.03587411 -0.41596103
-0.11330027 0.17301965 0.019727627
0.0023168945 0.17417419 0.06717653
-0.2557078 0.10183933 0.15361837
0.18495816 -0.11379312 0.052591637
-0.08957981 0.08756653 0.15037967
-0.097445756 0.107411474 0.12650396
0.08895045 -0.051436923 0.16278051
0.06563852 0.051412545 0.18336314
-0.1306396 -0.2165786 0.12996314
0.07233465 0.090487145 0.12864678
0.09938813 0.02222983 -0.30755532
0.05928257 -0.07850929 -0.64857113
0.03354136 -0.21575779 0.19037595
0.17079942 0.07446815 0.09530407
-0.035972882 -0.030898122 0.13914415
-0.000794914 0.15521608 0.024608234
-0.004376495 -0.016630199 -0.62157285
0.10087377 -0.13176951 -0.008739909
-0.0092679905 -0.0065745474 -0.6169847
-0.14478125 -0.07567643 0.14376126
0.057800338 -0.11700302 -0.4907318
0.03262663 -0.14680119 0.054838937
-0.10191093 -0.021807393 0.13238844
0.04326971 -0.016223462 0.10198306
-0.059229497 -0.22294375 0.086883605
0.13992265 0.021764135 0.13069725
0.13753743 -0.021612553 0.13056295
0.048763014 -0.18581621 0.14210743
0.06359274 0.111422494 0.20068583
-0.1411109 -0.13388066 0.08666944
0.025652928 0.1382784 0.086031064
0.122694775 -0.11203447 0.17877953
-0.20479256 0.045652613 0.114336215
-0.21239962 0.073568866 0.16220088
0.024709716 -0.018103985 0.15473697
-0.18394513 -0.10460863 0.109632686
-0.06051718 0.10030615 -0.1907846
0.21995611 -0.046857763 0.010570216
0.13698207 -0.10745285 0.15343195
-0.07702965 -0.004795098 0.1695629
-0.013314036 -0.0063508176 0.14855084
0.10770273 -0.015309382 -0.25220454
0.07200808 -0.018317888 0.14174965
0.12781657 -0.09254551 0.11363085
0.016216502 -0.23943752 0.12917191
0.08651381 -0.106698774 0.18703182
0.13665663 -0.036976542 0.19958194
0.12772608 0.08338167 0.17319402
-0.054657202 -0.12691166 0.07038548
-0.16096371 0.1596725 0.14338145
0.13947713 -0.10060695 -0.2899296
-0.045844592 0.14078236 0.15582508
0.11359083 0.009507176 -0.34982386
-0.019458821 0.12107611 0.11478738
-0.013877774 -0.15538038 0.18228886
-0.037391238 -0.009753226 0.1561615
-0.020431034 0.14109188 -0.3001957
-0.0038361808 -0.01986988 0.11964637
0.086972594 -0.11221348 -0.59401625
0.023653049 0.09782906 -0.36152047
-0.036094356 0.08720701 0.112219915
0.11855253 -0.011692042 -0.27475893
-0.10571922 -0.08783821 0.15248002
0.006588642 0.0153073715 0.0928104
0.06976699 -0.14641838 0.083232276
0.036387753 0.11918123 -0.4733103
0.09989031 0.012958857 -0.4986124
0.12522824 0.061133318 -0.59702796
0.16880505 -0.030505108 0.16592427
-0.095652044 0.050561354 0.10482952
-0.2179347 0.05166767 0.09799539
-0.1606284 -0.17262045 0.09146041
0.046507962 0.110869184 -0.22712533
0.09735509 -0.13048318 0.102102794
-0.0013124105 0.026728962 0.1467276
0.07305121 -0.15226232 0.09376562
-0.17973046 -0.14579806 0.11631747
0.12288217 -0.030017506 0.1756103
0.055465173 0.15827645 -0.45508
-0.021423675 0.09380701 0.1721529
0.070570715 -0.11491478 0.15374433
0.07383519 -0.11227109 0.114864446
0.096322335 0.11736061 0.151071
-0.16739471 0.101725586 0.08680543
0.11304336 -0.012013049 -0.28160992
0.10551762 0.06387953 -0.43946776
0.12743242 0.02301197 0.17823899
0.0799901 -0.009852059 0.15699326
-0.18265775 -0.093948744 0.15583545
0.12295538 -0.025327973 -0.53129977
0.07037672 0.1995044 0.14649844
0.098897144 -0.07691194 -0.41910195
0.042945832 0.07442696 0.1234901
0.0446792 -0.0425592 0.096211754
-0.16108605 -0.16178954 0.15212476
0.16502255 0.0031211954 -0.34885353
0.08909673 0.18621561 0.097472176
0.023227347 0.018716399 0.11256738
-0.066098176 0.11663747 -0.47494343
0.027225781 0.06538999 -0.18974423
-0.006006184 0.22207348 0.12100868
-0.082628384 -0.154293 0.12859128
-0.20420127 -0.042247288 0.10408121
0.16598456 -0.097662404 0.124750674
-0.13433515 -0.02738071 0.0926515
-0.061869986 -0.21683623 0.1846797
-0.15576448 0.13002612 0.09877605
0.047971774 0.10330184 0.15924022
0.20069683 -0.02879958 -0.5029438
-0.05266803 -0.20576927 0.17625976
-0.09079363 0.073507406 0.11990218
-0.13710606 0.04188427 0.08531215
-0.022408033 0.14577483 0.11833767
-0.055743504 0.036836177 -0.49109215
0.06658669 -0.08578668 0.11681131
-0.0017144143 0.015056813 0.11552669
0.057442404 -0.17156717 0.11507464
-0.06342971 0.099038675 -0.5668027
-0.18383119 0.040174164 0.14636731
-0.07110796 0.052772187 0.17476557
0.043050945 0.020842083 0.12605484
0.06099392 -0.09883279 0.17007208
-0.16944481 -0.010925438 0.12587917
-0.08605294 0.15543227 0.11688113
0.08663462 0.059420034 0.1229444
0.18965685 0.08128746 0.1273981
0.16989137 -0.10792642 0.1266753
-0.04114744 0.11457225 0.12915187
0.16357724 0.0535247 0.18228665
0.067524515 0.023623457 0.11072863
-0.23858617 -0.02899897 0.10687579
-0.13650255 0.15396802 0.1510697
0.13067144 0.09196418 0.14511836
0.15809968 0.16708738 0.022548143
-0.19081034 -0.20632616 0.03692193
0.03693874 -0.20775723 0.0911839
-0.12167632 -0.16567704 0.11570933
-0.19795315 0.10379798 0.05811343
-0.03121164 -0.031275865 0.1321042
0.016071377 -0.13797656 0.18013915
0.105536185 0.062312085 0.14892216
0.055177305 -0.06525798 -0.54085994
-0.14447169 0.058364954 0.06390434
-0.09782179 -0.045386568 0.149275
-0.1771735 -0.019786324 0.08153087
-0.018393027 -0.1426366 0.16745606
0.061733443 0.15486403 0.15685461
0.019663723 -0.15925139 0.13793892
0.07614553 -0.16714647 0.12334293
-0.19063078 -0.06740207 0.06302576
0.002763021 0.07986655 -0.63644433
-0.22164789 0.08006427 -0.025204955
0.010749061 -0.0020063682 0.10882904
-0.17559251 -0.11927299 0.073389515
0.057193816 0.06659632 0.1450329
-0.038702592 0.18951035 0.04028014
-0.036193762 -0.19685766 0.17609803
-0.108058244 0.07662492 0.16527918
0.1331506 0.10339129 0.074322
-0.18206309 -0.06454505 0.16325004
0.18494688 0.014326663 -0.5368103
-0.0053794268 0.064857855 0.12962815
0.0070940177 0.04201788 -0.48450682
0.038770687 -0.055226795 0.13444392
-0.065649115 -0.20356783 0.14229578
0.14043272 0.12792666 0.21064964
0.035132933 -0.19620846 0.15333804
0.14585675 0.056769382 -0.39864433
-0.107745156 0.1699046 0.1641253
-0.14524385 0.12505049 0.103430614
0.058599133 -0.084964946 0.13935573
-0.05354198 0.06998556 0.112221904
0.08933208 -0.092088304 -0.3667648
-0.06665664 0.1268564 0.1359694
0.059468117 0.09912755 0.13219157
-0.1576132 -0.044677194 0.115964815
-0.05095117 0.12747592 -0.45466304
0.15092866 -0.12692693 0.15340883
0.12303234 0.06643592 0.051581822
-0.0059498865 0.12032133 0.110931635
0.12232451 -0.06382342 -0.51335466
0.037005752 0.07818181 0.085639976
0.090567335 -0.029676719 0.09639321
0.004505805 0.10019488 -0.4575285
0.21024399 0.045864195 0.057514463
0.09439247 0.1506599 0.15055852
0.064100176 0.16268845 0.1448451
-0.0028257733 0.15217479 0.1179533
0.15780775 0.041312125 0.14033452
-0.12901142 -0.029327357 0.09243384
-0.03704084 0.052862436 0.11422538
0.052400414 -0.17135753 0.074366994
-0.055170406 -0.17749146 0.12170531
-0.11502808 0.11790213 0.15075257
0.11874952 0.03668652 -0.13214345
-0.10845132 -0.10611224 0.08780451
-0.1869637 -9.8827615e-05 0.13214965
0.036772143 0.021642825 0.10460039
-0.14242458 -0.102059044 0.12467922
-0.20947108 0.12945294 0.03447705
0.087697275 -0.014370795 -0.44379008
0.045843225 0.07494528 0.18487105
-0.15492932 0.063944735 0.17227757
-0.030860987 -0.09494955 0.10284041
-0.10961067 0.13819394 -0.00940157
0.19047488 -0.05715863 0.041045222
0.14933455 0.06395369 -0.37489605
0.10534152 0.119953744 0.13238028
0.076043725 0.13207331 0.11512379
-0.080822274 0.13772525 -0.43221122
-0.004968399 0.06368052 0.16898794
0.0031854045 -0.10968527 0.17600012
-0.1273464 -0.026225433 0.06838351
-0.08457426 0.080926836 0.13937882
0.020247664 0.12772936 -0.18894604
-0.033786885 -0.22354521 0.09816087
-0.052597206 -0.041147664 -0.5074512
-0.008821565 -0.060702607 0.15881275
0.12836272 0.13889769 0.15055594
0.017235857 -0.1874751 0.1126373
0.07679547 -0.11567748 -0.41313913
