# .PCD v0.7 - Point Cloud Data file format
VERSION 0.7
FIELDS x y z
SIZE 4 4 4
TYPE F F F
COUNT 1 1 1
WIDTH 1000
HEIGHT 1
VIEWPOINT 0 0 0 1 0 0 0
POINTS 1000
DATA ascii
0.1451628 0.0008746034 0.15887299
-0.009215838 0.28968412 0.00425001
-0.121648446 0.083574265 -0.21907528
0.17767294 -0.24802914 -0.07086873
-0.042678352 0.22214916 0.0075195
0.045287747 0.0011447411 0.15196085
0.14655593 -0.100834206 0.15275255
-0.1859161 -0.08695385 -0.18700176
-0.085861474 0.0688216 0.22186129
-0.111397855 -0.14751914 -0.1815391
-0.068867 0.21337229 0.083150886
-0.20514221 -0.017363472 -0.296307
-0.17484069 0.09010645 -0.15670703
0.08258477 0.1920626 0.12166476
-0.07487596 0.28662515 -0.073572695
-0.04643065 -0.028017215 0.15295509
0.043674473 -0.0827301 0.18834554
0.035266176 0.23358142 0.019341186
-0.019458197 0.16769135 0.17712364
0.15115057 0.036363374 0.102773085
-0.0016315272 -0.19630893 -0.010337502
0.0013326018 0.08041147 0.18356635
0.039141383 0.22941828 0.08409654
-0.05796865 0.14500865 0.14064907
-0.019863905 0.06969668 0.2107955
-0.09681393 0.05097334 -0.28370675
-0.06923817 -0.0026968315 -0.19779791
-0.11203709 0.008286991 0.10443621
0.07327609 0.15482093 0.15066648
-0.22232138 0.22726408 -0.056035746
0.09721974 -0.08282299 0.21874402
-0.053300705 -0.027552905 0.18424018
-0.08183188 -0.17282979 -0.029022852
0.029284624 0.020985093 -0.26626644
0.12364531 -0.07671763 0.19761994
0.15190789 0.009625251 0.15267526
-0.27904606 0.20044488 -0.2239612
0.21124707 -0.25452992 -0.080061205
0.15605496 0.12189748 0.11723506
-0.022355748 -0.1387796 0.13771771
0.22872609 -0.120971404 0.04622393
0.09369596 0.12027284 0.096235245
0.2043071 -0.2581918 -0.11628496
-0.05238577 -0.052857857 0.0834142
-0.06565339 -0.07004663 -0.20952941
-0.029466782 -0.29657254 -0.11076952
0.18357688 -0.17256449 -0.001612912
0.17087673 -0.25167772 -0.02728904
0.0706135 0.0622444 -0.31048435
-0.2190732 0.19559759 -0.13182254
-0.15752983 0.28194043 -0.07268305
0.104005665 -0.2893538 -0.046080183
0.15649472 0.21122064 0.027999042
0.035397068 0.2283636 0.05743178
-0.032399375 -0.28553918 -0.10023914
0.099707596 0.030896572 0.17691106
-0.1470936 0.03727254 -0.19343197
-0.017280666 -0.27437407 0.054646652
0.039170828 -0.028540554 0.18269895
-0.23688792 0.31594095 -0.20271894
-0.2265607 0.19835635 -0.12241686
-0.051448945 -0.20300274 -0.011811511
-0.088491134 0.2517256 -0.014669435
0.014409681 0.00058009574 0.22794116
-0.21127658 0.071630575 -0.20442274
-0.18804002 -0.054466687 -0.20443693
-0.12675057 -0.03400704 -0.2396686
-0.24630447 -0.042301904 -0.27568126
-0.05230158 0.15756616 0.15233411
0.10826252 -0.18355842 0.048498254
-0.08378231 -0.18659008 -0.103424415
0.15737185 -0.08136024 0.12165631
0.018123506 0.2609867 0.12793139
0.13189092 -0.1777842 0.07808273
0.09009462 0.2289451 0.1165236
0.19601564 -0.11469061 0.022613583
-0.046923384 0.31143123 -0.12411087
-0.26148835 0.21355239 -0.18361796
-0.09317096 -0.16509129 0.030703159
0.011236488 -0.00047681935 -0.2680638
-0.016443579 0.060569376 0.21111692
0.1909891 0.16719851 0.09974605
-0.017853135 -0.19089428 -0.04581398
-0.03897269 0.007726657 -0.24227297
-0.08201114 -0.24507308 -0.2069563
0.09713556 -0.05985722 0.14491758
-0.0069014095 -0.3272235 -0.021567885
-0.15049683 -0.10904512 -0.19535857
0.11467009 0.14339481 0.09930019
-0.04128461 0.12494188 0.15616009
0.024149667 0.24278851 0.014657482
0.09671406 -0.20456478 0.09148076
-0.0630961 -0.10771809 -0.22531718
-0.10057243 0.19695726 0.16482052
-0.19120304 0.2193581 -0.033703674
0.0071709347 -0.14424853 0.12875824
-0.008486529 0.18531491 0.15573242
0.12893824 -0.12589596 0.12486031
-0.07353153 0.3073626 -0.15984601
-0.13543965 0.15185851 0.12552124
0.16023393 -0.01708196 0.107415274
0.030365326 0.14568749 0.14297311
0.09385265 -0.23029472 0.053049542
0.1429195 -0.0138265 0.18802163
-0.044993486 0.03018384 0.22328843
0.021874845 0.052409183 0.19142185
-0.011553999 -0.053936664 -0.21774678
-0.11171244 -0.27392057 -0.103643425
-0.059484318 -0.0472723 0.14726712
0.07785593 0.015719863 0.21450134
-0.10442058 -0.0801154 -0.27372772
0.18718693 -0.19496192 0.062942885
0.004004145 0.24368262 0.027001103
-0.18505077 -0.22652836 -0.261399
-0.06811817 -0.11348736 0.1444954
-0.054257806 0.16961926 0.13940418
0.1244537 0.013357793 0.12364458
-0.14589664 0.02987109 -0.17819783
0.04421153 -0.19047658 0.062435795
0.18628322 -0.21951447 -0.08240417
-0.094549514 0.20607232 0.038960855
0.043082394 -0.32240504 -0.08798924
0.009435783 -0.17172636 0.1730503
-0.035040323 -0.26237145 -0.04580778
0.1871602 0.03578032 0.1176008
0.2094905 0.12634769 0.16111146
-0.0428861 0.047195446 0.23552294
0.033549335 -0.24590522 -0.20404911
-0.0067549655 0.15437548 0.1695783
0.10986056 0.2881799 0.105278574
-0.12413209 0.23108673 -0.06019123
-0.15890637 0.2746941 -0.11578027
0.07814953 -0.16418341 0.1823062
-0.026068736 -0.14914154 -0.19051185
-0.0367621 -0.31773156 -0.13785116
0.022022683 0.07545157 0.1290807
-0.16792788 0.2183363 -0.027360426
-0.1306272 0.19530489 0.1321052
-0.013901359 0.2597811 0.050096095
0.23462363 -0.06776888 0.12191768
0.059056837 -0.09373622 0.17849053
-0.056107894 0.047563534 -0.22191381
-0.19198407 -0.044974007 -0.28379688
-0.048528608 0.21208085 0.010335284
-0.25884426 0.07685267 -0.2818922
-0.041229784 -0.007061996 -0.23308353
0.07768064 -0.22484429 0.035357237
-0.056184515 0.09227868 0.1444716
0.117993765 0.20453864 0.05751902
-0.009425084 0.012607951 0.14413795
-0.057301927 0.16326965 -0.31263688
0.016006248 -0.19699396 -0.39076692
0.100040585 -0.08760033 0.15551575
0.0729128 -0.027263133 0.19466096
0.15133204 0.018131824 0.1845965
0.18925895 0.120656125 0.09301747
-0.21866009 -0.09421895 -0.2986583
-0.16665886 -0.12850986 -0.17810233
0.15066078 -0.19050895 0.019817041
0.115476705 -0.06843128 0.21279201
-0.119356185 -0.32226962 -0.1674987
-0.17257234 0.28901196 -0.14363907
0.16804543 -0.301579 -0.10422804
-0.032844525 0.29321852 0.006394296
0.14121068 0.14783604 0.062150214
-0.11820459 -0.18293929 -0.1991063
-0.02533795 0.0033104576 0.21417898
0.118655026 -0.23895392 -0.018834122
0.027936803 -0.07414213 0.18106806
0.027696954 0.3357173 -0.040061112
0.14194277 0.17417142 0.14531709
-0.08397692 -0.24174948 -0.13732508
-0.12645657 -0.19014959 -0.22446916
0.14679724 0.11546113 0.15355533
-0.22507283 -0.030166985 -0.25114667
-0.14842816 -0.031037396 -0.2521677
0.047183994 -0.33545786 -0.054645535
0.08093146 0.26640895 0.058318578
-0.04870851 -0.12248143 -0.20526116
-0.059808705 -0.13009755 -0.044609133
0.011210248 -0.074016534 -0.26543587
0.08999778 -0.116974875 0.0974258
-0.07898304 0.17030543 0.17671287
0.10185631 -0.13156861 -0.21230106
0.263786 -0.06753713 0.037483558
0.12240472 0.2151055 0.11186684
-0.07288676 -0.24033755 -0.048764367
0.19600014 -0.17769207 0.06697744
-0.081138626 0.15927918 0.14085723
-0.054468032 0.02655127 -0.2538113
0.19456112 -0.042489253 0.13334207
-0.048485726 0.01496241 -0.21210083
-0.0053450493 -0.32540777 -0.077516966
-0.051293485 -0.004691694 0.077103265
-0.17155547 -0.21165334 -0.25394413
-0.21113314 0.11083061 -0.103342324
0.031928018 -0.13956828 0.15090433
-0.095971696 0.13600689 0.096795954
-0.059593156 0.1574102 0.16729736
0.043635316 0.22792795 0.06458076
-0.05981234 0.1562101 0.15256666
-0.024242729 0.03387023 0.19210282
0.039735347 0.29791912 -0.15475069
-0.044592276 -0.26183972 -0.22211136
0.20648998 -0.023350766 0.14853713
0.15001468 -0.14112785 0.062585674
-0.03349038 -0.30217752 -0.18145965
0.014491224 0.12706858 0.16817823
-0.052512977 0.23845679 0.112823606
0.16665104 0.15458222 0.07612131
0.08648829 -0.25904712 -0.019714613
0.055212196 -0.116891704 0.09858223
0.025312338 0.054639634 -0.28540933
-0.019909928 -0.20341204 -0.0373735
-0.1104788 -0.21427979 -0.15820287
0.052276816 -0.09306172 -0.3214966
0.1289447 0.22252764 0.08721248
-0.08252369 -0.092767686 0.101486675
-0.013287308 0.30567077 0.07236599
0.19500038 -0.22031067 -0.00021471285
-0.018125592 0.26472697 -0.21781081
-0.18541826 -0.07863969 -0.19395722
0.1904195 -0.14275591 0.08049349
-0.00971346 0.04735896 0.16001567
0.16080539 -0.18273363 -0.032025114
0.016338274 0.19200584 0.12143203
-0.14914021 0.15204614 0.021506691
0.058372997 0.30796096 -0.06696028
0.16944888 0.14715773 0.11091051
-0.15675358 0.19302572 0.14794935
-0.0030097323 -0.24744965 0.1174692
0.039215606 -0.2501607 0.0346309
-0.22419666 0.2948955 -0.050326597
0.13614695 -0.13159204 0.09570569
0.0585809 -0.18940575 0.07881666
0.06616696 0.3365713 -0.13127686
0.04063516 0.09103743 0.10643699
-0.12088156 0.05889751 -0.2308115
0.03638904 0.14314945 0.16615544
0.008311811 -0.104717396 0.2433311
0.09849379 -0.16802503 0.13277628
0.005632152 0.22195819 0.14421128
-0.16231279 -0.094516724 -0.22026534
0.08455322 0.13879035 0.091173604
-0.17187007 0.17990781 0.019697318
0.17884077 -0.10070823 0.13881327
0.12732121 0.21669796 0.098772205
-0.17127658 0.1244216 0.03934894
0.0343786 -0.031097004 0.15754546
-0.051834174 0.1272477 0.18782757
0.0043998426 0.029067762 -0.27972695
-0.06932934 -0.08175593 -0.2021501
0.2678375 -0.07496142 0.09916612
-0.15584396 -0.074662946 -0.21221921
0.06431626 0.2787023 0.0021912688
-0.14341523 -0.16342896 -0.08851995
-0.21624443 0.052125677 -0.20822121
-0.23357387 0.05857753 -0.19404092
-0.056146372 0.1941316 -0.34297207
-0.019043162 0.3331039 -0.13906424
-0.06740462 0.2589535 -0.1888403
-0.19052903 -0.19810319 -0.27305835
0.11772223 -0.30298418 -0.007103607
-0.21644846 -0.01984769 -0.26962465
-0.15590395 0.061934434 -0.17182004
0.027139038 0.31950644 0.006478471
-0.24522586 0.2975179 -0.110368595
0.057258748 -0.14794542 -0.17031665
0.0145894345 0.101636894 0.14597
0.15257135 -0.06987092 0.16242096
0.043639224 0.11444537 0.13206229
-0.029435176 -0.13816908 0.03362295
0.09654987 0.18749334 0.07595481
0.11310166 -0.10069243 -0.22885047
-0.16311523 0.12859537 0.0034959926
-0.23559694 0.035245754 -0.28276673
-0.108235456 -0.17322232 -0.20243062
0.18934108 -0.0053128717 0.16322365
0.08622667 -0.27950567 -0.27300102
0.24622916 -0.11326308 -0.0007005046
0.103294544 0.054838106 0.14073457
-0.081750885 0.10038818 0.11557185
-0.023335794 0.007893545 0.17193244
-0.101663336 -0.24229126 -0.22065613
-0.065698184 -0.13765734 -0.2339271
0.18274686 0.011978929 0.09549989
-0.121364996 -0.008696579 -0.28509992
-0.14213955 0.120327935 -0.049198482
-0.06850178 -0.29224628 -0.2159724
-0.05775172 0.23375468 0.003373939
-0.08472821 -0.17779666 -0.16184686
0.18045278 -0.23545088 -0.03538628
0.06117057 -0.014393595 0.23353742
-0.15985185 0.0012219169 -0.17350286
-0.17457539 0.15110022 -0.11120987
0.043218452 0.32565916 0.015837658
-0.09714388 0.08203179 -0.027634947
0.00070852647 0.050493844 0.16527604
0.16785002 -0.13928354 0.051071245
-0.022532325 -0.35546708 0.038067404
-0.02961017 0.31186587 -0.21537547
-0.13713409 0.23532343 0.16191128
-0.07056628 -0.20880581 0.07012331
0.022425016 0.1820185 0.16046861
-0.06316594 0.24471314 0.12760961
0.13701722 0.06252775 0.13534
0.061803553 -0.054649033 0.19982378
0.1358819 -0.27033257 -0.044299107
0.108985685 0.062193554 0.15117086
0.021641584 -0.07365804 -0.13535756
-0.056013092 0.05977326 0.14744253
-0.12724458 0.099359594 0.06426979
-0.058244884 -0.33001846 -0.1003073
-0.059530508 -0.06360103 -0.28389168
0.16761294 -0.11690826 0.03660042
0.065923184 -0.06590053 0.15051568
0.09828563 0.035654396 0.1743006
0.19013643 -0.10723726 0.058857936
-0.010794786 0.026724683 0.12862138
0.09217479 -0.17735992 0.014669629
0.08648987 0.10325761 0.18088818
-0.018377211 -0.050254147 0.13334979
-0.07227857 0.027562143 0.10174592
0.13146986 -0.17186625 0.09384774
-0.17535515 -0.103634305 -0.2665581
0.09522784 -0.010077328 0.117145166
0.07755985 -0.25248972 0.042736553
0.1510008 -0.09030946 0.10392906
0.12104217 -0.21106873 0.026034465
-0.021004053 -0.112365 -0.24016568
-0.2409216 0.012097203 -0.2692022
0.06951503 -0.16980748 0.1124375
0.068366736 0.0341778 0.1404077
0.046093997 0.24555361 -0.12477198
0.08107831 -0.27684617 0.110220455
0.11996116 -0.17898063 0.055118565
0.012233809 -0.0131490845 0.2045004
-0.06893779 -0.0018540006 0.118824825
-0.13139844 0.17238136 0.11127768
-0.1193281 -0.27573025 -0.32290646
0.009015917 0.12581119 0.14139266
0.046627615 0.039372407 0.13459234
-0.09857436 0.256295 0.023047093
0.11447359 -0.045436606 0.17686191
0.0887206 0.045624048 0.17461018
-0.10455351 0.034412257 0.15275416
0.041236605 0.19110827 0.07778717
-0.02521322 -0.33167416 -0.09928468
-0.14150764 0.18828008 0.030137017
0.168039 0.032049794 0.14704253
-0.20833835 0.287833 -0.1853473
0.038300533 0.33267128 -0.17024624
-0.017099055 0.051988136 0.124469995
0.15896352 0.0056144646 0.17287862
-0.06641881 0.28169277 -0.079099834
-0.041547373 -0.004654337 0.18847202
0.17225891 -0.07218235 0.13268678
-0.17242463 0.10295652 -0.23863463
0.10783016 -0.2685582 0.07372859
-0.06610515 -0.30168208 -0.1200909
0.09802825 0.18005547 0.05465972
0.09242934 -0.34755895 -0.02944468
0.1914815 -0.16579583 0.022286292
0.016065663 -0.22612184 0.07202762
0.19154453 -0.0131148575 0.09344525
-0.123130724 0.22231601 0.14733174
-0.20072517 0.14859317 -0.013292818
-0.29554236 0.04773041 -0.29210266
-0.09660089 0.12884492 0.15440601
0.24056944 0.03142205 0.106454365
-0.10734921 -0.028435992 -0.25756294
0.09973927 0.23149681 -0.13609256
-0.12304406 0.18906905 0.12018127
-0.05027421 0.10203916 -0.17930752
0.13154607 0.1854628 0.04937021
-0.06944777 -0.13554539 0.078347646
-0.07488644 -0.181778 0.03828815
0.17294143 0.056705423 0.072872624
0.22491126 0.10626038 0.1031254
0.035478164 -0.037615605 0.18149807
-0.09656448 -0.29058024 -0.23653407
0.15871662 -0.0559698 0.1849434
0.029577 0.097183086 0.14940108
0.06980869 0.17182899 0.12680411
0.15947753 -0.05873381 -0.09880468
0.09445299 0.09562772 0.14062089
-0.18816556 0.10085997 -0.040365364
-0.11789793 0.23309651 0.038875446
0.16442686 -0.10076762 0.13508013
0.038565267 -0.1143426 -0.21130896
-0.06746271 0.22311044 0.012114697
-0.07808715 0.18108658 0.09224199
0.012000444 0.24733542 -0.08612088
-0.10793542 -0.05312185 -0.2084548
-0.19993865 -0.006442811 -0.16440825
-0.19565275 -0.122036055 -0.20593749
0.22524296 -0.16767956 0.01156615
0.14338313 0.0060433494 0.17599216
-0.14146961 0.04610204 -0.17127074
-0.0032758794 -0.20601553 0.07718251
-0.16412365 0.17252581 0.056770068
-0.0800691 -0.22534056 0.045531206
0.13811006 -0.037112202 0.17929694
0.22017899 -0.07256015 0.14100724
0.0014936982 0.24824888 0.06785693
0.042951837 -0.07129738 -0.30208135
0.09040586 -0.21426131 0.069204316
-0.101969615 0.22142425 0.19182369
0.22270007 -0.204668 -0.026556091
0.12682626 -0.20572452 -0.0131611265
0.028289577 0.043493398 0.17246193
0.028784225 0.028568638 0.21876717
0.13063508 -0.058133032 0.11325572
-0.20898685 0.013304818 -0.25060186
0.002934029 -0.06994215 -0.20786051
-0.1301202 0.24147207 0.060902387
0.12707525 -0.010069844 0.15923764
-0.027553115 0.28004226 -0.027273225
-0.018536547 -0.14720312 0.05591246
-0.024101792 0.063553095 0.18910544
-0.19445129 0.3067741 -0.093303114
0.09063678 -0.27645826 0.0027580925
0.16346268 -0.016357822 0.13302432
-0.11399011 0.21534485 -0.027810052
-0.031527046 -0.32159352 -0.035531458
0.13897541 0.10293977 0.1069685
-0.11349111 -0.16986759 -0.093494646
0.065827325 0.024114933 0.18442969
-0.20627056 0.16340408 -0.105503924
-0.018668637 -0.0070398003 0.085289106
0.13954777 0.1507171 0.06367331
0.011225488 0.24958311 0.086743094
0.021422666 -0.2797372 -0.00016453178
-0.01344975 0.12079571 0.1264503
-0.2052101 0.31131122 -0.05399491
0.03816631 -0.2284154 -0.33948448
0.1580563 0.017401898 0.09965042
0.09787523 -0.20273614 0.014508407
-0.11618075 0.26679 0.04985294
-0.017226636 0.2129269 0.14002232
-0.26255685 0.13485444 -0.25090095
0.062262382 -0.25368613 0.038230296
-0.10690268 -0.0755197 -0.21037862
0.1779886 -0.1922942 -0.13901164
0.024020772 0.1751325 0.11454501
-0.05912552 0.22107162 0.017511964
-0.06901916 -0.07042482 0.12834686
-0.15279187 0.25191712 -0.13789056
-0.10585259 -0.21676096 -0.15593708
-0.10432232 0.06220237 -0.27451405
-0.034083482 0.1999251 0.16884106
0.1223457 -0.10238221 0.19399343
0.19837043 -0.25761423 -0.03894757
0.114982046 -0.12308042 0.058517348
0.0682272 0.25232744 -0.052707843
-0.014701631 -0.13310759 0.16269761
-0.05350383 -0.2644961 -0.1740401
0.19098736 -0.08685823 0.09132865
0.13354364 0.03998884 0.10487948
-0.17428842 0.29492253 -0.10676335
0.19085203 -0.019167481 0.09891691
-0.21306719 -0.15735373 -0.2858881
-0.2118224 -0.09938823 -0.28177088
0.08036694 -0.11308045 0.10425489
0.009764936 -0.19810738 0.1157492
-0.05316012 0.20157571 0.13182609
0.022991184 -0.060066156 0.17012721
0.07599297 0.26677614 -0.0408679
0.065834574 0.08534349 0.1748014
0.16334215 -0.054226447 0.16101937
-0.10933662 0.3206471 -0.20911847
0.056793343 -0.058452386 -0.3424744
0.03370772 -0.15289488 0.14987588
0.13936323 -0.14994381 0.069263175
-0.16355851 0.23810445 0.10400923
-0.022135194 0.2697776 -0.026910542
0.15064123 -0.31416985 -0.07543681
-0.13574123 0.15654707 0.040420182
-0.12796967 -0.021590654 -0.2528801
0.06799283 -0.11729171 -0.24063241
0.1916153 -0.21503584 0.05686945
0.13264513 -0.042702004 0.107553154
-0.1880155 0.1460379 -0.011285126
0.03035153 0.13181643 0.15616675
0.058881927 -0.081105255 0.16310982
0.17705458 -0.21867038 -0.20485702
0.18966565 -0.18134205 0.0197488
0.12894641 0.076350845 0.14365724
0.13072304 0.12506436 0.14769551
-0.053177465 0.051913843 0.14102168
0.064304136 0.13048737 0.11072917
-0.054998603 -0.25680608 -0.0011326493
0.12148535 -0.2526965 -0.026457468
-0.1399396 -0.23621128 -0.29875115
0.043105695 0.28750798 0.03721835
0.069690555 0.19895956 0.07551521
-0.09576024 -0.21983963 -0.16127488
0.24147245 -0.14369994 0.019789262
-0.12831151 0.046424747 -0.18948433
0.17138122 -0.043704312 -0.030054267
0.08815922 -0.20467871 0.09141314
-0.08802516 0.13739157 0.17072152
0.15483792 0.12841094 0.06745802
0.16926925 -0.080879696 0.1269983
0.22480561 -0.033638787 0.09751769
0.023482816 -0.15167487 -0.13162814
-0.23982626 0.06478615 -0.30833578
0.10745809 -0.24827111 0.04062063
-0.009636754 0.09332482 0.16290948
-0.08902439 -0.14460005 -0.18159132
0.044156935 -0.07750101 0.19351305
-0.031691052 -0.22010677 -0.090371326
-0.03298567 0.2204348 -0.21382871
0.12915318 0.1800658 0.121122554
0.04680462 -0.21255018 0.10801637
-0.00586891 0.3076326 -0.019285113
-0.07162933 0.06256245 0.17664538
-0.09317393 -0.2816164 -0.124790624
-0.06750224 0.05384101 0.12109824
0.20991638 -0.0787524 0.07083643
0.15205799 0.025556553 0.12229122
0.0676714 0.16021916 0.1317253
0.027994499 0.0002374391 0.16265401
-0.039957892 0.08560279 0.12650937
0.018873125 0.16310145 0.094035625
0.0777073 0.0366239 0.12176299
0.07020485 -0.09793721 0.2231399
-0.2297806 -0.10296632 -0.21100911
-0.18788752 0.23386298 -0.1133473
0.08604334 0.033285055 0.14462592
0.062246744 -0.09479494 0.15857412
-0.08366194 -0.08345139 -0.3222996
-0.13660821 -0.25915658 -0.14061181
0.08605061 0.06581772 0.16653551
-0.075909905 -0.2076605 -0.20106813
0.033647757 -0.3052844 0.008070513
-0.00379652 0.15993746 -0.21091916
-0.1377711 -0.13335216 -0.18984
-0.16779253 0.2887493 -0.042701773
-0.0055981353 0.07390736 0.16827776
0.20690447 -0.07625982 0.12683378
-0.07443373 0.11723025 0.16684645
-0.22065514 0.22336279 -0.19634709
0.06538966 0.013657117 0.17916128
-0.17067769 0.005718319 -0.2613573
-0.13423064 0.22566412 0.04617574
0.06236195 -0.2951589 -0.026402274
0.12903726 0.18603504 0.09501693
-0.1737066 0.20129843 -0.022191836
0.10615003 -0.047301136 0.1747205
0.26713115 -0.023801364 0.13744478
-0.12222164 -0.14522785 -0.16805549
-0.1523683 0.063206874 -0.12860882
-0.0862733 -0.3170529 -0.18300584
-0.2630311 0.044074424 -0.2701165
-0.10296933 -0.22006497 -0.106863335
-0.12680118 -0.09979918 -0.15958017
-0.2790237 0.107899 -0.1865154
0.056402545 0.27131125 -0.09056676
0.10777306 -0.015177989 0.15211076
-0.13159285 0.2626933 0.12628263
-0.06051612 0.11475712 0.1429113
0.049895693 0.21151495 -0.0401458
0.18118809 0.056298144 0.1225026
0.06576491 0.24745484 0.06527263
0.029381564 0.22505772 0.08838764
0.02062488 -0.075042196 0.15278284
0.11666547 0.044348143 -0.040682998
-0.06490725 -0.017177869 0.09798234
-0.12336218 0.040271237 0.046861514
0.03630812 -0.17384626 0.111128226
-0.05740201 -0.0047341147 0.15542147
-0.2275165 0.18456127 -0.20658526
0.14574294 0.2752559 0.029589487
-0.15204854 -0.24357338 -0.13898486
0.15460601 -0.038132027 0.14349748
0.216971 0.0926752 0.10676456
-0.1081171 -0.25704116 -0.11018505
0.15525429 0.23365101 0.12035106
0.05143277 -0.09972409 0.13834365
0.26830047 -0.0704278 0.020187402
-0.1995434 0.059625845 -0.19558285
0.18930931 -0.15673546 0.06260288
0.0789766 0.017764948 0.19038442
-0.03643534 -0.056658793 -0.23594724
0.2062988 0.059057914 0.09505643
-0.11761266 -0.27403444 -0.12501755
0.06938049 -0.12918516 0.12448374
-0.060938075 -0.20071478 0.057405863
-0.09221553 -0.05191628 -0.26230487
-0.15099089 0.111020066 0.007057638
0.055279043 -0.32311118 0.029392704
0.17676815 0.035326425 0.14990833
-0.10926786 0.021242654 -0.24348988
0.16128886 -0.15770131 0.063485585
-0.050200272 -0.09066703 -0.29605117
0.06673352 0.057976797 0.15205923
-0.09129642 -0.18262286 -0.17705399
-0.17933767 0.26862937 -0.13244961
-0.07011501 0.3057476 -0.1874117
0.20380028 -0.18243195 0.029693453
0.15173417 -0.10029339 0.12074879
0.08062236 0.22052242 0.0506252
0.20826352 -0.27588135 -0.044717733
0.10063223 0.23222889 0.10973921
-0.17577547 0.27699998 -0.02561732
0.13828543 -0.1257575 0.07659955
0.050128337 -0.06620677 0.14612879
-0.02868823 0.18312551 0.11926775
0.20818168 0.09016882 0.1507937
0.045784272 0.28012195 0.027492374
0.12656233 -0.3160595 -0.046588358
-0.2089441 -0.03043055 -0.33316195
-0.035889503 0.16696574 0.15617366
-0.018883377 0.2718613 -0.0032675213
0.1711486 -0.04115051 0.12272819
0.014317991 0.27000478 -0.2861992
-0.16220988 0.107118174 -0.17869966
0.010103869 -0.15906729 0.17420554
0.117442586 -0.13571766 0.094641045
-0.047624283 -0.11243466 0.10333874
0.10790655 -0.102779135 -0.25020745
-0.01422729 -0.015339882 0.21984592
-0.07371556 0.03330055 0.15360552
0.11262992 -0.2560795 -0.017010527
0.014506472 -0.23401271 0.11897241
0.087455325 0.06026998 0.10828151
-0.0064743236 0.15408592 0.12540004
-0.18381965 -0.19839653 -0.3169342
-0.14110634 -0.0026836714 -0.17946227
-0.06418066 0.12797104 -0.06856396
-6.9417394e-05 -0.17185101 0.11598242
-0.009315754 0.01864317 0.2136615
0.19372141 -0.28064364 -0.09310604
-0.065645404 -0.28259826 -0.08553977
0.06555438 -0.1298314 0.06065303
-0.047994338 -0.07145273 0.15759347
0.041213945 0.050853994 0.22847351
0.0021814303 -0.034809973 0.20280978
0.07930544 0.31674457 -0.027020073
-0.14957596 0.12947656 0.1373146
0.13986297 0.02863033 0.15678032
-0.20456938 -0.027049383 -0.34472802
0.16271812 -0.25138786 -0.23663333
0.06841328 0.17033938 0.16615944
0.09059332 0.14815928 0.13467559
0.028947929 -0.28934827 0.0580155
-0.04275956 -0.18868543 0.044765893
0.015959414 -0.021839684 0.16402648
0.055317648 -0.036061298 0.22612698
0.02917109 0.28161427 0.060665783
0.09335255 -0.15953176 0.06161746
-0.17167687 0.14861022 0.027935809
0.031443726 0.3318407 -0.15964608
0.1025009 0.20319983 0.04822276
0.11161285 0.17284718 0.108803764
-0.100998096 -0.22953907 -0.04442728
0.059301995 -0.265961 0.0033060934
0.22524008 -0.10466879 0.061464123
-0.010304112 0.28746754 -0.16582012
0.04995284 0.24089617 0.0061930465
-0.1786847 0.24890825 -0.0016586437
0.0003026048 -0.03169376 0.1891915
-0.0016052342 -0.0068884273 0.12780134
0.16745822 0.08487656 0.18738113
0.09778866 -0.24587092 0.074195445
-0.088623255 -0.23034595 -0.25485796
-0.05939989 0.18555427 0.14670247
-0.11518259 0.14938979 0.10266376
-0.067059495 -0.028407848 0.04729063
0.18505594 -0.06950697 0.14906533
0.09770553 0.08565126 0.17414515
0.06897426 0.19906627 0.10316506
0.053663462 -0.27618402 0.03478508
-0.06911407 -0.17289872 0.06894258
-0.16248699 -0.0358509 -0.23945569
0.19141595 -0.20422168 0.015307524
0.1775992 0.08465728 0.07488655
-0.18628486 -0.17751856 -0.16144982
-0.1777218 0.20818384 -0.06335104
-0.2075963 -0.06514769 -0.26642844
0.03323508 -0.0029253857 0.19207084
0.06802346 -0.34641814 0.040204775
0.030407738 -0.13245891 -0.31545085
0.22717679 -0.027516577 0.14656071
0.0860177 -0.1357456 0.057136852
-0.14683168 -0.14267337 -0.3241627
-0.23383059 0.17722215 -0.24059573
0.03336267 -0.08056984 0.12850079
0.08693683 0.104006104 0.09522554
0.00074469124 -0.03928963 -0.22909926
0.15279752 -0.2108787 -0.039801393
0.1575453 -0.10134143 0.17541932
0.020967191 -0.008532098 0.19145429
-0.24665926 0.26087147 -0.042748448
-0.044583082 0.16211484 0.099771425
0.0036028707 -0.14025351 0.14273594
-0.23361059 0.081846185 -0.28176764
0.008230568 0.11537455 0.13168316
0.16938825 0.2005872 0.09889438
0.09104711 0.18243025 0.12343042
0.13442223 -0.04348166 0.11980903
0.10206861 -0.11198913 0.0870958
0.1841616 -0.100257546 0.12812558
0.027908105 0.07763444 0.16896799
0.20959763 0.0073691914 0.10294997
-0.10516214 -0.21279529 -0.12003547
-0.21500415 0.20417494 -0.1686158
-0.08883077 0.0475257 0.0994464
-0.116527185 -0.22335403 -0.21432309
0.11057338 -0.14790665 0.11973676
-0.17073844 -0.13734472 -0.19402985
0.016433626 0.07578545 0.16301082
0.05596307 0.28178877 -0.13903616
-0.13936117 -0.043873936 -0.18760656
0.06784907 -0.25784355 0.041426472
-0.005859407 0.29638648 -0.09563125
0.11709141 -0.025624568 0.2202364
-0.066618845 0.13207248 0.08334524
0.036319226 -0.05907996 0.18738674
0.09170347 -0.19153288 0.07791568
0.056199197 0.035355847 0.15534021
0.06471648 -0.20266317 0.14701152
0.0019158123 0.3331809 -0.0802418
0.018802537 -0.27390483 0.058111623
-0.15915458 0.07850557 0.043913256
0.040555965 0.12318922 0.09596389
-0.10689876 -0.20592794 -0.15803826
0.0073857103 0.3184921 -0.22381666
-0.04877126 0.046920862 0.20116991
-0.034149073 -0.042081848 -0.29893515
0.022103632 -0.17835541 0.060018286
-0.026001414 0.22405934 0.08550408
-0.007254786 0.24587673 -0.06701798
0.080802456 -0.15981454 0.036672764
-0.15527377 -0.021345071 -0.25736064
-0.02681102 0.0383075 0.2272328
-0.10186702 0.2053136 0.100373425
-0.00090626103 0.041601248 0.15757473
0.1825212 -0.15132505 -0.013694611
0.2137094 -0.12759584 -0.051473524
-0.0027625111 -0.091061406 0.21103573
-0.20982438 -0.21943113 -0.23583698
-0.07491446 0.08488465 -0.23649868
-0.0006167389 -0.09386848 -0.20398133
-0.25518814 0.2084459 -0.120095424
0.11023769 -0.19835675 0.08264278
0.07240982 -0.26558205 0.062105555
0.016707117 0.18656506 -0.28622746
-0.045816924 -0.015360706 -0.28523225
0.09909912 0.30486554 0.073182255
0.1980634 -0.14981234 -0.05157527
0.0013167617 -0.22949079 0.05391549
0.203711 -0.170513 -0.10418916
-0.21842535 -0.06762213 -0.18231165
0.10618362 0.041762684 0.16039105
0.06012208 0.10837087 0.09630906
-0.101894304 0.2124563 0.13846362
0.024598388 0.059205443 0.11836377
0.060545422 -0.05207146 0.1782485
0.09817831 0.06361213 0.120635904
0.17995931 -0.01493579 0.117056385
-0.23007494 -0.0772208 -0.28323784
-0.035636503 0.010469195 0.10561716
0.008801559 -0.16830862 0.025891578
0.089950405 -0.13710032 0.15509924
-0.042951442 -0.08171756 0.18345429
-0.12237722 -0.11103579 -0.2419622
0.12971309 -0.17889847 0.029098459
-0.019173272 0.18775277 0.06989245
-0.10760586 -0.24456245 -0.15873769
0.09353632 0.012190978 0.13718048
-0.06036695 -0.17183669 -0.06063572
0.17898858 0.15818872 0.055435974
0.017798556 0.05680373 0.10644513
0.08968139 -0.25544158 0.014084599
0.006963321 0.3018345 -0.16381828
0.026263349 -0.12624875 -0.103889026
-0.09811612 0.11278531 -0.24719085
0.0032365927 -0.35422343 -0.05194287
0.014691604 -0.014649152 0.15286915
0.19958027 0.15278934 0.106684305
-0.10706943 -0.19602066 -0.224585
-0.16355081 0.114002705 -0.16519874
-0.23370329 0.17638576 -0.111194655
0.1459105 0.14801088 0.11646219
0.08034981 0.27987826 0.0627524
-0.016799571 -0.26000828 0.09961487
0.07296391 -0.16831274 0.047620364
-0.029160429 -0.11203019 -0.082973145
-0.24170688 0.17420255 -0.15123619
-0.12050008 -0.061762054 -0.2704911
-0.023155414 0.118765086 0.21474953
-0.051384844 0.011118183 0.17536777
-0.04744414 0.1651716 0.15576862
0.022586718 0.260959 -0.014022627
-0.18356754 0.19370955 -0.13309987
0.06419802 -0.10816816 0.19814728
0.14166906 -0.13585441 0.08130567
0.096062474 -0.12028341 0.13002726
-0.15894125 -0.1779693 -0.22295818
0.19469751 0.0012257806 0.14219554
0.0241953 0.21254289 0.13474973
-0.058375794 0.130931 0.12881517
-0.05060778 0.11917227 0.13632882
0.013328074 0.21166891 0.1026212
-0.046653945 -0.13384964 0.17681256
0.010652532 0.2706169 0.12060365
0.16050105 -0.12995212 0.10903364
-0.18117979 0.20395674 -0.16866659
-0.14206028 0.14841966 -0.022840079
0.113471664 0.08674268 0.19855633
-0.08467724 -0.014798338 -0.19686987
0.04562805 -0.085614726 0.13432303
-0.23458673 -0.039571453 -0.2551572
0.061021 -0.23938628 0.056866717
-0.1942439 0.012027559 -0.3072187
-0.2309967 0.2597676 -0.059319474
0.080377385 -0.09643146 0.036620688
-0.006678994 0.18689023 0.067569494
0.20387746 0.060198452 0.11800827
-0.064837255 -0.20679751 0.11271046
0.11975586 -0.13465482 0.14110357
-0.24793528 0.04550589 -0.29259893
-0.07093023 -0.16323446 -0.234445
0.06559677 -0.11627917 0.22578873
-0.04175521 0.0066098343 -0.2276959
0.13886657 0.037756022 0.11357375
-0.048917945 -0.07583175 0.11234008
-0.17159322 0.1534063 0.10533081
0.020933926 -0.10651576 -0.13118611
0.044849705 0.26423216 -0.016686983
-0.05720272 0.08818331 0.17697841
0.17234388 -0.12751834 0.002222264
-0.014728096 0.067112125 0.18074986
-0.13984714 0.22223638 0.042527977
0.03316772 -0.28732026 -0.0060442924
0.017664637 0.25837964 0.16187681
-0.24787547 -0.037762932 -0.24024236
0.15072115 -0.2623371 -0.06945562
0.088547476 0.1022255 0.091732
0.11164389 -0.11803975 0.17376931
-0.028387783 0.06468169 0.0804811
0.0629835 0.10472495 0.09520854
-0.23265585 -0.013490495 -0.21550448
-0.0392099 0.017935995 -0.2542229
0.03154044 0.15966809 0.11411657
-0.20371334 0.24292141 -0.08816595
0.11870782 0.286218 0.06360805
-0.0045314636 -0.087215796 0.21526217
0.014224906 -0.03614144 0.11616284
0.09939545 -0.18964848 0.042042322
-0.022168959 0.16355093 0.12508231
-0.18592359 0.12493081 -0.12733972
0.06264129 -0.06490309 -0.396048
-0.085842535 -0.16632627 -0.026901243
0.049336806 -0.21984273 0.103302196
0.0029373474 0.29702803 -0.10820316
0.12864855 -0.28702375 -0.121116765
0.191244 -0.10862551 -0.0058495724
0.014087988 0.28032723 -0.021611791
-0.13804299 0.04171972 -0.16994019
-0.1416682 -0.12147417 -0.3385975
-0.041016415 -0.21978652 0.078187466
0.048531722 0.3117725 0.043967437
0.05946151 -0.09125172 0.1668126
-0.122629486 -0.081432365 -0.18897747
-0.07037633 -0.23056553 -0.21367873
-0.089097716 0.14946221 0.061205097
0.09143285 -0.26002654 0.057446424
-0.036352806 0.3002381 -0.24137256
-0.19296966 0.16763322 -0.19516934
-0.072666615 -0.13612586 -0.18319605
0.05449008 -0.1235245 0.1222537
0.0072533 -0.06735324 0.16333525
0.2155507 -0.2841079 -0.066025026
-0.020948073 -0.083355434 0.20805308
-0.10652821 -0.29497415 -0.07854886
-0.075776026 0.0788846 0.18500178
0.05248083 -0.06431376 -0.18015197
0.059553456 -0.22689515 0.03515583
0.005995045 0.20363317 0.11896722
-0.2883193 0.010326696 -0.35382617
0.03304649 -0.22526285 0.11237975
0.12193902 0.044704337 0.1691679
0.19449554 0.039322995 0.14856003
0.20559894 -0.059196386 0.011929811
-0.025822517 -0.123596124 -0.09295317
0.19929391 0.1534213 0.075296395
-0.17851958 -0.14419809 -0.31531382
-0.1172848 -0.1431718 -0.18177135
-0.1227686 0.11660986 0.034672238
-0.12664934 0.0151489405 0.039643653
0.051617835 -0.29122004 -0.2862175
-0.09897391 -0.1586548 -0.2232761
0.063566715 0.093694 0.15178935
0.10911019 0.041731495 0.18562256
-0.0388961 0.2863196 -0.1596943
0.02256713 0.12802254 0.105627365
-0.085767865 -0.007118428 -0.22705229
0.03193152 0.056764666 0.14579748
-0.06364657 -0.066489376 0.12874739
-0.082494736 -0.08401753 -0.30562142
-0.21935937 0.26479402 -0.02592136
-0.11165505 0.17087133 0.08778605
-0.07439871 -0.18873008 -0.07374209
0.17683966 0.0633465 0.14401056
0.043940984 0.018271452 0.17212449
0.18284585 0.16729955 0.09931755
-0.11500898 -0.00994165 -0.25980613
-0.042352777 -0.2638274 -0.058006525
-0.07939534 -0.015566548 -0.31430775
-0.29230577 0.0512891 -0.2929934
0.19211166 -0.036258165 0.19333662
0.13154498 0.23955052 0.030075248
0.10314376 0.18030146 0.11907691
0.18285565 -0.043099374 0.20389138
0.05847899 -0.19474462 -0.3406717
-0.12222368 0.2838143 -0.13819346
0.053841244 0.28606617 0.03713152
0.032472007 0.20636943 0.12871173
-0.11129142 0.10216173 0.07589322
0.09049885 -0.19355926 0.08978723
-0.10214545 0.10285861 -0.15865807
-0.22784285 -0.07540572 -0.30566156
0.20059554 -0.18206087 0.019628119
-0.113383085 0.08745677 -0.18837552
0.20291625 0.104484044 0.14682119
0.007640832 0.0072394665 -0.2997438
-0.02872271 -0.1530403 -0.14083578
-0.022276675 -0.23079285 0.12735392
-0.08110429 -0.040337928 -0.25801474
-0.05731438 -0.25972256 -0.08872247
0.03905008 0.079998925 0.19187534
-0.22464383 0.12543382 -0.26872483
0.14959666 0.2369848 0.065853484
-0.05206717 -0.21467699 0.021683186
0.09628177 -0.23960666 -0.052015122
-0.18680023 -0.09033165 -0.25122985
0.023381162 -0.10991359 0.18033479
0.016011517 -0.12254851 -0.14120188
-0.025851687 -0.28428254 -0.17475682
-0.069713175 0.1470494 0.0865971
0.024487756 -0.18862037 0.11289378
-0.08447641 0.08775233 -0.2090012
0.0072184973 -0.18447484 0.12746361
-0.06196379 0.119694576 0.15803887
0.10824501 -0.027376426 0.21005796
0.050160076 0.022686271 -0.41957355
-0.13029492 -0.30482724 -0.16590436
0.058246743 -0.06339887 0.17117597
-0.15451491 -0.05630605 -0.19528458
-0.0007070313 0.2817049 -0.16897422
-0.06334738 -0.16339774 -0.22663899
0.0097416565 -0.16234438 0.21776481
0.109729834 0.06683453 0.13359621
0.13483664 -0.12826654 0.062111855
-0.089545935 0.085446306 0.1668338
-0.012675287 0.1498025 0.14860441
-0.09443712 0.25243726 -0.07566385
-0.04494222 -0.14068499 -0.22524606
-0.12251528 0.3018478 -0.060228292
-0.17574024 0.07737462 -0.15399002
-0.0056497715 0.19245231 0.13275042
0.06685339 -0.14284724 0.113974184
0.034056056 -0.1489689 0.10061767
-0.19286092 0.013778187 -0.2366652
-0.03728317 0.2127627 0.033314656
-0.15345104 0.29395476 -0.03967665
0.029857142 -0.07206675 -0.30958065
0.052954376 0.103249595 0.09116229
0.15362252 -0.23346253 0.011439648
0.052325975 -0.35327783 0.025740817
0.020338714 -0.27594563 0.05140684
-0.2792735 0.12533365 -0.2656128
-0.18620321 0.20872694 -0.13541512
-0.022748405 0.24634923 0.12526631
0.11221075 0.21448374 0.11948335
0.052572127 -0.20802268 -0.33611828
-0.047941297 0.109240085 0.14668696
0.12641387 0.045570042 0.16397038
-0.051066667 -0.09935841 0.051551573
0.010226268 0.0017004837 -0.2798233
-0.17781673 -0.21538304 -0.2204752
0.05014836 0.05059988 0.12409799
-0.04557784 -0.1662808 0.14226145
0.042521685 -0.2389491 0.036525004
-0.16129126 0.29067525 -0.09782149
-0.06730677 0.013165261 0.19358344
-0.2620908 0.15254743 -0.1974851
0.009682619 0.051616784 0.14150149
-0.06360527 0.097192295 0.13295715
0.20001103 -0.21082892 -0.046295926
-0.09350819 0.1489403 0.15986641
-0.20173042 0.12579568 -0.1161297
-0.08643078 -0.13900802 0.10538561
0.067522675 0.044526994 0.104080975
0.04878764 0.033231035 0.11670838
-0.08025686 -0.28005716 -0.11554734
-0.25414467 0.20409246 -0.16691163
