# .PCD v0.7 - Point Cloud Data file format
VERSION 0.7
FIELDS x y z
SIZE 4 4 4
TYPE F F F
COUNT 1 1 1
WIDTH 1000
HEIGHT 1
VIEWPOINT 0 0 0 1 0 0 0
POINTS 1000
DATA ascii
-0.047163475 -0.16598351 0.028914839
0.017814344 -0.31926402 -0.104617134
-0.21245126 -0.113006644 0.113209136
0.17667963 -0.08411956 -0.008103722
-0.14753787 -0.07338782 0.10618115
-0.12034216 -0.14613757 0.1278824
-0.3213718 0.11992025 0.07239341
0.18738365 -0.3307689 -0.1569395
-0.18780422 0.051829506 0.12893906
0.13853903 -0.1697863 -0.022413932
-0.031679116 -0.19076392 0.03880102
-0.17628635 -0.32390353 -0.039545123
0.13027334 -0.0060486696 -0.07273831
0.1860917 -0.08442025 -0.048745647
-0.16892083 -0.26745832 0.04301313
-0.13330232 0.25899985 -0.07763955
0.14621049 0.17404985 0.027835337
0.04856911 -0.106314234 -0.1364206
0.20709117 -0.13728727 -0.047860228
0.20600365 0.18137315 -0.04517252
-0.17384225 0.23526904 0.07211024
-0.013897944 0.2563006 0.08209271
0.27369 0.16141479 -0.11006276
-0.048281703 -0.27216434 0.06496218
-0.05214288 -0.14218618 0.091652155
0.13209504 0.14168808 -0.07063116
-0.115406446 0.14143065 0.12618609
-0.21291293 0.17218919 0.004929122
-0.106863804 -0.09903895 0.07689208
-0.19892381 -0.31905958 -0.05291705
-0.15912376 0.02841583 0.10012616
-0.25566217 -0.18294847 0.034298822
-0.026677046 -0.21515287 0.104801804
-0.16106457 -0.24809451 0.112120435
-0.24215418 -0.051775355 0.13201554
0.1302339 -0.32340682 -0.14171435
-0.25888088 -0.1254241 -0.075611115
0.22529015 -0.14961971 -0.052092373
-0.10703141 -0.24964689 0.06580533
-0.009500615 -0.20307988 0.06330039
0.047201507 -0.26085803 -0.16727485
-0.15612 -0.16244182 0.12219371
0.08974594 -0.30426094 0.07845978
0.12035916 -0.21987307 0.02944642
0.15438694 -0.025083577 -0.03149242
0.08342071 -0.20000444 0.022581827
0.13936806 -0.17281733 -0.03595585
0.2573012 -0.019640489 -0.2169161
0.20205772 -0.22531205 -0.04626901
0.19889563 0.16291781 -0.013996022
0.07651232 0.30803928 -0.022775933
-0.025301684 -0.16587652 0.10911756
-0.18067135 -0.19687964 0.03823074
-0.31018364 -0.07770167 -0.060280047
0.03893245 0.2823257 0.03549967
0.24911185 -0.079215616 -0.077237315
-0.17772649 0.1583885 0.030469954
-0.16671821 -0.20339099 0.009543996
0.08132881 -0.12902078 -0.08483967
0.13843723 0.20948845 0.0047707823
-0.121910214 0.009294488 0.124571346
0.3254533 0.032787524 -0.03182788
-0.29437885 -0.17828313 -0.10575628
0.016563004 -0.3144094 -0.0864444
0.050512422 -0.25083217 -0.0072875437
0.18676567 0.02107752 -0.024153508
0.18742386 -0.05034874 -0.10015161
0.24961428 -0.18239044 -0.0709351
-0.020970432 0.25646234 0.051385645
-0.15937246 -0.0453707 0.14891952
-0.004424715 0.24392721 0.06505724
-0.11771423 -0.19229732 0.08780213
0.2338718 0.101382956 -0.008859866
0.017367393 -0.2236313 0.035255287
0.03893074 0.191795 0.066617325
-0.32427904 -0.017188247 -0.061101165
-0.1905931 0.11605781 0.16370353
-0.15662701 -0.12127324 0.18161632
0.10632774 -0.09407402 -0.041334394
-0.08117863 -0.1774476 0.14233184
0.14706357 0.12852983 0.019538198
-0.1590786 -0.13840622 0.097958066
-0.14980386 -0.22573364 0.061635833
0.19936153 0.2550521 -0.02653153
-0.28014553 -0.13123599 -0.022058778
-0.26103178 -0.079301044 0.122812115
0.24283262 0.20550829 -0.09451405
-0.24532996 -0.120396525 -0.03160791
0.25241563 -0.12830617 -0.06274635
0.12406168 -0.028558806 -0.0014265053
-0.20573805 0.16572732 0.112192325
0.23837478 -0.20145515 -0.0076085175
0.14195304 -0.2315851 -0.005031582
0.063083984 0.13233577 -0.26670003
-0.08887318 0.017269809 0.12825127
0.12751795 -0.1244344 -0.08061884
0.024587218 0.1187404 -0.0073558684
-0.30096006 -0.041546542 0.15096563
-0.2628384 0.12658758 0.030818934
0.14301328 0.24838908 0.0018015725
-0.11490894 -0.28279075 0.11564336
-0.20552354 0.014588975 0.17002025
0.010241407 -0.20192973 0.03147882
-0.121233694 -0.27993187 -0.095097974
0.08998194 0.25055403 0.04279067
-0.16943432 -0.0077912146 0.14085683
0.13281372 -0.12004412 -0.08441355
-0.2017271 -0.08528399 0.1167811
0.21769616 0.02624516 -0.034952004
-0.085494995 0.22013019 0.070351
-0.24765372 -0.22478932 -0.05513849
0.18301155 0.21986152 0.00024967632
0.077381246 0.24861692 -0.010256246
0.08828942 0.20329468 -0.022093348
0.16663893 0.10760391 -0.10953078
0.042994224 0.29831198 -0.05698681
-0.033561565 0.15265737 -0.12529336
-0.24375485 -0.02012723 0.13088092
-0.12130267 0.017403236 0.061795518
-0.13624793 0.11512421 0.05951536
0.11708487 0.21087828 0.042038586
-0.2619881 0.03820298 0.020156018
-0.16656785 0.057776984 0.118913665
-0.1479099 0.06006102 0.07717429
0.24426936 -0.06827243 -0.006904772
-0.10253417 -0.10341721 0.10149255
0.10515539 0.31841716 -0.15110002
-0.13607635 -0.042318966 0.08828784
0.022887366 0.2983299 -0.0061726957
-0.3240217 0.015356735 -0.047216296
-0.12420482 0.24799637 0.10075942
-0.0785624 -0.22841871 0.07119865
-0.16679692 0.23338781 0.095362715
-0.17258133 -0.28956574 -0.08311353
0.1520749 -0.077259004 -0.043529034
0.021850042 0.20982975 0.0834534
0.23428075 0.20215915 0.017119145
-0.3014529 -0.022122694 0.15939339
-0.09313458 -0.25194764 0.057398774
0.11737878 -0.13636076 -0.11702893
-0.076689 -0.2009578 0.0836577
0.06602172 0.17435056 0.03481337
0.031159928 0.121424034 -0.00710842
-0.085609004 -0.24228701 0.10860704
-0.23094328 -0.050065335 0.111277044
-0.103124715 -0.25226626 -0.16829415
0.028675271 0.26360413 -0.06756515
0.0803961 0.13931172 -0.0822705
0.1231961 0.12937135 -0.06966047
0.12801878 -0.2821959 -0.023006989
-0.015088851 -0.16712622 0.053211145
0.06580805 0.30222142 -0.0045247637
-0.1397914 0.06408543 0.1289034
-0.20828636 -0.065290764 0.14373514
0.22855087 0.11074207 -0.03962831
-0.22069906 0.22784087 -0.017053828
0.22448865 -0.0002638009 -0.07325899
0.11746606 -0.24526095 0.037423983
0.15421082 -0.20902474 -0.038795803
0.22517654 -0.28252068 -0.06376653
-0.07093966 -0.21530962 0.09835933
0.16050011 -0.046216886 -0.108284846
-0.33182296 -0.051320765 -0.056447703
0.3292511 0.028200312 -0.20839418
-0.05049025 0.2770435 0.04746605
-0.30000678 -0.064912476 -0.048303466
0.11860285 0.2402151 0.009991549
-0.26655337 -0.187393 -0.06670175
-0.045238722 -0.30106455 0.079063505
-0.15287453 -0.20677112 0.057758
-0.15814008 -0.14125982 0.15589407
-0.09912354 -0.16217299 -0.055179734
-0.084894925 -0.1795649 0.10827241
-0.27274838 0.108187996 0.1337094
0.033873383 0.2662808 0.06741545
-0.047814995 -0.23576632 0.11660631
-0.24154711 -0.041581783 0.17964783
-0.2073626 0.18461142 0.07678065
-0.23268583 -0.058738824 0.14635679
-0.24941613 -0.13087517 -0.001971491
-0.103179425 0.22246298 0.032713007
0.16688642 -0.22863498 0.016902141
-0.13434349 -0.06034036 0.11647747
0.11461945 0.21289474 0.029515289
-0.058741674 -0.09990147 0.12178906
0.17538613 0.16690908 -0.02047368
0.3277382 -0.011507558 -0.065020874
0.13644333 0.04879588 -0.21773347
-0.014741494 -0.16289966 0.032999184
0.314787 0.008537446 -0.08427458
-0.13561812 0.21315022 0.10690553
-0.055456273 -0.17201318 0.13859299
-0.20504494 0.046422943 0.17614062
-0.0721261 0.17666875 0.12441434
-0.07227789 -0.095482245 0.1006761
-0.10902598 -0.3047319 -0.040823244
0.19469811 -0.29381558 -0.03134592
0.14487994 -0.115046374 0.01949457
-0.03171999 -0.15393093 0.061914317
0.0052261595 0.19098893 0.023128528
-0.039158557 -0.28587577 0.021199938
0.22609343 -0.18117724 0.03787612
-0.085554376 -0.1374456 0.05580317
-0.15331681 -0.15148377 0.16622646
0.21212193 -0.019387156 -0.014128187
-0.11062972 0.17365755 0.08356144
0.04342925 0.16369514 0.009558677
0.02792219 -0.10996894 -0.037418813
-0.068406254 0.28536445 -0.07084534
-0.046334382 0.3029011 -0.17038354
0.18893442 0.020401634 -0.066478394
-0.016181316 0.19329551 0.1137872
0.16802758 -0.19647768 0.006600191
-0.10758179 -0.18524918 0.14530051
0.11145108 0.030976068 -0.25031218
-0.32352254 0.091437034 -0.062061895
-0.053462908 0.28419596 -0.14645438
0.0982948 -0.23676227 0.024886098
-0.036625855 -0.33133093 -0.23048812
0.04976113 0.1898123 0.0014902232
-0.29359648 -0.045186494 0.11593484
0.20397884 0.17445305 -0.058387037
-0.11812411 0.16940208 0.13888757
0.08233386 0.13413678 -0.007992188
0.013334287 -0.15554179 0.033420235
0.005021154 0.31801984 -0.10792203
0.1429477 0.24176285 -0.03904746
-0.075118996 -0.020842915 0.048657577
-0.06320285 0.252927 0.06937959
-0.036818556 -0.24334364 0.057005897
0.16860096 0.14187145 0.030824471
-0.056722477 0.12261063 0.004229347
-0.16563584 0.26713264 0.098516814
0.32716107 0.047816485 -0.09455311
0.19002612 -0.017671283 -0.024346102
-0.13593929 0.25401548 -0.06442213
0.19737494 0.09835045 -0.028240662
0.23345761 0.14610691 0.004659003
-0.15005766 -0.07600522 0.108044975
0.119701214 0.20228395 -0.017075792
0.06969358 -0.3196897 0.060387183
-0.1756054 -0.034066938 0.14650889
-0.082873724 -0.329515 -0.088711664
0.19325921 0.0981703 -0.008055497
0.18038665 0.2598071 -0.017464897
0.085091256 0.12781765 -0.014079165
0.06360524 0.12894303 -0.04430385
-0.19120224 0.25824162 0.052167863
0.17397296 -0.024814945 -0.06616537
0.20164067 -0.06359939 -0.07045973
-0.21059941 -0.16160192 -0.029157907
-0.2407153 -0.27301604 -0.09545847
0.29703078 -0.14432415 -0.0860673
0.26844737 0.09138205 -0.084467195
0.19143125 -0.25195068 -0.03392359
-0.06196137 0.2383382 0.12208404
0.2572081 -0.065594845 -0.05534285
-0.17773733 -0.19083337 0.08664971
-0.20806675 0.20902205 0.07390034
0.22587556 0.19177492 -0.23807819
-0.2598575 -0.13859217 -0.03877449
-0.27424574 -0.102028795 -0.0108496
0.14860998 -0.28816006 0.044847973
0.06504437 0.20196012 0.047876112
-0.11660534 -0.28883225 0.06152659
-0.25881 0.2521095 -0.07013786
-0.2078751 0.025730573 0.10815253
0.07615592 -0.16369225 -0.03658422
0.26515532 0.08205942 -0.044997703
-0.08049906 -0.119229674 -0.14937365
-0.11143485 -0.24385497 0.059894126
-0.17849219 0.18358766 0.04132148
0.27164078 -0.103501596 -0.03546848
0.14982632 -0.21720737 0.006341899
-0.12094025 -0.31034264 0.095882125
0.33105218 0.04070487 -0.0123942485
0.24607916 0.17798415 -0.02718899
-0.2481718 0.1775818 -0.08042678
0.051438946 -0.18662032 -0.029945908
0.33506304 0.0056882286 -0.19001977
0.1802893 0.17186071 -0.037427146
-0.007874217 0.29642072 -0.2579774
0.2463595 -0.11430023 0.02036569
0.012936615 0.24371754 -0.19449863
0.055264488 -0.18057212 -0.059843864
-0.19911443 0.27114505 -0.17220865
-0.2012519 0.016067911 0.1571551
-0.229059 0.114502795 0.03461562
0.07908172 0.07093492 -0.12905617
-0.06496487 0.18909398 0.0539567
-0.03774464 -0.12903923 0.09883936
-0.14186616 0.29486582 0.04523896
-0.02145234 0.18032643 0.07065428
-0.14768074 0.0042021787 0.14307557
0.20490746 -0.08504802 -0.04547596
0.16566394 -0.035867225 -0.06351565
0.15860339 0.029445266 -0.0778143
-0.269913 -0.1158078 -0.022187222
-0.03416209 0.23096201 0.052435193
-0.18394375 0.16771081 0.12761298
0.14396569 -0.020661341 -0.16779396
0.18081398 -0.059693225 -0.08288848
-0.1827064 0.31455112 -0.16032794
-0.31448078 -0.13140112 -0.072400935
-0.076005004 0.10313829 0.10522649
0.19471595 0.10890191 0.033504214
0.00021666399 -0.14250442 -0.16968015
0.0781787 -0.17462815 0.0054081567
0.12918374 0.13024597 0.026731955
-0.07638171 -0.26521116 -0.035866998
-0.17350768 -0.0017764375 0.08080818
-0.2374013 -0.035972767 0.14774068
0.06351721 0.20950532 0.028772503
-0.013932294 0.31495813 -0.18308167
0.10410401 0.13717847 0.058330484
-0.38315794 0.02124472 -0.030340811
0.36900824 0.059167072 -0.12961556
0.27895984 -0.0701998 -0.04906567
-0.23782407 0.19681022 -0.026172105
0.014981924 0.14315255 -0.035529368
-0.18565707 0.24083346 -0.025819978
-0.12708208 -0.21768858 0.10026817
0.048856903 0.23436591 0.050772984
0.18877119 0.18645972 -0.13967887
-0.2876488 -0.0423349 0.075747095
0.13652278 -0.010971184 -0.2197337
0.10214667 -0.2361815 0.049469188
-0.21009392 -0.22299771 0.0022079437
0.26815417 0.19104125 -0.09910415
0.2690277 -0.07410517 -0.07146177
-0.18907057 0.23708023 -0.027892051
0.28367645 -0.20488743 -0.034235884
0.0816788 0.2520643 0.057255186
-0.06258181 -0.19726436 0.09134431
0.1637672 0.018535767 -0.09198304
0.10282016 0.035670724 -0.13166054
-0.07893002 -0.25878587 0.10965065
-0.22605348 0.20056817 -0.10161264
-0.24613966 0.13177693 0.047964945
-0.09990618 0.17256653 0.1314765
0.008434909 0.29852197 -0.15776668
0.30502376 -0.04784559 -0.048124053
-0.16844365 0.10348648 0.14886776
-0.024642942 0.2250737 0.029871734
-0.13943431 -0.13447846 0.15055686
-0.080463335 -0.09992969 0.13220577
0.2657931 0.082185626 -0.023324128
-0.27554122 0.075225234 0.027086178
0.3337295 -0.037362758 -0.1015764
0.17911682 -0.15098481 -0.06328881
-0.20615727 0.31143478 -0.108752094
0.12942256 0.0081381295 -0.1632351
-0.2872214 -0.15867233 -0.07046049
0.016098164 -0.3115934 0.031684883
-0.018339155 -0.1880768 0.046337493
-0.09203439 -0.20136246 0.14342445
0.0041672485 0.31008536 -0.15222551
-0.15584497 0.030915804 0.09942008
0.05885405 0.26209143 -0.0026038366
-0.31275332 0.07756969 0.039513532
0.009620505 -0.12983596 0.050856896
-0.3413221 0.03917835 -0.036086697
-0.22020924 0.23350033 -0.09791271
-0.2881499 0.005860108 0.1563305
-0.14985539 -0.10580752 -0.129622
0.2119277 0.06042353 -0.023431893
-0.37588695 -0.001642211 -0.03689125
0.17310007 -0.13226968 -0.036600035
-0.15465456 0.28188658 0.003715592
0.25446916 0.037041195 0.007755385
-0.09175044 -0.16012545 0.1454932
0.1786221 0.03537328 -0.069113664
-0.19189008 0.15609957 -0.023483576
0.34100488 0.012077262 -0.08779791
0.21255517 0.060683686 -0.052545752
-0.35017806 -0.041063316 -0.061410714
0.011178551 0.17269032 -0.08348586
0.017990781 0.32829052 0.08253215
0.062059272 -0.06688282 -0.2509171
-0.25742096 0.18727838 -0.108708955
0.30324835 -0.021413786 -0.036071427
-0.07593252 -0.25645173 -0.0060594254
0.10176035 0.1500142 -0.096380696
0.21524222 -0.015412268 -0.10551498
0.21651198 -0.040524732 -0.077228315
0.091195635 0.14133291 -0.20041811
-0.11131304 -0.1548228 0.05629188
0.09096488 0.10479285 -0.19472356
0.14781569 -0.052493863 -0.16498598
0.23685415 0.041551083 -0.08408962
-0.24863032 -0.06846525 0.10140074
-0.25431725 0.11570673 -0.13616987
-0.20800216 0.022822645 0.12616675
0.050716702 -0.30487534 0.023769965
0.074115574 0.08523388 -0.17513862
-0.29447213 -0.09188134 -0.088740595
-0.14362319 0.2078436 0.08449204
-0.0013035827 -0.20317371 0.028811693
-0.0635889 -0.084916264 0.10689966
0.13213138 0.16910975 -0.25117427
0.10517556 0.1674576 -0.016875135
-0.1616792 -0.10735906 0.11313522
-0.270512 0.022196574 0.11760912
0.0949709 -0.00043927762 -0.17820805
-0.21579513 -0.12701403 0.03510837
0.2345124 -0.32422912 0.0033616512
-0.07436119 -0.24778083 0.105778106
-0.08521417 0.2650135 -0.16794175
0.107975416 -0.08032118 -0.1331955
0.2027485 0.12670256 -0.037555486
-0.07993835 -0.16233784 0.10987349
-0.1891277 0.08785628 0.08874788
-0.14321533 0.23228832 0.13612552
0.098112 -0.30397242 0.06519092
-0.33339697 -0.042673923 -0.12730125
-0.2676122 -0.092365004 0.059748672
0.23780568 -0.22969154 -0.018811414
-0.19262107 0.26603106 0.08965019
-0.01748056 -0.31270263 -0.011741577
-0.18962193 -0.11426694 0.15862437
0.2110367 0.002687812 -0.017414914
-0.17146207 0.10421678 0.136253
0.25648996 0.057211336 -0.04747618
0.088594496 0.18387051 -0.02062161
-0.12096293 0.22521661 0.12257618
0.167119 0.0872477 -0.020479854
0.12341169 -0.2949701 -0.08114216
0.12234317 0.22179374 0.0076909577
-0.04138432 0.12961279 0.0749031
-0.061688494 -0.13789855 0.03788034
-0.21775034 0.09801375 0.108123794
-0.017027147 0.24401696 0.052686468
0.018356737 0.19877917 0.019581951
-0.18299386 -0.22420722 0.057249323
-0.21435708 0.09501728 0.16441822
0.09532747 0.044777807 -0.20337088
-0.15018655 0.099703945 0.08586019
-0.10316454 -0.15670526 0.08116755
-0.21687113 0.13120772 -0.123193495
-0.23281771 0.07656465 -0.006610942
0.029596383 0.27501678 0.014966813
-0.19759323 -0.07351138 0.09678619
-0.013698417 -0.34419444 -0.079842485
0.14713354 0.18071672 -0.031840693
-0.23061027 0.08925408 0.049451042
-0.0017080975 -0.25291088 0.10107635
0.22311568 -0.24983674 0.02548626
0.21598604 -0.15977935 0.023560466
0.21331197 -0.061529838 -0.05206444
-0.14223805 0.025803426 0.08565241
0.23851226 0.06552225 -0.027325338
0.07522948 -0.32713056 -0.17787898
-0.2673763 0.056181654 0.014864275
-0.12219679 0.30043256 -0.13076434
0.03160103 0.27343217 -0.019700967
0.1602426 -0.25834113 -0.102410674
-0.1985619 -0.26573396 -0.024405764
0.16592959 -0.09238767 0.016870704
-0.2166004 -0.22428434 0.06293579
-0.036857244 -0.3311589 0.0023958967
-0.004984354 -0.20056738 0.018079663
0.26074955 0.0491357 -0.011170295
0.09948228 0.31352767 -0.062360246
-0.15053621 -0.14946696 -0.059296966
-0.24473658 -0.17358497 -0.04797929
-0.26013687 0.05832727 0.13193133
0.34210798 -0.017372683 -0.03578489
-0.16431192 -0.04420776 0.12630664
0.06425916 0.19498108 0.04382182
0.047894515 -0.12109229 -0.019486647
0.18056226 0.015485753 -0.13324493
-0.0029692906 -0.16579969 0.07588445
0.061394222 -0.31852794 0.03432426
-0.26350757 -0.032858346 0.018022608
-0.11160042 -0.24321137 0.0588614
0.23052342 0.043131698 -0.04685371
0.053913597 -0.25408277 0.033367373
-0.14875953 -0.23863049 0.12521473
-0.13887726 -0.3186578 -0.03942041
-0.19806886 -0.15471096 0.14768352
0.11469115 0.13871409 0.0123054385
-0.061528407 0.2962689 0.07985258
-0.14800502 0.12207613 0.15239714
0.010820444 0.15895076 -0.19532505
-0.16048233 0.086916976 0.12819314
0.09019405 0.13353641 0.040305242
0.22461791 0.15671735 -0.022575898
0.2305561 -0.08056165 -0.014971396
0.14772864 0.27027908 -0.041388698
-0.17742816 0.2730518 0.022599928
-0.3222283 -0.006726828 -0.004209961
0.12976882 0.25585073 -0.07877898
-0.30422476 0.051864613 -0.017159212
-0.02050852 0.3386594 0.06835721
-0.16529122 0.07457344 0.080395035
0.043493856 0.23128806 0.04065194
0.33850518 0.07344642 -0.072157994
0.21442641 0.077289335 -0.046709232
0.12690796 -0.09059275 -0.022540055
-0.18198912 -0.14085476 0.11753871
0.23258711 -0.09842324 0.02812859
-0.25221673 -0.09253273 0.024289375
-0.28608298 -0.033655304 0.17460006
-0.02686155 0.24155134 -0.06616092
0.28646466 0.17068763 -0.046326652
-0.25252384 -0.031742834 0.09316858
-0.21520096 0.03172361 0.09889484
0.0094235195 -0.21123292 0.09321957
0.3092123 -0.054206394 -0.08800495
-0.08919657 -0.28169942 0.10426034
0.026373021 -0.15085398 -0.18392108
-0.12562793 -0.2738784 -0.0004939829
0.070287436 -0.095959686 -0.045786224
0.12337173 0.25058326 -0.15815258
-0.05889392 0.17076221 0.11499085
0.15246016 0.25970754 -0.01189654
0.15459633 0.11382951 -0.041979633
0.123054974 0.009387151 -0.18726802
-0.11047764 0.19337709 0.041865394
0.16777863 0.13072887 -0.028325306
0.02077259 -0.28247145 -0.01678214
-0.19315481 0.26818016 -0.13427626
0.15262087 -0.20614779 0.029410092
0.12346532 -0.13346991 -0.07664876
0.031622272 0.274337 0.009870551
0.17720182 0.09492756 -0.07720787
0.24205694 0.13137339 -0.003385398
0.08651462 0.12711437 -0.011135086
0.22474465 0.18109576 -0.011369121
0.019788755 -0.18766867 -0.07874675
-0.22483714 -0.18159804 -0.067263074
-0.19006547 0.0399397 0.09343812
-0.23397252 0.054617975 0.11786949
-0.14662658 -0.21738952 0.14498374
0.14469321 -0.2320246 0.059430353
0.17026949 -0.15323856 -0.01398428
-0.095929146 0.14064427 0.04838022
-0.241037 0.18731883 0.026305921
-0.21570146 -0.16686149 -0.030255374
0.112865224 0.14384642 0.01558959
-0.15254928 0.20389813 0.039305944
0.08098474 -0.06247897 -0.16618487
0.2540301 -0.021453828 -0.0061780885
0.00053622446 -0.3312882 -0.02211871
0.26911157 0.100055486 -0.0094037745
-0.20355912 -0.059997376 0.1581711
-0.0674137 0.33407637 -0.0034822477
0.16219893 -0.18340471 0.0044408417
0.0061474335 -0.248076 0.080143236
-0.22211541 -0.14951916 0.1146737
-0.26557764 -0.06887477 0.1365955
-0.27527398 -0.07027149 0.06513472
0.227083 -0.058099553 -0.059096776
0.19019495 0.27672327 -0.069671914
-0.0983627 0.29306424 0.09137323
0.28167936 -0.00015086595 -0.09635954
0.08415183 -0.0026500446 -0.16092502
0.11804352 0.22517078 0.051087897
-0.1513098 0.035487525 0.11337925
-0.20730104 0.06700214 0.17765124
0.16304433 0.15480417 -0.0055873105
-0.30071333 -0.1624901 -0.049343593
0.009672465 -0.1746409 0.03263351
-0.08291584 0.23895685 0.04102093
-0.28506902 0.014461781 0.038184054
0.056756683 0.2186861 0.037348356
0.204379 0.11788478 -0.059108652
-0.20820035 0.2200479 0.06782455
0.09287662 0.26299796 -0.023415854
0.02626194 0.30025178 0.0019816903
0.03476789 0.11244353 -0.2044263
-0.09810338 -0.22271839 0.08871001
-0.04297516 0.13041463 0.08047248
-0.0049896315 0.19983882 0.081424646
0.25291538 -0.14936171 0.0029674838
0.09409315 0.14059332 0.044965744
-0.36438355 -0.030747592 0.023367926
-0.08405301 -0.21837622 0.12630299
0.028159095 -0.17355675 -0.17066714
0.0216962 -0.34311947 0.059371024
0.07506586 0.21540347 0.04743613
-0.2475321 0.13777165 -0.069371566
0.14825554 -0.1211573 0.023728317
0.14078318 -0.21548939 0.031841975
-0.23349442 -0.1432218 0.032899383
0.26022646 -0.18987446 -0.0056119966
0.10657211 0.28894413 0.041358482
0.01152663 0.13749279 -0.056898855
0.1157019 0.25081912 -0.021120148
0.09803804 -0.22768502 0.04330987
0.2560016 -0.022105522 -0.04635939
-0.020109493 -0.2285529 0.1149763
0.2747317 -0.18040712 -0.07448875
0.30839837 0.12034195 -0.17465813
0.037961416 0.28515545 -0.20908014
-0.2577804 -0.11467525 0.08019019
-0.0220934 -0.096911095 0.046296388
-0.16681136 -0.31423363 0.015721055
0.15253565 -0.11153164 0.035490464
0.2568802 0.0727786 0.008942598
-0.034034774 -0.19960478 0.03356019
-0.23816378 0.07785534 0.14272621
0.2831656 -0.0036753966 -0.053045407
0.2921451 -0.026048863 -0.105111696
0.0911455 0.16233669 -0.10366581
0.1025094 0.18677293 0.00015747169
-0.15750772 0.23854487 -0.086323015
0.22242373 -0.25169218 0.032922287
-0.058132708 0.31114936 -0.12173503
0.20580748 0.00042468394 -0.042719606
-0.15218236 0.124126 0.028441628
-0.082085595 -0.19310479 0.10258579
-0.15052268 -0.1653627 0.1445366
0.17024507 -0.10069361 -0.006542477
0.108313754 0.20832115 0.025423853
-0.09764876 0.30728444 0.0073017455
0.22302541 0.14767791 -0.06615579
0.30345076 0.071033746 -0.08987135
0.110193685 -0.16855258 -0.025153367
0.09617717 -0.16157065 -0.037827905
0.025371995 0.31608889 0.08472038
-0.036546472 0.16610992 -0.1638324
0.1849213 -0.049258064 -0.0183941
0.080632955 0.12238936 -0.062146142
0.055593528 -0.25946075 -0.0062753125
0.23303406 -0.16366772 0.007082267
0.17467907 -0.33436838 -0.036256224
-0.21072416 0.14402626 0.03787135
0.09524534 -0.004347424 -0.20748867
0.29937157 0.039334383 -0.07405029
0.07094322 0.07852836 -0.20210533
0.07214938 -0.10506661 -0.13029645
0.30791292 0.116076514 -0.03678345
0.1548625 -0.29294032 -0.007034076
0.22806732 -0.14145502 -0.040935412
-0.21496291 0.12449245 0.06100752
-0.08227267 0.089923516 0.11976839
0.02007291 0.3065168 0.017336996
0.2570567 0.042225815 -0.019872805
0.1874789 0.07917095 -0.01679395
-0.19180503 -0.21349297 -0.103203356
0.22787675 0.1989136 -0.032913245
0.26156923 0.014958807 0.015897147
-0.09452253 0.31780168 -0.20768368
0.12604551 -0.18257898 -0.020894269
-0.23520124 0.042954948 0.11703576
-0.2669467 -0.03850601 0.12795906
-0.029568937 -0.18761352 0.02790887
-0.1366296 -0.17240447 0.1255718
-0.14735338 -0.2322397 0.0025792778
0.0047474974 0.1706071 -0.08403147
0.2419493 -0.21698901 -0.062118854
0.24979098 0.04434517 -0.17956807
0.16459613 0.047240026 -0.10806856
0.13850915 0.29571795 -0.17665379
0.20448238 -0.23630628 0.008211821
-0.28778246 -0.059898898 -0.008445429
0.021228394 -0.18401247 0.082035735
0.25378332 0.24832492 -0.08430591
0.18593302 0.28242669 -0.120471254
0.13650474 0.044572257 -0.17458752
0.1991892 0.04865155 -0.082452886
-0.11641577 -0.2397183 0.12690915
-0.18480438 0.009688482 0.15355511
0.1802823 0.18189766 -0.020169875
-0.24857017 -0.2558502 -0.114607155
0.017533304 0.14124893 -0.08676535
-0.23425925 0.2093538 -0.12769543
0.1391082 0.04444188 -0.06985132
0.21726754 -0.30413058 0.020275664
0.24705581 0.24555767 -0.082595
-0.13825695 0.18148255 0.12558405
-0.006048999 -0.19002064 0.1269735
0.105280444 -0.2034371 0.04457205
0.1102211 0.13368677 -0.01290675
-0.12602533 -0.12785326 0.1127497
-0.124941096 -0.1799716 0.13155013
-0.25455096 -0.091044985 0.05836375
-0.017323378 -0.33929682 -0.068353064
0.2586201 0.1199307 -0.06543788
-0.23514086 -0.05806492 0.06506384
-0.17894062 -0.07738298 0.11832809
0.19223349 -0.23304267 -0.032782882
0.07399372 0.15975592 0.0775382
0.26822543 -0.07326886 -0.051259495
-0.20647512 -0.02527539 0.16202486
0.17729995 0.012035955 -0.030090993
-0.2725657 -0.29166716 -0.13919276
0.23478298 -0.06410351 0.012414589
0.12657267 0.09572734 -0.057087
-0.115322076 0.13739365 0.11988841
-0.242886 -0.18671809 0.044322073
0.11397604 -0.20995523 0.009874928
-0.12541814 -0.1790823 0.12152006
-0.1581396 -0.2494082 0.046948016
-0.056332283 -0.2502322 -0.13987179
0.052554335 -0.25615242 0.027530512
0.22258674 -0.21310818 -0.050054483
-0.29358768 -0.09945237 0.010822406
-0.14149839 -0.32882285 -0.08857351
-0.21012962 -0.19807 -0.0034689263
0.08968807 0.3162803 -0.16057621
-0.20269379 0.2655939 -0.13621198
-0.12751111 0.22987354 0.110505566
0.16099398 -0.010483323 -0.018093856
0.3282224 -0.023160687 -0.112003475
0.1841034 -0.32456174 0.0009446072
-0.069733545 0.31515145 0.042939004
-0.11884993 0.17386566 0.0690897
0.08880512 -0.15856513 -0.1445596
-0.18992276 0.07909348 0.040033493
0.055106487 0.3243555 -0.10687947
0.19375911 -0.28327087 0.01847905
0.17089412 -0.020451812 -0.016891517
0.24039541 0.2677237 -0.009655524
0.016342897 -0.13440427 0.0838313
0.045516904 -0.19299175 -0.033186942
0.121671155 -0.041480266 -0.07836235
-0.2844431 -0.05400624 -0.08498773
-0.17196554 0.28207284 -0.12622708
-0.18668567 0.14843436 0.034725755
-0.11026993 -0.11752268 0.08259861
-0.20680466 -0.20534393 0.0313266
-0.0060452297 -0.18451098 0.053850852
0.17892353 -0.15687783 0.006017554
0.09244096 -0.14756775 0.06795044
0.08521852 0.1875331 0.020184413
-0.07062649 0.26056913 0.041915562
-0.14742924 -0.28959846 -0.04861963
-0.119052514 0.09378735 0.1250436
-0.070299685 -0.13740534 0.0989093
0.04719902 0.31619036 -0.12582903
-0.24608524 -0.12420175 0.04958295
-0.08142238 0.27450258 0.10582841
0.16287604 0.28382427 -0.017341409
0.11602129 0.22661895 -0.028829934
-0.22562681 0.22422743 -0.095167674
0.19383931 0.22133155 -0.04995627
-0.056925416 -0.12837465 0.116926014
-0.2043192 0.05012346 0.14555122
-0.2426506 -0.18924041 -0.04246803
0.1289775 0.2848144 0.02186374
-0.20663702 -0.23957545 -0.0073173307
0.0666066 0.297259 -0.015347654
0.042703602 -0.26894426 0.0092468485
-0.05132136 0.15405196 0.09960044
-0.1685728 0.25409985 -0.0012371129
0.097757496 0.10316178 -0.06562973
0.15614171 0.023974419 -0.010700366
-0.1223665 0.0630739 0.08278218
0.06628111 -0.31944472 -0.076565
-0.09200486 -0.3217815 -0.019280419
0.10146488 -0.2887462 -0.010471094
0.0027911358 0.24840079 0.055349298
-0.21345273 0.010013999 0.19359548
-0.038110517 -0.28082338 0.06002691
-0.121766046 -0.28572467 -0.02246972
0.06852542 0.25476834 0.07942778
-0.16078465 0.06550706 0.14634287
0.06366283 -0.32721972 0.041674342
-0.0936571 0.25638708 -0.007920138
-0.12132125 -0.181458 0.076749116
-0.22413713 0.04123393 0.08067441
0.031061318 -0.11620363 -0.038049683
-0.028825168 -0.31431085 0.0025349325
0.13494918 0.173987 0.0035821393
-0.13961095 -0.10476208 0.1125848
0.30272824 0.034252893 -0.062508136
-0.1402266 -0.27191153 0.045326687
-0.13028812 0.14451094 0.12813732
-0.20227459 -0.140331 0.1251778
0.15957916 -0.29636312 0.022407547
0.07341645 0.15379377 0.07040373
0.07847253 0.2557821 0.018337004
0.010837966 -0.28922352 0.03076953
-0.06799806 0.12562087 0.06873637
0.16338043 0.127082 -0.035792176
0.2855582 0.029346136 -0.11389539
0.16727848 -0.192893 0.056513984
0.04464864 0.20007446 0.012621692
0.17485967 0.2529272 0.0023538615
-0.12844731 0.31864694 -0.16410388
0.090035915 -0.14886226 0.072582304
-0.14883462 -0.08835349 0.09333159
-0.20802356 0.20520996 -0.00035085127
0.2701442 -0.16380182 0.016928501
-0.32216364 0.12370272 -0.067864664
-0.100907646 -0.18299979 -0.07581616
-0.048172716 0.18409784 0.041241366
-0.27550903 -0.027066724 0.10323298
-0.14730361 0.142213 0.07703978
-0.24682502 0.11073573 -0.08878453
0.17623618 0.043341327 -0.05348585
0.14376535 -0.049600564 -0.08224199
-0.06168396 0.0922656 0.102151945
-0.23669443 0.011112969 0.15536153
-0.17547786 0.202927 0.11005922
-0.09650487 0.21810228 0.087694384
-0.021225847 -0.24341083 0.0877165
-0.0636137 0.028060643 0.11077605
0.13941117 0.33263308 -0.07731657
0.17347737 0.30383062 0.00012757692
0.22217482 0.07834445 -0.071694545
-0.22348313 0.027819792 0.14377762
0.16935506 -0.08223498 -0.06568113
-0.26444545 -0.087152116 0.13483267
0.2615615 0.22060712 -0.05806182
0.16624565 -0.077262685 -0.06314963
-0.12606676 -0.20477019 0.061076265
0.054330233 0.23819749 0.05697706
0.07375791 -0.26768675 0.033754665
0.061385375 -0.2641594 -0.0025114096
0.1274454 -0.06616717 -0.19665414
-0.23348962 0.020888774 0.130227
-0.042183682 0.16854648 0.056948416
-0.15070796 0.18004566 0.10519204
0.013768016 0.25636587 0.0037174607
0.08687646 -0.24947457 0.05270197
0.14882368 0.03415954 -0.004892485
-0.19249988 0.21303663 -0.09962282
0.098571174 0.2846986 -0.031231109
0.213125 -0.02365518 -0.0979068
-0.09813061 -0.0037736287 0.10690841
0.082932375 -0.25960198 -0.03666222
-0.13595763 0.30251044 -0.04426245
-0.22451258 -0.06988681 0.101424105
0.013302975 -0.24661814 0.06757923
-0.014601466 0.17167114 0.087909214
-0.23704593 0.23229632 0.019402398
-0.09845085 -0.12779588 0.12302418
0.17158337 0.26992294 -0.033719476
-0.1414262 0.0028456976 0.09315099
0.102882765 0.3159878 0.044557936
0.06345421 -0.16874817 0.05446218
-0.09104284 -0.1484946 0.066270456
0.30898425 -0.036658715 -0.10515959
-0.2114442 -0.073089294 0.041601602
0.09557121 0.17417954 -0.011822109
0.14716291 -0.10281995 -0.12997581
0.1037728 0.053871684 -0.06771308
-0.23916942 -0.119822696 -0.0058908984
0.26062313 0.1727929 -0.09740456
0.093342125 -0.17225876 0.06326157
0.17325242 -0.3412796 -0.18920659
-0.15502335 0.1988222 0.036837976
0.09614901 -0.23517244 0.014206299
-0.12816866 -0.32350716 0.13005082
-0.118918866 -0.26949373 -0.041193493
-0.21988286 -0.0039628795 0.12344534
-0.12922156 0.13663705 0.079055816
-0.08838295 -0.046013054 0.1556836
-0.23076254 0.24532989 -0.1237823
-0.049428824 0.14370842 0.1304617
0.012210295 -0.1818636 -0.15483837
0.14228895 0.14888845 -0.042274114
0.14196898 0.193429 -0.033965256
0.07979979 -0.14506623 -0.034041315
0.14261234 0.12778157 0.006089587
-0.26537114 -0.08741603 -0.111649446
-0.12358143 -0.32630128 0.04042107
0.22868162 0.17103705 -0.059708584
-0.16084641 -0.32758063 -0.08911779
-0.10561151 -0.2801014 -0.091061726
0.043969516 0.2213017 -0.005325014
0.07536171 0.06246442 -0.14157309
-0.19922915 -0.28211513 -0.083137885
0.28369772 0.067017235 -0.08415379
0.1366306 -0.22493155 0.02438559
0.21431969 -0.18537895 -0.043077156
-0.08803003 0.20221242 0.040353984
-0.10425931 0.2557567 -0.02273774
-0.116606876 -0.28953022 -0.019633261
0.0032494252 -0.3242504 0.10087476
0.20727721 -0.22755426 -0.2194878
-0.05826597 0.22242911 0.060235284
0.31554845 0.07515458 -0.06420731
-0.11701847 -0.2488169 0.050541583
-0.22733077 0.106379166 -0.03507358
0.16707 -0.14180712 -0.059607413
0.188466 0.29687157 -0.022497388
0.2417738 0.19397025 -0.17380533
0.061337307 -0.10662621 -0.102032095
0.14421439 -0.24855429 0.021231137
0.08363473 0.18288279 0.046787158
0.16803499 -0.16002344 0.018957641
-0.22096537 -0.1774658 0.09102764
0.07165379 0.19127268 0.035014335
-0.23134516 0.19335823 0.024063958
0.2305515 0.22116113 -0.017694674
0.11458245 0.24021389 -0.044240985
0.24504022 -0.16836555 -0.0001292988
-0.022469183 0.10552083 0.049934067
0.10327584 -0.27867842 0.063147046
0.26826292 0.04169479 -0.25506976
-0.08989047 -0.28527296 -0.02941967
-0.109225355 -0.21368761 0.07769353
-0.122861974 -0.169516 0.053343017
0.2058083 0.12870924 -0.20460328
0.21549305 -0.2997579 0.0032339753
0.11527785 -0.19014779 0.029325934
0.1324516 0.21517053 0.043801535
-0.071894124 -0.06532651 -0.009205774
-0.23603685 -0.108241014 -0.051129118
-0.12532572 -0.32456502 0.05816796
0.28453916 0.18402688 -0.048521154
0.05983755 0.20576383 0.031786505
0.17993288 0.16470142 -0.25557005
-0.092320055 -0.10163206 0.008396716
-0.099167235 0.2296232 0.11840986
0.21505274 0.11005753 -0.004867992
-0.06524357 -0.18988478 0.105218805
-0.16202673 0.19076994 0.000310544
-0.13223681 0.30994347 -0.17152718
0.07149686 0.1069603 -0.23150778
0.28007892 0.12148788 -0.032481644
0.08370348 0.173599 -0.0132052265
0.13525054 -0.14265762 -0.0063340906
0.07785317 -0.13635227 -0.15684456
0.30630007 -0.03435163 -0.01689744
-0.17278716 0.14668253 0.09769612
-0.24799643 -0.16679385 -0.08088251
0.06374089 0.022108939 -0.26639745
-0.26548043 0.064094186 0.022642517
0.18837632 0.30310482 -0.04433105
0.20303021 -0.13139766 0.025346585
-0.11566961 0.06888692 0.13351788
-0.0957157 -0.22896086 0.11838139
0.03494132 0.10410206 -0.18302743
-0.06355388 -0.13531908 0.06078683
0.27500314 0.09581316 -0.043459874
0.1787075 -0.10428941 -0.09736693
0.1794628 -0.244396 0.03442283
-0.06509604 -0.24790852 0.07204152
0.15849322 0.30225885 -0.016427627
0.19051337 -0.29643795 -0.16072623
-0.1930289 -0.20878519 0.050642703
0.025972834 -0.25005075 0.08021232
-0.25302643 -0.01342132 0.15319654
0.038668897 -0.26270983 -0.10887786
-0.11209821 -0.26890865 -0.07493342
0.06554269 0.15178634 -0.058794826
-0.015481583 0.06564003 0.011509995
0.00066444615 0.30626404 0.0349884
0.031236477 -0.14083034 0.036232136
-0.2289152 0.038317334 0.12880726
0.060588326 -0.13234591 -0.124397635
0.21772347 -0.29568875 -0.097974926
0.16649584 0.29031855 -0.16515954
0.034581665 0.2675447 -0.18512516
0.2209622 0.051147345 -0.23658879
0.15500437 -0.004445372 -0.18300946
0.12570864 -0.276832 -0.01683047
-0.14822307 0.18706709 0.07197322
0.005090009 0.27730396 0.033681408
-0.10631688 0.12906504 0.119921975
0.21210274 0.33003566 -0.09201768
0.043882616 0.32124528 -0.28000927
0.15316108 0.26617616 -0.0025085185
-0.20432393 0.11809318 0.09322496
-0.087932676 -0.22558507 0.08842016
0.066242695 0.30196095 0.006934951
0.31621042 0.12984404 -0.07297775
-0.22897696 -0.23049544 -0.029206755
0.123475574 -0.17776828 0.037300438
0.1482052 0.17417684 0.023487085
0.13059224 0.022395004 -0.021951271
-0.08438284 0.058586463 -0.01904239
0.22845274 -0.2617225 -0.03970315
-0.23715894 0.015393307 0.08532239
-0.059628 0.16194269 0.06784819
0.1826121 0.0370942 -0.020131238
0.070772655 -0.29355675 -0.109042965
0.038020108 0.17362764 0.06644691
-0.27571034 -0.09861205 0.043421824
-0.061961822 -0.0929959 0.12393478
0.21459265 0.19269897 -0.024952292
-0.3470414 0.0026542097 -0.114025325
0.09111608 -0.2740055 0.0080907
-0.014978754 0.28032514 0.0388486
-0.25611615 0.11678096 0.00026912068
0.002416194 0.2703828 -0.11879361
0.17646688 -0.15540314 -0.042651482
0.16330777 0.26057932 -0.16471085
-0.23124267 0.14229493 0.16110201
0.18484347 0.27709728 -0.032265943
0.09395136 -0.06290432 -0.00067857327
-0.28698066 0.14272115 0.0069793374
-0.26541647 0.1538647 0.13514331
-0.03386346 0.18161745 0.035248857
0.23997574 -0.04086419 -0.03281681
0.0019544025 0.12429674 0.09327083
-0.27664703 -0.1899629 -0.066132285
-0.3117808 0.09905349 -0.07619783
-0.29481104 0.06881376 -0.065524764
0.047929294 0.21216355 0.0005612245
0.22251852 -0.06707732 -0.06258765
0.25865206 -0.12670033 -0.04026362
-0.08993884 0.2956903 0.071930274
-0.20034814 0.088632695 0.063237555
0.24371883 0.22299813 -0.007647608
