# .PCD v0.7 - Point Cloud Data file format
VERSION 0.7
FIELDS x y z
SIZE 4 4 4
TYPE F F F
COUNT 1 1 1
WIDTH 1000
HEIGHT 1
VIEWPOINT 0 0 0 1 0 0 0
POINTS 1000
DATA ascii
-0.011715058 0.28348395 0.079718925
0.17622052 -0.052793235 -0.0021532103
0.1354346 -0.25039744 -0.22948311
-0.19692698 0.15232027 0.060873818
-0.3742677 -0.08956245 0.07849721
-0.21318308 0.16027272 0.030726347
0.07470888 -0.2592806 -0.046565704
-0.1212775 -0.17330173 -0.07727805
-0.047667276 0.1728571 0.007832272
-0.22367698 -0.017736135 0.0529234
-0.3303826 0.010757539 -0.20834348
0.10657931 0.15204456 -0.22221377
-0.12797812 0.27709582 0.07914544
-0.122155935 -0.2692506 0.01709875
0.0074119046 -0.21846573 0.013484711
-0.25605524 -0.060849413 0.026529998
0.023480704 -0.2790269 0.076341204
0.13319534 -0.09207237 0.03868277
-0.2089101 0.21261148 0.0051310463
0.09634425 -0.14664757 0.06290594
0.30671823 0.08273366 -0.0056148474
0.19154553 -0.23583138 0.022314573
0.0072747273 0.3377149 0.060893998
0.04039363 -0.25419882 0.025458409
-0.17198068 -0.084253 0.0510338
-0.23176585 0.29628783 0.03391636
0.17594828 0.170312 0.093287334
0.31936407 -0.063702054 0.039460592
0.19918244 0.13880195 0.008292585
-0.11753058 0.06242296 -0.18831596
0.13979635 0.15862247 0.04359758
-0.14987347 -0.05067041 0.08839973
0.17632455 -0.06826901 0.07177089
0.109052025 0.13758653 -0.023532605
-0.09097122 -0.086427785 -0.002900846
0.046619 0.21441188 0.026676463
0.24422853 0.025985386 0.0616337
0.00856772 -0.35175422 0.021052629
0.3009184 -0.109834895 0.061252642
0.25661436 -0.17114906 -0.09697956
0.15261985 0.21890743 0.0068895346
-0.07449985 0.12911516 0.086433336
0.19081074 -0.014123845 0.072429895
-0.28477833 -0.22519633 -0.21646206
-0.15424334 -0.12037055 0.059348997
0.18235625 -0.17697793 0.032552887
-0.0110387355 0.3002047 0.083885424
-0.248496 -0.031250417 0.0918826
-0.17918997 0.22689503 0.08507391
-0.27268934 -0.20035358 -0.15207474
0.24011788 0.03476941 0.045095645
-0.18412156 -0.12327662 0.07907241
-0.27299696 -0.15551853 0.088670276
-0.16588576 0.09318339 0.0071171382
-0.2142371 -0.19466826 0.028668808
-0.33409593 -0.11695521 -0.05686163
0.25210163 -0.07272412 0.0094113145
-0.2329544 -0.25568262 -0.02286304
-0.10316411 -0.08281474 -0.050457265
0.18127976 0.070668295 0.065095484
-0.1613384 -0.0860666 0.008647269
-0.19355144 0.17875475 0.025903152
0.22665463 -0.25682354 -0.035585396
-0.287826 -0.18158521 -0.066263884
-0.24845068 0.13694093 0.054813627
-0.12984692 0.20215108 0.08858006
0.2845879 -0.008049258 0.05340221
-0.031305123 0.15052696 -0.015718868
0.11411094 -0.16235442 0.079784445
-0.22303283 -0.12665027 0.010083354
0.2916317 0.071814395 -0.016367111
-0.20743607 0.13279271 0.03697848
-0.09558005 0.23672386 0.022332884
-0.32472062 -0.06987944 0.066110834
0.039184224 -0.24344687 0.011578969
0.22222772 -0.0041345307 0.029429026
-0.054407615 0.30927175 0.080198355
0.3224366 0.08706118 -0.023576321
0.28437042 0.15953352 0.013994897
0.24114569 0.14227112 -0.112739295
-0.30129114 0.1498071 -0.089722715
-0.25329414 0.22821704 -0.17843224
0.010840187 0.14148504 0.08742751
0.14759469 -0.09640836 0.07660279
-0.22732037 -0.19054967 -0.23760356
-0.12356552 -0.025217442 -0.13663596
0.088068135 -0.06545701 -0.09049652
-0.29484555 -0.030113017 0.09323701
0.13731168 -0.01633563 0.023316495
-0.16133542 -0.24695498 -0.06345717
-0.028231144 -0.28259897 -0.088487476
0.27501264 -0.16168705 0.025884492
-0.25688428 0.11195003 -0.012134996
-0.10578728 0.07877149 -0.04858953
-0.24127318 0.16247253 0.086045116
-0.16706638 0.16510932 0.044372268
-0.28699905 -0.08790082 0.092129365
-0.29602072 0.10674029 -0.02583865
-0.22687672 0.14097449 -0.00026284344
0.061761852 0.2740902 0.035274368
-0.20419872 0.007363668 0.09339255
-0.03471508 0.26165417 0.095220566
-0.1145339 -0.33311126 0.051341757
0.30073178 0.04782164 0.023026371
-0.05853961 -0.12966445 0.050041694
0.27731627 0.04349599 0.004280176
-0.17619039 -0.18292913 0.05824356
-0.021123998 0.28494123 0.043703623
-0.057838667 -0.35000005 -0.13346967
-0.15008068 -0.19233863 -0.0009733214
-0.3578115 0.0078044096 0.034481667
-0.02350381 0.11781942 -0.008384764
0.08217508 0.26379237 0.032813054
-0.008991616 -0.28614548 0.053840786
-0.1337083 -0.37024084 0.0046339342
0.29486698 0.06168598 0.08830258
0.35910627 0.11579561 -0.07736096
0.15661122 0.060096033 -0.18130052
-0.29360273 -0.18733612 -0.21002689
0.115321115 0.25245804 0.03436084
0.030955544 0.31471246 -0.037588257
-0.087217085 0.2481724 0.03780629
-0.12607154 -0.30194464 -0.060807664
0.2987361 0.050430335 -0.0005057955
-0.18171751 0.13192773 0.010014315
-0.27413616 -0.17113724 0.021064777
0.21443419 0.18782507 0.018766386
0.12670724 0.3307707 -0.071181424
-0.12435099 -0.2916573 -0.1353422
0.018672874 -0.31083506 0.05539718
0.2349702 -0.09758978 0.0051271995
0.15967475 0.14691587 0.025838193
0.041721527 0.27624026 0.03078424
0.019184178 -0.32745486 -0.14026724
-0.31223243 -0.08897457 -0.052906234
0.13284664 0.08954622 0.0064943563
0.05047657 0.14333539 -0.17737095
-0.18807794 0.14863695 0.04209421
0.27415723 -0.09741421 0.04815679
0.23360637 0.21805912 -0.23307459
-0.21200578 0.3091497 -0.1420287
-0.15324609 0.20230179 0.094716206
0.2643313 -0.09948924 0.0018679478
0.22197796 -0.13811238 0.036100533
-0.14334689 -0.08549516 0.021790722
-0.2887177 -0.21539775 -0.18604665
-0.15303573 0.07350022 0.06735526
-0.039219577 -0.20189497 0.003177818
0.2437735 0.16250081 -0.055241372
0.33168998 0.009959721 0.0245974
0.28079182 -0.029326012 -0.100120254
0.16933192 0.0026978531 0.036424857
-0.23725148 0.028069286 0.030746277
-0.3314129 0.05982986 0.016002651
0.07434066 0.2183453 0.03138511
-0.28844887 -0.11779008 -0.04754464
0.04204073 -0.13919826 0.034797844
0.1547487 0.23020372 0.046870694
0.17670861 -0.21417002 0.014415331
0.3217302 -0.040558677 -0.049135942
-0.37970337 -0.11727543 0.050139762
-0.1366782 -0.05926125 -0.064984396
-0.002977354 -0.18786377 -0.1661981
-0.18158807 0.16252899 0.082372814
-0.10503059 -0.040631592 -0.00023139865
0.07429712 -0.13150288 -0.1275428
-0.13947362 -0.3234541 -0.090860106
-0.20937845 0.025601724 0.09374433
0.022118641 -0.27243355 0.04162411
-0.272848 -0.16482824 0.054652426
0.01546557 -0.35297847 -0.18218748
-0.28562942 -0.2487938 -0.056389026
-0.09222571 -0.20662144 0.03138722
0.010611159 0.13723394 -0.022758884
-0.05590393 -0.24024716 0.011406456
0.0437765 -0.26533502 0.09303396
-0.13480322 0.21780765 0.07760409
-0.15049745 0.17139696 0.0052783755
-0.07565832 -0.29031646 -0.050194453
0.12687722 -0.13602841 0.015917508
0.06389945 0.14727166 0.07982977
-0.18258016 0.054750193 0.048230294
0.28028628 -0.07276971 0.056993674
0.01642755 0.3282122 0.02972192
0.0918894 -0.296444 -0.09786151
-0.27788264 0.057032853 -0.19937275
-0.13695909 0.28954938 0.0023458598
-0.22376928 -0.27481437 0.06029665
-0.008836188 -0.260636 0.039400566
0.17831536 -0.06814182 0.06695353
-0.011119263 -0.13076492 -0.017669044
0.15630369 0.077566124 -0.009936052
-0.16444048 0.21108253 0.0772425
0.29755637 0.033365525 0.03914061
0.049470168 -0.30428717 -0.04937087
0.040658705 0.16654833 -0.058523916
-0.16623893 -0.2942292 -0.000442693
0.21041964 0.10611317 0.08662021
0.15836957 0.050386935 0.044281214
-0.015711254 0.24346086 0.055108298
-0.06074677 -0.34902942 0.029519035
0.0048957374 0.31468013 0.03646867
-0.1925512 -0.07359415 0.0061340616
-0.23718816 0.056702442 0.03419678
-0.15937546 -0.23073481 -0.15914011
0.23649262 0.0908934 0.009590785
-0.022204986 -0.22149579 0.032401398
0.12756014 -0.09111145 -0.070024796
0.22895588 0.19377135 -0.13690516
-0.23059502 0.07517009 0.0028693925
-0.23233329 0.1577507 0.04188549
-0.3202326 -0.14455059 0.08929003
-0.22259581 -0.021111716 0.09702909
0.1118388 0.113871686 0.0152337365
0.27470842 -0.04301266 -0.1355584
-0.2153608 -0.16274725 -0.06416324
0.17151964 0.20430937 -0.23476212
0.28453055 -0.05567339 0.06578318
0.19950545 -0.2484247 -0.12384757
0.05812373 0.36394182 -0.18841425
0.08668714 -0.22238806 0.07400691
-0.32576433 0.040367536 0.061049458
0.3330939 0.08507434 -0.0029583445
0.13908571 0.326399 0.0014562436
0.085455544 -0.2957203 0.025537634
-0.08076466 -0.09094138 -0.13050152
-0.36047116 0.034717396 -0.104700945
0.19117302 0.15847301 0.019943917
-0.30270183 0.17112163 -0.22813247
-0.022104103 0.15300718 -0.005807856
-0.19182578 0.24631111 -0.03461887
-0.1875727 0.120088935 0.0018194075
-0.124063216 -0.10223632 0.043056425
-0.066189095 0.15537634 0.057054237
0.16489552 0.12531175 0.047882423
-0.005065638 -0.21017693 0.052988306
-0.12943216 -0.10169228 0.017421545
-0.17017196 0.09219797 0.032765575
-0.15419345 -0.23925468 0.059391446
0.20528373 -0.1250209 0.0700397
-0.18366046 0.010923233 0.025066746
-0.24288994 0.14937867 0.07841399
-0.18776627 0.103202745 -0.15409046
0.14991707 0.046078306 0.015845021
-0.34578893 -0.13290103 -0.05004355
-0.04785317 0.12365833 -0.15121183
0.2995624 -0.07586557 -0.004327555
-0.054435994 -0.24177511 0.077829644
-0.21885756 -0.008234818 0.029270822
0.035028413 0.29402858 0.047704484
-0.05182211 -0.35095328 -0.0040644514
-0.17625135 -0.19790858 0.021607736
-0.3299431 -0.06706846 0.069487564
0.271323 -0.2052484 0.0050219996
-0.20479015 -0.24185915 -0.15764622
0.33703294 0.11337265 0.06834276
0.08279335 0.27380127 0.015550203
-0.046494074 -0.13396272 0.06322236
-0.07196937 0.292192 0.05525129
0.18380563 -0.2797522 -0.1976067
-0.14508246 0.16031699 0.06050751
0.18014236 -0.11077502 0.037635185
-0.16856802 0.2215573 0.015234913
0.16862212 -0.14736341 0.09091888
0.2605651 0.12923677 -0.083608374
0.21550857 -0.25059992 0.050728574
-0.32802755 0.118348986 -0.2251083
0.10407266 -0.14166504 0.052622657
-0.3357583 -0.13347337 -0.02657452
0.29212704 -0.08036933 0.028545214
0.06938948 -0.16486564 0.045813154
-0.055980638 0.20508954 0.06204416
0.28316003 0.15634605 -0.017153298
0.1388022 0.13196474 0.027417239
0.101612814 0.07054065 0.07547324
0.11500737 -0.13499188 0.08571151
-0.19151658 0.09310397 0.08745067
0.07750732 -0.3289686 -0.1727962
-0.01658238 0.29919967 0.09541206
0.17460003 0.21914575 0.054122012
-0.27973193 0.17081577 0.00348132
0.31731397 0.027930897 -0.14668658
0.15294933 -0.3096087 -0.13767391
-0.29670036 0.059251048 0.08682054
0.10185084 -0.28224018 0.059084244
0.27062064 0.006145323 0.060237564
0.085452266 -0.27004978 0.020242594
0.0669913 -0.28828573 0.050386388
0.016372493 -0.25138372 0.0692586
0.041032396 -0.1105398 0.0004487018
0.0042070057 -0.3113843 -0.20982234
0.00707748 0.24409233 0.0022854796
0.188722 0.2090134 0.08958757
-0.11021822 0.08242494 0.030160494
0.18600647 0.27221525 0.030653836
-0.17905244 0.10203266 0.042760164
-0.038698193 -0.19552593 0.022818187
-0.008923912 0.26894587 0.08810178
-0.36396796 -0.10492546 -0.004198666
0.1786897 0.10047348 0.07388619
0.29790163 0.09647382 0.09066636
0.11625895 -0.09606326 0.006100502
0.19638234 0.07201434 0.034590848
-0.10596244 -0.18118976 0.00895605
-0.06276916 -0.3043495 0.039749075
0.26804057 -0.038861755 0.056530233
0.31213987 -0.10212376 -0.24488047
-0.16274561 0.12787409 -0.1408813
-0.24031432 -0.121901035 -0.21820453
0.2900644 -0.058059074 0.08701129
-0.23345071 -0.04744956 0.02568444
0.26761928 -0.08115277 0.054258484
0.090540834 -0.23329377 0.091711886
0.077655576 0.2801309 0.035264835
0.2207744 -0.1293737 0.08462448
0.24861082 0.12729253 0.008634548
0.15827087 0.0323243 0.028244628
-0.30755514 0.09971709 0.0064038327
0.03540392 0.2680611 0.078114025
0.050511885 0.12474499 -0.0063563394
0.2018726 0.271555 -0.077241205
0.16582082 0.2438634 0.041027937
-0.0780226 0.28196257 -0.16292481
0.31783685 0.15130967 -0.04430867
0.00036429326 0.3246014 -0.15440495
-0.23140076 0.059932165 0.07618296
0.3257758 -0.0658328 0.0113010155
-0.00760774 -0.14692108 0.016861811
-0.3398286 -0.05204951 0.0072922003
0.19901869 -0.06523712 0.07566871
0.21304029 -0.18330133 0.058107354
-0.08802356 0.31395903 -0.067639284
-0.25659344 -0.22460984 -0.08916861
0.16385956 0.2803422 -0.112881735
0.00070876686 0.37282535 0.044282306
-0.03494572 0.31264475 0.0073071728
-0.24006757 -0.114463896 -0.18576302
-0.25006625 -0.08371313 0.08948779
0.13094799 0.2727528 0.029366134
0.21229349 0.18737364 0.08607071
-0.07479309 -0.35645956 0.06367491
0.19045305 0.11844365 0.07447418
-0.30562183 -0.037682395 0.0644423
-0.028093955 -0.32688403 0.06084059
0.20124671 -0.29173252 0.023665918
-0.0028286604 0.20384231 -0.08674783
-0.22996357 0.17939208 0.0737504
-0.23518737 0.038654864 0.09615586
0.25511655 -0.25950593 0.043532945
-0.30380327 0.084985934 -0.0007292255
0.26190406 0.053593323 0.0804133
0.097395785 0.22050291 0.079347715
0.04393161 -0.19340602 -0.08672632
0.037210952 -0.25626045 0.06299744
-0.13438076 0.19234611 0.083777875
-0.12322514 0.1359796 0.07906668
-0.30781138 -0.05512049 0.054891925
4.0155598e-08 0.14170273 -0.23650533
-0.15853289 0.2994586 0.0758699
-0.30219015 -0.0484487 -0.17005265
0.107250035 -0.078241 0.05256998
-0.3455978 -0.14631554 -0.06539075
-0.028925454 -0.14945027 0.085061185
0.18003598 0.23560613 -0.0022236116
0.009027038 -0.2685557 0.041965105
-0.16276295 -0.1177745 0.036798373
0.117130026 0.07582733 -0.035849873
0.055336818 -0.17266554 0.05257165
0.18539593 0.20313787 0.0765369
-0.22737236 0.26299116 -0.04045456
0.19589321 0.13878724 0.045829516
0.16826871 -0.22531585 -0.2388791
-0.2981544 0.11696898 0.07840256
-0.117257975 0.18008041 0.084353
-0.24214333 -0.0032644111 0.05784774
0.10168273 0.08244498 -0.12775733
0.22514695 -0.28601757 0.078222156
0.111321524 0.11459966 0.004992648
0.098887876 -0.086344026 -0.075349875
0.33198288 -0.015130984 -0.115178674
0.26125306 -0.06597733 0.040459767
0.15427828 0.25650403 -0.0875225
0.034730975 -0.11704778 0.019675087
0.3485682 -0.012950067 0.05724605
0.24957351 0.047824483 0.056555692
0.25464326 -0.0132018505 0.024028676
0.19252644 0.26060855 -0.048483796
-0.015671069 -0.28666985 0.08741756
-0.10971855 0.30673575 0.016846335
0.1091174 -0.24504265 0.07652842
0.059136204 -0.27487314 0.022004444
0.12603994 -0.06308832 -0.040074594
0.22188276 0.09434617 0.074779645
-0.08494657 -0.28632778 -0.2285829
-0.13408768 -0.1305925 0.04272089
-0.28820312 0.023947 -0.07640232
-0.19758363 -0.021990402 0.020672163
-0.017813183 -0.34377968 0.027638875
0.23714367 -0.07241259 0.081000365
-0.19867551 0.088314265 0.04191345
0.3359954 0.03681904 0.031628393
0.13488553 0.19668292 0.09439445
0.20299245 0.06813131 0.0941399
-0.2035412 -0.18106899 0.026711447
-0.2300857 0.10391768 0.06603893
-0.21454023 0.12753375 0.08225531
-0.15474612 -0.19284278 0.04560363
0.133906 -0.1679948 0.06805712
0.22231877 -0.27285838 -0.010301974
0.2280718 -0.104511656 -0.17402025
-0.09759885 0.24272712 0.048000716
-0.29300514 0.2769479 -0.15078717
-0.07983537 0.14417633 0.047193248
0.10668688 0.37019798 -0.030869484
-0.1470223 -0.23052824 0.08892567
-0.23205975 -0.109195165 0.09248769
-0.23218362 0.020342777 0.025187341
0.17277801 0.09915049 0.050286856
-0.011071465 0.25944552 0.08002365
-0.15672061 0.101075634 0.043605987
-0.1422809 0.17460401 -0.00038369378
-0.102765545 0.15077525 0.0890119
0.28606433 -0.03940694 0.0054405644
0.0057236855 -0.22275129 0.049570598
0.045568563 0.16977295 0.058980085
0.32437634 -0.057091095 0.037357956
0.24300407 0.037930135 0.023625102
0.12914293 0.079351574 -0.006875012
-0.25863805 0.2543067 0.016095368
-0.20525916 -0.13293426 0.08366789
0.32564193 -0.07276308 -0.15829249
0.19796765 -0.25633192 0.014950804
-0.23500703 -0.21401629 0.008877149
0.22427918 0.1525019 0.010313663
-0.06494151 -0.21843147 0.054850575
-0.031018402 -0.12190241 0.059802078
-0.03701016 0.22397023 0.08231188
-0.2357889 0.1148867 0.08573331
-0.35917622 -0.0893888 0.027203871
-0.01785505 0.33569434 -0.19177818
0.05140275 0.33206856 0.013403012
0.21418847 0.019564208 0.05117481
-0.29044217 -0.11757039 0.08582033
0.008079842 0.29986337 0.092847645
0.18255213 0.08381543 0.012834638
0.06998525 0.30270505 0.018657349
0.2596155 0.04939523 0.09184786
0.03730172 0.14642414 -0.09962215
0.13411188 0.15249956 0.014398239
-0.1306078 0.020260582 0.0023039079
-0.014373311 0.15536158 0.059607662
-0.27576688 -0.22060972 0.059495308
0.16034192 -0.054465864 0.084567614
-0.0626089 -0.36813942 0.012749151
0.15977079 0.17942281 0.06674626
-0.17138204 -0.07526906 0.03333439
-0.28666362 -0.020357395 0.08710028
-0.17892295 0.24342702 -0.027320428
0.129998 -0.10077316 0.0011754546
0.107153945 0.009501193 -0.021807164
0.19805554 -0.22646098 0.01955393
0.11176793 -0.28854465 0.013400099
-0.11225052 -0.28376234 0.04808439
0.1229667 0.12504536 0.026052412
-0.08598761 -0.29095775 0.07983084
-0.11525835 0.08159804 0.015106372
-0.06564904 -0.12987061 -0.03647366
-0.00795748 -0.34135348 -0.13007893
0.3051827 -0.13407686 -0.124443695
-0.12173026 0.30607072 0.06615846
-0.022501756 -0.23441543 -0.0005986028
0.073081605 0.22470705 0.022862809
0.26298687 -0.12587897 0.015580996
-0.2293795 0.22022764 0.044395905
-0.28933257 0.15758258 -0.1023524
-0.04176672 0.17887667 -0.028020917
-0.081991404 0.19677854 0.0056414446
0.1521418 -0.32577938 -0.1739185
0.2503024 -0.13755067 -0.065766044
0.1667793 -0.2634901 0.053643692
-0.3030515 -0.04165927 0.04832895
-0.20515159 -0.023744784 0.06606022
0.009844437 -0.18076184 0.04910457
-0.12182249 -0.26680866 0.05835464
-0.16633889 0.0028263754 -0.09387199
-0.08512762 -0.27310708 0.0018049374
-0.210797 -0.07381565 0.007589357
0.1856987 -0.06147793 0.006960694
0.107126474 0.03386363 -0.06289217
0.16711132 -0.04761797 -0.097771995
-0.21867962 -0.24950603 -0.21707983
0.23019496 -0.14979687 -0.10825056
-0.01145418 0.1896152 0.016420513
0.1778935 -0.11987753 -0.060180727
-0.2270607 -0.042003073 0.06895951
-0.05620006 0.2838941 0.0051363255
0.07221917 0.12580118 0.0118703125
-0.23817408 0.17692286 0.031024462
-0.2618627 -0.19998147 -0.094296984
-0.1844286 0.20738745 0.083379894
0.11722923 0.2709629 0.07249089
-0.19649537 -0.27972063 -0.07268282
0.043984324 0.15543461 0.06890484
0.10896692 0.14114086 0.081669025
-0.052040424 0.19615273 0.073896565
-0.2943307 -0.02576478 0.018714486
0.2680345 -0.01784099 0.010542616
0.05185288 -0.1220223 0.06145474
0.0965872 -0.096165314 0.03642179
0.16026801 -0.037178334 0.07775122
0.19223012 0.19433895 0.062244095
-0.15385288 0.26395643 -0.11724312
0.007689503 -0.19147699 0.0492777
-0.1338237 0.32475576 -0.12902325
-0.3765545 -0.008380979 -0.20290475
0.16796713 0.22933096 0.020822264
-0.2499137 -0.020167502 0.08159727
-0.1625384 -0.019233055 -0.09207534
-0.16056988 0.23455475 0.047030795
-0.33639058 -0.08799812 -0.25792858
0.21602714 -0.26127872 0.06773913
0.27324784 0.09514286 0.04434296
0.13370731 0.31001526 -0.003187969
0.07560214 0.2875903 0.09490232
0.045057002 -0.3279697 -0.1661301
0.07874996 0.18471953 -0.02252966
0.316713 0.11445894 0.08127988
-0.12857121 -0.1635024 0.03757816
-0.21655662 -0.120938614 0.09653632
0.01628711 0.25982913 0.022792567
0.12749828 -0.22324252 0.012463024
-0.12998639 0.2661903 0.07701995
-0.33372432 -0.06698087 0.0074988995
0.22826017 0.007066956 0.035330378
-0.15056178 0.047579452 -0.00557389
-0.060371365 0.20876268 0.005113961
-0.09173658 0.1801108 0.046549357
-0.16144522 0.048115212 -0.052155998
-0.3322332 -0.0030313157 0.017496191
-0.24694565 0.28698874 -0.04801582
0.22585382 -0.027003074 0.018662522
-0.10760563 0.13555156 -0.1513214
-0.23934683 0.18363418 0.009820934
-0.24720773 0.05492012 0.043801475
0.1389231 -0.101158135 0.023131618
-0.17069517 -0.34098953 -0.16440852
-0.103503205 0.19961424 0.028728055
0.27586725 -0.2645335 -0.13325532
-0.24250764 -0.07055779 0.0886029
-0.08090684 -0.21285185 0.08299704
-0.08835067 0.17466806 0.0047019795
0.018504255 -0.23776615 0.06429459
-0.14672047 0.20893401 0.016077051
-0.072283894 -0.3359629 -0.14660868
0.013525852 0.20941482 0.008855099
0.20597672 -0.31122002 -0.14589511
-0.03500846 0.26857916 0.068097815
-0.21880564 -0.1835686 0.053091608
-0.048663385 -0.30376795 -0.1626237
-0.13185194 -0.09217261 0.031516828
-0.27411553 0.2209974 -0.17947133
0.19098403 -0.19783762 0.064172626
0.16364421 0.18168053 0.026784826
0.02355318 0.22778417 0.040517975
0.16477332 -0.05383807 0.015229503
0.14897041 0.14654212 0.0019118516
0.1664527 0.061355203 -0.12753317
-0.077817 -0.24855533 0.026636958
0.26952845 0.17034443 -0.035313245
-0.26871595 0.1634663 0.08933668
0.10866002 -0.26160857 0.018324286
0.17081337 -0.016472692 0.066923134
0.0058802576 0.28976718 0.067640275
-0.03311759 -0.15094328 0.0048082364
0.058977984 0.34564096 0.047594473
0.28339812 -0.10189285 0.0664721
-0.1176708 -0.23643321 0.06549986
0.030736482 0.13066842 -0.011774377
0.27330837 -0.17855072 -0.2209112
0.11903818 -0.29236802 0.016120112
-0.0011540302 0.181571 0.017296432
-0.022364037 -0.30365285 0.015886256
-0.10755931 -0.28840408 -0.08461806
0.29457211 -0.111065045 0.08569294
-0.11618837 0.116230816 0.034236994
0.19879548 0.18565267 0.005885607
0.06137753 -0.2455094 -0.05431285
-0.103660494 -0.17090015 0.063545644
-0.04573908 -0.21254836 0.050615728
-0.05146408 -0.19481678 0.07359544
-0.24390273 -0.20785764 0.06308408
-0.17495167 -0.25938728 0.09461697
-0.100123614 -0.34998587 0.0796331
-0.23552443 0.028673196 0.081502765
-0.013327543 0.2848197 0.028089052
0.1379833 -0.03568862 0.046223566
0.08387692 0.10328406 -0.16822468
0.09618535 0.25782415 0.07518399
-0.10942707 -0.08440373 -0.13890675
-0.23512721 0.24398787 0.027060876
0.2810181 0.094443105 -0.14548913
-0.3297834 -0.1101034 -0.17211135
-0.017446779 -0.22314608 0.06260423
0.14347774 0.029904585 0.052779987
-0.30192953 0.11358144 -0.19707945
0.063509084 -0.22662494 0.02755755
0.16189042 -0.107150234 -0.07398161
0.26866224 -0.16612206 0.04794782
-0.17361997 0.12891036 0.07722311
-0.21380526 0.24274811 0.03395274
0.110785775 0.30012047 0.02838497
-0.31332368 -0.10407559 0.026809769
0.14769067 -0.19287564 0.04228198
0.12999156 -0.28676116 -0.0053349053
0.30318588 0.10514642 -0.18642215
0.08110818 -0.12766021 0.051845968
-0.27287847 -0.18395339 -0.13688527
0.26891625 0.20636767 -0.06696031
0.22873567 -0.14166124 0.0784352
0.042761087 0.28837243 0.08660262
-0.10824329 -0.18169785 0.022154618
0.31274426 -0.0791025 -0.11905878
-0.25182718 0.009871898 0.08190744
-0.26459476 0.07630037 0.04380262
-0.09388724 0.14974235 0.0432443
-0.02094301 -0.28620315 -0.14886864
-0.1792037 -0.13751997 0.0039308947
0.2708844 -0.07848396 -0.011896133
0.16837607 0.052680206 0.01923099
-0.12385608 -0.27757028 0.07134505
0.02993655 0.21380681 0.05997464
-0.08192791 -0.29113692 0.031675484
-0.14360313 0.05103586 0.0031173406
-0.16427365 0.05380057 0.027539397
0.35180157 0.07329916 0.034274116
0.3098382 -0.15535466 0.0070312223
-0.20137152 -0.30987436 -0.10614292
0.1858429 -0.27293956 0.09375338
-0.3501405 -0.1354966 -0.0014986122
-0.015672434 -0.32332465 -0.091652736
0.1549736 0.1421334 0.045446288
0.23065268 -0.07086238 0.07598699
-0.03364513 -0.36329573 0.0933031
-0.11164738 0.06479542 0.037058376
-0.14499487 0.08054206 -0.047737543
0.10612289 0.2873411 -0.09663355
-0.2115482 0.31348407 -0.14391007
-0.04223017 0.19576381 -0.033397485
-0.083624996 0.10585811 -0.11180737
-0.07408888 -0.25180188 0.033340264
0.088720016 0.14803 -0.14138658
0.23878093 -0.022450857 0.012650163
0.29141194 -0.14225672 0.0010365527
-0.12368129 0.15888214 0.0928107
0.18353909 -0.22569007 -0.0040966114
0.061368868 -0.14772762 -0.060410444
-0.021744534 0.23036772 0.051427353
-0.10026594 0.16732046 0.07219959
-0.2813792 -0.20202784 -0.11205161
-0.3968486 -0.09666208 -0.0771063
0.31570646 -0.0009415376 0.020813752
0.121981144 0.2955878 0.026339093
0.2333104 0.14234276 0.09111212
0.3294945 0.1378104 0.010523996
-0.018289184 0.32706076 -0.140369
0.21595906 -0.121958874 0.084918976
0.07400145 0.15232496 0.07062482
0.25857285 0.16371445 0.09037453
0.115117036 0.27465555 0.038060945
0.27436996 -0.14253564 -0.08264313
-0.10498321 0.24175823 0.094062716
0.1497746 -0.24582586 -0.12405681
0.093926504 -0.31243917 -0.12746789
0.2436775 -0.11930874 0.027210098
0.14892128 0.09070474 -0.19493452
0.08952438 -0.10091306 -0.020677041
-0.15684594 0.30997217 0.032641146
-0.17710151 -0.23769568 -0.23249123
-0.19421113 -0.33718172 -0.1884847
-0.13942206 0.12299272 0.044991776
-0.12281691 -0.03200472 -0.062443387
0.1870085 0.04574474 -0.13161735
-0.12942204 -0.30526254 0.005473581
0.10749455 -0.30756336 -0.036121424
-0.28143346 0.07067751 0.049544055
0.27541223 -0.044534247 -0.09889088
0.067214526 -0.20586452 0.014829529
0.14867127 0.03702839 0.05698434
0.14000763 -0.23047268 0.04814702
-0.27939644 -0.04713187 0.043409966
0.30133912 0.033954732 0.04016093
0.1308169 -0.25281245 -0.16965204
-0.29853946 -0.14039405 0.019002113
0.09468947 0.31853792 0.0316509
0.14712985 0.15952572 0.069514856
0.023227464 0.30844584 0.07991692
-0.12701249 -0.30296004 0.05736231
-0.1353088 -0.29250976 0.033519007
0.27451423 0.041958854 0.08221837
-0.12949432 0.18029125 0.008109108
0.1392474 -0.27765343 -0.14466146
0.10752638 0.3342368 0.02007905
-0.070125036 0.12256969 -0.13504246
0.31534338 0.064305335 -0.11826237
-0.16215594 0.082274355 -0.010676771
-0.17780986 -0.041148253 -0.06658781
0.15331851 -0.012639009 0.009546548
-0.26552993 -0.0010599548 0.033458784
0.21394943 -0.21070273 0.080569044
0.07035564 -0.27009112 -0.057852652
-0.09714895 0.31395927 -0.06585915
0.022244498 0.28281853 -0.04278599
0.09013446 0.23407385 0.020116886
-0.05892694 0.24557385 0.09170488
-0.14744668 0.19522317 0.04432984
-0.061318703 -0.23367119 0.08999913
-0.32618353 -0.062384352 -0.14386529
0.028120456 -0.10696999 -0.19711287
0.058697406 -0.2764015 0.074414656
-0.16437699 -0.049151212 -0.21981585
0.055211447 0.27610183 0.094653614
-0.04276281 0.1408293 -0.040082738
0.23788992 0.15341601 -0.023134021
0.10858347 -0.20506741 0.074217916
-0.3125092 -0.17675672 -0.092008464
0.07530665 -0.15771519 -0.024828149
0.023654537 -0.3052041 0.05564761
-0.25259477 0.025082648 0.078959934
0.22597834 0.21798682 -0.1508093
0.16855438 0.17751622 0.027880052
-0.3687305 -0.0027091024 -0.06366557
0.14782311 0.10343512 0.019190865
0.20146038 -0.19886374 -0.09364939
-0.27136803 -0.14303856 0.00094172533
-0.124229014 0.28998804 -0.08120175
-0.00034199946 0.3366062 0.06009325
0.08601807 0.3098568 -0.19161975
-0.06841984 -0.16453752 -0.028775562
-0.04711922 0.2032734 0.09637277
-0.038417187 -0.27884954 0.026907302
0.22148244 0.052664656 0.05786184
0.18502991 0.007762499 0.0136887375
0.2957406 -0.07142595 -0.21333842
-0.21708147 -0.21551342 -0.013807579
0.14346494 0.011447848 0.006871719
-0.2503896 -0.20272042 0.052969716
0.16642842 0.12456729 0.043223225
-0.080901355 -0.18188795 0.026128111
0.117839426 0.08193326 0.07076881
0.21848883 -0.22885773 0.07384887
-0.18498576 -0.2740502 0.07388981
0.06345966 -0.07659317 0.00042895053
0.037565317 0.16632518 0.06805456
-0.068331435 0.31206015 -0.034763042
-0.20181626 -0.27156532 -0.1552614
-0.050809916 0.26184678 0.07502458
0.01977742 -0.28756845 0.093811184
-0.13952255 -0.22312275 0.04255267
0.11590732 0.15570141 0.001037172
-0.12767603 -0.12284228 -0.09627
-0.27487478 -0.0833744 0.07771855
0.30044705 -0.0076239435 0.014130465
-0.07180393 0.17179684 -0.07829431
0.025901048 -0.21898875 0.07429022
0.192311 -0.018071564 0.013045261
0.12231002 0.21433854 0.06795615
0.31616697 -0.05587221 0.09310514
-0.21597129 -0.23426229 0.034577686
-0.1535857 -0.30210558 0.08100208
-0.22013345 -0.2380127 0.016424997
-0.13718334 -0.13656199 0.013062484
0.10133953 0.32422993 -0.022077434
-0.28962496 -0.16399252 0.026896004
-0.19161426 0.24898581 -0.01293638
-0.302051 -0.10040723 0.03705215
0.14982612 0.3073489 -0.004748874
-0.3423844 -0.11903738 -0.07721972
0.09742037 -0.14617112 0.08100931
0.31602138 0.04747864 0.06347175
-0.28835833 -0.0048571345 -0.080445156
-0.23172076 0.088351175 0.06239981
-0.32145768 -0.06687608 -0.08118817
-0.31431916 -0.13216618 -0.04632541
0.20864984 -0.23940417 0.05413326
-0.06569312 -0.18236192 0.00022761505
-0.25429574 0.1183936 0.0636492
0.32518867 -0.062186316 -0.17134671
0.34133887 0.12899338 -0.024876298
0.15890433 0.028410578 0.050008483
0.37212452 0.043754335 -0.037380565
-0.23437962 -0.20401558 -0.09891459
0.21276371 -0.09405358 0.015436377
0.013782347 0.14602274 -0.088333495
-0.32312283 0.027391719 -0.03656242
-0.28142107 0.14904433 -0.10218249
-0.1017708 -0.3213623 -0.17154813
0.10160206 0.088665314 0.039608818
0.18027285 0.091732524 0.056500793
-0.25330332 -0.16850017 -0.23744245
-0.028388642 -0.1589423 0.06480311
-0.06809153 0.18402408 0.008050061
-0.11760047 0.23938586 -0.20867506
-0.26660463 -0.12916364 0.023787096
-0.22211464 0.048188526 0.068881996
0.1289358 -0.25863 -0.15619072
0.2708239 -0.012613214 0.026885552
-0.24095093 -0.14737824 -0.0010818493
-0.035963207 0.3141711 0.045857582
0.24350438 0.07466728 0.06603612
0.059657197 -0.1782392 -0.16031863
-0.2955393 -0.042919084 -0.0924145
0.020889383 -0.32244113 -0.16304997
0.089857966 0.15481938 -0.068354025
-0.23362352 0.19410235 0.06218172
0.06702103 -0.13402416 0.07319685
0.2914843 0.10876378 0.03568643
-0.075024456 0.23422252 0.06172291
0.28194666 -0.25994632 0.007175037
-0.07185252 0.23212889 0.07133258
-0.07316416 -0.33059207 0.03809169
-0.047377847 0.20728688 0.06595468
0.19054925 -0.10364194 -0.0736274
-0.14557667 0.07817766 0.058532488
-0.08851379 -0.3238005 -0.044301502
0.22917953 -0.17713985 0.030105969
-0.23772955 0.22898638 -0.1020692
0.18776613 -0.18766165 -0.0015433539
0.32234576 -0.09051074 -0.18993562
-0.03284383 -0.18453924 0.033268716
0.054916397 0.1684309 0.03618706
0.119797625 0.22199687 -0.029825658
-0.2117353 -0.00935889 0.052167255
-0.17974243 0.25013193 0.025562435
0.04224829 -0.23488441 0.02248305
0.057430822 -0.28030393 0.035841614
-0.22283925 0.097299196 0.08430323
-0.20510627 -0.18410012 0.049860746
-0.006784279 -0.16593695 0.022776842
0.13134865 -0.09175965 -0.04529995
0.13528153 0.11707641 0.041749876
0.23410498 -0.033000655 0.05997911
0.21375006 -0.13422975 0.04189422
0.22949566 0.12467558 6.2354535e-05
0.22900313 0.18522723 0.003670538
-0.019707747 0.22872041 0.06597735
-0.009919676 -0.14833799 -0.13881645
0.25180632 -0.17393379 0.069013186
0.11809191 -0.06956622 0.024173357
0.25369635 0.09595198 -0.21125942
-0.27206805 -0.19233525 -0.1444621
0.28608122 -0.037845563 0.050164007
0.28642437 0.1813733 -0.078536555
0.09043302 0.17070016 0.08984292
0.26000956 -0.043961298 0.02347109
0.086852975 0.23490192 0.010172021
-0.1759581 -0.00753893 -0.14994389
0.34344682 -0.043277778 -0.05936364
-0.07870554 -0.23114987 0.056550696
0.24377088 0.007409149 0.0075960965
0.089093894 -0.25862697 -0.16268797
0.12118953 0.29830852 -0.13135879
-0.1367441 0.26735535 -0.02629326
0.004084189 -0.26278323 0.07488748
-0.22925654 0.2931513 0.080811776
0.109736875 0.09166728 -0.050179683
0.09038297 0.13772498 0.08022372
0.015869748 0.32525524 0.061514016
-0.25294375 0.046861876 0.06597996
0.0975299 0.15064286 0.0037170276
-0.13523412 -0.16295724 -0.014734675
0.17569862 -0.06227092 0.022397215
0.2790366 0.028552853 0.06943325
0.12657687 0.19968306 0.051667653
-0.16686904 -0.07130528 0.08345137
0.09278229 0.040302165 -0.1078272
0.15997283 0.20903754 0.026852237
0.2537551 0.1163204 -0.004919186
0.10734386 -0.2668558 0.05341044
0.33953595 0.08084239 -0.07266972
-0.043247405 0.15391505 0.07153677
0.036210082 0.18924518 0.089348935
0.2387948 0.028811382 0.032318134
-0.013627175 -0.29887676 0.087379724
-0.27771276 0.05064358 0.061941713
0.1564865 0.20625356 0.021959025
-0.26753542 0.04533706 0.060477342
0.055116784 -0.13409123 0.076524325
-0.14317799 -0.285268 0.08422202
-0.10940315 -0.35341558 0.010045068
0.09007896 0.21328153 0.0009420843
0.23769207 -0.13156036 0.03068855
-0.19277887 0.30019292 0.0148493545
0.25844082 0.09289121 0.015682388
-0.3543324 -0.059066866 -0.057083983
-0.06903416 -0.183329 0.016612625
-0.11260745 -0.37868893 0.042670444
-0.1563529 0.31235367 -0.0017514211
-0.08053457 0.11875368 0.049785625
0.23197769 -0.11183155 0.056207366
0.26748857 0.1758776 -0.09203098
-0.041653115 0.30732402 0.08567011
-0.044833533 0.33792913 -0.18438387
0.2986402 -0.07836158 -0.0279558
-0.043162264 0.1621549 0.025627874
0.24103765 -0.0070817573 0.010350611
0.30292478 -0.13130917 0.019793676
-0.063285224 -0.19875471 0.0011645134
-0.03314759 0.27346292 0.021879576
0.15489227 0.2508472 0.004718034
0.20083793 0.10837831 0.0863128
0.36514363 0.13468315 0.0829216
-0.08783792 0.28620964 0.07035624
0.2170326 0.07346598 0.087143965
-0.33136496 -0.04516041 0.054520242
0.2046878 -0.22828953 -0.112929724
-0.09001228 0.2667294 0.02667983
0.07508626 -0.25203386 0.05271347
0.11707651 -0.24841863 0.0026695237
0.25880212 0.09168711 -0.030011786
-0.20811416 -0.21266389 -0.15061535
0.024251204 -0.28608835 0.07650731
0.079594605 0.13090742 0.08552293
-0.18528974 0.019787883 -0.0010828684
-0.22766721 -0.14687318 0.029837966
-0.23620571 -0.21178517 0.010183068
0.13998312 -0.26375544 0.05709521
0.077710874 -0.25311878 -0.02730108
0.039557684 0.2621232 0.016161844
0.119126834 0.21619116 0.069969974
0.24272734 0.07740036 0.04826909
-0.2780682 -0.093203634 -0.16464797
-0.31836805 -0.09428699 -0.069911346
0.2435556 0.23235627 0.094517075
-0.10703036 0.17163631 0.029285902
0.0668504 0.24515645 0.07236726
0.0014471358 -0.26279312 0.024983589
0.2936378 0.14287506 0.02944491
-0.12191578 -0.1567049 -0.0016971817
-0.10378008 -0.15546826 -0.002123864
0.15535507 0.26255208 -0.08103169
0.20702058 -0.15094416 0.08727708
-0.3148125 0.028866868 0.09599442
-0.11684663 -0.25671571 0.08277229
0.020032542 0.31350648 0.060851023
-0.28607658 0.0010760726 0.026948731
-0.19303441 0.15309283 -0.23369713
-0.27304292 -0.11819201 0.08774053
-0.34468716 -0.005554587 0.015616536
0.10642058 0.15730627 0.01121881
-0.17684889 0.20322274 0.012915908
0.31614608 0.078481756 0.017553847
-0.20859975 -0.006003644 0.002757867
-0.24381296 0.21628998 -0.05318323
0.17665215 -0.25672448 -0.10664456
-0.07598505 0.2890854 0.09019642
0.26454234 0.033786576 0.07351796
-0.035767484 -0.14298198 -0.017879445
-0.0013054318 0.17030953 -0.009396781
-0.12870428 0.085889734 0.009504683
0.07154159 0.13142736 -0.061415423
0.20796882 -0.030138299 0.06850141
0.18103974 -0.30661792 -0.117553435
-0.24037881 0.09252778 -0.00075372524
0.092279196 0.08305495 0.0065534194
0.17052081 0.2707006 -0.16859442
0.009151195 0.238691 0.044225886
0.02348955 -0.3272891 0.011025894
-0.2735225 0.08770266 0.045272578
0.30210426 -0.19636542 -0.09534602
-0.29620922 0.22041972 0.02858695
-0.19596039 -0.08994214 0.053482767
-0.0051875594 0.26387382 0.029970603
0.29703686 -0.0023269812 0.00701792
-0.3245485 0.02622437 0.058557488
0.3320718 0.07816886 -0.22247985
-0.17521378 -0.2527806 0.046332043
0.060507536 -0.19935226 0.0072103296
-0.17765251 0.03097147 0.07287451
0.2868952 -0.03206133 0.06951209
-0.1996981 0.0961155 0.004244866
0.2635007 -0.19365141 0.043269403
-0.051764708 0.32692692 0.07506608
0.24937572 -0.07290058 -0.107218005
0.23770508 0.04348233 0.03974072
0.13346536 -0.3086945 0.019624539
-0.24297637 0.23477928 -0.18924358
-0.033237737 0.24277672 0.06473072
0.14145993 0.24249357 0.02365409
0.2751052 -0.20299591 0.042553306
-0.15027049 -0.02995959 0.04183267
-0.20677625 -0.093719885 0.010301967
0.030490885 0.17167996 0.078732066
0.3065249 0.14485626 0.031251885
0.14127444 0.12076051 0.09291723
0.14313065 0.21311714 -0.07219588
-0.09952559 0.11288611 0.03413932
0.13558996 0.35994712 -0.08573493
0.21948873 0.20032708 0.053398717
-0.22718297 -0.012164737 0.04325462
0.17937057 -0.17986102 0.04333281
