# .PCD v0.7 - Point Cloud Data file format
VERSION 0.7
FIELDS x y z
SIZE 4 4 4
TYPE F F F
COUNT 1 1 1
WIDTH 1000
HEIGHT 1
VIEWPOINT 0 0 0 1 0 0 0
POINTS 1000
DATA ascii
0.16177185 -0.25658453 0.019508986
0.18829629 0.11272671 0.043687727
-0.26296183 -0.15724401 0.0713565
0.13065445 0.18028116 0.0384754
-0.19814266 -0.23712388 0.0008214209
0.14373016 0.04991022 0.081434086
-0.3536628 -0.031294703 -0.010081249
-0.19337316 0.32026342 -0.12468805
0.27342182 -0.24269031 0.090881795
0.34351158 0.041306097 0.021683648
0.021092277 0.2625603 0.0388716
0.19529581 0.230964 0.08687609
0.25040343 0.107085526 -0.00047351632
0.021955736 0.26784572 0.074457094
-0.26940018 -0.112316966 -0.04902866
0.15090218 0.14873624 0.04759265
0.009313989 -0.28604025 0.060957275
-0.04895609 0.17418817 0.08638373
-0.28804564 -0.18079662 -0.0725933
0.010904418 0.2827841 0.0063554626
0.21866094 0.1169463 0.0652572
-0.3159816 0.026183158 -0.045931023
0.3423561 -0.14911595 0.07319245
-0.074681625 -0.296582 0.076459095
0.2322242 0.19922654 0.048868615
0.20680542 -0.06455825 0.039627712
0.34039956 0.031533226 -0.012032592
0.083797224 -0.1511827 0.0043442715
0.12237437 -0.22409382 0.057538465
-0.10232397 -0.093907 -0.011303011
0.059663564 -0.10823203 -0.12258019
-0.158129 -0.2054389 0.0569642
0.17877471 0.0616584 -0.04570889
-0.11165178 -0.12012915 -0.11145632
0.17109117 -0.09167624 0.041148804
-0.12164007 -0.077316836 0.056809396
0.23552456 -0.13832815 0.05296588
0.24205296 0.095560595 0.053419974
-0.32443327 -0.119878024 -0.19141124
-0.1113425 -0.16984923 0.001482978
0.08251515 0.29911557 0.025136339
-0.01850199 -0.19182837 -0.018089807
-0.1370124 -0.078869976 0.039525714
-0.10584288 0.1556125 0.010105945
-0.0028763157 0.18891457 -0.013625823
0.27322236 0.087648906 0.07639288
-0.26883113 -0.017506653 0.068526715
-0.121503614 0.26012483 0.023596603
0.30645886 -0.11260184 -0.16861846
-0.07555219 0.3089057 0.08436994
0.053896684 -0.29867128 -0.14839682
-0.029272718 -0.3438995 0.08482156
0.09134882 -0.16876003 0.0714251
-0.31070068 -0.022512505 0.07486045
0.114246674 -0.19111611 0.024375433
-0.29077965 0.11478287 -0.03330934
-0.087141685 -0.114164785 0.058739208
0.18688901 0.0398518 0.03380948
0.06777448 0.36481762 0.022294937
0.35686767 -0.038632102 -0.085426226
-0.051985335 -0.14819367 -0.1275599
-0.120187536 0.3096418 0.022294423
0.21987721 0.1389598 0.052723557
-0.16354398 0.3435412 0.035408072
0.013541088 -0.19847932 0.047424164
0.038821477 0.187651 -0.01635266
-0.18894838 0.16209096 0.0610167
0.31146148 -0.0020746174 0.035995875
-0.23952234 -0.117784455 0.019143535
-0.27267697 0.21979102 -0.16878243
-0.12873295 -0.053157415 0.054635264
-0.1252692 -0.1151394 -0.19186705
0.05656572 -0.31377617 -0.059747744
-0.10740873 -0.107074305 0.01769501
0.19975854 0.15897693 0.066069275
0.097455606 -0.12586398 -0.11850319
-0.04351081 0.1732519 0.019848626
-0.22988917 -0.15093991 0.009702995
-0.29310176 -0.17101443 0.04586101
0.23096101 -0.25736886 -0.23432255
-0.07415978 -0.110257186 -0.033412177
-0.2677526 0.073361054 0.07491341
0.1916828 -0.054467756 -0.122237526
-0.31328553 0.08358691 -0.07648258
-0.22436538 -0.16108224 -0.00067234837
0.18972108 0.24079004 0.04112423
0.3144828 -0.075682156 0.004765575
0.23197006 0.26746634 -0.08707897
-0.022900503 -0.18997565 -0.110792324
-0.11226382 0.27418637 0.024848053
0.13156489 0.29886502 0.0850485
-0.16984932 0.075445145 0.02111452
-0.06520644 0.2955931 0.0766066
0.055972073 -0.22092873 0.016270287
-0.19694328 0.077393085 0.04816779
0.11649821 0.14649877 0.041649617
0.09497606 0.27913147 -0.028580531
-0.14002189 -0.13171321 0.06148955
-0.20821999 0.26482114 0.07309934
-0.3095444 -0.08437164 -0.16919348
0.01167725 -0.33037785 0.06624044
-0.22888176 0.28394288 0.04270403
-0.19380473 -0.2750354 -0.025192048
-0.13381127 0.08810531 -0.15422931
0.11589233 0.32381895 0.014905201
0.2615092 0.20994914 -0.0070712175
0.24947625 0.21581103 -0.19077407
-0.08029433 0.15138258 -0.035728283
0.31173864 -0.03845639 -0.04683396
0.21032514 0.07431729 0.09432639
-0.07555156 -0.2405801 0.030062517
0.17945749 0.014254855 -0.13141972
-0.32222083 0.022622785 -0.22954099
0.14914703 -0.13295314 0.0006860569
-0.17109351 0.31193444 -0.05513595
0.013586671 0.32671183 -0.074519336
0.3216308 0.03095418 -0.1608119
0.28219843 -0.031003008 0.047201496
-0.2553508 0.05990673 0.059963267
-0.3644447 0.014552467 -0.20798026
0.27215 -0.12714039 -0.12598944
0.20488991 -0.041056424 0.058070205
-0.07077835 0.21636319 0.015634477
0.11575355 -0.3151333 0.08177489
-0.20924866 -0.22235085 -0.0029368615
0.029142272 -0.21352896 0.054844648
0.011642817 -0.2898713 0.08946852
0.3151849 0.15470181 0.024068415
0.13812104 -0.1916244 0.09090844
-0.029411456 0.2686563 0.07307407
0.25054497 -0.14994448 0.07995403
0.17992628 -0.27806026 0.060621224
0.09706208 0.19143897 0.029389357
-0.12663254 0.15581036 0.047136102
0.084250286 0.20722675 0.05217013
-0.0072639342 -0.10000501 0.004234359
-0.09594366 0.12670217 -0.10013321
0.037426427 0.26722157 -0.0016761455
0.21409114 0.21681859 -0.086102895
-0.037847817 -0.1551486 -0.15384825
0.092021696 0.16836637 -0.034272507
0.036683887 0.21778862 0.048670277
-0.35420132 0.006796894 -0.004888484
0.29748324 -0.11042401 0.056250185
0.14363575 -0.27245826 0.036709163
0.18695691 -0.00967277 0.062597774
0.29748058 -0.0401814 0.01652135
-0.13203068 -0.21638234 0.024526328
-0.25333282 0.11223591 0.05089714
0.038558096 -0.10463165 0.036378138
-0.18395218 -0.2596803 -0.020909978
-0.09131064 -0.33211136 0.07135285
-0.21692231 -0.11687647 0.048129126
0.19763122 0.115164906 0.061528474
0.18527855 -0.2614607 -0.06383527
-0.27298188 0.16649707 0.0840667
0.17646086 0.2472147 -0.0017586589
0.38899174 0.06190514 -0.19224323
-0.12891293 0.103163004 0.08847898
-0.23853505 -0.07113547 0.043748893
-0.30377743 -0.11598047 0.074968755
0.22210266 0.021557493 0.018102374
-0.21480793 0.13535075 0.06953175
-0.36565062 0.0046151546 -0.0420126
-0.2145443 -0.0011323064 0.048871577
0.17738177 -0.18259008 0.018287756
0.024706254 -0.10116317 -0.028873144
-0.023605712 0.22036944 -0.08165027
0.20480123 -0.2197124 0.015287892
-0.0049940706 0.22616625 0.030818496
-0.21272697 -0.16576576 -0.075456694
0.0070074033 -0.18954968 0.03796902
-0.1876177 0.024326228 -0.069398016
-0.042406823 0.20484145 0.0473347
0.102907225 0.21971758 0.07636845
0.19784911 -0.14001888 0.04570516
-0.24392031 0.1732677 -0.034361396
0.25454903 0.026432043 0.046352904
0.14354736 0.087603725 0.055677447
0.18986383 0.105985686 0.049700454
-0.23840132 -0.19146258 0.08222584
-0.32239145 -0.008312021 -0.09221694
0.16926257 0.039084226 0.09564449
0.10157246 -0.21879743 0.010436549
-0.0974221 0.14104955 -0.082852915
-0.24876414 -0.22974283 -0.20045334
-0.25016886 -0.24977213 0.03486141
-0.16852432 0.064018324 0.0708962
0.093115136 -0.15870194 -0.11347677
-0.1488317 -0.20426247 0.05573638
0.12018878 -0.20638672 0.0796119
0.040301085 -0.11782284 0.002887362
0.122482605 -0.10564608 0.008203506
0.2597545 0.1483741 0.060451794
-0.25166938 0.020160189 0.07450359
-0.01265556 0.2160716 0.002995156
-0.26648235 0.20856263 -0.14820266
0.10670791 0.34095892 -0.13200213
-0.20075351 -0.19622348 0.039834622
-0.012313145 -0.34380475 -0.18352883
-0.17574885 -0.14655046 0.015073004
0.024680309 0.31387842 -0.12178432
-0.28030136 -0.021347081 0.023992863
0.13186654 -0.076658666 0.021773892
-0.14429606 -0.2495997 -0.084587105
0.12713619 0.07885598 -0.10996219
-0.18691029 0.12302812 0.07047573
-0.0736899 0.23103131 0.06002691
-0.17199712 -0.039871324 0.028382223
0.26837862 -0.05496096 0.09348181
0.31767377 -0.12396443 -0.19378808
0.18101424 -0.10417385 -0.0071673635
0.34226975 0.101142 -0.11763408
-0.06287173 0.3176674 0.025635248
-0.18836534 0.25582987 0.061307102
0.22137259 -0.120603144 0.013634318
-0.2391881 0.15470368 -0.047607385
-0.12374726 -0.30371407 -0.005495878
0.3029361 -0.06015911 -0.057004742
0.31246603 -0.05324933 0.0672754
0.14670628 0.017381858 0.050051197
0.13696064 -0.22698446 0.01764474
-0.1915342 -0.106883116 0.035026986
0.20084956 0.12649359 0.08021112
-0.3104535 0.031686094 0.016706882
0.105095 -0.257989 -0.20939888
-0.2739149 0.022389954 0.040000428
-0.17117785 0.17234401 0.06446555
0.19182076 -0.34216425 -0.058412824
0.25917825 0.0831433 0.004903982
-0.0114089465 0.30132586 -0.019026812
-0.158492 0.25685418 0.0031723296
0.18332426 0.21540749 -0.0024639657
-0.20341441 -0.06459037 -0.0012088697
0.11301801 -0.2109469 0.03294278
0.08426514 -0.286938 -0.121295355
-0.18324123 -0.35919246 0.02168732
0.09816938 0.1663336 0.014792939
-0.2214877 0.10404198 0.00053516537
-0.21800514 -0.11670336 0.06306948
0.046532113 -0.33576652 -0.11989693
0.092528366 -0.09853262 0.042700335
-0.004328972 0.24791108 0.02405914
0.25727218 0.110791974 -0.17066938
-0.006342707 -0.24135873 0.063710645
-0.1819671 0.35732624 0.04095656
-0.28797913 0.10142672 -0.1623828
0.36234128 -0.007834014 0.012036203
0.21939497 -0.07881782 0.01902388
0.29141414 0.005301575 0.07422321
0.10296732 -0.17954758 -0.15391468
-0.021485751 -0.11571219 0.04256333
0.10943068 0.3384645 0.020668404
-0.24777757 0.134947 0.029899854
-0.22439016 0.07022467 0.057461817
-0.17299668 0.21996379 0.024289254
0.25201648 -0.11625211 0.045532428
-0.1658965 0.230868 0.090792134
-0.12543102 0.12806234 -0.20921972
-0.1881597 0.08920803 0.07577393
-0.03780618 0.20737834 0.06372108
0.29101542 0.09387834 0.013369988
-0.16369443 0.33428547 0.073797815
-0.28510252 -0.08357215 0.03400023
-0.17526862 -0.2679771 -0.010157876
-0.13964473 0.28285488 0.08348854
0.2362645 0.109060235 0.03248947
0.32117963 0.0022706594 -0.0039908364
0.13904293 -0.35871467 0.037625592
0.22387315 -0.121655636 0.06894459
-0.11333841 -0.0965472 -0.025413439
-0.25730574 -0.09960488 0.011275056
0.1301555 0.27918598 0.012583835
0.09695045 -0.34255803 -0.036440685
-0.036527134 0.10669103 -0.12938906
-0.15014543 -0.17807738 0.018616121
0.05751849 0.29844007 0.08230933
0.21139804 0.21068457 0.012061754
-0.20756951 -0.17069592 0.06651547
-0.07053575 0.23808853 0.078104146
-0.111447915 -0.12986425 0.05283611
0.13037379 0.30595013 0.07710521
0.21839084 0.14799157 0.07909721
0.2880021 0.14142984 0.071318544
0.15608808 -0.17520778 -0.0041055223
0.14957207 0.17624275 0.03835494
0.22192636 -0.10696013 -0.0028974994
0.058839437 -0.26340917 0.009794181
0.24484788 -0.18463358 0.009759793
0.13223396 0.15917866 -0.118204504
-0.07314578 0.1908015 0.008250242
0.17580897 -0.13059847 0.091186404
0.26790068 0.017117789 0.08053731
-0.16721874 0.3214251 0.033835113
0.19572176 -0.013776281 0.012594312
-0.14420317 -0.14032555 0.052261356
-0.104525544 0.19708917 -0.013641193
0.0050157495 0.18485232 -0.15740624
0.10405029 0.2631996 0.064366594
0.26574346 -0.23662885 -0.05999088
-0.22141425 -0.16865689 0.03592531
-0.089374326 0.27577013 -0.20710555
-0.20946781 -0.19125587 0.06239611
-0.051805988 -0.19858079 0.06515677
0.14182314 -0.32493556 -0.20175366
0.14598379 0.18707196 0.03262242
0.19597608 -0.25801748 0.034246754
-0.16463685 0.24552052 0.0028566844
0.114453726 -0.20767054 0.059099976
0.2316612 0.20561406 0.086564094
-0.28760654 0.12936737 -0.07036661
0.031899605 -0.26891676 -0.1141691
-0.23685831 0.0075892955 0.007954272
-0.1890513 0.3299462 -0.0033235583
0.03784864 0.33413386 -0.016704364
0.021686217 -0.25596827 0.06345608
-0.07979312 -0.06872065 -0.13559131
-0.35974738 0.10122135 -0.0084382715
0.17657828 -0.06530729 0.0024480533
-0.042637937 0.3011721 0.025701655
0.14525992 -0.23977527 0.051203217
-0.03884037 -0.33961144 -0.08956042
-0.0527117 0.25576887 0.016610833
-0.19314766 0.10160868 -0.0004838
0.26477265 0.13620533 0.040638193
0.04206644 -0.20236495 0.03169375
0.070424534 -0.3442762 0.0006028875
-0.09009257 -0.08404306 -0.2050814
0.024635727 -0.33282116 -0.06397232
0.35747448 0.01725434 0.01697985
0.2129377 0.089151666 0.02224921
-0.3639522 -0.016186653 -0.07014981
-0.2052742 0.053693417 0.009707108
-0.18831457 -0.22145854 -0.07874694
0.12632689 -0.33469722 -0.1699286
0.17442475 0.3212547 0.05271566
-0.17306471 -0.060141835 0.064734034
-0.18893506 -0.31348902 -0.0035361156
0.29095626 -0.18106316 0.053396873
-0.07627663 0.2733961 0.03785969
-0.3617012 0.009283086 0.04556549
-0.30336273 -0.059181783 -0.18564597
-0.14277841 0.21415402 0.07229289
-0.19569826 0.018332958 -0.021463897
-0.09882083 0.31554425 0.0017666394
-0.04797469 -0.3097218 -0.16754663
0.27828735 0.09777492 0.09236217
-0.31516045 0.101197645 -0.2281613
-0.16087678 0.32380736 0.026889525
0.32095125 -0.0120207295 0.062737815
0.22248761 -0.05103721 0.045095585
-0.023832837 -0.25199032 0.0415284
-0.06092637 -0.18098517 0.092960164
-0.012510202 0.2721333 0.05533905
0.17732471 0.2764683 0.08601906
0.037376415 -0.35344094 0.004755484
-0.0827116 0.16205716 -0.026497735
0.27634737 -0.12355676 0.091902256
-0.14903516 0.22000617 0.040076222
0.007987011 0.19964558 0.017596731
-0.1364289 0.20707747 0.04469016
0.101857536 -0.1356574 0.02890381
-0.014187082 -0.1932452 -0.010785691
-0.16299109 0.059024356 0.0005706809
-0.3398734 -0.02454831 -0.19883396
-0.24905065 -0.13512315 -0.11440218
-0.15035602 -0.22179848 0.059193492
0.31094432 0.035278257 -0.014623431
-0.17789106 0.21407886 0.05561677
-0.22463351 0.019123634 0.008816865
0.022210607 0.27116424 0.009971876
-0.1146569 0.10693061 -7.480449e-05
0.1178484 0.047237832 0.0691402
-0.31554154 -0.038964894 0.06065775
-0.14169233 0.15751983 0.020344928
0.04632746 -0.18372251 0.052332994
0.3064648 -0.10203625 0.024792625
-0.17207067 -0.23414494 -0.09739245
-0.25941238 0.25302845 0.011115474
0.3053468 0.059466142 -0.08545379
-0.2621004 -0.14696746 -0.09199083
-0.21587653 -0.21672216 0.04833783
-0.27085048 -0.015943602 0.026526991
0.22419542 0.14193824 0.008115199
-0.28788498 0.016096907 0.030773971
-0.28412065 0.079463676 0.09334634
0.28886744 0.044751015 0.08810598
0.14211987 0.13376701 0.05908476
-0.27857745 0.06357673 0.03189532
-0.24584411 0.09749512 0.09097974
-0.0036233733 -0.1621417 -0.08619283
-0.17553511 -0.12746617 0.038090948
0.116035484 0.28124228 -0.001576653
-0.17639 0.29434934 -0.20024036
0.20378368 -0.09207712 0.04296265
0.24923229 -0.06911367 0.066248305
0.21179123 0.24051811 0.042763114
-0.14987174 -0.26028207 0.05278043
-0.104946524 -0.08983513 -0.008798398
-0.3118513 -0.060168058 0.0867614
0.16286679 -0.048118338 0.021990482
0.0934294 -0.11515409 -0.19226795
0.12725686 0.35213292 -0.16260646
-0.068958364 -0.12442966 0.0034544803
0.007688614 -0.32144535 -0.1980327
0.11173942 -0.17380989 0.001054584
-0.072245196 0.32874206 -0.086142
-0.16566016 -0.27977648 0.0608782
0.14639544 0.116491586 0.06346591
0.18346854 -0.19483268 0.057408724
0.07553845 -0.31222576 0.07268321
0.26192242 -0.047448855 0.045532335
-0.03621343 0.29449672 0.02862352
-0.28449345 -0.12909025 -0.04845029
-0.16116208 -0.07617235 0.006310146
0.198391 0.18219045 -0.19076261
0.2954458 0.12806493 0.053989273
0.13539805 -0.23099321 0.029914452
0.28820226 -0.0797876 0.040540446
0.1254493 -0.16427287 0.05371399
-0.25664544 -0.13911857 0.03472473
0.020500978 -0.27545008 0.06818752
0.30046564 0.08291367 0.011583509
0.2079767 0.26885882 -0.19878152
0.2666967 0.12945342 0.065299876
-0.20733051 0.10905817 0.059807546
-0.29342335 -0.13447754 -0.11134593
-0.29454356 -0.09629727 0.04931904
0.03949727 -0.31016126 0.049725726
0.38077736 0.014433912 -0.15210135
-0.030479478 -0.15572853 -0.15230143
0.331781 -0.07891834 -0.07172449
-0.13197616 -0.2092713 0.04929175
0.32230034 0.06376742 0.05024614
-0.19924438 -0.20476468 -0.18521506
-0.29375458 -0.20270643 -0.105568625
-0.29313758 0.037328865 0.022289367
-0.2866701 0.059067726 -0.076797165
-0.36549962 0.031539816 0.061858717
0.14706276 -0.09441409 -0.15959278
-0.31523964 -0.04970148 0.030544627
-0.009959762 0.12479997 -0.016838392
-0.2129696 0.06318396 0.06412132
0.098229386 0.11942912 0.013728141
0.13971445 -0.08745689 -0.009011221
0.31901184 -0.047016457 0.036440015
0.023758806 0.30003384 0.07037158
-0.035281487 0.18126178 -0.20792456
-0.05761949 -0.15970357 0.061132893
0.30773264 0.05252755 0.010941948
-0.20649949 0.13178822 0.034646403
-0.10526693 0.20291857 0.04055408
0.0018467715 0.27255702 0.023257086
-0.1522484 0.28832036 -0.0059202937
-0.117746726 -0.16846257 -0.018065121
0.06230566 -0.35045496 -0.16096759
0.13544239 -0.10798145 0.07318704
-0.11389246 -0.036565732 -0.1684924
-0.16415381 -0.056969874 0.095840566
-0.18738408 0.008331533 0.06827474
-0.32366356 0.008392743 -0.057890363
0.2946735 0.10519442 0.026901867
0.19604234 -0.34277534 -0.027403971
0.19788957 0.2339628 0.072002925
0.010312479 -0.22647582 0.0952511
-0.03769903 -0.19073266 0.059734877
-0.13224167 -0.33201563 0.08736754
-0.0597985 -0.15977965 0.022493929
0.3014109 0.114509754 0.089450866
-0.108087346 -0.33334175 -0.17318812
0.34652114 -0.008150513 -0.13451816
0.1534293 -0.07910887 0.04728553
-0.12148257 0.12680884 -0.17961475
-0.1224154 0.19678771 0.015975397
-0.16065356 -0.16650043 0.076993786
-0.17952605 0.026383718 0.090018764
0.17119713 -0.10573461 -0.12463417
0.16407493 -0.15966389 0.02565346
0.2632095 -0.07305128 0.013274709
-0.350199 0.08373997 -0.053329732
-0.16303803 -0.024811704 0.010609511
-0.13055119 0.035151437 -0.14969261
0.09214688 -0.13164917 0.061985247
-0.19056958 0.038825408 0.07561646
0.11330023 0.27228734 0.043751713
0.099358805 -0.26497975 -0.1960482
0.35706192 -0.01929233 0.020438612
0.21823765 0.19656727 0.058047455
0.020392338 -0.28162542 0.007425051
0.28862113 0.014250384 0.034538407
0.06560409 -0.107773535 -0.13152982
0.27144164 -0.10518174 0.019162944
0.14532304 -0.26165235 0.021133723
-0.14222491 0.12869275 0.04442718
-0.18644564 -0.11363802 0.006730147
-0.20489162 0.27881935 -0.056814916
-0.009497511 -0.17834161 0.016816102
-0.19294141 -0.10686131 0.08739948
-0.10696857 0.31623888 -0.12462704
0.2430913 -0.06513525 0.011869311
-0.2375437 0.07267705 0.06958673
0.21547557 0.21479179 -0.1060338
-0.16897322 0.24343795 0.03356148
0.1189843 0.0042617614 0.053443305
-0.04793767 -0.16533141 0.03807471
-0.21496525 0.14709961 0.02819319
0.15701178 -0.054818124 -0.012531812
0.023486802 0.16961604 -0.030522374
0.21287519 -0.013698534 0.03124634
0.32332316 0.050550245 -0.04495364
0.014472669 -0.32384253 0.056895778
0.122771494 0.3595352 0.06299605
0.078263186 0.27571598 -0.039013278
-0.27023914 0.050477315 0.04224605
0.23220694 0.2910122 0.063604526
0.0926334 0.26535532 0.000717715
-0.3503252 -0.12705247 -0.19626354
0.25421426 -0.25258812 -0.20549792
-0.11038228 0.26708376 0.08944952
-0.027608119 0.18477322 0.012516454
0.23285472 -0.17365517 0.059478346
0.06476965 0.15590125 0.040545747
0.047384854 -0.31434035 0.0752404
-0.14191508 0.07443276 -0.017104317
0.030697053 -0.33835688 0.09420598
-0.15884429 -0.14868422 0.029248742
-0.006435072 -0.10452753 -0.08571786
-0.14832856 -0.2634202 0.07185729
0.060759343 -0.16677834 -0.14811017
0.17936838 -0.2569813 0.034729403
0.19407426 -0.03329453 0.011892564
-0.039823573 -0.09559902 -0.01718598
0.29885793 0.015309493 0.089164525
-0.18287566 0.22849813 -0.20648172
-0.21296114 -0.045798358 0.07993811
-0.16972755 -0.3067571 0.010212915
0.2524985 -0.12252505 0.01210368
0.27293855 -0.12216726 0.021971397
0.24906753 0.17368181 0.028068937
0.3416258 0.020460868 -0.18053734
0.21086152 0.27120647 -0.05128008
0.07941917 -0.23209721 0.018207991
-0.12395621 -0.05207884 -0.009151625
0.19274394 -0.15128931 -0.001504502
0.26980224 -0.12575175 -0.013056321
-0.21170577 0.04179841 0.028068742
-0.11477263 -0.2792534 -0.17231204
-0.03122489 0.16943835 0.06194455
-0.07781842 0.2367534 0.074708946
-0.29055488 0.04057262 -0.22701176
0.28552756 -0.1240138 -0.21841727
-0.2500956 0.19931388 0.08400566
0.16424379 -0.22139345 0.030882671
-0.24525754 0.08595089 -0.21032976
0.27348235 0.11054446 0.07549319
0.050178885 0.2680336 -0.020565575
0.24367508 0.0908091 0.049816806
0.15894996 0.2601425 0.0026150222
0.021891646 0.3347622 0.06341692
-0.22046071 -0.20580548 0.057933178
-0.13271786 -0.046700764 -0.01545779
0.26547447 -0.08886958 0.075605236
-0.011020104 0.23639104 0.075054504
-0.047208123 0.23387806 0.039669145
-0.04636414 0.16927008 -0.1477487
0.13441825 0.27793762 -0.08493415
0.21083546 -0.0016594026 0.03657166
0.34086633 -0.04457326 0.0022757964
0.13843632 0.13206972 0.08409628
-0.02020861 0.1927141 0.061564542
-0.24875344 -0.22388999 0.07918502
-0.30904832 -0.042337246 -0.074372716
-0.23973133 0.27030227 -0.16389576
0.09662442 -0.19052048 0.07608945
0.103625305 -0.17127904 0.012801849
-0.2846117 -0.046434015 -0.15359262
-0.19492942 -0.09825677 0.029633317
0.08537788 0.32138672 -0.10000181
0.22565304 -0.16526742 0.061413374
0.30216333 0.120069966 -0.22069667
-0.12491025 -0.26226094 0.05364307
0.2412408 0.2748405 -0.014501304
-0.101222366 0.003643231 -0.027004434
0.017300565 -0.35710236 -0.036693238
0.08329553 0.28876534 0.010310602
0.29662132 -0.099584326 -0.017922506
-0.13442679 0.10716295 0.0552731
0.042583033 0.35317093 -0.18127556
-0.23685169 -0.04801421 0.0022351171
-0.15322974 0.013501577 -0.06802418
-0.3042437 -0.09112638 -0.20768698
0.30035427 0.12608807 -0.11344314
0.00619606 0.12441457 -0.21506885
-0.32837674 0.060350683 0.06213043
-0.17642209 0.2395746 0.074535154
-0.08640486 0.3239883 0.05183413
0.2648835 -0.008606718 0.08307264
0.24875608 0.030670485 0.057895206
0.009507078 -0.27177545 0.03784486
0.12555335 -0.22949412 0.041693315
-0.1509857 0.2995779 0.022072932
-0.25761294 0.21017024 0.09640834
0.085643455 -0.2867792 0.049330983
-0.10854978 -0.08904509 -0.01934649
-0.30441317 -0.07006829 0.09135656
-0.21702161 -0.14906994 0.04341234
0.030807508 -0.2730104 0.033161394
-0.0315901 -0.3216966 -0.1564327
-0.012677672 -0.15617281 0.049388774
-0.11544787 -0.22486897 0.01683633
0.31435052 0.010788027 -0.11666822
0.13654463 0.07694548 -0.014388516
-0.14014688 -0.3338462 -0.10932033
-0.17727481 -0.04964646 0.048908506
-0.07379593 -0.098448664 0.022705367
-0.34454584 0.01113479 -0.1789986
0.17678098 0.34552273 0.005297555
-0.11764282 -0.09704726 0.037525762
0.21568882 -0.054128606 0.0034752975
0.18646522 0.12990196 0.023562735
-0.14607263 -0.102063276 0.010251805
-0.105242595 0.14381164 -0.18532947
-0.15814885 0.05082781 -0.14275675
-0.26687765 0.16828853 -0.06004879
-0.015748791 0.26961902 0.08809834
0.22259234 -0.2888897 0.005678637
-0.23611023 -0.23212178 -0.1310182
0.25711662 0.12192724 0.048496813
0.14550751 0.1425027 0.028467689
-0.35602987 0.012320172 0.06781998
-0.06993041 -0.3515427 0.033482593
0.09017413 0.27755755 0.070172556
0.19742805 0.046581447 0.09224498
-0.04102765 -0.2830133 0.05420125
-0.23082097 -0.12987626 -0.20113836
0.22865205 0.27387717 -0.118434735
0.18311514 0.32639107 0.04043365
0.1726081 0.2695654 0.033181693
-0.3294633 -0.035245452 0.039077092
-0.09629487 -0.12922671 0.08759048
0.31490606 -0.11691948 0.026769921
0.26315632 -0.16426036 0.04855741
0.28090057 0.07218357 0.08763211
0.21593618 -0.2336333 0.05659292
-0.1814537 0.048748113 0.09681508
-0.2499017 0.10243295 0.023497626
0.026238231 0.14022006 -0.0969737
-0.06635712 -0.05236457 -0.07627161
0.16438882 -0.011470368 0.028522603
-0.16722132 0.17361103 0.004370839
0.20588481 -0.18187259 0.043490447
0.09451349 -0.2675987 0.06654453
-0.25404856 0.07911823 0.07448494
-0.28474572 0.06275619 0.011949974
-0.16552903 0.04304296 -0.027333882
-0.19347446 0.23466907 -0.08608661
0.29692408 0.12519638 0.0003157143
0.3117655 0.03990933 0.053083383
-0.15744913 0.27123675 0.062450986
0.23763892 0.14140016 -0.13879752
-0.23954518 -0.1792709 -0.13817094
0.0072281966 0.13092758 -0.17791627
0.06296544 0.098174736 -0.10311788
-0.24645953 -0.06882641 0.031024642
-0.30135748 -0.016093206 0.0381166
0.039790455 0.31574497 -0.062224388
0.13646513 0.19197285 0.055867236
0.07779935 0.13578178 -0.014627002
-0.049643237 0.28909084 -0.22024335
0.03293091 0.1731347 -0.0012974521
-0.099172905 0.1335638 0.048257757
0.1927216 -0.046162486 0.012044719
0.18936943 0.088384226 0.031269994
-0.2535415 -0.14228874 -0.15092821
-0.0012402025 -0.2714899 -0.0013649864
0.29330888 -0.0276913 -0.014978242
-0.29551136 0.041364677 0.03963334
-0.11218482 -0.101525314 0.051358704
0.15909386 0.16573933 0.049921494
-0.19808862 0.23539418 0.0755488
-0.23479564 0.0526557 0.05883378
-0.1776841 0.0052745324 0.035207737
0.21161005 0.11277146 0.026028808
0.119015925 -0.27324992 0.06477032
-0.0745411 -0.2780107 0.06296052
-0.00438834 -0.20939639 -0.0008416003
-0.13508554 0.065678865 0.045958288
0.16198772 -0.128784 0.014139736
0.23469257 -0.2662458 0.048255008
-0.23968633 -0.09339891 0.0678841
-0.1259634 -0.30087608 0.009772495
0.029371357 0.33155844 -0.21373312
0.2335598 -0.27528867 -0.09792821
-0.1545085 0.15529719 0.016611565
-0.31694227 0.060063556 0.025983157
0.1145161 -0.05636214 -0.028254036
0.24458839 0.2611125 -0.22024655
-0.13370614 -0.06378398 -0.19678633
0.22848228 0.25041327 -0.09734528
0.23868743 -0.17460853 -0.044335116
0.1597783 -0.21264887 0.019630443
0.17405644 0.05551758 -0.09630801
-0.018866451 0.18929812 0.031588476
-0.023903849 0.22718337 0.09390277
0.36646122 0.0056035956 -0.03648371
0.048581887 -0.1676756 0.050882258
-0.28180304 0.047222544 0.055343732
-0.2503545 0.25794834 0.027386487
-0.11454696 0.17957725 0.063649155
-0.10121096 -0.16945635 -0.1681333
-0.04356014 0.18656056 0.049071915
-0.17461911 0.15631583 0.029451959
-0.11414846 -0.28112897 0.07488617
0.17934345 -0.021123158 -0.052007332
-0.3053857 -0.048306443 0.008774037
-0.18760589 -0.1074359 0.052021526
-0.14316803 0.06868657 0.008913561
0.10299843 0.20742604 0.06785796
0.24494804 0.047200087 0.079069674
0.23675254 0.06630261 0.043312248
0.20835313 -0.28477597 0.0051346715
-0.32288364 0.1669654 -0.23492776
0.06903219 -0.17313474 0.05168297
-0.16385034 0.13633138 0.05449931
0.35753283 0.00031396424 -0.12184953
-0.0403043 -0.34156182 -0.20935969
-0.18692742 0.33479604 -0.11958887
-0.2291842 -0.24088728 0.0077602975
-0.035263423 0.14504331 -0.12408345
0.0383607 -0.22201097 0.06687566
0.34022725 -0.09504501 0.018363167
-0.1275261 -0.095789574 0.0077363965
0.26722383 0.035190128 0.058911502
0.034759067 0.21484576 0.079823226
-0.13533358 0.34175074 -0.16159678
0.14404842 0.10683159 -0.005538732
-0.08116219 -0.28421664 -0.2124601
-0.1738018 -0.017760824 -0.028509377
0.048932288 -0.12689516 -0.073488705
0.1806579 -0.1339289 0.02214009
0.26890755 -0.25333887 -0.17551613
-0.16770875 -0.2344828 0.08183565
0.16720238 0.33253503 -0.0075329035
-0.24059182 0.09530951 0.04384181
0.14091957 0.046130486 -0.029313514
0.17147474 -0.2184858 0.0070414376
-0.09156746 0.2912927 0.06075053
0.2974993 -0.06176994 0.00920406
0.21161592 -0.10054963 0.018008437
-0.3388155 0.030855319 -0.024758631
-0.2124076 0.0455437 0.049616694
0.18505226 0.016362581 0.07721275
-0.2870137 -0.056612212 0.060671423
-0.12860909 0.19281657 0.01747167
-0.062048376 0.114651285 -0.01379622
0.26193747 0.13356327 0.01760643
-0.022872066 0.35214487 -0.172194
0.17457843 -0.2928056 0.06582527
-0.20037882 0.049322296 0.00095174834
0.12236547 0.2430176 0.092950076
-0.26188418 -0.0170328 0.042251945
0.101348914 -0.14996685 0.07099968
-0.16068754 -0.24541166 0.06175831
0.0748604 -0.14002676 -0.030095568
-0.27059367 0.027359124 0.089852355
0.22407696 0.18665196 0.068574354
-0.17203909 0.31985763 -0.07781001
0.20284517 0.20980054 0.023910636
-0.18523143 0.038035695 0.0014258103
-0.027186722 0.29623064 -0.0024651221
0.031174835 -0.33881018 0.05879029
0.16636875 -0.12015735 -0.111353934
-0.27144593 0.051656753 0.061399877
0.20131776 -0.2833682 -0.13232325
0.011232778 -0.2939537 0.07764544
0.017103741 -0.3450853 0.055227663
0.123966955 0.07829322 -0.017651705
-0.22313564 -0.17606066 0.024561789
-0.23733157 0.05636564 0.0249526
0.17091393 0.20047787 0.08880057
-0.34927988 -0.066041425 -0.06640525
-0.03657653 -0.11679146 -0.1443044
0.2548834 -0.10647664 0.011313508
-0.16279598 0.27468404 -0.16766967
0.23025644 0.25728935 -0.09796735
0.28645462 0.23218602 0.010553703
-0.19462761 -0.03329583 0.013767581
-0.2586809 -0.12332548 0.06635132
0.3233042 0.06897879 0.027979225
-0.18045269 -0.062210362 0.052688044
0.0206854 -0.30571917 0.0411456
0.13203828 -0.09360355 -0.0058928463
-0.07250879 0.08706534 -0.15722595
0.36991644 0.039827384 0.04153628
0.0464432 -0.13268895 -0.10900901
-0.13068384 -0.18434563 0.09475524
0.032666378 -0.1295203 -0.16889955
-0.17595576 0.101537034 0.0868112
-0.17495802 -0.12138648 0.093972676
0.17480887 0.07843734 0.015006305
0.14455678 -0.042383138 -0.1967786
-0.06596586 -0.13025136 0.03585614
-0.06848616 -0.21804877 0.07937042
-0.27907303 0.07151165 0.034068555
-0.072374456 0.3008478 0.090029016
0.12815847 0.118013605 0.049642667
0.1942382 -0.069470994 0.08716153
-0.1478824 0.09141509 0.030914403
-0.035548173 -0.20297894 0.09634922
-0.25475937 -0.08169503 0.080637135
-0.20452248 0.20593593 0.027201012
0.06458272 -0.16193871 0.031547617
0.03584377 -0.1159457 -0.11606752
0.26317966 0.027741507 0.08347293
0.18284917 -0.19758414 0.0066764033
-0.055778153 0.21783228 0.052826285
-0.10666248 -0.16290295 0.047999505
0.014265486 0.23663363 0.007220968
-0.049416017 0.19532903 0.0805811
0.005711578 -0.20466588 0.08080012
-0.20279975 -0.22865249 0.042676684
-0.11791143 -0.325478 -0.12821162
0.1907455 0.17077841 0.06724212
-0.29855382 0.029490296 0.01740219
0.2698314 0.06788268 -0.0002634625
-0.2831158 -0.15289666 0.049624458
-0.08559039 0.1772034 0.006846212
-0.24117438 -0.14432372 0.06909196
-0.0061080484 -0.17518605 0.09378567
0.0677427 -0.14237115 0.001853868
-0.13790534 -0.19199874 0.08733761
-0.0435098 -0.25852302 -0.0012228249
0.17897405 0.27190512 -0.07500794
0.11028925 0.20811625 0.09660599
0.1172124 -0.18798563 0.037874125
-0.16901675 0.24421422 0.0013148648
-0.01957704 -0.2623681 0.087333515
-0.17415625 -0.280049 -0.002780809
-0.16158734 0.13667445 0.071979746
0.25004858 -0.03526612 0.008347524
0.32177168 -0.024012823 0.057880923
-0.090177335 -0.22549842 0.037360173
-0.2096261 -0.18639454 -0.10438928
0.3798429 0.022150809 -0.14141235
-0.21112002 -0.15459146 0.079994164
0.0051409514 0.28792128 0.045284983
-0.27159795 -0.15254928 0.01870395
0.21973938 0.26211596 -0.030853692
-0.33819836 0.076639585 0.007844246
0.08858572 0.22293071 0.0010290284
-0.23048434 -0.19358903 -0.045311846
0.24953616 0.023902403 0.055458743
0.3491733 -0.025774347 0.070609406
0.105528675 -0.11459649 0.035092797
-0.017086733 -0.31699038 0.072551735
0.24561901 -0.06508009 0.07215403
-0.24004884 0.095552675 0.0018474425
-0.018108893 0.33132148 0.017293774
0.1481168 0.026755583 0.06194725
-0.14013173 0.038627442 -0.13184124
0.08672505 -0.12450286 0.052910093
-0.15034246 -0.28326383 0.006938047
0.22169355 0.1136329 0.04707422
-0.20426264 -0.05587091 0.0733966
-0.2861319 0.18462346 -0.24135402
0.28431204 0.036920786 0.015681295
0.055977877 -0.16379622 -0.020337928
0.3078364 0.06688958 0.09670738
0.37730983 -0.05863554 -0.067103066
-0.1684019 -0.031933673 -0.0015355714
0.026433239 0.20885375 0.014513632
0.2039997 0.12320152 0.060598284
-0.15465602 0.18537141 0.038980797
0.021416899 -0.1948024 -0.0026213948
-0.12932743 0.31326562 0.04923995
0.08005853 0.16511995 -0.1389542
0.107770205 0.25562954 0.060252316
0.24263358 0.015680494 0.0948933
-0.0060964506 0.29620975 0.054616127
0.27470163 0.19350606 -0.17870644
-0.27637997 0.13712826 -0.0011970194
-0.25921178 -0.21843848 -0.11170017
-0.08249297 0.148523 -0.099351026
-0.10266807 -0.072829485 0.004706388
-0.24728532 0.01611979 0.03157115
-0.16138612 -0.16754305 0.06285631
0.30804953 -0.0045638587 0.057930425
0.10691958 0.28988528 -0.11289357
0.09190468 0.20836015 0.06596471
-0.2715696 -0.0036993844 0.06418607
-0.11820401 0.24939726 0.03002243
-0.20946291 -0.18801847 0.0076906406
-0.029952798 -0.18022329 -0.017096344
-0.20403457 -0.21224476 0.029035155
-0.16877927 0.25238955 0.042757217
0.05230226 -0.28654245 -0.025807358
0.35116327 0.013972916 0.08991489
-0.12031649 -0.15266442 0.03163787
0.3198522 0.12811938 -0.15767315
-0.09850376 0.11578282 0.041451894
0.11520734 0.28625995 0.090331115
-0.063553706 -0.10579373 -0.010323194
-0.18425678 0.067303486 0.023558076
-0.29615033 0.08840936 -0.038006067
-0.025221337 -0.29857188 0.010450068
-0.17263432 0.32189083 0.026576607
-0.22269936 0.26946253 0.026194163
0.3145523 0.07416158 -0.041570578
-0.109252594 -0.17650901 0.024486175
-0.098593324 -0.23804964 0.04328679
0.018379442 0.34832013 0.015145826
0.18203658 -0.084243596 0.011200246
0.093081996 0.084563226 -0.06662797
0.12845244 -0.24005969 0.04771501
0.17679869 0.13061666 0.010954989
0.16895644 -0.15455575 0.015935728
0.14463705 -0.2258885 0.03265071
-0.14973804 0.18031527 0.03442642
0.40559322 0.021074828 -0.11900164
-0.12699193 -0.17240545 0.038969703
0.18448864 -0.031562444 -0.076587446
0.15192376 -0.07357347 0.05616736
0.08224532 0.20031811 0.054713514
0.13456199 0.19616805 0.080879696
0.19730823 -0.32427964 -0.11283863
-0.07319923 -0.24953428 0.054506417
-0.13442154 0.0315194 0.063419536
0.35822776 0.14249621 0.031308554
-0.11281786 -0.2936007 0.06636756
-0.090666376 -0.29077297 0.0048606573
0.18835248 0.14407988 0.08718306
-0.38037708 -0.058043625 0.08568622
0.036003854 0.34120685 -0.124960594
0.024276124 0.20392199 0.041655224
0.28168482 -0.10699401 -0.028618729
-0.06946392 0.29048726 0.017502954
0.14508183 0.0066147866 0.067721024
-0.26733327 -0.16185424 0.08619126
-0.22597142 0.07149159 0.087519206
0.097610764 -0.25998464 0.08933213
0.072898015 -0.15500541 -0.112220354
0.16466361 -0.28539357 -0.053561967
0.050775066 0.29949558 -0.0004226368
-0.0813898 0.20938317 -0.0009672771
-0.02326849 -0.23132204 0.08795676
0.19728701 -0.06987923 0.02251154
0.25304225 -0.10916751 0.065363474
-0.046608448 -0.27902412 0.04394805
-0.15271586 -0.069243476 -0.011554211
-0.0202819 -0.3175298 -0.051376894
-0.21645533 -0.13469754 0.051212426
-0.29274583 0.15038575 0.04906128
-0.289721 0.18997374 -0.1686012
-0.18023472 0.0020758258 0.07851953
0.21021566 -0.1869976 0.09318615
0.16587096 -0.016713513 0.062461946
-0.13220774 -0.15921338 0.029559346
0.006203066 0.33145368 0.05856831
0.17763843 -0.18676414 0.018504953
-0.08521178 0.17795843 -0.21499716
0.11401729 -0.10290714 0.077634595
0.33616766 0.028770093 0.08378735
-0.045975313 -0.34087333 0.013815016
-0.111154735 -0.078219585 0.060193785
-0.13037403 -0.014511881 0.029780187
-0.07929085 0.2617875 0.063496225
-0.20461309 -0.096493326 0.08860025
-0.19201341 0.25184765 -0.042939376
-0.36790806 -0.06774212 -0.17692241
0.26575866 -0.08435111 0.015359024
0.29474115 -0.098211534 0.038606882
-0.20291825 0.26458955 -0.029981999
0.19114864 0.07068424 -0.092651606
-0.00606727 -0.28246856 0.01612361
-0.24182773 -0.1661097 -0.10144366
0.105381 -0.15370274 0.02802877
0.120608084 -0.20429148 0.03563682
-0.014078175 -0.16640161 0.0594917
-0.18466969 0.3085284 0.06300673
0.24224654 0.13469844 0.039313506
0.1715565 -0.29605326 0.07970754
0.19499469 0.17875937 0.00868326
-0.037874725 0.32264405 0.011294558
-0.16160752 -0.08844406 0.033006795
0.16731614 0.1692197 0.07155651
0.25468537 0.1377445 0.012769713
-0.044933416 -0.26156214 0.017583024
0.026311578 0.3014712 -0.16103186
-0.11882209 0.12335944 0.06019584
-0.19920684 -0.21785791 0.0019999575
-0.2658325 -0.016615871 0.021804366
-0.14902568 -0.18938659 0.03240532
0.019431 -0.2160273 0.08994249
-0.16987604 0.25268126 0.0666476
-0.02175172 0.2223181 0.04954235
-0.15656075 -0.15971647 0.020760253
0.04883513 0.30212575 0.090275444
0.06960938 -0.3486325 -0.12049333
-0.026541904 0.33812207 0.07400404
0.11069027 -0.13689229 0.048835985
