# .PCD v0.7 - Point Cloud Data file format
VERSION 0.7
FIELDS x y z
SIZE 4 4 4
TYPE F F F
COUNT 1 1 1
WIDTH 1000
HEIGHT 1
VIEWPOINT 0 0 0 1 0 0 0
POINTS 1000
DATA ascii
-0.0793385 0.081494 -0.18491055
-0.17241666 -0.006698477 0.11527419
0.07016265 -0.23368438 0.0133361835
-0.12531903 0.16097425 0.086750016
0.06507562 -0.08483486 0.12913245
-0.15216745 0.13797528 0.18421961
-0.10046643 -0.025119763 0.17976147
0.032765437 -0.117179565 0.13070643
0.14438355 -0.14994569 -0.011710953
0.13092609 -0.2500341 -0.07494865
-0.05868861 0.09855361 0.19490822
-0.041565366 0.29464945 0.18108734
0.01898852 0.28832492 -0.08569875
0.05826309 -0.10913322 0.11855323
0.087842025 0.015146661 -0.07575987
0.16512707 -0.2834113 -0.09068
-0.1666286 0.1201475 0.1395821
-0.05884012 0.054586492 0.24771056
-0.14579913 0.20300737 0.1779299
-0.12229116 0.1050952 0.15681897
0.009753141 -0.17779665 0.022568919
0.005831907 -0.10805343 0.13389583
0.08914128 -0.13477401 -0.016099222
0.16724233 -0.1830839 -0.08839237
0.08929045 -0.13034195 0.09580447
-0.080225185 0.046042945 -0.15219297
0.12035355 0.022995614 -0.26046354
-0.09388527 -0.05614666 0.17745487
0.029958809 0.20020224 -0.07761651
-0.08034794 0.11711877 0.1876006
0.025213923 -0.07746372 0.17877245
-0.09183845 0.25058314 0.1531555
0.045544926 0.15844886 -0.089404844
0.08370952 0.04133357 -0.2727778
0.13259293 -0.29351956 -0.038734984
-0.10169978 0.18664213 -0.18109557
-0.08179378 0.24235705 0.1753608
0.1382403 -0.090528734 -0.17086054
-0.19436955 0.09011777 0.15744932
-0.03254068 0.25454792 0.10578719
0.15013538 -0.15695411 -0.09179428
-0.05461773 0.019207371 -0.1268512
-0.06275159 -0.062700376 0.13662766
-0.040438794 0.25808623 -0.17889802
0.031605896 -0.17619967 0.076143615
0.15475288 0.16900796 -0.26442078
-0.07811949 -0.03827051 0.11764089
0.17634858 -0.26004276 -0.1244499
-0.15199833 0.21719953 0.13312244
0.1094174 -0.29521468 -0.04264567
-0.10476795 0.017918356 0.2168289
-0.15308923 0.12141245 0.2020019
0.16993798 -0.21733035 -0.21922171
-0.051308315 0.26526117 0.022094859
-0.07400759 0.28022793 0.16955954
0.24697715 -0.36207566 -0.14893831
-0.18134063 0.078589655 0.045974772
0.13411517 -0.122454725 -0.10714797
0.14207685 0.032514147 -0.22653054
0.14066812 0.024358973 -0.21397144
0.20821075 -0.25402564 -0.15817794
-0.24081847 0.08853971 -0.013603435
0.12733358 0.10936185 -0.29326648
-0.108685344 0.093459986 -0.1924891
0.19512643 -0.25641292 -0.030960634
-0.1454497 0.035588846 0.18860772
0.1390131 -0.08783693 -0.20605235
-0.18946508 0.027002571 0.18239717
-0.04649334 -0.11392672 0.18355227
-0.071541235 0.23938303 0.074464455
0.106057666 -0.12248142 -0.16629726
0.034336407 0.22888057 -0.16578363
-0.08084586 -0.14356534 0.12944792
-0.016327195 -0.16510107 0.15418743
0.07084356 0.017668294 -0.12490924
0.12889525 0.0768124 -0.23315261
-0.11600061 -0.10820413 0.15842654
0.03033347 0.0018395332 0.041931678
0.009657419 0.2158384 -0.13824016
-0.13121136 0.14463134 -0.09136294
-0.14138822 0.07469662 0.18678103
-0.043532554 0.26372668 0.22133365
-0.0017202157 0.093885295 0.27436653
-0.011546914 0.15126261 0.039743546
0.032021955 -0.05228923 0.025227204
0.022876773 -0.12918954 -0.14890595
-0.07853054 0.20778786 0.05407512
0.17433046 -0.28472513 -0.024975626
0.024994947 -0.11407462 0.13551119
-0.10779529 -0.050517026 0.15264577
-0.03970486 0.035802066 0.15920411
0.06968053 -0.24250874 -0.051256895
0.011163359 -0.1888762 -0.12651625
-0.127956 2.3730261e-05 0.13977046
-0.09315337 0.060916908 0.23143488
-0.1890296 0.07717275 0.07904609
0.2192861 0.084366076 -0.23795322
-0.0143395895 -0.17752725 0.05913416
-0.07108573 0.24302205 0.07236145
-0.076567784 0.25600725 0.021532068
-0.062950544 0.24650057 0.1071499
-0.057044268 -0.22430874 0.03659583
0.069330715 -0.22785409 -0.017254708
0.0017053611 0.11850696 0.18510225
-0.05133995 0.1041742 0.109962985
0.044831965 -0.06388562 0.1920282
-0.12504697 0.10909373 0.2001013
0.0019043989 0.16524746 -0.118109226
-0.12789682 0.08911582 0.22287375
0.0042642253 0.23672153 -0.22688454
0.08296933 0.06574701 -0.085534655
-0.031720906 -0.033339355 0.23879413
0.15907931 -0.07531035 -0.16133831
-0.20977129 0.10896469 0.01669708
0.22163002 -0.2831277 -0.17034674
0.1417074 0.080110066 -0.2755554
0.074925736 0.20099644 -0.06846677
0.03422801 -0.00010550488 -0.17069547
-0.043194093 0.13112418 0.23191336
0.020381637 -0.32333258 -0.102437586
0.1294297 0.0102775525 -0.21063085
0.0704611 -0.17751071 0.044774722
0.052924916 -0.19338927 -0.13637272
0.0006084561 -0.10429747 0.00026545458
-0.15404584 0.23371094 0.07604713
-0.16557045 0.12888563 0.17978886
-0.07855458 0.21187761 0.20982444
-0.056866758 0.08234813 -0.11584716
-0.018869292 0.20411356 0.011322907
0.09440573 -0.28197777 -0.07958189
-0.08646389 -0.13185725 -0.09115729
0.16311577 -0.24710488 -0.14923379
0.13572697 -0.3743286 -0.094487876
0.08075003 0.0698139 -0.14394283
-0.13309465 0.13548458 -0.12382689
0.043548606 0.3260339 -0.12330235
-0.00033958766 0.12921353 -0.12529503
0.03883798 -0.17700826 0.004012368
0.0010580606 -0.19497192 -0.04547189
-0.03877933 0.22332504 0.0837587
-0.09111817 0.07099628 0.10979028
-0.054557476 0.11944712 0.23183666
0.08341437 0.011592369 -0.25651875
-0.0657971 -0.06951118 0.23587045
0.1256935 0.23517446 -0.23121905
-0.04480921 0.0002463987 0.19569682
0.18036732 0.026213152 -0.20990086
-0.031408902 0.08914136 0.16693509
0.20925187 -0.3259753 -0.08661536
0.08323682 0.06550317 -0.19885199
0.18642847 -0.15839508 -0.06861825
0.034839105 -0.01375989 -0.040543552
0.020413168 0.04636608 0.24333401
0.069459036 -0.19300203 -0.05706651
0.05641731 -0.14576241 -0.20074195
-0.053061504 0.20123838 0.24268742
-0.015016979 -0.056309864 -0.008138338
-0.117908925 0.31386855 -0.04487958
0.25069994 -0.16515037 -0.1717584
0.013824258 0.17083257 0.036799055
0.034704126 -0.0059073903 -0.10382495
0.22190902 -0.22149532 -0.07526754
0.116854444 0.15354183 -0.25189957
-0.16016892 0.009869833 0.22196957
-0.10787037 0.21992318 0.16147378
0.113634214 -0.30715013 -0.05556082
-0.11609095 0.1651032 0.19513705
0.09770467 0.2444162 -0.14090708
0.11486585 -0.064855434 -0.13916712
-0.018482277 -0.0076563745 0.2057308
0.14228177 -0.34808904 -0.11256667
0.2821283 -0.24088404 -0.17790556
-0.003984913 0.13353947 0.2507837
-0.06550903 0.22062251 -0.27420965
0.22449212 -0.29799733 -0.075152054
0.10420011 -0.043814927 -0.30991384
0.21060108 -0.06406273 -0.22614978
0.040756706 0.17915152 -0.079973586
0.00060415023 0.09365796 0.2671508
0.11919511 -0.26048076 -0.09660072
0.06769467 -0.15702103 0.06016172
-0.15092315 0.21999045 0.07299599
0.11259362 0.30927336 -0.20401798
0.09063431 -0.37040862 -0.19841535
0.06407714 -0.2703656 -0.0482656
0.072012305 -0.37724748 -0.10937578
-0.117462985 0.26543808 -0.09456436
-0.12759851 0.17567126 0.18847337
0.07137774 -0.22102319 0.03224114
-0.10977256 0.09570653 0.17744246
-0.17059031 0.02039415 0.11901861
0.011046361 -0.101072155 0.0981084
-0.0027567763 -0.20425321 -0.015270673
0.09942897 -0.34163362 -0.16066578
-0.01896724 -0.063817106 0.13892709
0.00021432017 0.07890769 -0.18950242
-0.10958843 -0.06426457 0.18253708
-0.08998199 0.19904487 0.14128688
-0.039728012 -0.012567365 0.2276292
0.14937857 -0.15388651 -0.011329694
-0.05079092 -0.076685436 0.037761595
-0.12371202 -0.06804483 0.0044328133
0.13788532 -0.11266551 -0.092917144
0.025996013 -0.14946423 0.070878975
0.17225 -0.34579277 -0.15669957
0.097052686 -0.20505746 -0.027827302
-0.18958084 -0.06716583 0.18907444
0.09534126 -0.19262892 0.05348621
-0.066679455 -0.16266973 0.0145430975
-0.027246485 0.04508717 -0.119516164
0.02257413 0.005243901 0.18203259
-0.00041170375 -0.16860951 0.04769334
0.064866185 -0.17999923 -0.029276157
-0.12265857 -0.012981938 0.17123652
-0.00063886435 -0.022886785 0.23835813
0.03557159 0.15010189 -0.31583145
-0.15637109 -0.032169927 0.18743648
-0.09295119 -0.005391044 0.16915794
0.16946551 -0.20984706 -0.062644824
0.07129769 -0.026842343 -0.10270778
-0.17361309 0.17065106 0.1430986
0.058096617 -0.2901501 -0.042944886
-0.029386079 0.05961852 0.091558844
0.26315144 -0.2669298 -0.17285502
-0.045588788 0.10993089 0.19382605
0.029706934 -0.10241534 0.13922213
0.2334093 -0.1634188 -0.2076033
0.091666244 -0.27566215 -0.048058767
0.052729495 -0.13775119 -0.09924528
-0.18140534 0.07622406 -0.0075882655
-0.06980077 0.24438423 0.17940103
0.1652985 -0.26530996 -0.13172224
0.18703005 -0.08124067 -0.14895247
-0.12524815 0.26745552 -0.009785756
-0.17898996 0.110355854 0.16340424
-0.12748003 -0.059970826 -0.035795186
-0.015171146 -0.11086457 0.11773974
0.0007906173 0.117115304 0.040901132
0.020770991 0.13226053 -0.29104123
0.03785817 -0.054173596 0.04921523
-0.1348437 0.0521874 0.16078082
-0.055259187 0.09346766 0.05966139
0.06661067 -0.23637043 -0.037694927
0.027604891 -0.062305838 0.1839739
0.057791926 -0.06194693 -0.08584501
0.07017805 0.20848808 -0.23169412
-0.053796414 -0.007138887 0.23836817
-0.11533504 0.11635312 0.18972154
-0.11039254 -0.057292596 -0.22064349
-0.06223333 0.08212528 0.22945394
-0.063541345 0.2256928 0.11218026
-0.101394825 -0.09243511 0.10912882
0.052294925 -0.22499071 0.054933444
0.051669057 -0.07597677 0.01771468
-0.10315159 0.23128405 -0.07999634
-0.09662695 -0.029807692 0.14176026
0.1190616 -0.18994236 0.02020335
0.053304806 -0.07753884 0.1695219
0.028729906 0.34757063 -0.12563552
-0.028685994 0.16927156 0.20279092
-0.027022293 -0.018596856 0.1860535
0.101699315 -0.24555895 -0.072081044
-0.14071485 0.0055176946 0.13290541
-0.09130703 0.16243143 0.16815196
-0.12819852 -0.10100477 0.083663486
0.06390006 0.0060730125 0.17780788
0.10501999 -0.16468547 0.15019159
0.06665403 -0.2789602 -0.18195806
-0.2127306 0.122770034 0.11465441
3.264954e-05 0.26001087 0.1275632
0.060424924 -0.3486642 -0.102362834
-0.04776323 0.17417543 0.048336357
-0.064919144 -0.006663883 0.1602137
0.13927044 -0.10538438 -0.19380651
0.05464338 -0.099851854 0.11249863
0.11741864 0.03318471 -0.22984569
-0.020298949 -0.03832788 0.20177744
-0.0966297 -0.118534185 0.14062676
-0.10256293 -0.10072412 0.12777935
-0.039732177 0.21607983 0.1894068
-0.103049435 -0.087829225 0.15065834
0.0677594 0.0010721679 -0.051040497
-0.00072300027 0.2717398 -0.027857518
-0.04475198 0.067351185 0.068907
-0.085327886 0.114520594 0.18894611
-0.13194132 0.27469236 -0.17444146
-0.17210785 0.03371694 -0.04395329
-0.11877072 0.020143181 0.19172564
-0.18549544 0.12476646 0.21942045
-0.19391859 0.034758408 -0.027518656
-0.07841356 -0.059873752 0.20105729
0.2118472 -0.12949471 -0.12165773
-0.14371367 0.27793357 0.08951608
-0.100764655 0.27656785 -0.21615778
-0.08636644 0.34534568 -0.037448622
-0.11944586 -0.09831461 0.16292098
0.09227992 -0.35752767 -0.12679954
0.19744249 -0.22037292 -0.15236008
0.1473774 -0.1372963 -0.22779275
0.19801657 -0.053534247 -0.17959045
-0.13279815 0.1664428 0.1323196
0.07329611 -0.10088026 0.1235972
0.050098356 -0.14645988 0.12716894
-0.09596425 0.1924168 0.20090994
0.044433597 -0.029586626 -0.06676323
-0.041369908 -0.15462345 0.17653966
0.006408576 0.23507899 -0.17065871
-0.02843058 0.13078381 0.22057313
-0.11055885 -0.015478783 -0.007684621
-0.051514145 0.32755947 0.0828101
0.081923306 -0.38043413 -0.14986902
0.14263684 -0.012928073 -0.16188544
0.06526669 0.09704019 -0.25033265
-0.06904074 0.054895386 0.22760032
0.09415334 -0.25944594 -0.08007503
-0.112005 0.06663336 0.16933288
0.059877142 -0.16961674 0.09106112
-0.09870218 0.19681753 -0.04942685
-0.033760924 0.17830193 -0.049442593
0.081314616 -0.24908748 0.051273625
-0.110936835 0.048280828 0.18132588
-0.10596434 0.22428016 0.14674528
-0.1251534 0.014549774 0.15326135
-0.11320036 -0.09733473 -0.057715047
-0.20239511 0.056743037 0.1679382
0.17638156 0.15603217 -0.26988575
-0.03278765 0.09490535 -0.1727951
-0.083462946 0.12308755 0.21584876
0.15638006 0.038660005 -0.2445708
0.08827366 -0.35480443 -0.0984159
0.1180422 -0.2754068 -0.106921546
0.06624141 -0.13188513 -0.15507314
0.12941517 0.007106339 -0.24784976
-0.15822627 0.09967739 -0.0438691
-0.047384173 -0.018197792 0.1982836
0.013538642 0.10749615 -0.2666808
-0.19404452 0.10227668 0.16341262
0.04604975 0.15760495 -0.059664484
-0.057024907 0.19546099 -0.0037551483
-0.1609914 0.123844385 0.15056859
0.070040844 -0.19483085 0.05108479
-0.030723223 0.28201807 0.09954181
-0.16900921 0.14794062 0.2026315
-0.035516772 0.18154092 0.19061904
-0.12377065 0.08901034 0.2009863
0.08006957 -0.33111626 -0.18394926
-0.10196976 0.03938701 0.1840413
-0.10704345 0.07398109 0.21181391
-0.11933542 -0.13304499 0.13191447
-0.026861856 0.051969636 0.22187969
0.16277082 0.013264938 -0.25757676
0.17364845 -0.24287269 -0.018174471
-0.08930682 -0.07446539 -0.0071626403
-0.0039417157 0.13405754 0.07683711
-0.15130958 0.112181135 0.17531075
-0.07636034 0.19891089 0.17008112
0.13343279 -0.28852654 -0.10127522
0.15074588 -0.20250934 -0.018876448
-0.10613211 0.093491934 0.13409272
-0.014361878 0.16464458 0.24187554
0.009926468 0.14532124 -0.29099235
-0.17307355 0.11107548 0.15769106
0.108324535 0.23382485 -0.24938896
-0.13342223 0.18806256 0.16261645
-0.020002248 -0.014641613 0.17385453
0.16923197 -0.3125058 -0.088455126
-0.14284132 0.00038280574 0.063177794
-0.010009013 -0.005950403 0.18354747
0.18654333 -0.29077607 -0.07033637
-0.18678035 0.26313806 0.15258232
0.119362056 0.24019684 -0.19543345
-0.042509306 -0.14678958 0.11773589
-0.048090048 0.06537934 0.19510876
-0.089278385 -0.019732414 0.20654698
-0.01888292 0.20396295 -0.107125774
0.11272248 -0.069322914 -0.10503497
-0.14779092 0.011217034 0.1919571
-0.08320452 0.17710942 0.080136195
-0.07862441 0.16132975 0.23213287
-0.033070244 0.17606412 -0.04132309
0.1078553 -0.3456721 -0.09736049
-0.0037049467 0.13784288 0.08645304
0.010491325 -0.18311664 -0.19150168
-0.020162432 0.19811288 -0.22541524
-0.07421579 0.32930946 -0.047187705
0.10037044 -0.2940338 -0.10616496
-0.0014427712 0.18068708 -0.103854164
0.15682322 -0.3570338 -0.18065612
-0.095777094 0.102208205 0.047309715
-0.055146117 -0.11086034 -0.06973089
0.17883079 0.021515148 -0.17515202
-0.0034299728 -0.114714816 -0.19026817
0.061679516 0.23140697 -0.18363877
0.06704572 -0.00062841136 -0.09281955
-0.01986912 0.20772192 -0.25011444
-0.04652672 0.18644412 0.09530301
-0.048722893 0.24566796 -0.15683591
-0.006734642 -0.28901958 -0.15648128
-0.044526488 0.027616289 0.20516022
-0.030714314 0.032127306 0.23521653
0.17717971 -0.20650189 0.029302336
-0.08029722 -0.051828645 0.1995255
0.2205268 -0.22853504 -0.122233786
0.13995057 -0.20342095 0.032528702
-0.032410327 0.06875676 0.168024
0.06447674 0.18713906 -0.112379685
-0.12021411 0.28699496 0.039686248
-0.2218388 0.02012565 0.019696344
-0.009606199 -0.27389473 -0.034784675
-0.037241675 0.01951124 0.190152
-0.08459885 0.019287854 0.09962027
0.03578614 0.043951362 -0.116963185
-0.046961047 0.19419865 0.14544202
-0.08883832 0.00186336 0.124666035
-0.111063525 -0.019058602 -0.14148812
0.042083155 -0.1391797 -0.12651137
0.022132864 0.0148828775 -0.13062462
0.011839984 0.12607427 -0.16125618
0.111141756 0.15837145 -0.19950506
-0.16915055 0.28243405 -0.04503208
-0.09860692 -0.09944993 0.13516685
0.07132137 -0.24950455 -0.007835597
-0.0567751 0.20407924 -0.16261053
-0.049749188 0.21900278 0.2040578
-0.14290304 0.20076783 -0.16718097
-0.18109015 -0.018118871 0.104387
-0.09684109 -0.0039968924 0.2151375
0.07410082 0.2005594 -0.24169259
0.13201663 0.03823352 -0.18470186
-0.009706497 0.24003835 0.20182085
-0.008715727 -0.012500702 -0.16684404
-0.0038927814 -0.23118848 0.05547471
-0.08500849 0.14497577 -0.1815826
0.03110979 -0.17275731 0.02129333
-0.03830445 0.14197221 0.11583863
-0.03696413 -0.057185013 0.23059385
-0.08148348 0.04810789 0.18098283
0.08164722 -0.23297413 -0.0097667435
-0.17020777 0.18462718 -0.14884798
-0.008792397 -0.124503955 0.15215053
-0.11021901 0.123662956 -0.10812294
0.06750984 0.2487709 -0.16874965
0.031124862 -0.24757329 0.001487382
0.08621439 -0.0017040289 -0.16196416
0.09292619 -0.26676166 -0.0534248
0.14151056 -0.29711112 -0.09815737
0.093836285 0.1725424 -0.22929256
-0.10807563 0.10922677 0.20677435
-0.11878127 -0.0018487333 0.03749844
-0.021584885 -0.28986493 -0.13965112
-0.09704873 0.16518582 -0.108570375
0.048297808 -0.2121548 -0.0083552245
-0.15690982 0.040387653 0.1810124
0.08649578 0.06464509 -0.09520278
0.043064736 -0.1949574 0.0037317332
0.13540277 -0.38268718 -0.1400367
-0.0014994628 -0.033968877 0.0752604
-0.0319959 -0.03248777 -0.1403069
0.12888166 0.19114485 -0.24427515
0.039209373 -0.15324166 0.19315618
0.014241282 -0.21192198 -0.103495635
-0.051097255 0.039970875 -0.21908498
0.07878995 -0.25722334 -0.042648453
-0.040500157 -0.21222158 0.009675545
-0.12326022 0.16270073 0.19139254
0.02716759 -0.18800707 0.04626576
-0.105897754 -0.10728155 0.11334225
-0.03166012 0.013640713 0.17698686
0.023293054 -0.022962721 0.12548462
-0.08400395 -0.098939404 0.16599321
0.16529019 -0.14775528 -0.013904698
-0.12166785 0.039895475 0.14863932
-0.06771515 -0.098367535 0.14795639
-0.07739843 0.05917039 0.11154682
-0.047477365 0.24463946 -0.15112452
0.230341 -0.19742617 -0.22425114
0.047655147 -0.0499847 0.17156518
-0.10562244 0.18565929 -0.07570512
0.0965454 -0.15498176 0.1541314
0.018049141 -0.025531009 0.15390505
-0.12802231 -0.01677357 0.19726564
-0.016106382 -0.018274456 -0.07595338
0.15391597 -0.18454973 -0.08449341
-0.0582016 0.095040135 0.20008424
-0.1055439 0.17217943 -0.05737893
-0.14739971 0.09995837 0.18120669
-0.121020965 0.21941537 0.083026916
0.038215857 -0.09066488 -0.20598614
-0.095055975 0.22609861 0.20326842
0.08112909 -0.08113585 -0.22620787
-0.005178057 0.034913946 -0.13823186
0.13703357 -0.39534384 -0.11606436
-0.121953964 0.0706986 0.15010059
-0.07157104 0.12177369 0.12498409
0.21665287 -0.1452875 -0.18294135
0.013719784 0.29485855 -0.14494495
-0.11982389 0.2247861 0.05456775
-0.050594285 -0.21662414 0.00876053
-0.19313154 0.050164938 0.054708686
0.06664398 0.010063844 -0.060411308
-0.012600947 0.17760459 -0.2641131
0.055890456 0.05332941 -0.2398438
-0.16611256 0.04415044 0.21387784
0.19866566 -0.106731184 -0.15990841
-0.20062834 0.011576663 0.002119627
-0.07699317 0.21705464 -0.1732772
-0.15352817 0.21312025 0.109003656
-0.19166198 0.24520847 0.012665491
-0.04501606 -0.12155049 0.18607216
0.11345813 -0.011460886 -0.10521106
0.16425171 -0.0008723504 -0.19093768
-0.12105223 -0.16354749 0.08856029
-0.11558655 -0.0432256 0.16982737
0.13936724 -0.09280507 -0.17878084
0.029886996 -0.1280551 0.13130407
0.14083108 -0.39417654 -0.09775794
0.10146726 -0.32896966 -0.08843347
-0.019398363 0.18486191 -0.227508
0.0046269335 0.0050305314 0.036196664
0.013749593 -0.0974248 0.21785633
-0.08896262 0.08968421 0.22982821
0.18955246 -0.2588705 -0.034178466
-0.1850274 0.19873738 0.15854828
0.061700996 -0.14874345 0.13421653
0.14850895 -0.37768355 -0.14809899
-0.15745658 0.24932213 0.18157186
0.020074919 0.031871643 0.26584345
-0.087169975 0.24518332 0.08217781
-0.034129195 -0.29714975 -0.11126753
0.0461524 -0.2526762 -6.789089e-05
-0.1542196 0.011849308 0.22597325
0.038495056 0.15718102 0.035354584
-0.13618815 -0.11971118 -0.09112166
-0.030900264 0.06941248 0.10058274
0.003587905 -0.16680087 0.06309967
0.17084217 -0.38509747 -0.12105256
-0.0025491493 -0.16828585 0.0809928
0.012918148 0.14148109 0.05106256
-0.1785613 -0.0030208237 -0.0032644041
-0.02067209 -0.032459293 0.19067499
-0.10972876 0.00034958436 0.19600293
0.00093507615 -0.13256928 0.0967116
0.15996534 0.14141366 -0.19226469
0.0070521943 0.01656622 -0.16954006
-0.056589916 -0.0814895 0.027891109
0.14618455 0.113539994 -0.23557709
0.025807362 0.00033679116 -0.08759249
0.0028392076 -0.13166104 0.064693846
-0.025880044 -0.21556243 0.056042347
0.042400334 0.13901179 -0.24452436
-0.045329176 0.3192369 0.06824005
0.09580353 -0.014247314 -0.11611445
0.029385597 0.028279457 -0.14995399
0.035472248 -0.2837906 -0.2196607
0.056240905 -0.21766366 -0.08535546
0.065544486 0.023827903 -0.14417528
-0.0042604385 0.3263099 -0.095641546
-0.008421138 0.15797892 0.061492056
0.093146406 -0.23595689 -0.074857935
0.11284657 0.17849942 -0.2437335
0.063405685 -0.32664183 -0.06408756
-0.017015506 0.26791048 0.17042616
0.033579282 -0.0012408984 0.22083578
-0.041184723 0.16757192 0.061264273
0.12631418 -0.008044725 -0.26934475
0.20966919 -0.20335943 -0.038593
-0.12918095 -0.025176987 0.053815387
-0.17663805 0.10531765 -0.049425308
0.07887619 0.00065566966 -0.08320858
-0.047402542 0.067536116 0.25863093
-0.14011675 -0.00606975 -0.013989839
-0.16836525 0.23625432 0.087751254
0.019655347 -0.10545287 -0.035654824
0.14821264 -0.33709535 -0.08145261
0.21938947 -0.22510836 -0.13145842
-0.05215628 0.23479743 -0.09805297
-0.040999405 -0.0878147 -0.152294
-0.007115234 -0.037983153 -0.06728905
-0.030845579 0.24673793 -0.23315121
-0.08315505 0.027906047 -0.16818315
0.008377145 -0.11368213 0.14549299
0.17606452 -0.2922702 -0.13918008
0.14649017 -0.19933671 -0.058784787
0.20100914 -0.325865 -0.13285668
0.15137953 0.1762541 -0.20961052
-0.0975915 -0.06359992 -0.030555567
-0.060684696 0.33881477 -0.08883708
-0.16816469 0.2498152 -0.05073577
0.23324747 -0.26307067 -0.22080028
0.08861978 0.11628805 -0.2123993
0.108430214 -0.29040813 -0.22983244
-0.19888476 0.17354901 -0.108751096
-0.11795434 0.02607512 0.16702858
0.022013973 0.08419282 0.2216621
0.019159267 0.2476804 0.08922407
-0.09738166 0.031413887 0.21903312
0.1444595 0.15950221 -0.24232906
-0.21944246 0.03406511 -0.011435877
-0.112885006 0.07336034 0.08717553
-0.04192919 0.35130778 0.026160942
-0.07295522 -0.08265303 0.114742756
0.074824624 0.3421097 -0.036553416
-0.111934476 0.2722628 0.05877245
-0.1523278 0.19814187 0.07331225
0.08824587 -0.28123727 -0.09274687
0.07884902 -0.10710381 -0.19923632
0.02852453 -0.10553428 0.020163693
0.09387934 0.07413597 -0.15188737
0.21054682 -0.3424629 -0.08080839
-0.012252576 0.18402271 0.07983115
0.11421192 0.25747532 -0.21009432
-0.0108061 0.011889087 0.06900631
0.048918426 0.17635792 -0.26106602
-0.0073677776 -0.021838542 0.13816978
-0.0045344434 -0.17035408 0.085265726
0.068742104 0.24984312 -0.19638377
-0.035565715 0.31181255 0.036841195
0.10661744 -0.16718824 0.0726161
-0.14513023 0.30193445 -0.06789732
0.052145533 0.22592123 -0.25276154
-0.11478222 -0.18073519 0.03994842
0.06695666 -0.20548926 0.08916954
-0.042754855 0.32540917 -0.12789176
-0.06988668 0.0022740068 -0.14459075
0.16824208 -0.16406883 -0.09087929
-0.08718691 -0.09691959 0.13887864
-0.09718622 0.2517476 0.087022476
0.087198846 0.20955434 -0.24770425
-0.033878144 0.03141104 0.16385642
-0.06995186 0.29682076 0.057173066
-0.062495384 -0.12299354 0.14012548
0.053134255 0.18965232 -0.24239038
-0.032140393 -0.015577552 0.036560226
0.055336013 0.27643 -0.1784834
0.063814126 -0.37815163 -0.19803171
-0.009890497 -0.20138294 0.033059373
0.05395921 0.13515985 -0.28354603
0.078055285 -0.09913842 -0.19712396
-0.16779687 0.23577937 0.052842975
0.0654021 -0.2853677 -0.09689719
0.15596731 -0.11903467 0.043155406
0.02629271 -0.09902339 0.22515301
0.10520888 0.13971858 -0.28096336
-0.15712783 0.16447379 0.13469864
-0.11914701 0.11937754 0.2387954
-0.047680177 -0.07483995 0.13073757
-0.14074259 -0.0024507458 0.019214379
-0.2110721 0.13135877 -0.015968923
0.1707006 -0.03410894 -0.2553657
0.12640227 -0.21393466 0.0469108
0.08414646 0.047557298 -0.26957723
-0.039059915 -0.0020456566 0.07816134
0.1814932 -0.3172265 -0.12480858
0.020846538 0.28900415 -0.0868478
0.07756836 -0.02323427 0.06517317
-0.080089144 -0.12296986 0.050720036
0.035149958 -0.1536467 -0.19538689
0.056513924 -0.20859042 0.050104387
0.12932923 -0.029829666 -0.16791481
-0.10626241 0.28347304 -0.22529379
0.08639875 -0.31226155 -0.21985742
-0.012509131 0.015611943 0.17396349
-0.05922517 0.13406204 0.23234381
0.03880245 -0.012813111 -0.10152708
0.07385 -0.15782729 0.0122654205
-0.052428328 0.2372844 -0.2408178
0.1880735 -0.11340266 -0.15882829
-0.07177865 -0.010019025 0.13346225
0.25985256 -0.2774809 -0.17370471
-0.11086278 0.030466696 0.1913115
0.005661692 0.2707133 0.1766238
0.028870275 0.0018198196 0.26466382
-0.03942423 0.15184706 0.18447015
-0.104741335 -0.08801247 0.15240173
-0.028384307 -0.19177948 -0.035038713
-0.03073364 0.14657211 -0.14274055
-0.049042948 0.12197163 0.24117273
0.15877631 -0.23353836 -0.0886134
-0.16272214 -0.03177921 0.011159497
0.048639134 0.20586665 -0.17478293
-0.16803207 0.28540763 0.015934987
0.008076099 0.22753017 -0.23800065
0.021477519 -0.23501498 -0.06108632
-0.08954488 -0.082713895 0.036215402
-0.0035185115 0.21260603 0.06036049
0.052816 -0.33171427 -0.16008371
-0.05297509 0.21009257 0.11035276
0.07320347 -0.19918384 0.015938574
-0.07402819 -0.23135409 0.0120086465
0.22627635 -0.21355788 -0.15058047
0.19590132 -0.20818153 -0.051744837
-0.050970852 0.23797542 0.1782252
-0.21941966 0.23374271 0.045104012
-0.021909783 -0.10008536 0.2110975
0.064370856 -0.141819 -0.10804424
0.22412454 -0.2081858 -0.19208701
-0.07068003 -0.03604925 0.15129617
0.011280274 0.29626188 -0.111368015
-0.12841041 0.032113813 0.17042136
0.18663076 -0.21751027 -0.0703967
-0.14394808 0.15670271 0.12883528
-0.032588493 0.027313331 -0.15044594
-0.09012394 -0.07305777 0.2103169
-0.042009335 0.22619793 0.14802153
-0.05874541 0.09599067 0.061416224
-0.048664235 0.23005225 0.14491764
-0.09148818 -0.06974661 0.21808377
0.0714437 -0.18097568 0.023916021
0.17844057 -0.38235137 -0.08246528
0.042768817 -0.072983675 0.2495991
0.035883944 -0.04713675 0.017622685
0.012203072 0.10547896 -0.10075009
-0.08726095 0.26788756 -0.115666635
-0.03323928 -0.19083641 0.07808793
0.14366314 -0.011502873 -0.22449516
-0.074616134 0.1349255 0.14853758
0.0027950632 0.18357353 -0.00275647
-0.060816217 -0.08874633 0.15878452
-0.03381327 0.3524184 0.0148462765
0.08343887 -0.15168497 0.09161351
0.08167378 -0.26432696 -0.07963332
-0.12334979 -0.003727261 0.199514
0.13988201 -0.16007587 -0.10353734
-0.02546653 -0.079880945 0.030558176
-0.029530209 -0.07306003 0.06178226
0.045098644 0.010669396 0.24804193
-0.062314197 -0.10329006 0.19210975
-0.080510356 0.26532984 0.04868973
-0.09820836 0.16723086 0.17723629
-0.16882806 -0.067007676 -0.03700987
0.15184157 -0.37945688 -0.12849824
0.14553198 0.245563 -0.24312946
-3.2570766e-05 0.03714761 0.04484467
0.036322426 0.2494097 -0.13104549
0.2239917 -0.17874151 -0.15437458
0.02410272 -0.08201832 0.11044821
0.14204226 -0.056462366 -0.1981625
0.019075558 -0.031652614 0.23041213
0.15838532 0.07792157 -0.27800938
-0.14598787 0.028934738 0.027087087
-0.15808159 0.26551306 0.110348195
-0.04433972 -0.023121879 0.21865813
0.011639619 -0.16592735 0.09304212
-0.0642816 0.09278284 -0.2287957
0.113872536 0.16174312 -0.14263397
-0.099479735 -0.054835252 -0.02639357
0.06925124 0.24562815 -0.27150318
-0.02667004 -0.09947499 0.20806359
0.11022706 -0.37176305 -0.14112267
-0.17823844 0.1638662 0.13255002
-0.14289437 0.03874495 0.2328565
-0.06670078 0.2585121 -0.22575901
-0.025059946 -0.06574236 0.19187121
0.033104956 0.038279958 0.09258854
-0.09159857 0.010560213 0.16602838
0.055543963 0.01791227 -0.11604144
0.16473174 0.070552886 -0.2358148
0.1534839 -0.04879576 -0.20373625
-0.055291045 0.09298052 0.20343927
-0.03036258 -0.034775373 0.16631408
-0.025613246 -0.20470057 -0.034706835
-0.020825548 0.119195074 -0.15799668
-0.1459219 -0.018837817 -0.0215036
-0.08805797 0.17176415 0.14620884
-0.05577771 -0.14625677 0.14059734
0.08609796 -0.047573365 -0.06203886
-0.05841603 0.23711658 0.06350338
-0.02075874 0.17801483 0.22544119
0.18787242 0.08121501 -0.29999027
0.12630531 0.029264875 -0.12460722
0.03014359 -0.13151383 0.12735072
0.14683267 -0.1448329 -0.18394032
-0.07308763 -0.03562432 0.13902424
0.037188444 -0.18617357 0.0640188
0.17162384 -0.27144948 -0.1392997
-0.054266535 -0.054281533 0.05613056
0.24161994 -0.31547254 -0.16475819
0.16571173 -0.23281315 -0.09261608
0.04170004 0.003479896 0.031603128
0.118442975 -0.12784934 -0.18462622
0.20480564 -0.23236263 -0.13758548
-0.08488225 0.13756713 0.20050094
0.17394881 -0.12814802 0.02708598
-0.08691982 -0.024010109 0.15015233
0.095902376 -0.39116922 -0.10951451
-0.032924622 0.27529293 -0.19418544
-0.10619871 0.0039200946 0.21667875
0.16974446 -0.009997905 -0.21295129
0.09071009 0.15321225 -0.092548974
-0.009650003 -0.287266 -0.03824873
-0.09781947 0.17966099 0.13987352
-0.1322546 0.029790837 0.1422917
0.18836074 -0.2552622 -0.019724343
-0.06774307 -0.048626862 0.22507806
0.05142257 -0.25063553 -0.035251625
-0.08765264 0.12901177 0.16383904
-0.004534886 0.36076435 0.06981246
0.16148621 -0.30325234 -0.07275338
-0.038895447 0.2770915 -0.22168264
-0.042982757 -0.0045003085 0.20261721
0.1066148 0.21924114 -0.255548
-0.06857716 0.31608772 -0.16345684
0.08319844 -0.13653739 -0.15383586
-0.019041607 -0.019580157 0.18001917
-0.119757354 -0.05089946 0.16462907
0.03716592 0.09570894 -0.13158554
-0.07832246 -0.088286795 0.19140159
0.07045579 0.16864242 -0.23331581
-0.15209009 0.065202646 0.20666322
0.09590633 0.037981402 -0.07864212
-0.07055292 0.0975915 0.1953617
-0.10165614 0.16655886 -0.08981991
-0.10625544 0.067835 -0.10276226
0.13528024 -0.2830365 -0.08185013
-0.12631005 0.24426775 0.11232384
-0.116587766 0.20873174 -0.115713455
0.18726397 0.01862154 -0.24514066
-0.18016963 0.0104978895 0.13300648
-0.009721763 0.2177296 0.042762015
-0.17182517 0.13809676 -0.034629613
-0.16458309 -0.06334308 0.16351986
-0.18389027 -0.009217916 0.12106295
-0.19007915 0.17662568 0.070153184
0.105063416 -0.22103563 0.009668277
0.079223655 0.034909654 -0.24381137
-0.12732562 0.018652296 0.02494146
-0.051665056 -0.008380451 0.17538841
0.11863738 -0.33328345 -0.15942927
-0.1115455 0.0850717 0.24659958
0.08570968 0.0072184643 -0.08102902
0.06422245 -0.32210034 -0.12511855
0.06288705 0.2061908 -0.22516386
0.06347875 0.051657204 -0.2917931
0.13696557 -0.109194025 -0.1795018
-0.06020455 0.28583273 0.030110331
-0.07715217 0.07513698 0.19000229
0.10354506 0.16162398 -0.2938981
-0.14098018 0.03317176 0.04671144
-0.091190845 0.22188824 0.14990096
-0.106609255 0.25169075 0.07562089
-0.08442476 0.24807763 0.15670992
-0.047549393 0.18128546 -0.2675427
-0.07417415 -0.13827668 0.03523167
-0.03958349 -0.09552615 0.12200313
0.090903655 -0.27056897 -0.06147797
0.06845223 0.27853942 -0.18604527
0.03470978 -0.24723834 0.016181685
0.13041718 -0.31948873 -0.15349719
0.1654709 -0.36429447 -0.113720484
0.13428526 -0.3558593 -0.11473351
0.011298906 0.0838321 0.22993775
0.03889378 -0.14044137 0.11458811
-0.18677048 0.19312792 0.16524093
-0.050879035 0.22190376 -0.29234147
0.15289958 -0.1014329 -0.1430216
-0.12428761 0.04388194 0.21351624
-0.10138849 0.2444382 -0.0044096014
0.0076258755 -0.044801842 -0.1254695
0.1895511 -0.2834986 -0.15355408
-0.13650262 0.16612892 0.15610012
0.09892007 -0.06129015 -0.021390622
0.08592459 -0.30298665 -0.24291086
-0.12217108 0.20158248 0.1776548
-0.0114858495 -0.0023174966 0.16825004
-0.16167283 0.18328366 -0.09269545
0.020498578 0.019120887 0.08906813
-0.06385567 -0.008359191 0.23253591
-0.19397692 -0.052037854 0.03190915
-0.006295033 0.10417933 -0.15049149
0.08010063 0.13095361 -0.07283745
-0.049506206 -0.11335406 0.123240575
0.085626565 0.21135804 -0.23718524
0.13285848 -0.29530492 -0.08559158
0.0400022 0.16204435 -0.0689601
-0.010478457 -0.16101515 0.023321876
-0.10117427 0.21550272 0.18865238
0.009562029 -0.14872642 0.15852058
-0.13019538 0.012098405 0.14951085
0.14284305 0.13099447 -0.2466103
0.14910956 -0.18290497 -0.10859841
0.03259578 -0.0059303064 0.2046715
0.035577327 0.31479824 -0.0973084
0.005107779 0.2893896 0.06397929
-0.14513172 -1.3777357e-05 0.21128768
0.13324417 0.085525915 -0.25436065
-0.063759975 0.005550806 0.09291446
-0.12537383 0.137582 0.12850237
-0.057288077 -0.08969063 -0.086020485
0.17045052 -0.16652523 -0.08090908
-0.1543279 0.07396923 0.14680973
0.14261822 0.041276533 -0.25192758
-0.10128945 -0.13702773 -0.02638602
-0.13668159 -0.17544875 0.09313273
0.048361775 -0.047610153 0.18455571
0.22731982 -0.34649205 -0.14934942
0.15827112 -0.14419289 -0.0398392
-0.045945194 -0.025943637 0.11907451
-0.14566453 0.120830625 0.0046208394
0.013515465 -0.0209083 0.08046522
0.16100377 -0.22450201 -0.05482113
-0.123606436 0.10997192 0.014836217
-0.07912126 -0.058049828 0.12967907
-0.08987851 0.17046511 0.17286095
0.16920356 -0.3599366 -0.14270246
0.20963499 -0.3215512 -0.156781
0.17139256 -0.2818436 -0.104433596
0.05419855 -0.0062839994 0.061586384
-0.1148237 0.1089598 0.19722083
0.023543451 -0.2714665 -0.039173357
0.17260753 -0.32152453 -0.13643
-0.08057769 -0.18560171 -0.02226876
-0.07981024 0.20423222 0.20409986
0.05546929 0.27504012 -0.09028873
0.0393536 0.2863581 -0.19036162
0.027508045 -0.23211323 -0.014856829
-0.041240666 0.16886666 -0.17315832
-0.13329172 0.17239003 -0.0602769
0.006414516 0.058998886 0.10783976
-0.103941 0.022543296 0.22594617
0.023234567 -0.21298979 -0.01577143
-0.05785858 -0.08481285 0.17497878
-0.014792182 -0.18768615 0.031079732
-0.03129308 -0.1826231 -0.00022235516
-0.12520584 0.082844846 0.15968199
-0.015789744 -0.21493502 0.049278695
0.010228883 0.110720485 -0.075028695
-0.13740654 0.12124358 0.15144221
0.10313757 0.20051192 -0.23944408
-0.04964546 0.11360381 0.12272199
-0.108939804 0.22319739 0.10086639
0.033222105 -0.14018929 -0.12115145
-0.09040114 0.0036449102 0.12060321
-0.074886836 0.20578775 -0.013528537
0.085431606 -0.36310923 -0.22076944
0.07126052 0.08398435 -0.08456945
-0.06885853 -0.14482379 0.12229768
-0.1717631 0.040366966 -0.037749566
0.002114306 0.18137853 -0.009099244
-0.07088241 0.024602717 0.19688444
0.15261938 0.029473174 -0.2136779
0.08448045 0.24875215 -0.14861637
0.06889656 0.22600006 -0.17251635
-0.14485729 0.2582702 0.11949382
-0.17131734 -0.03124157 -0.035350453
0.16564815 -0.2926859 -0.024940813
-0.030378798 -0.19862866 0.094335765
0.12229753 -0.3454093 -0.20369385
-0.17866352 0.28744218 0.030682387
0.013557972 -0.1739751 0.09061953
0.07628049 0.25031316 -0.1799401
0.16371 -0.27078462 -0.101022676
-0.1370647 0.1269171 -0.13436103
0.092746995 0.31161344 -0.13491787
-0.10871116 0.27809358 0.011192046
-0.15258998 -0.03887649 0.19061807
0.08286869 -0.14864634 -0.1520088
-0.09497212 0.33377725 0.13277456
0.08857515 -0.057797458 -0.09235623
0.06583769 0.071513236 -0.09968399
-0.0538591 0.040606793 0.19756918
0.051331177 -0.004624839 -0.13659088
0.06842099 -0.121266894 0.22251703
-0.11215759 -0.11303322 0.15012522
0.02605078 -0.051179193 0.04881798
-0.0071669747 -0.14688854 0.1164126
-0.04358608 0.2528453 0.02461088
-0.039281934 0.29241025 0.03014974
0.094338365 -0.35948792 -0.15806428
0.029423114 0.032967053 0.080596626
-0.08023456 0.046591222 -0.21371223
0.004226121 0.14569487 0.01584335
-0.1720496 -0.034897972 0.13987625
0.1554184 0.085915826 -0.27988228
0.12566657 0.05871016 -0.09970444
-0.1955297 0.0704544 -0.017069014
-0.13292111 -0.05944935 0.17023219
0.026518092 0.06683304 0.11588309
0.1806877 -0.042037755 -0.19261666
-0.06213786 -0.0040881294 0.15094091
-0.03093 0.22308247 0.1604532
-0.0021733071 -0.31189516 -0.09744179
0.0045487434 0.13294409 -0.14600103
0.10693273 -0.32933873 -0.17506453
-0.088981666 -0.06565689 0.14593315
0.11434327 0.28370854 -0.14142472
0.16546232 -0.17450699 -0.08862467
0.042240016 0.24513787 -0.12979494
-0.08310021 0.32092655 -0.05627249
-0.105013154 0.22076541 -0.15061612
0.06820553 0.13800249 -0.24764155
0.17338188 -0.18284062 -0.042361766
0.14309248 -0.28684247 -0.0067083635
-0.003320754 0.1773529 -0.14092124
-0.17703348 -0.04047575 0.10732345
-0.09345826 -0.09188822 -0.043545216
0.04322283 -0.2095482 0.12098866
-0.15474422 0.3019644 0.02159599
-0.10920552 -0.11922008 0.098422974
0.02043149 -0.2517261 0.022765353
-0.077989876 -0.0069856313 0.18245007
