# .PCD v0.7 - Point Cloud Data file format
VERSION 0.7
FIELDS x y z
SIZE 4 4 4
TYPE F F F
COUNT 1 1 1
WIDTH 1000
HEIGHT 1
VIEWPOINT 0 0 0 1 0 0 0
POINTS 1000
DATA ascii
-0.08846118 0.0037652391 -0.03738487
0.015296365 0.12885539 -0.0930165
0.044639643 0.0798781 -0.108915664
0.21944375 0.019843357 -0.04170598
-0.14959396 -0.09268551 0.13992205
-0.17503925 -0.17350574 0.095199585
0.2682175 0.06775449 -0.098740645
0.24788874 0.056716755 -0.1269267
0.33080944 0.2116618 -0.0863703
-0.23046884 -0.24521977 -0.005063044
-0.03550174 -0.13883922 0.10460477
0.36881912 0.19461514 -0.08254939
-0.16912979 -0.19139498 0.1112766
0.2174178 0.17924464 -0.10206013
-0.103506126 0.04251758 -0.05453642
-0.21449468 -0.2277154 0.17383386
-0.11032343 -0.055775993 0.13274439
0.024255432 -0.08143626 0.051105596
0.21693675 0.22223891 -0.031233154
-0.08725589 -0.11040097 0.08401618
-0.15618002 -0.004699045 -0.015211371
-0.033434827 0.004446081 -0.0125997225
-0.1967393 -0.18475617 0.18436757
-0.17787553 -0.09848583 0.08546154
0.2680436 0.28486466 -0.046911146
0.16004397 0.17653634 -0.067178465
0.2709167 0.2693642 -0.09554136
-0.16290848 -0.11977383 0.14767647
0.029798627 -0.04108299 -0.014990779
0.16616035 0.024772977 -0.11073966
-0.107336685 -0.12891555 0.14335611
0.18405448 -0.0037927234 -0.07222075
0.13972856 0.047264416 -0.0584527
-0.14855947 -0.073560156 0.117415175
-0.058688246 -0.061303444 0.02209345
0.0032320344 -0.096133634 -0.019254697
0.19122714 0.102754205 0.0033914605
-0.1319984 -0.13215752 0.11630324
-0.18776818 -0.23934539 0.18005492
0.13580355 0.12739097 -0.015647696
0.24207146 0.3356721 -0.17167085
0.27262956 0.2562318 -0.07893644
-0.04167748 0.024724279 0.048272915
0.19722402 0.080592655 0.002081472
-0.3552716 -0.16491373 -0.018280433
0.3225966 0.28544608 -0.0780371
-0.0490466 -0.0477829 0.08100374
0.3504544 0.17917994 -0.13008624
0.11459322 -0.049795773 -0.030830503
0.14950585 0.2739829 -0.08125164
-0.26734605 -0.10526238 0.09706058
0.25272048 0.21238925 -0.05023158
-0.27025026 -0.062312666 0.05358525
0.3424294 0.11706606 -0.1744359
-0.2472977 -0.0058431253 0.11025407
-0.18205068 0.040586796 -0.090780646
0.13551152 0.20676899 -0.014347103
-0.12038842 -0.014579695 0.047272008
0.18291527 0.06212449 -0.111646995
-0.16552348 -0.33652276 0.040346272
0.2057008 0.26955462 -0.123653494
-0.20172362 0.031300176 -0.04160377
0.30752608 0.1719337 -0.118885905
0.26957297 0.23036695 -0.099235214
-0.010541358 0.0696152 -0.037599117
-0.10273792 -0.23875122 0.04996206
-0.05115458 -0.1611733 0.13213348
0.010315806 0.047015674 -0.063198864
-0.24746296 -0.067818336 0.10552806
0.102622144 0.026172679 0.025569893
0.05544987 0.12653804 0.007595511
-0.1338305 -0.29704776 0.10417308
0.1704879 0.14828196 -0.07918789
0.20742232 0.03766131 -0.11662685
-0.014490642 0.064191885 0.031041387
0.092465065 0.0146588795 -0.009138091
0.20582877 0.109335504 -0.062219016
0.31866294 0.12077491 -0.08502231
0.35494938 0.21284692 -0.117149934
-0.08877352 -0.1506733 0.06126556
0.10738298 0.20877026 -0.062951036
0.08776263 0.11098852 -0.06277439
-0.07393534 -0.030665655 0.018260999
0.0367246 0.016169999 0.0074412767
-0.045495905 0.027284436 0.0029266276
0.345465 0.21807186 -0.18128772
0.1815526 0.1796366 -0.10930703
0.24556273 0.17677149 -0.099464886
0.010704011 0.07965847 0.019934505
0.15244223 0.19797355 -0.06602359
-0.20266935 -0.07104977 0.1694546
0.032819916 -0.065141946 0.0041978154
0.062408853 0.002198344 0.010120838
-0.25361064 -0.19586162 -0.06466277
-0.08891767 -0.22262879 0.100450456
-0.20597409 -0.15595126 0.18123946
0.23409957 0.19458197 -0.11192555
0.13725187 0.15169272 -0.075689524
0.269325 0.19921556 -0.051126745
0.32402435 0.1739378 -0.1049219
0.117561355 0.08791981 -0.056802988
0.36795536 0.11627934 -0.1495817
-0.183834 -0.11958826 0.10046747
-0.31280914 -0.15172805 -0.00890295
0.24283278 0.2731528 -0.096097685
-0.19416906 -0.11855895 0.113498054
-0.1864932 -0.20516479 0.11636036
-0.08112574 -0.253328 0.046506528
0.26852623 0.2839812 -0.24431959
0.07222313 -0.0038675158 -0.034735575
-0.34069446 -0.13873859 -0.03657381
0.13369355 0.053276215 -0.034136858
-0.023190664 0.013839449 0.024994098
-0.018410765 0.013739122 0.070645586
0.1759158 0.053655412 -0.13607045
0.17554826 0.07599693 -0.09762471
-0.28701118 -0.124293625 0.02086652
0.36544636 0.21636294 -0.07727425
0.03236519 0.042934403 0.026682127
-0.07122585 -0.22765471 -0.031573202
0.12905516 0.069558635 0.005759723
0.24729615 0.24869685 -0.024337256
0.27006614 0.13469161 -0.042709153
0.20943335 0.21065411 -0.12848796
-0.020202499 -0.025614055 0.04878883
-0.19249943 -0.21636136 -0.09512136
0.15629613 0.21139501 -0.08724065
-0.0032078905 -0.023468973 -0.032456357
-0.10786778 -0.120256506 0.15562083
0.07805801 0.060007084 0.037780084
-0.26923266 -0.18231373 -0.04902605
0.04809939 0.0043164613 0.04767723
-0.20436378 -0.027850602 0.08514665
-0.17157435 -0.0020554673 0.043027207
-0.052767053 -0.029397462 0.011066346
0.07440153 -0.014347895 -0.06522777
0.1523197 0.17438903 -0.107892886
-0.2760574 -0.14696766 0.08922063
-0.25507945 -0.07874054 0.027118525
-0.14709812 -0.22207084 0.08511429
-0.15672871 -0.15403885 0.09938145
-0.092410624 -0.17470318 0.076433145
-0.020044526 0.114245765 -0.056252517
-0.071827255 0.06103665 -0.0011758433
0.11444192 0.16336188 -0.018709587
-0.061298747 -0.177136 0.049123507
-0.120476216 -0.23005965 0.10279048
0.1702639 0.31446213 -0.13871689
-0.073898725 -0.12700875 0.13747092
-0.24060288 0.04798574 0.018539766
-0.031904582 -0.07217828 -0.01440002
-0.12729558 -0.18739945 0.11611875
0.29636475 0.2712767 -0.07763806
-0.21738605 -0.019831067 0.08513896
-0.18823601 -0.20850529 0.07571118
0.08227086 -0.022169182 0.0095656365
0.13157843 0.22442676 -0.09874398
-0.10772461 -0.19615643 0.0769735
-0.15652546 -0.17560603 0.130258
0.113588445 -0.017197052 -0.00327749
-0.057186596 -0.11189853 0.105746806
-0.24014042 -0.12631868 0.1260755
-0.19638136 -0.023190835 0.021657608
0.23186634 0.28742635 -0.068536
-0.19556804 -0.17305936 0.12398674
0.28538823 0.10587873 -0.06821352
0.13942166 0.099050544 0.009438572
-0.32149407 -0.07723003 -0.0067770747
0.06063568 0.15873553 -0.02389107
-0.18177225 -0.15306275 -0.06993992
-0.014984946 -0.13037086 -0.042449694
0.21658821 0.11992969 -0.03611435
0.21196876 0.09493877 -0.099912666
-0.007865083 0.018034272 0.049774565
-0.29468626 -0.06612649 0.013776732
-0.07615604 0.014898789 0.005561368
0.0010443393 -0.09226524 -0.027625153
0.00036022693 -0.021269731 0.0015647573
0.2675746 0.19743408 -0.10580207
0.17093636 0.1925797 -0.10552412
-0.065879665 -0.20740086 0.073013134
-0.2785168 -0.06866937 0.088271685
0.11782858 0.041095525 -0.06515603
-0.12276413 0.0057597184 -0.0007772231
0.2664363 0.27389222 -0.14145964
0.020151729 -0.050940864 0.0011250118
0.087576 -0.005698071 -0.01402715
-0.067858696 -0.07521752 0.1205082
-0.023659216 -0.052768253 -0.03908599
-0.06206635 -0.09406526 0.026689434
0.213352 0.092015505 -0.10240406
0.10024001 0.07756124 -0.030767258
-0.05873983 -0.1721382 0.11025075
0.24710125 0.035397924 -0.08610225
0.04459337 0.06367761 0.024732193
-0.18306634 -0.02370735 0.0986136
-0.29193613 -0.1475811 0.04064628
-0.05805844 0.007639323 0.016588192
-0.0072960746 -0.0142913135 0.028824072
-0.29439226 -0.05793734 0.075548954
-0.11049999 -0.04753844 0.15043221
0.25083214 0.078551345 -0.1462525
0.05976931 -0.07642216 -0.020231755
-0.1804794 -0.12338448 0.109530054
0.08868001 0.03863742 -0.022014618
0.19727176 0.06371638 -0.1116214
-0.024466489 -0.1433475 0.03563997
0.19647585 0.23378995 -0.05313841
-0.29884845 -0.110726625 0.026571522
-0.11496686 -0.064120166 0.07291205
0.07936533 0.08109741 -0.004325549
-0.009210221 -0.09116272 0.03817615
-0.10538177 -0.0665445 0.022553477
-0.15428102 -0.16096908 0.14955871
0.047215223 0.086280525 -0.06528675
-0.121889986 -0.029239533 0.05233248
-0.18848187 -0.12016058 -0.0010987276
0.20462084 0.10499487 -0.086642995
0.1665468 0.24687806 -0.06743072
0.14703317 0.053968277 -0.111503094
-0.10310078 0.015081129 0.031577803
0.17389782 0.275749 -0.16416498
0.23888557 0.13813096 -0.048679546
0.023658415 -0.09223093 0.04777619
0.14178847 0.1471866 -0.04785212
0.18364182 0.24932061 -0.11306202
-0.025556218 -0.18661994 0.04612984
-0.055430193 -0.08103405 -0.054610305
-0.16365917 -0.2160534 0.07834503
0.1450488 0.12680943 -0.04445003
0.19628201 0.23532529 -0.13252343
-0.24074838 -0.16516918 -0.022929862
-0.25644207 -0.1984202 -0.012291158
0.04992147 0.063592926 0.020956943
-0.3121305 -0.046004254 0.008559186
0.14577192 -0.010126738 -0.15711008
-0.08546797 -0.27361748 0.022369992
-0.16382092 -0.19559386 0.12233541
-0.124333695 -0.038995467 0.06861914
-0.07963501 -0.046430495 0.071995676
-0.33631927 -0.09982488 -0.018095518
-0.1910778 -0.20299494 -0.006446063
0.21250454 0.07922277 -0.03145173
-0.048192795 -0.30368784 0.052579083
-0.06827512 -0.15456769 0.10829707
-0.31871888 -0.07815639 0.07252182
0.32296368 0.18911724 -0.15586042
-0.28245044 -0.16686286 -0.06259994
-0.10063729 -0.3397095 0.06802259
-0.08294985 0.049273796 -0.04841807
-0.17220306 -0.26471543 -0.03298566
-0.28983113 -0.22649555 -0.12225252
0.16439584 0.123596594 -0.0067772996
-0.009350106 -0.16342929 0.13634348
-0.23434421 -0.12878351 0.13461769
-0.012260917 -0.076175906 -0.011831114
-0.10559666 -0.119508594 0.12199231
0.10264756 0.14861523 -0.06781917
-0.308286 -0.143846 -0.009301862
0.17367725 0.2430492 -0.062999405
-0.089962326 -0.14208384 0.10250418
0.21736987 0.24593598 -0.036891233
-0.15408362 -0.19771689 0.15648259
-0.06895016 -0.27398124 0.01845641
0.06652554 0.06464514 0.02461117
-0.256265 -0.09113632 0.098030955
0.14227504 0.05557668 -0.08380845
-0.0046466026 -0.111707196 0.07689685
-0.24123798 -0.2447228 -0.037095223
-0.11786555 -0.20665313 -0.0832981
-0.15551847 -0.123587124 0.14642452
-0.09992302 -0.122912556 0.1431238
-0.18812676 -0.14347285 0.10020633
-0.14730561 -0.16447008 0.19266869
0.15286966 0.24014407 -0.10490488
0.066715516 -0.0008974723 0.012928371
0.14290228 0.09943381 -0.031329565
0.28640634 0.2539729 -0.09635978
-0.098108545 -0.10074303 0.12453796
-0.2805513 -0.12428382 -0.09912198
0.18747066 0.12017889 -0.054250974
0.13607006 0.025884794 -0.1058681
-0.0671213 0.0039596534 0.031185292
0.13242033 0.06653075 -0.026956739
0.15143748 0.00848735 0.013686976
0.347622 0.27769464 -0.09882557
-0.13573325 -0.11688944 0.08448165
0.11034777 0.061911084 -0.0361379
-0.107411854 -0.26309595 0.17048207
0.19217739 0.09725586 -0.0007705888
-0.24540007 -0.13209559 0.094496675
0.059513077 -0.04430249 -0.03365082
0.3329969 0.24442033 -0.056117184
0.21288104 0.21075965 -0.06484722
-0.16286337 -0.23126748 0.16187027
-0.15027517 -0.024684956 0.044192128
-0.21718702 0.020175176 0.033811472
0.28443176 0.20629832 -0.11166549
-0.18128389 -0.043539014 -0.046933025
-0.075746655 0.030187896 -0.033291526
0.0067711286 0.07663484 -0.014301648
-0.0858449 -0.026329067 0.08692898
0.11493404 -0.0051263915 -0.11758752
0.20644097 0.22305025 -0.06884312
0.21104267 0.14853062 -0.11812181
-0.25771016 -0.11403339 0.09837289
0.29622173 0.26542777 -0.14519578
-0.010951776 0.120050095 -0.07350837
-0.1156455 -0.10147503 0.11663264
0.12299234 0.1082918 -0.078249075
0.28481963 0.15820554 -0.14320266
0.22348407 0.21387781 -0.11061471
-0.06149393 0.06053143 0.034877192
0.101852275 0.06377503 0.031589754
-0.16918196 -0.10206125 0.13867746
0.22839302 0.20600511 -0.1380404
-0.15666474 -0.18867975 0.07422105
-0.10664482 -0.045730382 0.050252374
-0.14430708 -0.11849215 0.16711336
0.30295858 0.12597358 -0.16177653
0.11305768 0.10335225 -0.063644126
0.10484399 0.2459214 -0.05788059
0.057940446 0.09703166 0.030793585
0.11620851 0.19576582 -0.044399552
0.076938584 0.17468521 -0.042467058
-0.0618449 -0.15376718 0.085383765
-0.13109086 -0.24409832 0.18010104
-0.13270204 -0.21071193 0.14979258
0.19657601 0.21970247 -0.073227815
0.13500312 0.14186548 0.004968284
0.061621334 0.18264225 -0.08707369
0.33045968 0.23375927 -0.14013387
0.040275473 0.015063445 0.035337247
-0.009056328 -0.039285056 0.023871476
-0.04538576 0.09247047 0.010940509
-0.18839812 -0.18483165 0.12016865
0.1407457 0.08710649 -0.10854771
-0.2903279 -0.020597957 0.032419275
0.1038392 0.016080927 -0.03962896
0.2763281 0.072358206 -0.13733095
-0.24077412 -0.023276504 -0.007804372
0.26117608 0.31178352 -0.108981945
0.24709855 0.25744712 -0.09536082
0.23781091 0.2338388 -0.092509374
0.14880358 0.1252696 -0.09181752
-0.1926491 -0.33198628 0.08325073
0.23138963 0.07622772 -0.09823501
-0.18307447 -0.09107356 0.117785394
-0.1290065 -0.045364123 0.028090995
-0.0049879258 0.0007752451 0.024771761
-0.20383044 -0.11755682 0.16851832
0.01260317 0.09060567 -0.040269393
0.040123574 0.14569016 -0.11607197
0.24824207 0.094695576 -0.054951165
-0.055737082 -0.10465206 0.15151629
-0.12807012 -0.19252028 0.1357904
0.014295341 0.108548746 -0.051025253
-0.090053484 -0.08325697 0.034125242
-0.13748768 0.017806118 0.021994356
0.10086562 0.0056655915 -0.00839713
0.24011664 0.07067523 -0.061711054
0.34533408 0.16810022 -0.25348532
-0.214709 -0.15912536 -0.08510781
-0.014504683 -0.22946535 0.03983861
-0.17435022 -0.28645214 0.052426305
-0.0992927 -0.17284569 0.088628985
0.0075279092 -0.13150711 -0.056686122
0.21442758 0.25819916 -0.09190383
-0.11335136 -0.037656333 0.0042586573
0.09953551 0.10223187 -0.044717826
-0.30863914 -0.2370138 -0.09045339
-0.080473095 -0.14527415 0.092701584
0.06889494 -0.02644098 -0.027656138
0.13448602 0.21233153 -0.13523686
0.20025398 0.19486393 -0.051557492
-0.1270555 -0.12089448 0.14468119
0.21364515 0.24105091 -0.08724277
0.05584861 -0.09156723 -0.027659899
0.0798973 0.22782443 -0.10348804
-0.20515132 0.016929846 0.019434681
0.117876515 0.16534749 -0.014325506
0.044296607 0.120459914 -0.041174337
0.2102762 0.118505664 -0.0721735
-0.051954485 -0.1381939 0.09384076
-0.16386771 -0.11809169 0.07968985
-0.26641226 -0.109612994 0.10187473
0.12105351 0.09044109 -0.017458841
-0.25884783 0.004000419 0.09116091
0.20130187 0.15161242 -0.013901804
-0.17749529 -0.07264122 0.07743373
0.29812288 0.17481384 -0.23797335
-0.13372014 -0.050404515 0.10712846
-0.054264847 -0.05420076 -0.013459944
0.20584056 0.3011974 -0.16619863
0.08524222 -0.03221854 -0.013886138
-0.15720548 -0.112145975 0.12053861
0.27800742 0.20737185 -0.066024505
0.24805976 0.2963836 -0.1393589
0.1770552 0.1484569 -0.035432313
0.2646247 0.2830742 -0.07429861
-0.04349037 0.028171599 -0.02640258
-0.07293169 0.013261466 -0.01874267
-0.058794685 -0.090229556 0.036664173
0.2034609 0.26734096 -0.18199827
-0.12472488 -0.027822064 -0.0026195536
0.012923609 0.06579432 -0.033572305
0.18549769 0.2860177 -0.13455074
-0.20553087 -0.10528753 0.13367166
0.0714246 0.12233992 0.007624055
-0.120738 -0.09008215 0.09545777
-0.063803874 0.0004838676 0.092597134
0.1605501 0.1571012 -0.06798973
0.08297073 -0.020531176 -0.028424162
0.16160958 0.24561012 -0.10770079
0.26834792 0.10093464 -0.115972124
0.06423798 0.07820094 0.016139211
-0.14301087 -0.08057813 0.13995808
-0.21140647 -0.25315392 0.14624622
-0.24628417 0.01656888 0.060380932
-0.19622304 -0.08771757 0.14216928
-0.122892074 -0.22468427 0.081372395
-0.09262294 -0.22612572 0.11039852
-0.22320646 -0.16879149 -0.07054081
-0.25041518 -0.1572122 -0.06413728
0.29594284 0.14878063 -0.11828077
0.1311588 0.10996154 0.016396122
-0.05442833 0.047911078 -0.0021488238
-0.2626703 -0.1605607 0.026492564
0.2870186 0.1283307 -0.05507228
-0.27370903 -0.08351435 0.007212274
-0.1451098 0.034890108 0.026071806
0.012194923 -0.04824505 -0.003278298
-0.20240909 0.0042287367 0.13519949
0.080629416 0.11906442 -0.04055792
-0.0331437 -0.18973494 -0.04305274
0.063858956 0.12670898 -0.08753674
-0.34809652 -0.15565208 -0.08351268
0.20951727 0.018104674 -0.08795302
-0.13960186 -0.10105114 0.10042686
-0.27864844 -0.2247492 -0.025206594
-0.087249 -0.09434932 0.15554146
0.05545137 0.007270043 -0.0007234474
-0.24448378 -0.015816035 0.053570118
0.03473078 0.056722656 -0.047498915
0.25260678 0.15140058 -0.106484376
0.08431023 -0.001826743 0.043102562
-0.117422245 -0.09187635 0.13660936
0.08889787 0.06835217 -0.019320691
-0.24836867 -0.26576594 -0.10209052
-0.1274139 -0.046414327 0.12500349
0.07463477 0.0710301 -0.045873206
-0.14265361 -0.1275414 0.13394402
0.16223618 0.10174974 -0.034106545
-0.10937212 -0.18636736 0.1345167
-0.05352057 -0.2881971 0.034116566
0.2947261 0.27186605 -0.037148383
-0.07999023 -0.18230882 0.11381374
-0.27762222 -0.11643856 0.11130695
-0.22696605 -0.14805412 0.18560532
0.13023593 0.1655191 -0.019445656
0.2939811 0.19941223 -0.106370814
-0.24299906 -0.12092564 0.20496921
0.0059300684 -0.050856635 0.015271291
0.1390975 0.13174564 -0.05759446
0.20534144 0.16770123 -0.030702092
0.3156981 0.17518745 -0.18394226
-0.21449775 -0.14465402 0.12872517
-0.117664866 -0.07614348 0.1538576
-0.22724691 -0.27622187 -0.010157909
0.143502 0.03755343 -0.16394287
0.155666 0.19566478 -0.11236659
-0.08790062 -0.03875234 0.068678886
0.10489917 0.047351316 -0.116319075
0.05520916 0.08183052 0.056298696
-0.24198516 -0.058245406 0.05359496
-0.3148463 -0.09759668 0.037989594
-0.123409815 -0.15523088 0.14070436
-0.1481223 -0.18870789 0.11292691
-0.042522922 -0.21890813 0.0957112
-0.051271234 -0.03344496 0.06931662
-0.20381261 -0.24370241 0.047467094
-0.06499476 0.06575577 0.006297247
-0.34481892 -0.13891256 -0.06799007
0.07105421 0.14026529 -0.08162432
0.14909643 0.17257318 -0.14980416
0.19524129 0.2704044 -0.06536971
0.13978691 0.19926266 -0.025985304
0.12372641 -0.006628905 -0.06483704
-0.1601342 -0.11761133 0.091358356
0.25720346 0.1603241 -0.0586981
-0.14360872 -0.276368 0.09940486
-0.08045007 -0.09684151 0.10347764
-0.06856384 -0.09255086 0.049876496
0.1396416 0.094264485 0.01427459
0.1563322 0.30126467 -0.09735609
-0.24261144 -0.14920633 0.02626795
0.11194383 0.21300519 -0.09908701
0.024742072 0.03324204 0.02629111
-0.1991798 -0.24701485 0.1560809
-0.19231239 -0.2670581 0.11442759
0.11885452 0.12348023 -0.07974678
-0.05875336 -0.18196885 0.015361182
-0.09457298 -0.058728777 0.09021748
0.3091562 0.16184478 -0.040105708
-0.22062272 -0.1644463 0.14368401
0.22405918 0.1272648 -0.091432944
-0.29901776 -0.19512266 -0.08818229
-0.11857025 -0.13809621 0.13767749
-0.096080005 -0.08591984 0.06284276
-0.09799453 -0.139737 0.10047915
-0.15469402 -0.10721063 0.092430085
-0.2457562 -0.0098610455 -0.040097095
-0.1302294 -0.21761636 0.1277859
-0.2672083 -0.17616345 -0.031914648
-0.022455484 -0.05675281 0.07852259
-0.18567564 -0.21696551 0.10809191
0.34636444 0.2708252 -0.10591983
-0.06070856 -0.19780448 0.12581742
-0.14133368 -0.26377967 0.1078014
-0.10896904 -0.12185375 0.061042167
0.07530706 -0.06771681 0.016525473
-0.025138136 -0.0038279332 0.007799844
-0.27777818 -0.17640854 -0.09120442
-0.061817393 -0.16031805 0.12454197
0.1769977 -0.053559087 -0.08464951
0.060512666 0.14210616 -0.056726024
-0.11640922 -0.16619237 0.13627222
-0.15653244 -0.047679745 0.14216548
-0.13701946 -0.022708738 0.13187072
-0.058371503 -0.228018 0.02277411
-0.086525336 -0.21764149 0.12590793
0.23574033 0.18970431 -0.0903182
-0.06732974 -0.17926162 0.038583774
-0.10705102 -0.03172306 -0.02432941
0.09168395 0.14738792 -0.12530279
-0.29371008 -0.0691956 0.10774637
0.2761237 0.26665124 -0.14158627
-0.10010163 -0.13815741 0.15124358
0.3092775 0.2627032 -0.046115134
-0.01848626 0.1731367 -0.12469817
-0.06289588 -0.13907734 0.074713446
0.12309633 0.17303355 -0.069323234
0.35466656 0.29675317 -0.049002
-0.20265175 -0.10785562 0.10768653
0.0938128 -0.040592153 -0.008635747
-0.1864852 -0.25994334 -0.03811006
0.053423084 0.017288443 -0.009448624
0.019775987 -0.030076865 -0.026540121
-0.16299818 -0.13617481 0.15858191
0.13750663 0.24665749 -0.060605396
0.18845533 0.11167148 -0.02824332
0.2993251 0.0987286 -0.059884857
-0.24986336 -0.059603002 0.10030784
-0.07395484 -0.07460053 0.010815634
-0.1072039 -0.09702678 0.16639794
0.102942884 0.003797387 -0.010200043
-0.18910201 -0.07828674 0.11877204
-0.02186389 0.008107828 -0.002572002
-0.11548259 -0.2778443 0.13138027
0.14659038 0.17341778 -0.048450027
0.08458202 0.040970787 0.03509072
0.079904035 0.08148153 -0.0060629565
0.15576287 0.21417464 -0.12928647
-0.16173917 -0.2994825 0.04757624
0.17807685 0.23842975 -0.092183456
-0.0038893085 0.062083706 -0.049246594
-0.13242775 -0.28116176 0.04971416
-0.2299906 -0.18651554 -0.094287075
0.005397997 0.08432805 -0.04475499
-0.28886697 -0.09743663 0.12674688
-0.006365294 0.07882071 -0.033900816
-0.08203773 -0.05246139 0.131195
0.07011725 0.057927176 0.019596266
-0.3025673 -0.14808783 0.14458309
-0.20004678 -0.04334002 0.12456306
-0.10343938 -0.17487079 0.16184035
-0.22028486 0.019088605 0.07865823
-0.017596954 0.06594682 -0.0014242473
-0.121773794 -0.20584716 0.09828197
0.062158693 0.17590882 -0.08871238
0.24569279 0.20275481 -0.09288487
-0.07767567 -0.28797942 0.03721638
-0.05917465 -0.13795114 0.08295242
0.12225886 -0.018036453 0.008481958
-0.17121024 -0.27936557 0.04146371
-0.048169497 -0.17779545 0.034704383
-0.19037165 -0.17705241 0.10902282
-0.061664473 -0.015750078 0.13523012
-0.1887562 -0.16042905 -0.121601366
-0.04452141 -0.15212253 0.12371663
-0.18095914 -0.07116625 0.080182284
-0.08930687 -0.1661389 0.16089976
-0.13900024 0.050252035 0.021906974
0.28839323 0.17114158 -0.1384299
0.15205267 0.057757504 -0.14242193
-0.13790645 -0.285978 -0.014205154
0.029065114 -0.063816145 -0.015891783
-0.1611594 -0.07410351 0.13142963
-0.01656791 -0.19574301 0.026413556
-0.022643635 -0.06321929 0.034090295
-0.14887096 -0.20797315 0.10384066
-0.09243312 0.02240325 -0.043968905
-0.00417647 0.045865025 0.05129442
-0.063237734 -0.020855438 0.009792757
0.17722061 0.22781534 -0.12482232
0.01151432 0.013762177 -0.006878926
-0.007071369 -0.06672054 0.072374575
0.057623174 0.11851152 0.015249594
-0.0048907306 -0.16147123 0.10398675
-0.1885811 -0.1371749 0.14818347
0.17269368 0.2513092 -0.11352455
-0.17833361 -0.21550767 0.11272017
0.058473457 0.0016191964 0.018659102
0.31269094 0.15683791 -0.16639806
-0.102621175 0.013409583 0.013054025
0.049056027 0.17915614 -0.001595624
-0.0020631556 -0.038110916 0.0839605
0.21281567 0.276923 -0.11030685
-0.20511681 -0.07222032 0.08471856
-0.11552861 -0.028772209 0.08824991
0.2502018 0.13741378 -0.07740822
-0.18467313 -0.10581604 0.13639328
0.24423145 0.18127394 -0.04392138
0.1810078 0.19791946 -0.043549776
-0.08481484 -0.031105684 0.13750699
0.22115998 0.20818304 -0.043559544
0.19915947 0.20402451 -0.08150419
0.20982501 0.24458475 -0.03261322
-0.2523342 0.0013203938 0.020935657
-0.20271091 -0.1420728 0.14368242
-0.06589032 -0.20226452 0.044837136
0.13976133 0.06964445 -0.030999957
0.049780946 -0.085209884 0.023912461
-0.10242696 -0.2401906 -0.06877732
-0.1478998 -0.2581344 -0.055425555
-0.21351764 -0.022794215 0.008548866
-0.2162951 0.050085522 -0.012589716
0.22201687 0.32640114 -0.1395587
-0.24459454 -0.11119623 -0.04779321
0.34326 0.2740508 -0.06344919
-0.29773146 -0.12787616 -0.035631023
0.3010873 0.250753 -0.09380871
-0.05281581 -0.058893807 0.0022455216
0.37678838 0.2708203 -0.1381953
-0.16429365 -0.18349838 -0.012779866
0.028128505 -0.10423576 -0.008336679
-0.24431139 -0.09849475 0.17874216
0.25184163 0.32649267 -0.1354321
-0.17336403 -0.21793851 0.050623048
-0.29369715 -0.039566692 0.08323513
0.19380634 0.22407484 -0.101838686
-0.23528233 -0.12660511 0.1890069
-0.11110926 -0.12728134 0.17969619
-0.17889927 -0.23980506 0.11465945
0.05431265 0.040677845 -0.01714048
-0.086410455 -0.13313675 0.1308274
0.031163633 0.10667502 -0.07003758
0.10990831 0.15698525 -0.022511667
0.21721579 0.06494348 -0.075674556
-0.064033166 -0.07216455 0.052801397
-0.049517862 -0.04694219 0.033282448
-0.07212442 -0.17158417 0.09811157
-0.1312611 -0.12196386 0.11940432
0.29900596 0.2052057 -0.1378626
-0.15946923 -0.27025774 -0.07899752
-0.25696257 -0.2343965 -0.039721902
-0.21079133 -0.23023686 -0.060115222
0.24305257 0.20066544 -0.053332582
-0.0085319765 -0.024620162 0.08095543
0.10522318 -0.01607451 -0.039026655
0.31042036 0.1906331 -0.18170498
0.019004984 -0.04870483 0.043953873
0.18575285 0.11902425 -0.119464636
0.13221478 -0.0012287925 -0.003881999
-0.26001704 -0.1418989 -0.0184187
-0.13469703 -0.24551491 0.11359512
0.35005787 0.2789565 -0.12729199
0.18653068 0.23391107 -0.17745678
0.07252061 -0.05923515 -0.033756837
0.020983785 -0.045505773 -0.005274209
0.09035511 0.114879034 -0.016738165
0.042735144 0.06816874 0.005801581
-0.01617507 -0.021094892 -0.017140122
0.14225721 0.09403605 -0.0057109464
0.26649827 0.12276852 -0.031996638
0.17985143 0.1090112 -0.094391726
-0.064615555 -0.019236054 0.08611805
-0.21421042 -0.08855636 0.13128754
-0.113487706 -0.08397778 0.1383277
-0.028408755 0.12209118 -0.07641599
-0.21047673 -0.036009956 0.095208146
0.3500484 0.13062553 -0.13647014
-0.04760775 0.036157686 0.021124875
0.13817523 0.21688347 -0.056910124
-0.2702453 -0.1297964 -0.10899613
-0.28993484 -0.08520019 0.09355342
0.20556058 0.14708069 -0.10806655
-0.1669345 -0.24608156 0.04926436
0.06113212 0.06081741 -0.02718754
-0.026551219 -0.04894551 0.13098252
-0.1075012 -0.29773405 0.07678244
-0.15903708 -0.096367896 0.1015709
0.08517521 0.039536476 -0.0013268107
0.0863422 0.12654775 -0.07402533
-0.014873168 0.004364414 -0.02461961
0.26516947 0.2803615 -0.14231436
0.1832033 0.1966035 -0.028439857
0.18527481 0.15891974 -0.06660995
0.14594938 0.23433937 -0.0951776
-0.01416721 -0.1271321 0.027486818
-0.19103524 -0.27041537 0.06217858
0.298869 0.22063087 -0.050343625
0.16861759 0.18750589 -0.12071737
0.03933283 0.0589467 -0.041170456
-0.24694729 -0.04495055 -0.052221224
0.24231642 0.25846216 -0.11930427
0.016816594 -0.035136577 0.025065744
-0.24278006 -0.13758369 0.15016362
0.33504215 0.27934825 -0.22196841
0.22427185 0.057739228 -0.0534439
0.15101795 0.19848716 -0.03674331
-0.1588277 -0.2599408 0.06455523
-0.16353466 0.023771636 -0.08575649
0.07760154 0.10359062 -0.11073964
0.23327588 0.16224906 -0.048337437
-0.12040497 -0.09589627 0.13032655
0.12172001 0.18147273 -0.09871343
0.09757843 -0.04255777 0.035336103
0.27419102 0.18461949 -0.085647464
-0.28417578 -0.10576884 0.09606012
0.15550329 -0.0028943797 -0.033662688
-0.034543842 -0.057683393 -0.011623186
0.29710513 0.105031826 -0.1168331
0.07836489 -0.01358033 -0.0888152
-0.26117572 -0.062086865 0.10323094
0.08481044 0.11419399 -0.048030984
-0.22145121 -0.11185737 0.1429608
0.048701547 -0.055623636 0.035826653
-0.044212446 0.03703297 -0.0039043187
-0.0891896 -0.015356762 0.017135732
-0.05202053 -0.038204838 0.037574057
-0.23207492 -0.03843987 0.11196497
-0.15789433 -0.076253325 0.112769976
-0.26036364 -0.12679495 0.13068332
0.16855893 0.119108416 -0.06699784
-0.2050921 -0.15728875 0.11699544
-0.25811642 -0.26711762 -0.062469963
0.2738311 0.1473032 -0.029989462
-0.26429722 -0.06232642 0.05752927
0.18935622 0.23643266 -0.048326552
0.307807 0.17205757 -0.15090139
-0.25113508 -0.017332941 0.024876636
-0.17045067 -0.2499288 -0.015550801
0.020182256 -0.019162877 0.06045072
-0.21778095 -0.30214044 0.0025149372
0.022555033 0.04228006 -0.0074978033
0.025214735 -0.07856481 0.01219924
0.30233222 0.15915106 -0.054921765
-0.175921 0.031269528 0.0075240238
-0.19179137 -0.25345576 0.06492333
0.29158673 0.17296726 -0.099549614
0.12845786 0.0065804073 0.042937215
-0.056530155 0.03628197 0.0035567633
0.0886915 0.02846823 0.02400067
0.10818606 0.15735559 -0.056743905
-0.27133837 -0.15447205 -0.04218311
-0.026116604 -0.12872823 0.14374028
-0.1750164 -0.011184173 0.104058236
-0.33717588 -0.016390774 0.010578806
0.11282497 0.19536296 -0.018926851
-0.18846107 -0.14929685 0.1736285
0.005989375 -0.12235398 0.0130242035
-0.2083325 -0.037236866 0.110137135
-0.1508076 -0.010874865 0.16181812
-0.13981542 -0.034530945 0.08133802
-0.044186093 -0.17533863 0.119886525
0.25896442 0.1718219 -0.06509842
-0.05540386 -0.17221509 -0.01584441
-0.13430355 -0.19953187 0.12124592
0.2063579 0.1380545 -0.11643639
0.33613846 0.13473979 -0.12853393
-0.14936155 -0.26940218 0.090382814
0.07297123 0.05693363 0.044665094
-0.08750782 0.012964712 0.029287122
-0.0800799 0.027461018 0.024158696
0.23259023 0.17833436 -0.06268386
0.0984905 0.03474105 -0.014259012
0.27174747 0.19992045 -0.050406307
-0.22570314 -0.22946005 0.0011579006
0.25132796 0.040848676 -0.07832602
-0.30307734 -0.0795479 0.06992842
-0.20875996 -0.13921462 0.14274809
-0.064180136 -0.22398269 0.07428787
-0.13075592 -0.11186959 0.17049819
-0.21894257 -0.1348125 0.16698968
0.18597099 0.0594346 -0.07273819
-0.025971385 -0.13094045 0.11553092
-0.29548422 -0.15291503 -0.087179385
-0.18396097 -0.043938667 0.10488197
0.07559782 0.07368755 0.015265364
0.016329503 -0.14478266 0.019737182
0.19781569 0.32167673 -0.13954929
-0.2704783 -0.05656552 0.03570364
0.0037687737 0.041758172 -0.028255094
-0.16715997 -0.02198037 0.12919798
-0.08133126 0.0007606088 0.012165996
-0.24147734 -0.10481508 0.13547927
0.26005107 0.21200405 -0.09028004
0.07645106 0.16358271 -0.06947607
-0.12948301 0.0031334644 -0.0437776
0.25074586 0.17503862 -0.052651763
0.10560218 0.03292554 0.04875678
-0.011164549 0.10755164 -0.01832833
0.24033928 0.27350953 -0.14159954
0.053884696 -0.008357175 -0.07407118
-0.13208309 -0.042876966 0.15149666
0.23811282 0.18366547 -0.09187357
-0.2135255 -0.17641522 0.1265481
-0.111698024 -0.042499453 0.08238051
0.09643858 0.15390715 -0.11156621
-0.07398098 0.032553807 -0.07704964
0.2448912 0.19395453 -0.105029
-0.1427425 -0.11268939 0.1626325
0.23505333 0.25531727 -0.2305607
0.1961871 0.067034654 -0.08018434
-0.08614402 -0.2342997 0.13666527
0.20111299 0.17908418 -0.037122104
0.2810355 0.15650374 -0.095698215
-0.051244423 -0.17843851 0.016847042
0.11936888 0.17001073 -0.092392534
-0.0014256012 -0.06280539 0.07310715
-0.122734986 -0.2623053 0.052675538
0.14207387 0.02185872 -0.03405078
-0.28217843 -0.10212215 0.1539236
0.31235564 0.22366148 -0.18831944
0.03248169 0.016929694 -0.039710976
0.2555992 0.22185767 -0.093688555
-0.02145628 -0.058286954 -0.015303533
-0.15810756 0.008458686 0.12740211
0.15870154 0.01891899 -0.045626473
-0.2293256 -0.28059915 0.05536703
-0.2996659 -0.14268635 0.12700585
0.21184033 0.12606815 -0.05348689
0.13137782 0.064238004 -0.011542523
-0.06424161 -0.046381313 0.006987342
0.31548592 0.30825967 -0.08797201
-0.25349694 -0.04983051 0.11078843
0.36982006 0.2111934 -0.18790935
0.13049659 0.1940821 -0.04655114
-0.22691248 -0.00901711 0.08776631
0.1688266 0.22490692 -0.1286226
-0.018770818 0.012553707 -0.0392234
-0.0020637694 -0.023042748 0.033137403
0.24623999 0.095748805 -0.14592385
0.27981836 0.18447025 -0.092212565
-0.04382523 -0.11813619 0.025608828
0.029857682 -0.026272608 0.009218861
0.0030081614 0.050119556 -0.037270878
0.15158479 0.10736882 -0.046238124
0.07994534 0.10660302 -0.010179544
-0.16395804 -0.017846176 0.06469579
0.10786051 -0.00030448195 0.002276316
-0.03712469 -0.083693534 0.009511292
-0.3331324 -0.07547795 0.044411793
-0.14040837 -0.24503136 0.07842637
0.21331677 0.18060727 -0.036607362
0.058437612 0.030531859 0.012251472
-0.089667134 -0.00018307705 0.035366014
0.21675682 0.25297183 -0.16392344
0.22257139 0.12542093 -0.015579704
-0.2838442 -0.15920569 0.18685353
0.27513203 0.06482853 -0.14288235
-0.16349794 -0.20519596 0.09777221
-0.22230916 -0.20370907 -0.0504604
-0.21978346 -0.15739954 0.17048872
0.21610992 0.2769082 -0.120948814
-0.25465083 -0.19623855 -0.0068204664
-0.15600167 -0.09660844 0.17598478
0.004875629 0.028526593 0.0011812432
-0.13931794 -0.015538944 -0.01662799
0.19283049 0.15358639 -0.027892811
-0.03221217 -0.026647532 0.0155556835
0.16337483 0.14318325 -0.061665524
0.025214413 0.013900493 -0.018338388
-0.17295001 -0.03541279 0.059065435
0.33443096 0.13228911 -0.15546176
-0.29173592 -0.09487516 -0.008019283
0.29243097 0.17112957 -0.150229
-0.10769575 -0.08344284 0.021767758
-0.105416544 -0.072371304 0.16043013
-0.087780945 -0.24473526 0.09690039
-0.09684373 -0.017251449 -0.06329695
-0.094011165 -0.096032985 0.0936766
0.10689471 -0.010856501 -0.04906703
-0.22319663 -0.08446555 0.11682306
0.06075396 0.12169063 -0.018252341
0.008593522 0.14270161 -0.07208765
0.11243001 0.057783708 -0.005508597
-0.19896343 -0.14585917 0.13054046
-0.18145785 -0.25711432 0.030176487
0.041132975 -0.08304378 0.059064344
0.025571281 -0.028696137 -0.027495887
-0.038038407 -0.02540517 0.030596107
0.10721559 0.24023646 -0.08347522
0.2944302 0.21551834 -0.07153214
0.015419603 -0.12093712 0.0733627
0.076899886 0.16097218 -0.083760776
0.29542387 0.10670773 -0.07848143
-0.09567756 -0.28725147 0.013094442
-0.14241017 -0.015615656 0.114972934
-0.14575134 -0.2413312 0.13248871
-0.016085021 -0.087237254 -0.022554936
-0.116445735 -0.17099111 0.14817344
0.2513601 0.031292416 -0.16451018
-0.056403678 -0.1062952 0.068284765
-0.17579062 -0.15480205 0.12518968
-0.20439972 -0.19582948 -0.1063745
-0.036612526 0.013135749 -0.022505673
0.19132607 0.19414292 -0.09453213
0.22767542 0.24295062 -0.105607435
-0.23038055 -0.13391896 0.12649095
0.3134648 0.22429875 -0.2085954
0.16521193 0.06982843 0.008993683
-0.15053211 -0.23410875 0.07116545
-0.25595096 -0.13153681 0.13698108
0.0012486111 0.0010077159 -0.016448362
-0.30974403 -0.13932396 0.06741407
-0.10111685 -0.26673266 0.067553714
0.11543445 0.019778825 -0.014213316
-0.07823171 -0.053078286 0.07393862
-0.032122355 -0.13302428 0.041014016
-0.23354506 -0.19552787 -0.054651525
-0.16408196 -0.09169339 0.071001634
-0.010261679 0.075935595 -0.072455615
0.17961596 0.05863482 -0.0489283
-0.08523165 -0.18693182 0.024280224
0.27836302 0.21552971 -0.094945714
0.28347543 0.2850611 -0.13304874
0.13903534 0.0004936456 -0.015201389
0.056478675 -0.074538186 -0.035020832
0.025881208 0.049294647 -0.021635745
-0.21851371 -0.11526976 0.18964002
-0.14689882 -0.01012248 0.11121655
0.2075963 0.23008192 -0.106111914
-0.25685444 -0.03476936 0.08137824
-0.24012867 -0.1623489 0.12620024
-0.17832302 -0.08164891 0.12284486
-0.172083 -0.017596364 0.14570837
-0.17163943 -0.09726513 0.13532205
-0.17463864 -0.050460108 -0.039878
-0.14681455 -0.03963426 0.09398238
0.14740421 0.28686884 -0.13443013
0.2526972 0.14980178 -0.06252795
-0.056916673 -0.08512198 0.064431086
0.11685723 0.20502107 -0.042647976
-0.34040105 -0.11076545 -0.040010843
0.3613636 0.2170089 -0.13591877
0.24648602 0.04850359 -0.10711839
0.31396645 0.11957302 -0.12617604
-0.062512845 -0.26383865 0.047600236
0.36325824 0.10636899 -0.16477782
-0.10711216 -0.16969381 0.13860072
0.27996218 0.116103135 -0.07392311
-0.29935974 -0.033908196 -0.01792545
0.10273722 0.051284023 -0.052785333
0.11866175 0.015282864 -0.025240589
-0.18462846 -0.24076858 0.022583459
-0.20110726 -0.14072159 -0.076972954
-0.21094503 -0.14836805 0.17016445
0.04934832 0.07517627 0.0165987
-0.055061404 -0.17608143 0.049893018
0.11900965 0.022555139 -0.0053819404
-0.21815133 -0.18698925 -0.06801148
-0.043342747 -0.0130794 0.02411336
0.06766565 0.10993635 -0.025292411
0.114444785 0.16380759 -0.016543625
-0.26208058 -0.02323315 0.11358997
-0.12708604 -0.08372289 0.16639876
0.09252225 0.04723857 -0.020422699
0.15706274 0.21477935 -0.027909994
-0.13181402 -0.2319587 -0.07152303
0.03740475 0.063169315 -0.1166985
0.03844231 0.0015194002 0.019095428
-0.157466 -0.14457197 0.1455705
0.13957964 0.18255931 -0.0991084
-0.074343644 -0.02415746 0.15317151
0.25980833 0.12606806 -0.11342526
-0.14316389 -0.26282436 0.05038502
-0.06428128 -0.1268006 -0.0064857667
0.28545365 0.19078411 -0.06008139
-0.2754056 -0.07707058 0.054117117
0.3047389 0.21777941 -0.06897384
-0.27649376 -0.06550826 0.088136494
0.27307516 0.12331271 -0.06925934
0.067829885 0.010125768 -0.010157863
0.119989425 0.1432275 -0.118708685
0.27784646 0.2113562 -0.07752731
0.12547809 0.19097938 -0.058277983
-0.19960056 -0.22744963 -0.066116415
0.05248271 0.16200669 -0.13709699
