# .PCD v0.7 - Point Cloud Data file format
VERSION 0.7
FIELDS x y z
SIZE 4 4 4
TYPE F F F
COUNT 1 1 1
WIDTH 1000
HEIGHT 1
VIEWPOINT 0 0 0 1 0 0 0
POINTS 1000
DATA ascii
-0.18810198 0.01629135 0.046088684
0.05684199 0.03583293 0.044300843
0.30470946 0.14759937 0.047374554
0.22536498 -0.012718326 -0.0070316843
0.1634239 0.19472028 -0.036252186
-0.20695981 -0.117010765 0.07409019
-0.33881336 -0.11809384 -0.1512801
-0.1673879 -0.032878887 0.09130819
-0.2769355 0.0020589065 0.02566885
0.15525357 -0.018584857 0.02994926
0.43391305 0.15285172 -0.056210376
0.03070855 -0.092313245 -0.09090762
-0.15972435 -0.082713805 0.12622352
-0.2280267 -0.01921339 0.10057963
-0.02303491 -0.017154478 0.05199847
0.39880642 0.12602983 -0.088794
-0.15830846 0.045866914 0.03264662
-0.047881603 -0.058387637 0.019068405
-0.15440261 -0.04293186 0.015206008
-0.018529313 -0.0022599762 -0.0117469495
-0.109560736 -0.008592737 0.013744833
-0.2171777 -0.22444148 -0.0015983066
0.25421557 0.013437159 0.005162212
-0.23103663 -0.24200785 0.0009792801
0.28695548 0.21534444 0.028002372
0.18470529 0.056198914 -0.020060198
-0.3729532 -0.03476838 -0.019296106
0.21670306 0.1485688 0.0061077746
0.033765193 0.031981077 -0.012321346
-0.12051318 0.009045621 0.059322525
-0.009344666 0.013314917 -0.023264453
0.03284649 0.14477359 -0.05533776
0.26808235 0.19593954 -0.0458305
0.18055616 0.18883972 0.029899858
0.061809145 0.05101794 -0.02813492
0.13470861 0.13471186 0.057475075
0.3191387 0.09504278 -0.11848267
0.3015346 0.12127093 -0.0407187
-0.24909581 0.016514847 -0.055058166
0.44091097 0.04347851 -0.06521536
-0.22091521 -0.12218283 0.10720167
-0.053487547 -0.04042195 0.041658007
-0.26197305 -0.14407238 0.099672005
0.065781504 -0.06965213 -0.028621046
0.3780094 0.23390907 -0.00848408
0.3077894 0.14631665 -0.0423862
-0.105118364 -0.19110592 0.0066715186
-0.2787458 -0.1449722 0.037278768
-0.12309574 -0.10394499 0.054514475
-0.15836091 -0.16652462 0.004995925
0.25368106 0.11591864 -0.013174285
-0.29765075 0.05393449 -0.006876809
-0.34426984 -0.21156637 0.022766087
-0.0336546 0.026658583 0.022811443
-0.18540096 -0.060399033 0.10613648
0.2832221 0.08473714 0.045988966
-0.27839 -0.23893705 -0.09948711
-0.0012824202 0.042955358 -0.006477867
-0.26737595 0.0047498 0.05958576
0.037843022 0.0810947 0.043002248
-0.34207192 -0.14596617 0.018844502
-0.103987046 -0.09949212 0.026038555
-0.21458018 -0.12227898 0.10142872
-0.12383045 -0.04729735 0.12230724
0.119065866 0.115312055 0.032556586
0.43465275 0.15753528 -0.014801577
-0.2209513 -0.080534175 0.06875965
0.19266807 0.18742412 -0.007053042
-0.12089988 -0.15823081 0.06993185
0.08750286 -0.043837924 -0.050811615
-0.098185495 -0.13459052 0.095654085
0.044097774 -0.049987502 0.034239054
0.4093163 0.17533423 -0.11672679
-0.16875447 -0.17380539 0.09493921
0.24246709 0.18722875 -0.14188738
0.1811395 0.028181285 -0.04079265
-0.3114105 -0.05490473 0.112463914
-0.038562544 -0.097978644 -0.00800498
-0.23408873 0.00092001085 -0.0725786
-0.1534185 -0.04529724 0.01617085
0.38061658 0.16405223 0.0012193338
0.39884233 0.24794231 -0.023068639
-0.118636064 -0.055700134 0.011468325
0.20755962 0.084022716 0.028139371
0.111268274 0.12126952 0.033304308
-0.19148217 -0.13310035 0.039172888
-0.33199477 0.01582205 -0.06309478
-0.16279651 -0.0064701806 0.003124263
0.16967995 0.058080353 0.020807361
0.09497928 -0.03408412 0.016213506
-0.18609191 -0.2368792 -0.0775147
-0.15755112 -0.012056796 0.023756968
-0.27362713 -0.028792989 0.10600569
0.31504574 0.22441007 -0.022320878
0.16145472 0.029075732 0.03279612
0.19626401 0.12280668 -0.0075795096
0.11266648 0.09495337 -0.116607085
-0.07155106 0.09376949 -0.039749317
-0.27625766 -0.107752025 0.039833315
-0.075321525 -0.12598817 -0.039529428
0.34863776 0.07695837 0.018504111
0.28471375 0.16523027 0.01794526
0.22714856 0.14844508 -0.03247652
0.09943752 0.08324536 0.03698771
-0.35615626 -0.08249412 0.07601141
-0.2781476 -0.12451061 0.1003802
0.11472455 -0.020569118 0.015773356
-0.1841295 -0.22770765 0.07770735
-0.28034422 -0.23133142 0.04999736
-0.27091375 -0.080211155 0.10769276
0.4243654 0.13193697 0.017938185
-0.023270866 0.13296473 -0.068974465
-0.028977783 -0.0913555 0.0076406696
0.075176 0.15344691 -0.035614315
0.20001832 0.1482507 -0.022895284
0.20424074 0.037016112 -0.03870403
-0.0043843365 -0.080053486 -0.038470246
0.042602725 -0.067659736 -0.05159617
0.402919 0.1424614 -0.04066572
-0.093534626 0.0016042361 -0.0010955356
-0.30420107 -0.10002428 0.072774455
0.2496245 0.04470737 -0.015934234
-0.30986643 -0.11037426 0.06823326
-0.033062235 -0.12371087 -0.08008746
0.103642434 0.11301948 -0.036448244
-0.22938383 -0.12920912 0.1026102
0.4135466 0.09631661 0.0085800355
-0.23265827 0.011215533 0.068677805
0.34651232 0.089221284 -0.12581868
0.08473259 -0.005653606 -0.052535743
0.22755486 0.1114869 0.04946581
0.29066354 0.16569628 0.036981493
0.42831132 0.17195204 0.05140532
-0.043824464 -0.053103324 0.041114457
-0.39811146 -0.005068277 0.05317758
0.29100677 0.22915639 -0.04296042
0.13834175 0.102989376 0.017707258
0.2126317 0.09932281 -0.0052915476
0.20088695 0.023608757 -0.07169552
-0.141295 -0.09184866 0.060466696
-0.15873884 -0.03327847 0.027598182
0.3866521 0.1323274 -0.03634002
-0.25797638 -0.066269524 0.13071789
-0.058341954 -0.019632708 -0.0006671712
-0.15325476 -0.056509335 0.0045861984
-0.21362391 -0.272475 -0.04951587
-0.1681806 -0.044078533 0.057536826
0.353748 0.13945256 0.0067971456
0.24802852 0.124617144 0.034606215
-0.0029181114 0.0033214018 -0.013478328
0.19234212 0.21572255 -0.07250551
-0.2615568 -0.03576481 0.08901208
0.09082881 -0.0787193 -0.11602407
0.311427 0.22790182 -0.035020653
0.056657843 0.045624174 -0.008634853
-0.0069292015 -0.07533079 -0.04363655
0.01742181 0.10040509 -0.06137572
0.33251494 0.16669926 0.0011757304
0.28312805 0.02664786 -0.0062342277
-0.2835857 -0.07650172 0.08988321
0.28311196 0.09053728 0.043106813
0.114761226 0.05191429 0.002632408
-0.08741769 -0.12385153 0.027958376
-0.18936801 -0.22501619 -0.0053759627
-0.12632684 -0.13017333 0.0005687359
-0.30631587 -0.13817094 0.113904
-0.26219302 -0.10335161 0.092832275
-0.03722668 0.06655945 -0.016852766
-0.24764617 -0.28178388 0.08298151
0.16325161 0.16543326 0.046078786
0.35157865 0.14160083 -0.031079095
-0.02832581 -0.018782167 -0.0055146725
-0.31510282 0.028867166 -0.016633386
-0.3333585 -0.020361422 0.08228526
0.35090408 0.07230489 0.029486481
-0.314787 0.0025434382 -0.16751435
0.3586877 0.052618735 0.0154436845
0.0806792 -0.07474447 0.008292299
-0.26833886 -0.231754 -0.12060262
0.3049337 0.16624345 0.030198392
-0.27710977 -0.10613807 0.060439065
0.19307955 0.13814156 0.013136364
0.037509263 -0.08116275 -0.06447363
0.044591025 0.0998817 0.0608413
-0.25931385 -0.076477915 0.09874622
0.13198344 0.18139823 -0.071147814
-0.28553805 -0.0061209574 0.06766591
0.1284484 -0.032191537 -0.02611536
0.20145018 0.04163194 -0.012487288
0.11778772 0.07368616 -0.015669359
0.25973466 0.15065348 -0.015386817
0.35044178 0.15424486 0.03140805
-0.15910663 -0.07561761 0.036816068
-0.21278101 -0.20423158 -0.044358395
0.3825954 0.12845142 0.0025088424
0.11161204 0.08337796 0.0098713925
0.21328445 0.085015975 0.027961778
-0.24449913 -0.032484353 0.09377276
-0.17213154 -0.0869527 0.05044491
-0.24741215 -0.12646951 0.03901102
-0.3570125 -0.071214356 0.010112082
-0.18019389 -0.26251152 0.06261884
-0.2556049 -0.06711385 0.08703466
-0.30525348 -0.20529795 0.051691446
-0.19742487 0.0131449895 -0.064451605
-0.2559695 -0.09998302 0.09239857
0.40106854 0.21906272 -0.03179171
0.03643515 -0.00831034 -0.04192275
0.24959262 0.009616101 -0.0345953
0.06804665 0.08783435 0.032610875
0.22934371 0.02267325 -0.006180006
0.13065368 0.078295216 0.04481417
-0.0882757 -0.11507103 0.03702092
0.09713993 0.15241371 0.010789646
0.30649647 0.01353792 -0.09306201
0.13641003 0.15768842 -0.0053218734
-0.10216505 0.056593653 -0.006629078
0.41841567 0.0659516 -0.037171863
-0.2177688 -0.18081 0.103905916
0.025326801 -0.0863893 -0.042969532
-0.06014528 0.048856154 0.016358947
0.2666916 0.13916963 -0.038276054
0.028124385 0.06417301 -0.052634954
-0.18621536 -0.20634845 -0.04860759
-0.054174364 -0.12099152 -0.012808567
-0.11356706 -0.20693064 -0.03104711
-0.1228254 -0.083321646 0.017520051
-0.004222042 -0.07344317 -0.05160072
-0.028434046 -0.033784386 0.047954164
0.016812982 0.0012002478 -0.013280571
-0.13468722 -0.19570929 -0.032318577
0.17156431 0.15938717 -0.0077058086
0.10036015 0.18952104 -0.14088818
-0.2517645 -0.1359506 0.10329832
-0.3070117 -0.015053125 0.0016289421
0.2626589 0.09740824 -0.010376293
0.39025986 0.20795873 -0.027732946
0.08622291 -0.029475672 -0.028445318
-0.35644466 -0.10368705 -0.14975905
-0.24917713 -0.19503908 0.032855462
0.01946279 0.03587625 -0.022437433
0.29657575 0.13848898 0.049084514
-0.36704138 0.025494363 0.033124417
0.02991526 -0.05893211 -0.033235162
0.11998528 0.05621579 0.0068224883
-0.29064605 -0.09107252 -0.11323608
0.13653272 -0.01081134 -0.016650468
0.25727215 0.21768099 -0.07867212
-0.24805348 -0.11615091 0.066066235
0.17576483 0.13669524 -0.00081717205
-0.10582936 -0.072519675 -0.012650141
0.4099839 0.23843671 -0.17862397
-0.06662324 -0.0023960022 -0.0066495426
-0.069252566 -0.01337594 0.027939636
0.15452972 0.027431445 0.04689648
0.24270345 0.066503845 0.0027694227
-0.190015 -0.12825774 0.12365417
-0.16578348 -0.059783418 0.00022109658
0.22024694 -0.003981874 -0.1020672
0.09092875 -0.029043816 0.03325765
0.26569244 0.17642918 0.024532016
-0.12455208 0.005599724 -0.10795745
0.121097475 0.031865586 0.018766353
-0.37835318 0.04172178 0.006268731
-0.0929881 -0.15331322 0.019919854
-0.21345954 0.0024877258 0.10879923
-0.20243618 0.061549455 -0.0025203358
0.39086223 0.17331176 -0.012599508
-0.21575283 -0.10840075 0.051338177
0.06721589 0.013040258 -0.01613749
-0.26835975 -0.021512594 0.088861264
0.36887255 0.22145185 0.0075278156
-0.21540761 -2.9858526e-05 0.08592666
0.054302096 0.105539 0.02713635
-0.22251317 -0.1625222 0.029752871
-0.27416304 0.015788395 -0.068816364
0.30289918 0.114536405 0.010359651
-0.05684333 -0.11929051 -0.00517859
-0.31689012 -0.010471039 -0.014528499
-0.22995007 -0.12069613 0.05324704
0.3107246 0.17085296 0.02799708
-0.2806228 -0.17727372 0.065747716
0.30911115 0.07664446 -0.05068513
-0.13876921 -0.020853069 -0.027690124
0.46738553 0.14156078 -0.05851364
-0.04891476 -0.01985767 0.022151038
-0.18232676 -0.07754754 0.08324762
-0.27757856 -0.25007483 -0.0010434178
0.26317957 0.14573173 -0.010773085
0.43496248 0.10305314 -0.10342658
-0.32175595 0.0041024815 -0.0035137369
0.41997415 0.15901724 0.026199074
-0.013041259 -0.13195936 0.015206944
0.3918057 0.108618714 0.0014560956
-0.07352165 -0.14172088 -0.10977724
-0.037986938 -0.05660788 0.035916075
-0.0872338 -0.10887398 0.021034684
0.3742418 0.18580343 -0.01320988
0.28187716 0.031400725 0.011283048
0.3770119 0.18507978 0.016282488
0.10791932 0.013743865 -0.050587792
-0.15476885 -0.046297852 0.041712496
-0.21449682 -0.05995698 0.07374388
-0.2592407 -0.14381619 0.046542645
-0.1266855 0.007334186 -0.03037384
-0.3110203 -0.19944495 -0.13123448
0.39082578 0.24318582 -0.03668835
-0.2505904 -0.04546653 0.10636983
-0.2694724 -0.21055683 0.035950933
0.05353787 0.08859196 -0.034598853
0.16083845 0.16157229 -0.019954521
0.028109953 0.110024616 -0.078905836
-0.10656832 -0.25707555 -0.10380461
-0.014633812 -0.09558553 -0.03697988
0.06435901 0.04604807 0.04903905
-0.30387864 -0.16738853 -0.03593512
0.091417395 0.0055010403 -0.005863396
0.11744705 0.10843069 -0.082667395
0.04176322 -0.10932123 0.009113356
-0.2589408 -0.09501277 0.09396223
0.16521135 0.11289295 0.053113446
-0.35930553 0.022404661 0.045510795
0.04235044 0.051006667 0.059960518
0.029464142 0.010352714 -0.0012707615
0.2631041 0.08758107 0.056972884
-0.074143335 -0.045180067 0.06462088
-0.31950116 -0.032192957 0.0986565
0.3548666 0.15346453 0.03511901
-0.22259453 0.01707528 -0.011016738
0.19780087 0.017156716 -0.0903083
0.12036554 0.11806792 -0.043701407
-0.29871422 -0.06243884 0.07589131
0.09889342 -0.03704403 0.023947014
-0.03207149 -0.026267264 0.017742855
0.20608763 0.09873737 0.021193024
-0.17546831 -0.0049224454 0.08746201
-0.29458702 0.0030879052 0.042233538
-0.3002598 -0.03868618 0.0690741
-0.31750438 -0.075608544 -0.08393775
0.21163131 0.11451074 -0.04451616
0.24522926 0.05648484 -0.039410252
-0.10222845 -0.061027642 0.016032148
0.08484114 0.1551842 -0.043246716
-0.20254454 -0.11741343 0.0835777
0.30816248 0.22872077 -0.029232193
0.22694002 0.10606634 0.039971445
-0.19773003 -0.023374477 0.011104236
0.39926553 0.23029006 -0.0122681
-0.29189575 -0.24824546 -0.08044867
0.057548147 -0.073489055 -0.060917392
0.24912517 0.1495016 0.012513503
-0.21117106 -0.20638691 0.073160104
0.081006154 -0.02007531 -0.032676127
-0.33853316 -0.089738086 0.10599621
-0.050718907 0.05523752 -0.028201347
-0.24080005 -0.10742253 0.030276189
0.09138407 -0.062460028 -0.07566891
-0.071254276 -0.12992138 -0.0055382955
0.041695207 0.094736405 -0.031760518
-0.13222802 -0.10233732 0.115131564
-0.3239255 -0.17229153 0.07713416
0.3826689 0.2918674 -0.074121006
0.034581214 0.10483857 -0.020454342
-0.19264776 0.016440053 0.035738487
-0.075523086 0.047653712 -0.009391706
0.24033712 0.048831984 -0.04675712
-0.007936069 -0.04113333 -0.0130714355
0.25492188 0.06089331 0.00882928
-0.2162332 -0.06928814 0.09497026
-0.27532312 -0.19334973 0.06937448
0.29831183 0.09514754 -0.007799364
0.02642861 -0.019602248 -0.014542471
-0.17801902 -0.053587213 0.10686019
0.12513128 0.089585654 -0.008734827
-0.3118235 0.057838436 0.03290715
0.3577069 0.21017593 -0.09465029
0.411347 0.18493144 -0.046531316
-0.28229797 -0.12203014 -0.14992727
-0.06254321 -0.12582438 0.029245367
-0.12668021 -0.053352416 -0.018948838
0.21950404 0.06453245 0.028248647
0.06873001 0.04552518 0.033175338
0.060794864 -0.006204472 -0.054526884
-0.22506323 0.029419849 0.009217768
-0.29216895 -0.22646438 0.09833639
0.27672634 0.14631538 -0.058308046
-0.15425119 -0.20753397 0.024439896
-0.0033968522 -0.08361747 0.017414993
0.45694727 0.16467503 -0.053847067
0.18885686 0.07734258 -0.001145309
0.34895447 0.28227252 -0.05147526
-0.29465216 -0.0069346405 0.02687152
-0.16372755 -0.15240097 0.03268262
0.20504263 0.12489615 -0.013922099
-0.2719122 -0.16818033 0.086841695
0.39177915 0.20511419 -0.089599945
0.05877446 0.13521028 -0.08366538
-0.1011038 -0.06125058 0.0012387144
-0.123775475 -0.03774146 -0.021380203
0.2841411 0.20978044 -0.022604797
0.10852457 0.10309068 -0.018583504
-0.002428491 0.075315416 0.047809776
-0.10079872 0.017733237 0.056834575
-0.11457536 -0.12732568 -0.05733781
0.14070903 -0.032108415 -0.08811837
0.2872579 0.1060679 0.03878357
-0.2977553 -0.23992763 0.07682052
-0.19688118 -0.20482413 0.02561925
0.07358115 0.121579014 0.02280686
-0.06950226 0.03383905 0.046375815
-0.21530448 -0.22900754 0.0020866643
0.013932397 0.031242222 -0.024851168
-0.07549065 -0.057700846 -0.031950347
-0.04877439 0.081986554 -0.00028216685
0.0036392063 0.027586035 0.05017665
-0.18346249 -0.18961787 0.06405026
0.3381597 0.15967374 0.050229054
-0.21073492 0.036712497 0.008944927
0.34561598 0.059699226 -0.07153776
-0.22762679 -0.3067433 -0.042272367
0.33507288 0.21682581 -0.04108512
-0.21197285 -0.07485886 0.11651985
0.097373225 0.018510032 -0.03654163
0.14938432 0.14004447 -0.029031642
0.34861025 0.09012559 -0.024473501
-0.054524206 -0.20244534 -0.02910134
0.33173126 0.20457684 -0.00028624124
-0.21046057 -0.13136058 0.039776396
-0.028244976 -0.048443403 -0.030552788
0.10066594 0.12629676 0.0005193891
-0.11794096 -0.05473631 -0.009525429
0.05482163 0.14855303 -0.015581345
-0.15901062 -0.13248217 0.09125452
-0.1794213 -0.01701406 0.06967266
0.04853047 -0.08589553 0.013180208
0.07310492 0.0074114655 0.0054628826
-0.3513225 -0.16323075 -0.18836103
0.20570797 0.1864566 0.020516083
0.0038989512 0.037057236 -0.011686916
-0.14129283 -0.118092164 0.02264005
-0.20696928 -0.17704634 0.00994474
0.30485559 0.071631335 -0.043544356
-0.27830574 -0.15515293 0.078198686
-0.08323587 -0.031755608 0.055623807
-0.19691898 -0.15476541 0.049420778
-0.23366214 -0.1844836 0.07944267
0.34481654 0.08311275 -0.030154664
0.17161866 0.05610471 -0.016625028
-0.2283681 -0.073505506 0.051583916
0.37573126 0.13322942 0.050669126
0.3592519 0.2046161 -0.11128429
0.39574677 0.14479637 -0.015039633
-0.16738532 -0.08194866 0.093751706
0.22464655 0.1056012 -0.0021846595
-0.08280542 -0.024147913 0.046909183
-0.28199306 -0.036869828 0.051633652
0.12170746 0.11251342 0.03156892
-0.21541512 -0.08834291 0.108122304
-0.22617425 -0.092439525 0.12937249
-0.1511611 -0.08304713 0.06154781
-0.26221362 0.03563524 0.04421173
-0.18060578 -0.2719316 -0.074247904
0.1971901 0.11799235 -0.03680841
0.0663016 0.04489518 0.030724134
0.028049653 0.0989279 -0.022514595
0.1763824 0.024082085 0.011731512
-0.006577469 0.0041817236 0.035231024
-0.1263 -0.23209552 0.069537945
-0.17051259 -0.21792093 0.005923264
-0.10338885 0.02393566 0.0010416126
-0.35758278 -0.17894927 0.043518815
0.11016083 0.01285237 0.04273581
0.1401459 0.015989516 0.023690669
0.15483187 -0.058426812 -0.12381833
-0.22610253 -0.030770803 0.06297559
-0.13053016 0.031820327 0.027190093
-0.32678863 -0.086334825 0.061429143
-0.30027702 0.037107382 0.015648229
-0.2960971 0.011409741 0.007549585
-0.37417585 -0.04599079 -0.018590095
0.29090673 0.16320686 0.0058607096
0.14093219 -0.04512357 -0.0057998025
0.26670998 0.21807264 -0.053770274
0.31774136 0.05957119 -0.023692526
-0.34528834 -0.084429644 -0.06994671
-0.005020536 -0.03173599 -0.0054245847
0.2842217 0.1940307 -0.01807561
-0.28270248 -0.18519416 0.089922935
0.15934527 0.0027552908 0.003692403
-0.2885833 -0.19610287 0.024417793
-0.15900421 -0.186345 0.10803518
-0.13579974 -0.0712737 0.10683162
0.06229621 -0.016195739 0.05546732
-0.1782416 -0.15105352 0.07262436
-0.11873953 -0.18007612 0.06701439
-0.15107994 -0.14568408 0.113283984
-0.22415465 -0.27360728 -0.07785219
0.27909794 0.14652519 0.02806311
0.31145212 0.08135376 0.036977742
0.3816572 0.1002782 -0.05199086
0.4639317 0.12649797 -0.00372154
0.25379598 0.12368551 0.04084556
-0.29244116 0.095801674 -0.09436912
-0.056352098 -0.026601262 -0.0012447673
0.16649981 0.07921464 -0.03689172
0.16085783 0.1253238 0.0399476
0.11112903 0.086313054 -0.06765502
-0.24249391 -0.08316488 0.06608254
-0.28766125 -0.12089003 0.051631887
-0.13845047 -0.05543347 -0.007935661
-0.31178856 -0.10129379 -0.20429076
0.025151392 0.013545474 0.04344712
0.3017853 0.21648368 -0.051019333
0.016042944 -0.017290732 0.057889413
-0.19783215 0.038196005 -0.011049582
-0.2654714 -0.066053 0.064133525
-0.13469349 -0.17827651 0.077973
-0.078052975 -0.108030595 -0.01848502
0.17159513 0.10728221 -0.009670448
-0.24056977 -0.04689096 0.081634596
0.28568092 0.13026252 0.027804986
-0.25665638 0.0895706 -0.0067517594
-0.2582723 0.012725749 0.055853214
-0.33051163 -0.11376502 -0.14591542
-0.33115014 -0.055626784 -0.04917292
-0.29026893 -0.08347662 0.01924665
-0.21164554 -0.23246334 -0.07526897
-0.23812631 -0.23873445 0.015037846
0.28433314 0.19205144 -0.03262127
-0.10888633 0.04627756 0.03840417
0.16353458 0.047137126 -0.029870082
-0.19549362 -0.1406591 0.033399247
0.349074 0.19654547 -0.026976496
0.04785794 0.04903565 -0.0076160934
-0.24260883 -0.25872713 0.009380317
-0.0031516866 -0.11550881 0.019886337
-0.25992382 -0.27158228 0.0026386261
0.30562383 0.090880096 -0.007751268
0.29949564 0.090409435 0.021497943
0.07795081 0.12512802 -0.04184894
-0.28210595 -0.11362719 0.110579
0.38011017 0.20038624 -0.015800266
0.29602474 0.14818893 0.043061126
0.03989208 0.027333332 0.025520185
0.31672817 0.22966471 -0.10563952
-0.31422168 -0.06855516 -0.1241493
-0.21749417 -0.1942645 0.05825041
-0.07951812 0.11944674 -0.07496662
-0.22603853 -0.20540072 0.03996578
-0.15874115 0.045602355 -0.10858169
-0.2628377 -0.09357228 0.09784522
-0.3147942 -0.005561733 0.10310088
-0.24708927 -0.24410675 0.029020607
0.1635196 0.15127128 0.006816909
-0.2088686 -0.21694306 0.076125786
-0.22474049 -0.028966036 0.02753334
-0.06460992 -0.1820253 -0.1272215
0.25536352 0.124049544 0.03556538
-0.20882775 -0.23491435 0.04464195
0.45181552 0.14747405 -0.12114361
-0.3247162 -0.16496813 -0.16983958
0.39096928 0.15560359 -0.031526785
0.41506258 0.10678887 -0.026341371
0.28408816 0.0553476 -0.10547429
-0.25361565 -0.122638516 0.12050556
0.060756758 0.13166107 -0.038494937
0.26554587 0.10993793 0.021380996
0.03647006 -0.06944627 -0.083325796
-0.05208483 -0.07444599 0.013522897
0.1591228 0.08341525 0.0076383287
-0.11162021 -0.05567914 0.031869788
0.38819942 0.09897109 -0.08534225
0.19345182 0.13952307 0.02901435
-0.17679587 0.07611918 -0.12856252
0.28496104 0.2087671 -0.00854327
0.2252451 0.12886961 -0.023472192
0.27852845 0.23162407 0.024125252
-0.13173841 -0.15596636 -0.08222087
-0.3493723 -0.10448737 0.004591204
0.08901328 0.05712793 -0.0009909963
-0.1829452 -0.040579308 0.081239395
-0.080499314 -0.027348664 0.06026523
-0.16064088 0.04813523 0.023831207
-0.05999417 -0.079025164 0.029605146
-0.18495438 0.014991834 0.046704207
0.13446553 0.09736295 -0.0043169274
0.34051648 0.051546417 -0.066873476
0.39410052 0.1854656 -0.041366033
0.102621004 0.15650557 -0.10109105
-0.30125716 -0.09521715 0.08505683
-0.25911972 -0.10881876 0.11534168
-0.32305366 0.04177356 -0.078489855
-0.32219705 -0.11429585 0.019044792
-0.2845808 -0.16200235 -0.0821461
-0.13652569 0.014003932 0.0052016517
0.43438998 0.20681696 -0.010838166
0.051908873 -0.029793445 -0.03989144
-0.23556934 -0.08073779 0.08353361
-0.22793157 -0.0994115 0.11839954
-0.29996094 0.013360915 -0.013300775
0.107426696 -0.030786386 -0.029694788
0.38430685 0.22990066 -0.04812169
0.15949565 0.05679955 -0.0038567872
0.080641225 0.12330403 -0.0138631435
0.28688982 0.005195895 -0.02712898
0.13482887 0.010053479 -0.045049254
0.25483552 0.20428075 -0.104561344
-0.26738963 -0.225922 0.11378365
-0.28849715 -0.18991427 0.05512205
-0.141035 -0.13062574 0.018373666
-0.23748252 -0.09027858 0.05268443
-0.14019379 -0.17677313 -0.06526255
0.27082688 0.1438487 -0.0015439746
0.39496008 0.16286926 0.011923167
0.115311265 0.02860531 0.03824177
0.17529203 -0.013932303 -0.041555505
-0.10996624 -0.18987812 -0.12820695
0.22696355 0.094067656 0.02288075
0.14137203 0.19966777 -0.08084007
-0.26580453 -0.005355748 0.02280941
0.21797849 0.02889281 0.015528137
0.35687992 0.20247757 0.0079420265
-0.064756475 -0.22884274 -0.027929062
0.11122528 0.033283714 -0.034119956
-0.14582123 -0.11196458 0.11450586
-0.2921001 -0.124457106 0.004500048
-0.3462822 -0.041113187 0.034197655
-0.09949995 -0.10265354 0.09674909
0.3633531 0.29519954 -0.080692574
0.17807567 0.054068655 -0.056969807
0.2772862 0.108741075 -0.009756514
-0.004631977 -0.12549244 -0.07703625
-0.35839048 0.0062031155 -0.050054267
0.2974724 0.16599062 0.022993313
0.025883222 -0.010734604 -0.03422285
-0.24894975 -0.13764803 0.09392952
0.2499296 0.054546855 -0.043694947
-0.0046412884 0.06726103 -0.03154416
-0.22194408 0.00361336 0.07255627
-0.2508805 -0.1016258 0.09632836
0.31515142 0.12060433 -0.00090279157
0.14786547 -0.010283304 -0.026491147
0.039799538 -0.057875574 -0.12645498
-0.22229384 -0.25712588 0.0038435666
0.20200266 0.014943617 0.012181757
-0.15692468 -0.15379053 0.024915729
-0.07968451 -0.07974249 0.049019225
0.196285 0.11970366 -0.034306806
-0.27316374 -0.16509585 -0.1289552
0.2331353 0.17968701 0.0039197276
-0.26353127 -0.0015793848 0.075405
-0.32525402 -0.2750408 -0.10112118
-0.32398227 -0.20767426 -0.14846094
0.20184076 0.19397935 -0.04767026
-0.22907764 -0.26546136 -0.10732688
0.29296902 0.29264298 -0.081634276
-0.07861877 -0.024594942 0.0178425
0.20573598 0.032513622 -0.02266851
-0.36719665 -0.002661372 0.030295081
0.060046744 0.07333332 0.047187842
0.02100117 -0.016728543 -0.009780176
-0.30179903 -0.003043308 0.06372898
0.13834384 0.14633162 0.03639724
0.110432 0.036207367 0.028319148
-0.05130444 0.07709847 -0.0085158665
-0.15713392 -0.2727863 0.014690057
-0.10024264 -0.07921089 -0.011441445
-0.16309701 -0.043393802 0.10858704
0.29160067 0.22246732 -0.07227712
0.23459555 -0.04889973 -0.055665568
-0.24605097 0.04206241 -0.007849948
-0.19334015 -0.18594395 0.08427427
-0.22254851 0.08909989 0.020826027
0.04863064 -0.02022149 0.0012532192
0.14874884 0.018973295 -0.03275297
0.05631223 -0.053099718 0.05311193
-0.098830976 -0.045631967 0.009263521
0.41099903 0.12368329 -0.010111717
-0.2555872 0.047332983 0.019103117
0.37598193 0.21808106 -0.045188826
-0.20007312 -0.029702798 0.024196032
0.11934156 0.1407855 0.021674417
0.3862989 0.18984786 -0.13663098
-0.227796 -0.23527859 0.04196401
0.029806748 0.07133707 0.016712215
-0.20810203 -0.25064334 0.021795597
-0.15990852 -0.09744839 -0.024087744
-0.2320184 -0.22548306 0.023281444
-0.21124984 -0.24878737 0.027343987
-0.1399656 -0.06868843 0.019350994
0.1548771 0.063540004 -0.01238318
0.3348823 0.071912184 0.012706034
-0.20951636 0.064405136 0.00059656845
-0.21869156 -0.15048742 0.12590443
0.105021656 0.0013391419 0.010563112
0.20415445 0.18221639 -0.08254381
-0.056040328 -0.001971815 0.019939793
0.11117745 0.14422633 -0.007333625
-0.093892075 -0.011249682 -0.0045170644
0.026959747 -0.09209066 -0.013749146
0.28778556 0.039598785 0.009473272
-0.07426219 -0.10124391 0.004087353
0.15435353 0.13391031 -0.000645265
-0.08617761 0.078316025 -0.026279284
-0.31604746 -0.0066577294 0.08224139
-0.092614055 -0.084386125 0.026600631
0.14685273 -0.07000267 -0.054377493
-0.3199032 -0.08773816 -0.08924515
0.15854558 0.15836848 -0.039804164
-0.13686018 -0.25045487 -0.13392615
-0.019834595 0.005297459 -0.025538575
-0.23577313 -0.16132787 0.02357602
-0.034455597 0.02503868 -0.0010251865
0.39913565 0.18309434 0.045642685
0.1517624 -0.03399265 -0.007608393
-0.33131322 -0.06352234 0.052657038
-0.09618254 -0.086983204 0.06597782
0.41636297 0.085062936 -0.12680006
0.30000463 0.055767126 -0.013957188
0.2908723 0.2407833 -0.05468323
-0.17454581 -0.21006113 0.0041683745
0.12535837 0.026264444 -0.018153457
0.40315917 0.1583296 -0.11739305
0.27757934 0.272489 -0.04108667
0.16082636 0.16585225 0.031263404
-0.13318136 -0.16419359 -0.018143542
-0.33743003 -0.11872284 0.07324546
0.41438645 0.09828763 -0.032126922
-0.13408738 -0.11893225 0.081301995
-0.065458916 0.020583218 -0.041663803
0.3026992 0.18414336 0.0033412501
0.05644335 -0.05388693 -0.059592083
0.24531356 0.11876671 -0.024534337
-0.25196213 -0.1793463 -0.15337566
0.06671117 0.15188205 -0.09447633
-0.20555894 0.027424017 -0.009852009
-0.09124659 -0.2531509 -0.10546493
0.27247974 0.113537624 -0.037891444
-0.29947963 -0.19574302 -0.140077
0.38772395 0.13760266 -0.011851586
-0.20476595 -0.015658362 0.0778524
0.3828315 0.15988378 -0.03169903
-0.3988671 -0.024861455 -0.13302211
-0.23559093 -0.23466349 -0.017709607
-0.22687596 -0.17529824 0.10280546
0.20941356 0.004536375 0.014113421
0.013997412 0.028401513 -0.0399885
-0.12424375 -0.0008299064 0.029600935
0.29044226 0.11964063 -0.015821787
0.21237732 0.18230836 -0.031442095
0.11280613 0.08506215 0.0067766127
0.096569404 0.13190192 -0.06483826
0.33118775 0.11379742 0.053215273
0.43952113 0.24400707 -0.055073325
0.36558318 0.23031092 0.026907815
-0.089974076 -0.11318903 -0.005642267
-0.18676548 -0.09513414 0.12304109
0.25431424 0.10352872 0.0384054
0.23464443 0.044889502 0.011221013
0.11098692 0.12113412 0.0012200536
-0.27713093 -0.111661576 0.11939167
-0.33382025 0.0015602817 0.011508187
0.2719954 0.16036509 -0.04355958
0.19111295 -0.0027252217 -0.037070345
-0.3503719 -0.17230363 0.07360071
-0.03690401 -0.119550675 -0.034639288
-0.3590233 -0.120660365 -0.06505535
0.33669314 0.26335648 -0.051248837
-0.014609783 -0.04003321 0.04261569
0.0783984 0.06490491 -0.0026895239
0.25015485 0.21447715 -0.026015438
-0.018796092 -0.03616629 0.0017434832
-0.19739902 -0.11585317 0.10863321
-0.103994936 -0.078804925 0.05350776
-0.09385021 -0.16879633 0.022965834
0.09028518 -0.023707757 0.02675515
-0.07303579 0.041091934 0.025688054
-0.09251572 -0.052197244 0.06064261
-0.22545977 0.03894412 -0.017821938
-0.028464805 0.08741846 0.044692185
0.116311625 0.19289051 -0.07682466
0.033387396 -0.052235767 -0.018137164
-0.23470624 -0.19523056 0.050332595
-0.08400966 -0.122214556 0.029789569
-0.37413552 -0.02230345 0.04198837
0.23169039 0.086357705 0.002442882
0.24392642 0.13247873 -0.035286024
0.37006292 0.12869833 -0.006955263
-0.32152995 -0.0026866572 0.052565105
0.069876455 0.085205674 0.0014973572
0.03034896 0.10946664 -0.003275161
-0.13928956 -0.14732718 -0.0880072
0.06467223 -0.014829852 -0.060853515
-0.10275211 -0.22448549 0.03866638
-0.15103862 -0.112518735 0.053837385
0.05995034 -0.028655427 -0.021879442
-0.12652065 0.05168712 -0.08164243
0.33315766 0.15743108 0.009212053
-0.16162494 -0.009339062 -0.02864165
0.0153879225 0.08615974 -0.015867472
0.04136103 0.09197354 -0.054101218
0.2756641 0.17244087 -0.03208826
-0.37815145 -0.11558063 -0.100360565
0.07450155 -0.050627127 0.028163042
-0.24165325 0.050016653 -0.022056742
-0.25576422 -0.21313466 -0.12971483
-0.36925018 -0.044701565 -0.02818395
-0.24181369 -0.037432786 0.106891505
0.35345414 0.047508508 -0.0509152
-0.3827703 -0.11270774 -0.1023739
-0.056475237 0.00893295 -0.018399758
-0.022357175 -0.008765408 0.0056955307
-0.25478682 -0.03883671 0.08976584
-0.07297007 0.024966804 -0.09134196
-0.1322324 -0.17856929 0.07816673
-0.13878772 -0.10225123 0.037673365
0.43636033 0.1335068 -0.046097532
-0.21205018 0.05925214 0.01900628
0.07685676 0.0024332537 0.022813637
0.05946959 0.023410568 -0.022869546
0.28610754 0.20806067 -0.117675856
-0.21641825 -0.05123084 0.05093162
0.11421029 0.04647286 0.020286385
0.11502311 0.15173112 -0.049369194
-0.17184305 -0.1463786 0.061213963
0.058912043 0.06301027 -0.037187576
-0.24024412 -0.26030484 -0.017950233
0.10689712 0.05276582 -0.008939435
-0.14074121 -0.1499284 0.04296002
-0.29890808 0.02649059 0.07547497
-0.16079108 -0.031914856 0.04595698
-0.13226746 -0.026575303 -0.018855074
0.3202886 0.23404752 -0.046582602
-0.20972472 -0.14702305 -0.00059383607
-0.19018155 0.041562848 -0.0362151
0.41863963 0.06966304 -0.074798025
-0.2350729 -0.24646111 -0.085507065
0.14230996 0.12386916 -0.037917696
0.045950312 -0.07937012 -0.010938068
0.36085615 0.2130102 -0.13330135
-0.09191916 -0.0039311736 0.01446101
-0.15177771 -0.20501181 0.017084237
0.12722771 0.11074914 0.0016316951
0.40130004 0.1453521 0.02622749
0.2742769 0.14540824 -0.024621427
0.1535481 -0.03873178 -0.06900707
-0.30960733 -0.23775402 0.03502823
-0.27989382 -0.17004712 -0.021682143
-0.16573097 -0.13850465 0.05667988
0.07020625 0.15613213 -0.06680405
-0.26272804 -0.21096836 0.113846
0.3759108 0.051575616 -0.0925723
0.38593075 0.25035152 -0.06317287
0.019702103 0.08412844 -0.11448188
-0.26384065 0.057849318 0.023959648
0.29266137 0.16326793 -0.05174129
0.22851989 0.026204051 -0.030150581
0.057214405 0.08670776 -0.026441306
0.22140376 0.10571119 -0.009739063
0.023082577 -0.015763251 -0.01689519
0.25026768 0.21091887 0.031021053
-0.030011386 0.009593324 0.0186423
-0.28047603 -0.008771062 -0.033391062
-0.09784172 -0.024707586 -0.03254532
-0.1311845 -0.119373396 0.031838004
-0.046225347 -0.07856563 -0.023349242
-0.07482091 0.05566521 -0.026227817
-0.12244584 -0.066565685 0.07007112
-0.14274034 -0.08157351 0.08998439
-0.19830689 -0.21714754 -0.03210881
-0.08067922 -0.22392233 -0.03303028
0.1531286 0.14313042 0.052403454
0.2894811 0.040115852 -0.041487347
-0.30871436 -0.09519735 -0.1394046
-0.11670185 0.048635002 -0.011774055
-0.3011772 -0.09154906 0.07237547
-0.22967827 -0.119198866 0.054525103
-0.13156858 0.029250454 0.05859168
0.026542623 -0.0022980112 0.053188972
0.052283503 0.01928185 -0.026625317
0.058974285 0.076034196 0.013766374
0.3216067 0.030781299 -0.0072713
-0.27901456 -0.26576608 0.09695786
-0.09552817 0.026367571 -0.011994738
0.3581921 0.066773795 -0.03545894
0.06255928 -0.010054062 0.06277709
0.30001262 0.23990774 -0.052031446
0.28241542 0.15026435 -0.044786777
-0.30971837 0.04584011 0.04578983
-0.22334826 -0.21618585 0.05628726
-0.173266 0.039867587 -0.11127765
-0.35983655 -0.006036641 -0.108917974
0.3078784 0.07320534 -0.112408884
0.10723912 0.18410824 -0.024980294
-0.065984525 -0.01593544 -0.0110228555
0.15708649 0.16999216 -0.07291804
0.012918634 0.034319066 -0.04263746
0.2784793 0.13764636 0.031237358
0.2652447 0.119827576 -0.03130591
-0.06942127 0.09878016 -0.08979921
0.20193477 0.07984135 0.019341938
0.3043547 0.14737594 -0.037595823
-0.19900686 -0.114447854 0.11577443
0.2800157 0.098464444 -0.022718852
-0.10818841 -0.21999653 -0.17984979
0.015855435 0.04789252 0.0030737433
-0.1997139 -0.098709956 0.09985196
0.22345985 0.042698093 0.01235922
0.1584596 0.12000765 -0.038534272
-0.06532527 -0.012897843 -0.00825353
0.075336725 0.10104373 0.009670129
0.3203286 0.22104545 0.011819576
-0.009000924 0.048060942 -0.078122765
-0.29549798 -0.017619604 0.051417567
-0.15753064 -0.013097513 -0.00361957
-0.2898994 -0.13636309 -0.11216723
0.33376306 0.1326246 -0.02871222
0.12921962 0.10391672 -0.014094025
0.104353815 0.067349255 -0.02431875
-0.14862606 -0.15148051 0.059281133
-0.21203698 -0.06700888 0.10636927
0.15247421 0.1026731 -0.03605548
-0.19142704 -0.08513372 0.047458176
-0.098374926 -0.05438827 -0.023454031
-0.05718335 0.025383905 -0.0033178336
-0.006478099 -0.013292072 0.028575258
0.22559895 0.062575445 -0.0011348347
-0.301345 -0.12794973 0.06151431
-0.33945268 -0.12125814 0.01709463
-0.10101381 0.028787535 0.032680888
-0.12498611 0.08662209 -0.061030056
0.027038343 0.0836121 0.0010554087
0.35602513 0.20345905 0.0055415966
0.07395563 0.058921203 0.02363673
-0.30147737 -0.08621253 0.061720982
-0.22347957 -0.19513933 0.05157714
-0.18369703 -0.205705 0.043145828
0.25049224 0.08312875 0.043090124
0.14507025 0.02882377 -0.013505423
-0.1956814 -0.19083644 0.056151334
0.28083366 0.05342254 -0.029848142
-0.25134614 -0.092849016 0.038563024
-0.0446661 -0.13549918 0.0060934364
-0.30870268 0.074502654 -0.06785281
-0.23507474 -0.18935771 0.06689123
-0.20786977 -0.018669412 0.10703959
0.21822909 -0.016198652 -0.01901231
0.318716 0.21221866 0.04408998
-0.12378633 -0.05514693 -0.016604181
0.18058285 0.030996231 -0.0009912633
0.15899807 0.089472786 -0.015832504
-0.13184309 -0.18232955 -0.035444416
-0.15247725 0.02616993 -0.038039304
-0.27379692 -0.011652006 0.032397676
-0.20736691 -0.11156422 0.105771296
-0.2966552 -0.18494052 0.07612163
0.10416787 0.16776602 -0.06255729
-0.1338223 0.015152173 -0.01462228
0.05489749 0.09912223 -0.032953084
0.095480666 -0.019508291 -0.022501381
-0.1450393 -0.068865575 0.019421984
0.13355607 0.031587407 0.04257227
0.21779115 0.13905154 0.04096486
0.29915953 0.20685725 -0.056792602
-0.11773972 -0.014767663 0.028532578
-0.14707538 -0.089384675 0.042832498
0.28473023 0.14337404 0.014504031
-0.20278773 -0.24472237 0.071297
0.39090618 0.20023382 -0.09669059
-0.06320949 0.015268649 0.051932953
0.14230816 0.11650076 -0.013320949
0.13370904 0.07056924 -0.035348397
-0.21315794 -0.14288218 0.11828846
-0.26602826 -0.17428303 0.07939924
0.3632278 0.16812612 -0.03472429
-0.23062906 0.05330246 -0.109171875
-0.10137456 -0.028437283 0.04196951
0.1280422 0.057241146 0.04430207
0.085627414 0.043114778 -0.020139232
0.18087354 0.17405328 -0.007830796
-0.11162645 -0.17678232 -0.046833016
0.032966625 -0.01809554 -0.0026088108
-0.2609719 -0.014092563 0.06986359
0.3418855 0.23831668 0.024245715
0.10743535 0.17031348 -0.0024492184
-0.05224159 -0.007589263 -0.015113723
-0.24099904 -0.21940908 0.03451013
-0.22589745 -0.0131713 0.03631884
0.12438391 0.0014374522 -0.009612324
0.33013868 0.11970417 -0.065505
0.3054831 0.015481299 -0.07644894
0.1277251 -0.062376857 -0.087299764
-0.30339706 -0.101013444 0.101952925
0.11836325 0.0054645496 0.042919368
-0.18366134 -0.07295446 0.031947143
-0.15061368 -0.05724043 0.0673903
-0.30495605 -0.1624904 -0.015994785
-0.22366492 -0.028978383 0.026959823
-0.21588905 -0.12086423 0.07917211
0.018609552 0.020564238 0.008933208
