# .PCD v0.7 - Point Cloud Data file format
VERSION 0.7
FIELDS x y z
SIZE 4 4 4
TYPE F F F
COUNT 1 1 1
WIDTH 1000
HEIGHT 1
VIEWPOINT 0 0 0 1 0 0 0
POINTS 1000
DATA ascii
0.30892444 0.21755654 -0.24389327
0.10917574 0.18287286 -0.07870925
-0.026529524 0.073945664 -0.05633658
-0.1191181 -0.17138591 0.21885043
-0.09448697 -0.27140155 0.1915105
0.09041544 0.23073316 -0.19619627
-0.011694538 -0.1271052 0.16522418
-0.1863953 -0.19938518 -0.018906664
0.1746342 0.23737289 -0.13558337
0.24720563 0.24012399 -0.18138736
0.20694152 0.17839542 -0.08881129
-0.09033501 -0.018014682 0.175116
0.1025743 0.25000408 -0.24598156
0.17031251 0.33864224 -0.21324006
0.2697909 0.26237214 -0.21174662
-0.14278796 -0.27719685 0.029115938
0.21639316 0.16883346 -0.105134696
0.029786313 -0.0794109 0.076577805
0.060500983 -0.13213296 0.06225915
-0.09778378 -0.026774751 0.18113577
-0.1553418 0.0066715516 0.12293472
-0.029071597 -0.26786596 0.14206937
-0.13461412 -0.045160566 0.10764674
0.03552321 -0.0067841327 -0.072787486
-0.015723659 -0.13402753 0.025572972
0.16354729 0.12389734 -0.119166836
-0.17998365 -0.23524322 0.065267615
0.0058594253 -0.21136005 0.075554095
-0.18580103 -0.0784286 0.15826425
-0.20050104 -0.109778054 0.16889873
-0.10411413 -0.041966308 0.18381071
0.15728366 0.06932257 -0.05536972
0.097024955 0.19135402 -0.11292429
0.046099383 0.06574636 -0.0632626
0.29092488 0.21341169 -0.24895367
0.09413841 0.3142303 -0.20298475
-0.16011904 -0.2534773 0.10476382
0.0059426925 0.02630219 0.030789096
-0.028566005 -0.09424769 0.09298391
0.07363774 0.061721437 -0.07129343
-0.19030185 -0.101579376 0.15837206
-0.100133516 -0.0826271 0.13110228
0.11909456 0.048344765 0.006421527
0.039296184 -0.06724505 0.09689224
-0.09632092 -0.23757929 0.17672366
-0.27761713 -0.15877728 0.13926446
-0.14711723 -0.13465007 0.19305882
-0.078399375 0.033111785 -0.11007807
-0.09839403 -0.020797728 0.17204048
-0.018178241 -0.155195 0.12358377
-0.25207925 -0.19377925 0.056456666
-0.14611633 -0.25952706 0.04133916
0.2451925 0.26754847 -0.24515393
0.0065660155 0.00024608063 0.0040135053
0.16961329 0.15901184 -0.17968947
0.30633277 0.21155615 -0.24678674
0.109099716 0.2854288 -0.20332222
0.1498295 0.10702845 -0.14649446
0.058725055 0.0060828496 -0.010879971
0.002189451 0.029186042 -0.022783745
0.16612722 0.15431678 -0.15645431
0.18434604 0.19088456 -0.17487505
-0.2155699 -0.19538286 0.019447954
0.07056378 0.08393567 -0.03743775
0.1226814 -0.012927268 -0.048630983
0.07187303 0.049610727 -0.039697662
-0.1908832 -0.0069636777 0.13575597
0.07157593 0.13947147 -0.14244309
-0.23585507 -0.025186436 0.10852491
0.2125026 0.20675744 -0.12783378
-0.048540268 0.0004749179 0.16368398
0.063880265 0.20289743 -0.1508143
0.012366983 -0.15081976 0.021458536
-0.08037293 -0.1836945 0.2049586
0.093925565 0.19853576 -0.18482369
-0.009162906 -0.15215248 0.072236076
-0.021143634 -0.1360498 0.20026058
-0.32488754 -0.079999216 0.07459159
0.022725107 -0.02312873 -0.024619753
-0.063103914 -0.22573803 0.15612525
-0.21997313 -0.054520328 0.19582918
0.037043203 -0.19451158 0.052254803
-0.039090578 -0.0412805 0.16377102
-0.1985877 -0.015467093 0.14008126
-0.11087014 -0.02941477 0.2080839
-0.24505125 -0.27988112 0.023238828
-0.080030754 -0.041680824 0.16231999
0.17507088 0.14934076 -0.06254376
-0.08883432 -0.15645844 0.1719662
0.03786016 0.0011128435 -0.07609007
-0.046584506 -0.007838479 -0.044387195
-0.19639398 -0.1339542 0.20680556
0.1667519 0.046198305 -0.12317572
-0.11570668 -0.15068842 0.18920738
0.13794774 0.33736864 -0.2797073
0.04282304 0.10095029 -0.05964045
0.1186055 0.26033196 -0.24186806
-0.09962202 -0.21803287 0.098337755
-0.09430431 -0.27594396 0.12883317
-0.028788557 0.053633396 0.0013270854
-0.029451285 0.11043951 -0.08139399
0.25030068 0.16920744 -0.19682412
0.09822973 -0.007868191 -0.026166664
-0.07387482 -0.25119612 0.13750486
-0.04472245 -0.017264476 0.06750138
0.034799155 0.15635161 -0.117287256
-0.15728761 -0.24387333 0.046956323
-0.08123334 -0.27645242 0.09456229
-0.20491835 -0.28906083 -0.0069572134
0.17792629 0.18301621 -0.14808732
0.003821248 0.0041270303 -0.010291209
-0.002453667 0.0014927828 0.07307681
0.24569137 0.33350286 -0.22670487
-0.18630533 -0.25363627 -0.019561311
-0.20061807 -0.14246294 0.13215776
0.1900366 0.14075375 -0.18564248
-0.03329251 -0.111621425 0.14912724
0.10427686 0.15545584 -0.119195454
-0.14553612 -0.07297784 0.18969461
-0.0024810638 -0.16637805 0.13730569
-0.22237153 -0.10578756 0.1718794
-0.23263352 -0.08103792 0.1385873
0.09503647 0.18296824 -0.09432988
-0.24543118 -0.17948177 0.05682262
-0.14680481 -0.184754 0.17321007
-0.1028759 -0.20752415 0.17998879
0.08022779 0.120555915 -0.015139254
-0.09424429 -0.302621 0.017872918
0.12918763 0.15090775 -0.07420073
-0.21159607 -0.24105662 0.014160681
0.23037085 0.26328096 -0.14289358
-0.09026862 -0.286845 0.052436225
-0.030951867 -0.1876136 0.2061114
-0.24018209 -0.23604147 0.011897847
-0.046805136 0.021099634 0.011895137
0.022337342 0.05535382 -0.020616129
-0.14908542 -0.15024242 0.20267658
-0.15147544 -0.24973369 -0.0069594365
0.02069698 -0.1923207 0.172111
0.21213885 0.22129363 -0.14389583
-0.04759485 -0.1591395 -0.10125316
-0.027754316 -0.036842186 0.015636954
-0.07262208 0.04893992 0.09282808
-0.13371077 -0.0047064377 0.072602004
0.09967578 0.21987559 -0.17935477
0.021187386 -0.023795158 0.15772665
0.09413171 0.017089838 0.035062835
-0.089260586 -0.07110771 0.17022185
-0.18601382 -0.2313516 -0.009969156
-0.24154088 -0.03960463 0.13852017
0.015718192 -0.1681801 0.106990576
-0.09561115 -0.24700922 0.16202502
-0.066224225 0.031999778 0.04443266
0.17274295 0.28521886 -0.17876725
0.034948215 -0.034235746 0.017184736
-0.2413664 -0.09756068 0.07535443
0.055306926 -0.1152696 -0.041642383
0.20831962 0.12542687 -0.12247582
-0.013010321 -0.18188106 0.15195593
-0.19044143 -0.30777043 0.01049087
-0.103126094 -0.09093914 0.18578473
-0.23918764 -0.1634777 0.0001238676
-0.20260867 -0.036641374 0.037897553
-0.036800068 -0.17013006 0.118516356
0.1003407 -0.013063469 -0.07260989
-0.21628122 -0.13001516 -0.0018529203
-0.23528995 -0.17934841 0.067816526
0.10970813 0.015288976 -0.058810934
-0.21445741 -0.10869121 0.108009085
0.05228573 0.20167582 -0.17212443
0.12389164 0.09545355 -0.056767523
-0.059893798 -0.16657913 0.12472812
-0.14343178 -0.06980973 0.122464515
-0.010838946 -0.2713332 0.13559423
0.04899112 0.22102532 -0.08098115
0.11408744 0.27668324 -0.15018468
-0.29289842 -0.09614773 0.068829775
-0.25953972 -0.16264696 0.020022986
0.15600975 0.23078898 -0.18133192
0.26394945 0.156286 -0.34872383
0.23993337 0.18392034 -0.1998778
0.020178618 -0.039340954 -0.017369816
0.24170306 0.17839372 -0.20030306
0.11196126 0.1492455 -0.07100097
0.34218833 0.2754976 -0.22507133
-0.009483585 -0.058058847 -0.026020387
0.22980689 0.10917709 -0.18032257
0.0021922085 -0.19050144 0.21140365
-0.091469415 -0.069281496 0.201285
-0.007449974 0.07206812 0.044314463
-0.10360763 -0.005507743 0.009528141
-0.12055309 -0.20813347 0.20571461
0.07125001 0.20658363 -0.076228306
-0.030432343 -0.11067659 0.18850559
-0.10734964 -0.13881534 0.15631829
-0.03715096 -0.033303864 0.03378147
-0.062181048 0.016890286 -0.04952565
-0.27878293 -0.17189373 0.114932396
-0.20405598 -0.058891695 0.060843557
0.12193022 0.11115621 -0.038259897
0.00022567237 -0.00048070255 0.035129976
-0.19857968 -0.22418904 -0.006116404
-0.13244115 -0.12178039 0.2106915
0.06129272 0.21665166 -0.1576188
0.16316883 0.122774 -0.12703376
0.029669616 -0.060901675 -0.06557288
-0.079012685 -0.11268888 0.1155698
0.00075145543 -0.047408 0.06054642
-0.16039115 -0.10542515 0.24862562
0.2335339 0.3368048 -0.27649063
-0.23952879 -0.06604812 0.21609055
0.027863823 0.13534251 -0.048403073
-0.026082277 -0.004705839 0.018571416
-0.21420012 -0.12114166 0.14047804
-0.005476643 -0.06875947 -0.0448199
0.16353367 0.03440354 -0.12755662
-0.040020537 0.010087581 0.03249849
-0.06758639 -0.123702995 0.1533603
0.22082971 0.34974456 -0.2565033
0.21366264 0.23187013 -0.13416769
-0.10763864 -0.062883556 0.114514686
-0.16007191 -0.04911043 0.087187305
-0.09402915 -0.11443495 0.17481886
0.19694477 0.18278557 -0.123292394
0.15387984 0.06463707 -0.12697147
-0.08866386 -0.19006164 0.02826396
0.01562834 0.08990868 -0.018712834
-0.07289354 -0.078366324 0.12121608
-0.20435454 -0.028510915 0.023594322
-0.14740856 -0.01891266 -0.06309532
0.15286182 0.066148594 -0.050539047
-0.14985152 -0.2799092 0.025286974
-0.011807193 -0.057730444 0.094908126
-0.10827067 -0.26623607 0.041960485
-0.16007921 -0.14393622 0.21668716
-0.05335511 -0.25725782 0.20045786
-0.13956037 -0.21595386 0.019941052
-0.1723367 -0.06835771 0.15903887
-0.13726898 -0.26463717 0.06760889
0.013714359 -0.08360076 0.14991938
0.13611041 0.022174727 -0.09320002
0.23081522 0.16097334 -0.15223998
-0.12620364 -0.29104102 0.06420039
0.045364425 0.19861484 -0.09730885
0.25502932 0.16755472 -0.29104164
0.1986774 0.26145056 -0.2473463
0.11014615 0.04579569 -0.050247915
-0.019381383 -0.0144779915 0.06284571
-0.11188356 -0.048117455 -0.0075415354
0.14093365 0.070100464 -0.130187
-0.1355674 -0.18149506 0.036215607
0.010171137 0.015248615 0.018631374
-0.045690708 -0.032908555 -0.0053161643
-0.12282987 -0.1177796 0.19841753
-0.11483037 -0.15387271 0.17492759
-0.14760417 0.0012858697 0.013348836
0.20184971 0.0424502 -0.18272164
0.0074281264 0.026398832 0.056575917
0.15074158 0.09647775 -0.14948583
0.26248437 0.2890026 -0.2075672
-0.160913 -0.04280749 0.13201985
-0.15548822 -0.20659633 0.050713815
-0.052134972 -0.24400058 0.1407044
0.1656139 0.13459757 -0.16267757
-0.21068974 -0.23087656 0.0011119352
-0.010262177 -0.27306598 0.06469841
-0.07162525 -0.054593287 0.07494524
-0.08621788 0.1121535 -0.09435758
-0.07181906 0.029938947 0.086898394
0.11701213 0.27109316 -0.21529847
-0.05009671 -0.20940983 0.14846756
0.066201635 0.023784287 -0.02540419
0.16115966 0.09693968 -0.12769777
0.06923131 -0.04813444 0.02971197
0.3194468 0.2664336 -0.23159662
-0.045105692 -0.25835088 0.15268184
0.16218379 0.11369157 -0.04992965
-0.09424433 -0.012748821 0.17075197
-0.2050704 -0.13968971 0.10604432
-0.021060834 -0.2761691 0.105034776
0.17622511 0.06767906 -0.18478872
0.03673993 0.11960988 -0.12671734
0.11826679 0.14141278 -0.10108118
-0.08594799 -0.10963954 0.21384224
-0.072548844 -0.21447527 0.04752151
-0.11211199 -0.053778227 0.19098133
0.13394961 0.23400266 -0.18375777
-0.13475113 -0.082366355 0.1256802
0.15187024 0.109111406 -0.04912103
-0.11993694 0.0049728495 0.0045922105
-0.11145045 -0.25308713 0.059821233
0.19611014 0.06200528 -0.20506673
0.058807936 0.005251372 -0.00578491
0.02027655 0.054200035 0.03601939
0.034659356 0.09875568 -0.05447287
0.18898676 0.28973797 -0.1494606
0.027965847 -0.21888617 0.10726797
0.16067015 0.12651293 -0.06445218
-0.1620728 -0.28088573 0.01993328
-0.15860711 0.026230156 0.08202684
-0.12331506 0.02023244 0.09818201
-0.18476538 -0.06844942 0.15672462
0.21819225 0.21983181 -0.1565432
0.23797008 0.30091155 -0.21367608
-0.08584503 -0.24289522 0.0878869
-0.17534152 -0.11145049 0.056072623
-0.09492606 -0.15641408 0.15368119
0.22090028 0.17720164 -0.1723597
0.20799938 0.3047517 -0.17369731
0.16482495 0.25711876 -0.15237553
-0.022437554 -0.15321653 0.12118508
0.03821315 0.042762484 0.030513773
0.14845765 0.06297815 -0.06479952
0.23846199 0.3031541 -0.14754921
-0.13291012 -0.0865958 0.18869488
-0.05074626 -0.11629653 0.16530132
0.19472454 0.13361222 -0.1341499
-0.14303802 -0.15109351 0.1669726
-0.0689194 -0.16859987 0.13290878
-0.097275734 -0.20374526 0.20448357
0.10156171 0.26514468 -0.15154512
-0.28494298 -0.13544841 0.03304632
0.09465697 0.021192979 -0.07744205
-0.007999248 -0.23105446 -0.012931121
0.005685477 -0.028945198 0.08725425
0.18630524 0.1835744 -0.20101796
-0.026563304 -0.12833592 0.07664071
-0.16467507 0.0048189424 0.06822718
0.008169491 -0.1768989 0.064303614
-0.09688574 0.041674066 0.023506707
-0.0695988 -0.16972728 0.19104202
0.14628798 0.08679808 -0.09890294
-0.13255358 -0.06472941 0.1626278
-0.13791668 -0.30139193 0.048977587
-0.098590724 -0.1539449 0.24818544
-0.2622301 -0.20633088 0.05890028
-0.08765574 -0.11071678 0.21080537
-0.10436528 0.021181941 0.09344016
0.07330011 0.031195087 0.053423252
-0.11720934 -0.28744748 0.0511245
0.058544844 0.051248923 -0.0012452111
-0.02839244 -0.028609123 0.07999173
0.02208091 0.046085577 -0.031682078
0.00089911977 -0.07316225 -0.020801628
0.028037738 0.04216448 -0.016292455
0.20684311 0.18301508 -0.10896728
-0.14911577 -0.07363311 0.18663707
0.17417447 0.2823127 -0.21133852
-0.054566868 -0.09684381 0.21556447
0.013047449 0.104353696 -0.03429777
-0.11563965 0.023617579 0.01175193
0.062140968 -0.052330855 -0.08870851
0.2204787 0.07923701 -0.176892
-0.1195268 -0.28177816 -0.011707514
0.010133438 -0.07062244 0.07789007
-0.029055191 -0.04877927 0.08880976
0.06118263 0.19659822 -0.094056934
-0.14236194 -0.08029815 0.040473513
0.12538993 0.14371231 -0.117970034
-0.12484485 -0.0715747 0.0076539074
-0.28615358 -0.19076656 0.0450241
0.3268278 0.30979893 -0.23421541
-0.060186874 -0.103671126 0.1513593
0.086803354 0.28069982 -0.18815842
-0.29760554 -0.2120023 0.059084643
-0.14147145 -0.11662952 0.15737717
0.28845382 0.20876707 -0.22197571
-0.0080617005 -0.15688585 0.08192509
0.19290154 0.23513971 -0.17116131
0.23618768 0.30331108 -0.17896993
-0.2757266 -0.15757494 0.04838124
0.25607246 0.24258126 -0.25882325
-0.28755033 -0.18162891 0.015052438
-0.20623077 -0.22144394 0.056967232
-0.05531128 -0.2192378 0.14153752
0.14128074 0.100349344 -0.10859596
0.08102065 0.06218886 -0.015612631
-0.14787464 -0.2536472 0.09320175
0.08337586 0.20085736 -0.1142133
-0.279262 -0.083243385 0.06865566
-0.13096726 -0.074801825 0.19269337
-0.24845009 -0.12824582 0.10200989
0.21888117 0.359063 -0.24750116
-0.103538334 -0.03065624 0.09552013
0.23728782 0.26488194 -0.21338625
0.08708233 0.08114477 -0.032311875
-0.09892383 -0.20602119 0.15143958
-0.09901131 -0.19572139 0.23436813
0.08655968 0.17277624 -0.08180221
0.04268699 -0.01755658 -0.10728022
-0.08662377 -0.001771046 0.13591391
-0.03076387 -0.23742816 0.18987489
0.2430799 0.27767262 -0.19842115
0.14468801 0.013891834 -0.09817419
-0.256881 -0.09618338 0.15222722
-0.06830848 0.0007723227 0.020695804
-0.0650305 -0.12694445 0.16321674
-0.06946464 -0.16980544 0.15163817
-0.047558684 -0.12617238 0.14552552
0.07810602 0.23307899 -0.17994253
-0.14005873 -0.22491235 0.02617455
-0.0755235 -0.24079067 0.12975876
0.21398516 0.25004357 -0.20861614
0.18984002 0.24132413 -0.14774013
0.2043943 0.25130296 -0.1877154
-0.09000937 -0.007817935 0.01945114
0.121966556 0.107811995 -0.03350245
0.10935546 -0.0024302308 -0.054358102
-0.10894731 0.0012448395 0.13091742
0.2722028 0.2133183 -0.1582167
0.18078738 0.27510878 -0.14309655
0.16208749 0.21685843 -0.1395371
-0.007661593 0.06662562 -0.035976905
-0.21935709 -0.10499121 -0.025137287
0.01641823 -0.050870623 0.05908578
-0.11649043 -0.047729574 0.12446474
0.030518986 -0.18361719 0.042821694
-0.28136322 -0.119020805 0.09005107
0.079418965 0.057751212 0.008475305
-0.017561752 0.021418378 0.048114847
-0.07651996 -0.2602193 0.14481786
-0.014600396 0.17571996 -0.08737763
0.18037944 0.14873028 -0.1217066
-0.088875145 -0.092827074 0.12509185
-0.011501034 -0.1995642 0.049678598
-0.17873077 -0.16805197 -0.026527964
-0.12837903 -0.24550465 0.0020394349
-0.1295821 -0.20715372 0.14821728
-0.071890794 0.022026295 -0.020682013
-0.25747985 -0.21234076 -0.008391162
0.18908149 0.28092557 -0.24691112
-0.054771833 -0.030877728 0.15814394
-0.08988638 -0.024158927 0.076713234
-0.12930048 -0.11613139 0.24836704
0.054785613 0.024605911 -0.08548265
-0.0126214335 0.15802501 -0.115283705
0.11273422 0.2190179 -0.15867317
-0.089265004 -0.03049982 0.01578446
0.15327977 0.14159288 -0.14440121
-0.081209086 -0.11952177 0.1384502
0.0054166587 -0.11424519 0.14036246
-0.07114859 -0.2663997 0.09287759
0.2120206 0.21619381 -0.17566742
-0.22296827 -0.2610906 0.0056619095
0.13957156 0.2609085 -0.26055598
-0.10015255 -0.18017237 -0.012265799
-0.17287208 -0.19562426 0.2053753
0.19385138 0.16504626 -0.07674127
-0.07516402 -0.03544612 0.1722641
0.08199851 -0.06889542 -0.024833959
0.23721205 0.2756293 -0.18445306
0.07722532 0.113944866 -0.09833487
-0.22237074 -0.115716115 0.033711422
-0.28019372 -0.0703462 0.12210712
0.13237403 0.1646794 -0.057210326
0.081135966 0.09834533 -0.12943763
-0.09693117 -0.050802212 0.16645953
-0.07285417 0.009149902 0.009502246
0.22712982 0.28436986 -0.14328028
-0.096044704 -0.10821969 0.16417563
0.2760472 0.22585729 -0.17848139
0.18693535 0.19309393 -0.148639
-0.18015702 -0.12427256 0.20779116
-0.014662116 -0.14413175 0.10572682
-0.18131645 -0.05764811 0.13738583
0.19612223 0.18471918 -0.16485564
-0.1004523 -0.08812537 0.18040529
0.10307097 0.15426369 -0.15144522
-0.07534299 -0.048961736 0.11748463
-0.24660791 -0.16082706 0.034990113
-0.08345634 -0.26536193 0.115679674
0.30811796 0.26690906 -0.19076572
-0.0066729235 -0.080596566 0.12398832
-0.09649103 -0.22948496 0.19409257
0.07909415 -0.060885105 0.038677502
0.18702054 0.3013322 -0.1792101
-0.21388869 -0.1984177 0.05384954
-0.10103551 -0.028498225 0.12565409
0.22366922 0.2363918 -0.19641075
-0.00078643096 0.13024756 -0.10558785
-0.24838117 -0.2664113 -0.009206539
-0.18169901 -0.14322431 0.008627241
-0.2758111 -0.13503103 0.11142187
-0.26287016 -0.11433378 0.13696162
-0.14100079 0.036545124 0.10665467
0.107105106 0.22086015 -0.090672135
-0.06749718 -0.19172974 0.101726465
-0.14943221 -0.121631846 0.16363257
0.2035059 0.2242459 -0.1329959
-0.26813233 -0.261985 0.025332816
-0.08016102 -0.17104802 0.20407115
-0.22205254 -0.0964847 0.15846081
0.21307525 0.17300506 -0.16925138
-0.22520301 -0.0030324452 0.025276724
0.10527831 0.27197474 -0.3495512
0.02946279 0.021445764 0.042801965
0.023408711 0.035213098 0.008359349
-0.038744215 -0.011672577 0.04789572
-0.09924005 -0.25897956 0.102368034
0.18272488 0.21778713 -0.15274967
0.24720807 0.2532068 -0.21503484
0.25970393 0.20725821 -0.21174462
-0.3037139 -0.12898672 0.01956118
-0.04335706 -0.13373016 0.14577311
0.17329581 0.26094586 -0.12705971
-0.20462906 -0.06460988 0.0672111
-0.09470423 0.005902043 -0.075359166
0.17069036 0.10491668 -0.13957533
0.16923986 0.16109565 -0.09386115
0.19514816 0.15491803 -0.17019568
0.028071288 0.09106436 -0.067381695
-0.28895944 -0.14646241 0.17248207
0.094559446 0.21567246 -0.109931104
0.07577622 0.0710711 -0.028549546
0.01614686 0.12553823 -0.069058344
0.074320525 -0.050300278 0.029707672
-0.13405228 -0.12820266 0.21652357
-0.047706448 -0.17978597 0.14454146
0.23448697 0.104249 -0.22175981
0.12087056 0.16844457 -0.06641491
-0.15832607 -0.15362154 0.121106304
-0.20173512 -0.08865938 0.11179956
0.26804915 0.19347776 -0.14978231
0.3173796 0.23574245 -0.25097734
0.062344268 -0.14341842 0.07750936
0.106834665 0.04417403 -0.13090649
-0.02099132 -0.064187296 0.023042921
0.079653665 0.28038216 -0.16264531
-0.07226961 0.08978044 -0.0037613946
-0.065664634 -0.15935421 0.19759516
-0.042379435 -0.045028646 0.016233327
-0.040573593 -0.10633729 0.17481238
0.24036448 0.25926748 -0.15826842
-0.17417684 -0.22234426 -0.048136022
0.15293084 0.16716042 -0.0671766
0.027032634 -0.17613387 0.06477954
-0.101589 -0.08655499 0.1368959
-0.06849717 -0.14351673 0.13127093
-0.15327986 -0.22176227 0.049361892
0.18812436 0.35466555 -0.22879912
-0.15235117 -0.17262667 0.044990584
-0.120448574 -0.23643474 0.20907806
-0.17148183 -0.1496035 0.076424465
0.26825348 0.1850647 -0.14671504
-0.039744094 -0.22826242 0.18746051
0.18577695 0.28634757 -0.11679504
-0.06339033 -0.12319131 0.14840955
-0.12988442 -0.08073233 0.14296731
-0.07115077 -0.1388214 0.20708098
0.061632626 0.13746724 -0.014874321
0.00062331953 -0.21898791 0.022523228
0.02669862 -0.06489901 -0.049600165
0.19766991 0.21155266 -0.1841107
-0.028597817 -0.18952666 0.11817445
-0.20948175 -0.03746932 0.12524717
-0.17881046 -0.118126884 0.06712203
-0.05495481 0.0018169325 0.08797457
-0.080884434 0.0061978176 0.03933121
-0.06498075 -0.17258215 0.17591824
0.2016178 0.061019976 -0.15591085
-0.018773204 -0.10817695 0.13891353
-0.09775368 -0.06825813 0.122718856
-0.1683438 -0.062110323 0.06939889
0.04588648 -0.07210645 -0.0105143655
-0.22826862 -0.24036123 0.00805884
0.072105795 0.031525016 -0.013510637
-0.097994484 -0.048872836 0.056218296
-0.21621029 -0.11980708 0.059573464
-0.20961103 -0.14194079 0.17823786
0.2574015 0.2095085 -0.12575422
-0.05389882 -0.26488724 0.039897744
-0.054358736 0.03850409 0.07280992
0.1609228 0.26413408 -0.23289503
-0.08160211 -0.013250577 0.0790275
0.1586573 0.31575146 -0.14672793
0.120288104 -0.03836314 -0.00501172
-0.0513612 0.056812674 -0.01720855
0.24948078 0.11964857 -0.2531341
0.022091927 -0.10786221 0.09898843
-0.15288153 -0.2527164 -0.024110707
-0.15657239 -0.027598804 0.1274761
-0.21346937 -0.17747311 -0.013348958
-0.11519793 -0.14321111 0.23549654
-0.018459093 -0.17919509 0.12334625
0.024791526 0.1930058 -0.17176273
-0.08526971 -0.11666533 0.22337055
0.20585738 0.24667953 -0.20642835
0.14916635 0.044267077 -0.04506542
0.07532389 0.02795471 -0.03422393
0.13653104 0.23277108 -0.28324652
0.2031229 0.24781625 -0.15682736
-0.20296307 -0.04484204 0.1746899
0.17029206 0.2188554 -0.1109623
0.18548512 0.09441492 -0.121408485
-0.037850183 0.090293296 -0.08788768
0.25774068 0.21364853 -0.24506961
-0.09457806 -0.27480584 0.14638488
-0.011447356 0.07557536 0.022854345
-0.14890085 -0.062077545 0.0023322548
-0.0047540623 0.06174043 -0.05136217
0.044594575 0.25754136 -0.13611741
0.104652256 0.14314072 -0.09953337
0.12240915 0.100505255 -0.07304448
0.011898489 -0.015427088 0.041037817
0.09308084 0.011026277 -0.058092143
-0.16302885 -0.011710464 0.10948421
0.2658083 0.24906008 -0.2650022
0.012637984 -0.24798615 0.12178386
0.051504556 0.035116043 0.069637015
-0.23430246 -0.10332678 0.051738884
0.1726843 0.29878584 -0.13385671
0.19299488 0.24308434 -0.17920648
0.18350479 0.053082235 -0.14348231
0.12637013 0.26595098 -0.15871511
-0.03409014 0.052330643 -0.039008275
0.18423703 0.1370363 -0.063364
0.041006517 -0.22498734 0.10435538
-0.013025906 -0.171235 0.12201984
0.28625017 0.23623224 -0.15468441
0.1501878 0.28701952 -0.18788071
0.075176634 0.05147866 -0.0735017
-0.08909691 -0.14356895 0.17369196
-0.052598406 -0.117132425 0.16474873
-0.11351566 0.0022208695 0.059586626
0.019163225 0.07628134 -0.029511891
0.012359079 -0.10342808 -5.3647436e-05
-0.1915641 -0.13571833 0.0714691
-0.055289816 0.039749358 0.03808173
-0.07300842 -0.1787786 0.21497235
0.09417535 0.13762482 -0.052878033
-0.115357056 -0.14414847 0.17003804
0.034780446 -0.014521456 -0.0059697567
0.1335662 0.28169852 -0.1845509
0.016527364 0.08900887 -0.07541332
-0.16649827 -0.08131744 0.14355256
0.27330273 0.2833319 -0.23010722
-0.23478848 -0.05370292 0.025390351
-0.092844166 -0.2381356 0.043562714
0.26821175 0.21188836 -0.15528826
-0.07058159 0.11868816 -0.0684625
0.03667396 0.1723395 -0.03964761
0.25195324 0.18657956 -0.2670706
0.13723938 0.04012395 -0.045347553
-0.16492672 -0.06768588 0.22847445
0.29085037 0.26081982 -0.25509158
0.17062381 0.29371384 -0.19956523
-0.19195655 -0.26023605 0.014208131
-0.15294798 -0.2909592 0.031941142
0.112266935 0.00085514283 -0.06778565
-0.11280758 -0.067159824 0.22732379
0.0013690315 0.025083296 0.013472401
-0.14579412 0.003433962 0.06725128
-0.14429486 -0.26169935 0.070512876
-0.17807095 0.013341492 0.106397055
-0.25572467 -0.12637722 0.12019201
0.16440788 0.26516873 -0.22107682
-0.009808227 -0.15382387 0.10504032
0.0883241 0.27361554 -0.1344916
-0.14833842 -0.06951245 0.17994569
-0.013143206 0.14111954 -0.1423971
-0.015249923 -0.29550162 0.11727818
-0.103224404 -0.050279077 0.12853046
0.024401292 -0.03737494 -0.0031614653
0.22829548 0.12167426 -0.27475077
-0.0832783 -0.03196976 0.009373132
-0.15681149 -0.03325278 0.11954623
0.09942903 0.15839097 -0.15914826
0.0574415 0.1471389 -0.13891266
0.13792795 0.021016758 -0.14000396
0.03478368 -0.007817926 0.04719148
0.27849767 0.12752974 -0.23633902
-0.27145943 -0.09730923 0.18789205
0.2010058 0.28005677 -0.31131056
0.23196399 0.2324709 -0.15858565
-0.03075271 -0.2771186 0.08522624
0.15727277 0.2438188 -0.16342703
-0.2923524 -0.124026 0.047788862
-0.05156683 -0.10220965 0.11691945
0.08150287 -0.05843842 -0.050616264
-0.1421732 -0.07714846 0.14681838
0.012735954 -0.19957596 0.113057755
0.24827147 0.20387395 -0.19745046
0.12787072 0.12056651 -0.099314325
-0.15915772 -0.14186649 0.19896226
-0.028183656 -0.018182423 0.071071506
-0.025634397 -0.23824027 -0.031323347
-0.103742436 -0.043637633 0.090748124
0.1652878 0.244668 -0.09023978
0.2064727 0.27242106 -0.20507133
0.1462758 0.03539251 -0.15825497
-0.2207637 -0.082797684 0.118826404
-0.15044604 -0.27485967 0.09797728
0.025336899 -0.18837339 -0.004899735
0.13340189 0.16355363 -0.18543227
-0.04666305 -0.2659958 0.132379
-0.123496965 -0.30390885 0.03421454
0.11703493 0.18048526 -0.09790577
-0.24871135 -0.09628386 0.1244108
-0.093032844 -0.27322266 0.16558361
0.058015045 0.0674442 -0.0056662327
0.18504977 0.08266233 -0.19972427
0.1348964 0.21005948 -0.18497866
0.07846748 -0.03325872 -0.09946606
0.22828741 0.10907716 -0.23107214
0.11437482 0.09526916 -0.069776066
-0.024550132 0.012570574 -0.017474832
-0.0696716 -0.122507825 0.15732764
-0.26124498 -0.073642455 0.03734408
0.25124094 0.30481127 -0.23244923
-0.12950823 0.015711857 0.12408555
-0.04523793 -0.26431888 0.040378205
0.04333537 0.11100004 -0.019169794
-0.093711525 -0.02526024 0.08846045
0.04859621 0.19431695 -0.1724562
-0.14716332 -0.11125965 0.1838572
-0.111760035 -0.08686943 0.1750035
-0.15205036 -0.06077283 0.08515628
0.17206462 0.06897131 -0.11202802
-0.14655472 -0.104719296 0.13553813
-0.029448709 -0.12520789 0.20334531
0.07543688 0.057725 -0.122693345
0.1987855 0.21890086 -0.12076933
-0.046870895 0.08171408 -0.046909623
-0.12371193 -0.014793494 0.07032831
-0.16440575 -0.11432765 0.13296734
0.06407598 -0.07583253 0.02459544
-0.05365394 -0.006491248 0.12668936
-0.022089634 0.044913914 -0.05207152
0.17197569 0.26413426 -0.21619163
0.029805046 0.08919571 -0.084268704
0.036869574 0.05337019 -0.035762776
-0.049260393 -0.24692772 0.060209844
0.072058104 0.16901831 -0.12726632
0.29027358 0.28399876 -0.26662233
-0.196984 -0.07525711 0.15242063
0.106686786 -0.026854059 -0.031869948
0.063079655 -0.05778195 -0.08895334
-0.073973656 -0.13807717 0.17816058
0.017569805 0.036278293 0.05323051
-0.036727082 0.11558465 0.0017484176
-0.27122268 -0.08556829 -0.017276896
-0.13527063 -0.012444073 0.18075809
0.3311285 0.25192383 -0.2474795
-0.20429505 -0.19068134 0.16064855
-0.10715736 -0.08525785 0.2040961
-0.029650416 -0.17874204 0.049461644
0.14457867 0.22337888 -0.11084427
-0.05532637 0.007860739 0.041212782
0.04025543 -0.19872239 0.061069075
0.024395024 0.051687103 0.023274407
-0.055538487 -0.25746018 0.06410094
0.025857769 -0.20715255 0.11474516
0.039844856 0.10527764 -0.044772327
-0.10689725 -0.023914844 0.14161052
-0.020534048 0.12889116 -0.048156563
0.0035102842 -0.100480676 0.10368263
0.2454072 0.1668781 -0.2464535
-0.11596795 0.00024775273 0.044953264
0.048640896 0.09267002 0.021855928
-0.0789491 -0.20921215 0.14321704
0.19747496 0.26652864 -0.17219785
-0.007113766 0.17483969 -0.1363363
0.06540591 0.14892508 -0.076796144
0.30496845 0.28912675 -0.18205377
-0.2346178 -0.14963959 0.012942131
-0.030248158 -0.006466268 -0.028265953
0.123617515 0.039974898 -0.004198337
-0.046186287 -0.054554243 0.024975251
0.117531866 0.034284182 -0.06732558
0.0013827618 -0.0170284 0.058703516
0.0035429022 0.037011385 -0.0022176232
-0.016986191 0.013126907 0.018874597
-0.28864023 -0.24728173 -0.016850455
-0.20545776 -0.2120713 0.050006248
0.26875994 0.2127805 -0.2598913
-0.26841956 -0.098182686 0.0135968905
0.03688591 0.010439 0.049395252
0.2164402 0.20824619 -0.15290779
-0.2733981 -0.09686795 0.16965224
-0.1225522 -0.1049027 0.02805547
0.0859622 -0.0539749 0.0110106915
-0.2741396 -0.09536366 0.07399136
-0.008716671 0.07860318 0.001958268
0.025113111 -0.04972219 0.05654552
0.153809 0.13661113 -0.09481329
-0.012584895 -0.27150497 0.09721146
0.20373611 0.09652432 -0.07773739
-0.09306647 -0.15112928 0.16597147
0.28983685 0.23618738 -0.23580371
-0.053378746 0.10705739 0.00446688
-0.094297454 0.025199942 -0.031117804
0.019795088 -0.021283232 -0.029041432
0.06454692 -0.017488336 0.020216761
0.26982647 0.24744113 -0.24224213
0.24500927 0.16031161 -0.19127806
0.28430206 0.19365709 -0.22164041
0.054687116 0.11948806 -0.10349365
0.022508116 0.1955079 -0.13563162
0.2246556 0.2538614 -0.16291079
-0.122056946 -0.14422782 0.19369696
-0.25453177 -0.11938685 0.17241745
0.08879436 0.15654023 -0.09952923
-0.07252228 -0.23925212 0.16708589
-0.08344128 -0.011531326 -0.0749185
0.19738181 0.3081086 -0.20734903
0.15433593 0.1545425 -0.05997265
0.104563534 0.10481493 -0.019207582
-0.09340032 -0.027009847 0.16900131
-0.091210455 -0.104736954 0.16725606
0.12096415 -0.035875186 -0.1250876
-0.24029696 -0.044801787 0.13874039
0.0034199643 -0.07654053 0.17297599
0.18993324 0.262587 -0.18622611
0.15115198 0.07398464 -0.1264857
-0.068985805 -0.16608249 0.17220862
0.13689812 0.21137865 -0.17534654
0.1615466 0.2786437 -0.19513425
0.1201322 0.090022445 -0.09798742
0.23503052 0.29493147 -0.15369967
-0.12187132 -0.081090525 0.21841949
-0.13433473 -0.25131378 0.06467416
0.19803879 0.30804518 -0.20847374
0.11467851 0.12047466 -0.076461196
0.13845722 0.15837003 -0.060904223
-0.22206151 -0.02407674 0.105748855
-0.0048288316 -0.06940155 0.041215193
0.008739662 0.095034055 -0.04019904
-0.14535673 -0.1410325 -0.009511175
-0.09865896 -0.15667884 0.17841662
0.0892665 0.21550328 -0.061516076
0.06329935 -0.066191785 -0.081687085
-0.07826227 -0.25564185 0.13842446
-0.014825531 -0.15967433 0.21927738
0.16813928 0.09367311 -0.23138833
0.00717182 -0.15229489 0.07565629
0.21828589 0.17510033 -0.19041878
0.21188514 0.23002595 -0.1541848
-0.13834979 -0.08835483 0.15046756
0.28625304 0.18477766 -0.1916625
-0.13608229 -0.05082322 0.14862862
0.116784774 0.17864703 -0.15762816
-0.25353256 -0.09649927 0.038075663
0.07606403 0.15456894 -0.051716417
-0.03979267 -0.033727586 0.13335136
0.14062674 0.24173298 -0.15972099
0.019714193 0.06639765 -0.05351585
-0.15928733 -0.11444579 0.16245854
0.25332192 0.23530224 -0.2038656
0.17997271 0.20141888 -0.16298848
0.061539486 0.052526683 -0.023293842
0.09976305 0.0064831306 -0.07875307
0.19697344 0.29409078 -0.17559707
-0.06307988 -0.0742068 0.12393579
0.02142045 -0.040101778 -0.0050686803
-0.038600083 0.051886287 -0.043556977
-0.052399777 -0.27880543 0.15552305
-0.047052223 -0.14579965 0.1447309
-0.031506013 -0.12962057 0.17797497
-0.14993335 -0.14961782 0.18834648
0.2154531 0.22067599 -0.1965547
-0.10155176 0.034518853 -0.021698527
-0.09985677 0.009634793 0.12551522
0.06870916 0.052202377 -0.07546112
0.1734102 0.044557855 -0.05631217
-0.04517442 -0.16866647 0.1755336
-0.09640072 -0.011328984 0.011179865
0.15649974 0.072271705 -0.15052082
-0.030580383 -0.20215927 0.1751476
0.22046477 0.15951315 -0.14991058
-0.2033931 -0.14441119 0.1751478
-0.15388253 -0.14824042 0.23877144
0.0040178373 -0.1154952 0.0645758
0.1466211 0.21868134 -0.16218202
0.22997941 0.2792894 -0.18093993
-0.043973733 0.11841457 -0.058048073
0.012530483 0.2213993 -0.14792196
-0.12728487 -0.11408102 0.19468467
-0.23664507 -0.14205433 0.035053264
-0.084674746 -0.1220755 0.19974497
-0.004281142 -0.11827707 0.14317062
-0.09765259 -0.13111237 0.22478166
-0.043938447 -0.1118651 0.1630107
0.23557493 0.26167658 -0.17683256
0.14798927 0.13096584 -0.12507144
0.1619805 0.29578066 -0.1952852
0.13983352 0.16110626 -0.14267781
0.13872875 0.13074647 -0.0840133
0.2502028 0.2630431 -0.22840415
-0.13251936 -0.19331753 0.2070831
0.1553419 0.19601059 -0.17198096
0.24051017 0.2314143 -0.18681644
0.09419355 0.12423135 -0.018478995
0.12319142 0.25192523 -0.20675907
0.15046075 0.22793452 -0.13233279
0.022165092 -0.0016521363 0.014762685
0.22793095 0.24659885 -0.16272101
-0.17608726 -0.14403442 0.15265718
-0.18636225 -0.09147583 0.10682961
0.006819843 -0.09983542 0.13373984
-0.08924408 -0.08774241 0.22653615
-0.07879382 -0.093469165 0.19625677
-0.059018735 0.04795139 -0.05701273
-0.12697923 -0.21469134 0.046224155
-0.031515352 0.18832594 -0.099268034
0.0033553971 -0.2576941 0.06283932
0.07219423 0.24729091 -0.15688185
0.077929206 0.11648971 -0.064131215
-0.2758094 -0.1840222 0.10404654
0.015776414 -0.18262614 0.013464196
0.055563293 0.20311277 -0.14122769
-0.23071276 -0.08926075 0.14897208
-0.2603806 -0.15836337 0.012998632
-0.14218347 -0.20911497 0.09909987
0.24217847 0.1981751 -0.18145233
0.22437568 0.1954617 -0.19406016
0.0041871625 -0.20580138 0.1422469
0.12737131 0.06641178 -0.03944813
-0.17299205 -0.043412406 0.17761892
0.06749043 0.02050175 -0.06033024
-0.020552691 -0.050847173 0.04771146
-0.1499411 -0.0048795347 0.09983003
0.1972578 0.053753033 -0.12355867
-0.02531214 0.04138215 0.033713687
0.08464227 0.04147042 -0.023591999
-0.18399611 -0.2733282 0.065448135
-0.095346525 -0.09270562 0.18020283
-0.019494997 0.047966324 0.045697685
0.0011823748 0.058934897 -0.0013196499
0.06521545 0.17215815 -0.18669894
0.019805992 0.12390754 -0.05151228
-0.023054045 0.116698176 -0.050841264
0.027064 0.06902336 -0.010890175
-0.020000942 0.022255445 -0.049146812
-0.26400492 -0.0486951 0.13650233
0.08659832 0.16972552 -0.18502858
-0.14154997 -0.019371001 0.13924226
0.23296972 0.16734332 -0.1272141
0.087138735 0.08259896 -0.003872841
0.19693254 0.115144335 -0.07105175
0.028777596 -0.076230764 0.102544576
0.18552978 0.11660466 -0.11658998
0.1216693 0.08409464 -0.103549674
0.10675741 0.29521808 -0.20796317
0.00060157565 0.062408987 -0.07382861
-0.07463952 -0.05911304 0.11965027
0.020639353 0.0714779 -0.067958124
-0.12087585 -0.00940565 0.101396635
-0.0054457528 -0.13693039 0.13285641
0.15673482 0.04757585 -0.045043234
0.19550823 0.09391796 -0.118521765
0.005965486 -0.18401884 0.16322732
0.022107188 0.02729145 0.019180218
0.20319816 0.24316005 -0.09678218
-0.14451647 -0.22888924 -0.0074379453
0.1942392 0.27339834 -0.1571098
0.032088757 0.08195063 -0.13677828
-0.17249756 0.02246466 0.025885677
-0.18886018 -0.16851439 0.061045453
-0.059201505 -0.24131584 0.082037225
-0.12672868 0.033801258 -0.054408293
-0.016815407 -0.18062055 -0.054224018
0.0641124 0.115004666 -0.0957654
-0.2159629 0.03626519 -0.023093648
0.09184823 -0.070736334 -0.029411817
0.15551405 0.052303635 -0.020862382
-0.15873025 -0.051974922 0.15268326
-0.15412252 -0.2497489 0.14905994
0.03037919 -0.21917473 0.04637167
-0.031608548 -0.004399909 0.14437614
0.07676204 0.14371863 -0.064268194
-0.0015640847 0.109427124 -0.071944095
0.1368352 0.047777534 -0.10399512
-0.15478858 -0.24522705 0.031792324
-0.1670516 -0.097743206 0.0074261264
-0.087763615 -0.06976121 0.14679064
-0.0641709 -0.06452561 0.12954791
0.14460683 0.33312982 -0.2573756
0.079761274 -0.02523923 -0.063938916
0.01713964 -0.19537811 0.16279854
-0.16319336 -0.03171214 0.11903194
0.0037636044 -0.10868677 0.09309635
0.088648014 0.06401448 -0.04987289
-0.16599113 -0.11863722 0.029221935
-0.043043047 -0.09687143 0.087072186
0.2159627 0.21802099 -0.16346332
-0.12479167 -0.085229225 0.17730506
-0.17930354 -0.31217852 0.041407846
-0.0040834183 0.069321334 -0.0052536572
0.1499645 0.18272902 -0.07916618
-0.23669207 0.014771972 0.10183722
-0.031712797 0.06507142 -0.08414677
-0.043025564 -0.09774778 0.062874086
-0.07315276 -0.18764961 0.1327487
-0.2551827 -0.23339725 -0.038327873
0.108685605 0.22821562 -0.12293224
0.20519084 0.19482121 -0.18274164
-0.31463322 -0.14766684 0.06831863
-0.19745858 -0.11787366 0.174255
-0.11731575 -0.11846521 0.14942127
-0.10930202 -0.092097856 0.16545273
