# .PCD v0.7 - Point Cloud Data file format
VERSION 0.7
FIELDS x y z
SIZE 4 4 4
TYPE F F F
COUNT 1 1 1
WIDTH 1000
HEIGHT 1
VIEWPOINT 0 0 0 1 0 0 0
POINTS 1000
DATA ascii
0.03448298 -0.2288739 0.0056474516
-0.107806526 -0.13679096 0.07637489
0.07753621 -0.24493115 -0.044317793
0.06864526 0.32410282 0.11927581
0.18213865 0.24276789 0.08292773
-0.090248026 -0.21943055 0.00795433
0.13012944 0.30021513 0.085025445
-0.119137 -0.31860653 -0.14118326
-0.0630003 -0.10731693 -0.058615245
-0.18273255 -0.1736588 -0.08378665
-0.17297456 -0.36272004 -0.055892225
0.15983844 0.401831 0.038391326
0.19759049 0.4048523 0.09144705
0.15583605 0.43429607 0.13159753
-0.053655375 -0.3039986 0.017734382
-0.09500713 0.0138935745 0.03347351
0.11053679 0.20248131 -0.025199372
-0.00019504402 0.26804504 0.06184549
-0.08693974 -0.37174737 -0.015314226
0.035239134 0.2319951 0.06706763
-0.035001688 -0.2098518 -0.008987356
0.18169367 0.31952345 0.028450381
-0.14256223 -0.27964607 -0.022481976
-0.21763937 -0.36237618 -0.019860499
0.17643394 0.36845347 0.0435011
0.11785026 0.28232458 0.075155124
0.06486241 0.11609371 0.06728952
-0.12259904 -0.30012336 0.025458723
-0.10055531 -0.33089453 0.038121656
0.07189245 0.15108854 0.04679456
0.065398306 0.39545363 -0.033779774
0.12280006 0.1529241 -0.07477078
0.017573697 0.14270715 0.049118236
0.08328426 0.21026401 0.0070395223
-0.076039545 -0.33732575 0.0027538643
-0.08588357 -0.25540093 0.025109416
-0.10884838 -0.2119285 0.082388304
0.06565303 -0.18129969 -0.065045655
0.053473838 0.04730158 0.031323306
-0.03472243 -0.15886433 -0.005468146
0.15087256 0.15458047 0.0132116815
0.03991917 0.3031351 0.094510585
0.020887053 0.01082876 0.06317603
0.11467282 0.11722263 -0.016294973
-0.08343884 -0.310371 -0.028844036
0.13559416 -0.21182492 -0.15376715
0.02249191 0.054800082 0.067520514
0.08749714 0.3595276 0.06435066
-0.022667766 0.2248099 0.037956763
-0.186227 -0.17199026 -0.15225233
0.13025612 0.22954752 0.06952498
0.084259145 -0.056148417 -0.095254086
0.07749821 0.32586068 0.07057601
0.03702396 0.035603777 0.00419994
-0.019662816 -0.25401515 0.044295453
0.05349254 -0.25366473 -0.052855704
-0.045363147 -0.09495422 0.025692735
-0.044577904 -0.061690778 -0.0077117844
0.10334853 0.13880107 -0.02625904
0.0952686 0.36326498 0.05640117
-0.13100304 -0.12772016 -0.018376285
0.056178175 0.27173916 0.044574447
0.014806222 -0.3519123 -0.010570762
0.07046472 0.31858942 0.0922393
-0.008857871 0.1173869 0.07240792
0.01568905 -0.191248 0.008435725
-0.23307393 -0.23783475 -0.040420692
-0.041986905 -0.24263503 0.06679483
-0.04350653 -0.09906732 -0.024283329
-0.08455544 -0.19380268 -0.12584467
0.0051711462 -0.215435 -0.007815042
-0.1755332 -0.081028 -0.120424226
-0.1245286 -0.21363187 0.070202895
-0.023720343 0.039415102 0.06911523
-0.04316786 -0.206429 0.09094601
0.085358515 0.2277094 0.028739013
0.087826625 -0.31306806 -0.031886004
0.07030648 0.19997205 0.049198773
0.11370051 -0.22255024 -0.09009238
0.14489505 0.16752763 0.042876173
-0.009344078 0.14780177 0.025029685
-0.0901132 -0.17345065 -0.007694891
0.11665418 0.10820131 0.019000292
-0.07054243 0.0122776525 0.031439777
0.013890662 0.009190457 0.045457605
0.11438598 0.43574542 0.07895467
0.18273157 0.41296706 -0.0048469594
-0.08165212 -0.036749877 -0.033915468
-0.17845103 -0.34765938 -0.048353087
0.08822838 0.36128733 0.011795495
-0.13082482 -0.23364022 -0.007028471
0.0923854 -0.07155207 -0.011832681
-0.22481236 -0.14623278 -0.13248506
0.15013525 0.23282671 0.042355545
0.08133643 0.26004815 0.03525594
0.0013902494 -0.07398866 0.003922205
0.05984247 0.31965408 0.11556311
-0.042911794 -0.11719586 0.013258515
0.10907619 -0.2444983 -0.014953481
0.069557145 -0.14294153 -0.07892997
-0.08377155 -0.34560576 -0.21374856
-0.07217514 -0.3667926 -0.2342192
0.007918343 -0.36304507 -0.057655323
-0.020896073 0.22237453 0.020309512
-0.13530238 -0.086257994 -0.009060407
-0.04991469 0.044957746 0.009798983
0.092388764 -0.0008773736 0.028938796
-0.076705724 -0.05577712 0.0059833378
0.0489877 0.23594123 0.07914915
0.16039985 0.2613777 0.03768553
-0.011700009 -0.17418142 0.022795843
0.049421065 -0.18920559 -0.014364983
0.077896796 0.09056115 0.06965648
0.0021851815 -0.24519998 0.06542254
-0.050915975 -0.029589787 -0.023903664
0.08145347 -0.06414575 -0.040255517
-0.07390554 -0.20592661 -0.0069894725
0.07908981 0.39773017 0.034666933
-0.045397714 -0.22674844 0.07800489
0.105737515 0.3659819 0.10766678
-0.040283665 -0.35896266 -0.02327283
0.064009 0.38725883 0.04032571
-0.09998098 -0.06521417 -0.10085481
-0.018346488 0.2600919 0.05796114
-0.065631285 -0.28260964 -0.008874803
0.10665774 0.11649252 -0.04687131
0.0413668 0.29445264 0.028421925
0.046901274 0.27495235 0.079809815
0.16894735 0.25592506 0.028027533
0.008275215 -0.058558572 -0.011005967
0.124545686 0.11199374 0.07565801
-0.03684307 -0.04181939 -0.061923455
0.0045768726 -0.14938773 0.040519554
0.01376219 -0.052512024 0.009813634
0.034834024 0.1128435 0.03020535
-0.19171803 -0.31686944 -0.10864985
0.007760715 0.31253442 0.072288655
-0.00024682545 -0.26020256 0.053284854
0.034667008 -0.048636224 0.028949887
-0.104056045 -0.32266647 0.061575674
0.02462019 -0.27190506 -0.063731015
0.022072708 0.18617626 0.007165339
-0.08047168 -0.14699316 -0.0006245239
-0.13331038 -0.29667515 -0.2005748
-0.16465761 -0.32719243 0.032948542
0.05377884 -0.11636822 -0.24813475
0.0963682 0.13500094 0.0013728049
-0.0061098565 -0.34009606 -0.048300326
-0.083945096 -0.34911948 0.031479914
-0.00030176275 -0.0285056 0.0051577883
0.08002581 -0.21922795 -0.099956065
0.16872759 0.18415391 -0.0774757
0.058834687 0.12849636 0.07307448
0.05938103 0.2942337 0.035749875
-0.027330637 0.051231414 0.055653892
0.113100156 -0.23956054 -0.09584728
0.008612827 0.22306947 0.052391116
-0.0347938 -0.36869928 0.047861073
-0.05190536 -0.09478369 -0.03394232
0.0019332223 -0.28292972 -0.06340066
0.20699415 0.29143655 0.08591494
0.07532167 -0.30130675 -0.080378674
0.023816679 0.3348836 0.03349165
0.032285966 0.11637067 0.028264744
-0.14270467 -0.13693097 -0.12526044
-0.16336852 -0.085107885 -0.06615986
0.11864487 0.21265183 0.049998987
0.13764344 0.05031189 0.027567888
-0.073117614 -0.24360305 0.027064357
0.057376087 -0.027751992 -0.016635647
0.0046105776 0.17618485 0.07622669
-0.01578793 0.0051545817 0.0016443284
-0.14280921 -0.02323098 -0.0969589
-0.22161779 -0.11426128 -0.11348228
0.08984321 -0.22224535 -0.24723028
0.00844443 0.1847348 -0.02771062
-0.014228934 -0.07011508 0.018662209
0.018509317 -0.0991931 -0.0072807153
-0.07477704 -0.20468971 -0.01563199
-0.17350459 -0.20761128 0.0037448865
-0.11682292 -0.30050942 -0.09930584
0.24794243 0.41149336 -0.025169661
0.07267038 0.07711382 -0.030898752
-0.026967395 -0.008995593 -0.010004844
-0.06625661 -0.21881469 0.012250706
0.08248676 -0.17292818 -0.06691699
-0.08855542 -0.2820599 0.0065186983
-0.040786915 0.053025845 -0.03362793
-0.079291426 -0.37779894 -0.007993539
0.09848925 -0.14767754 -0.21356843
0.010739435 -0.30887222 -0.03821095
0.22293198 0.37682807 0.016676163
-0.016267294 -0.29341164 0.052667983
-0.0024696735 0.022865143 -0.0067954254
-0.25515088 -0.25532708 -0.074443385
0.12315128 0.20679462 0.078980245
0.042956077 0.13034423 0.08080117
-0.106830105 -0.2666568 0.008614886
0.052791778 0.1795166 0.08506515
-0.19519739 -0.2411767 -0.20441288
0.13133162 0.33803135 0.05703315
-0.042489346 -0.3065371 -0.22449869
-0.049137108 -0.28560108 -0.026669065
-0.04006242 -0.3140233 0.03141713
-0.2115793 -0.32977474 -0.059296075
-0.12941936 -0.21070781 0.079669245
0.014901653 -0.14896688 -0.08934234
-0.20351373 -0.23694111 -0.088804856
0.13080245 0.1005101 0.08876667
0.14187329 0.2906442 0.0395274
0.082301915 0.29445523 0.036256474
-0.09906739 0.08126503 -0.048709944
-0.14187098 -0.3174313 0.0006569788
0.0062446645 0.38310793 0.070976645
0.08705792 -0.054002807 -0.04733945
0.11282082 0.42808387 0.06781836
-0.16544938 -0.21435304 0.039137058
-0.06909236 -0.30922183 -0.15914948
0.14078522 0.3015399 0.05434266
0.023684235 0.26700372 0.0946162
-0.049591318 -0.22956362 0.028858671
0.15933941 0.13085808 -0.013970284
0.03881093 -0.23172548 -0.051728584
-0.06712902 -0.19695756 -0.012496436
-0.019896375 -0.0885625 -0.009241555
-0.024293251 -0.07898785 0.023738695
-0.15298739 -0.1628257 -0.04761498
0.13261898 0.12844326 0.028066756
-0.0004205919 -0.18571213 -0.010640394
0.04255225 0.37118638 0.016364217
0.09235333 0.085141666 0.038175784
0.25950617 0.3564775 0.07242238
0.13089402 0.40597168 0.019095987
0.2211513 0.33259135 0.05829301
0.15840288 0.22704235 0.07832912
0.042509228 -0.30136588 -0.052571878
0.015284679 -0.31407446 0.020194015
0.04044692 0.019249415 0.079962045
0.05891614 0.4160766 0.051977113
-0.091251165 -0.12698627 0.0404651
-0.033934638 0.19754861 0.07253657
-0.19425225 -0.24566577 -0.089884646
-0.15071173 -0.31918228 0.006851184
0.02982445 -0.16557343 -0.020867702
-0.16690923 -0.16034321 0.04842948
0.22745511 0.39254418 -0.054966632
0.061858892 0.25648996 0.031005457
0.027629765 -0.046444003 0.032085393
0.12978242 -0.032172866 -0.035303947
-0.19532718 -0.11055399 -0.09448526
-0.05177587 -0.04257439 0.026443278
-0.01722087 -0.3875763 -0.007688628
-0.09295225 -0.27030703 0.03422296
-0.17853384 -0.29395437 -0.05914707
0.2444029 0.3099986 0.032806497
0.17402041 0.094408266 0.029872576
-0.07343273 -0.002909514 -0.10287267
0.20697142 0.26633066 0.06973248
0.025724703 -0.27652013 -0.050617415
-0.17641652 -0.17047273 -0.02528128
-0.027323449 -0.07329437 0.014507195
-0.097037934 -0.16395429 0.029967245
-0.14399885 -0.17015256 0.07384167
-0.00972952 0.11891145 -0.037764333
0.048283182 0.06713662 -0.006935677
0.15070955 0.3826998 0.06358745
0.018804273 -0.31617332 0.009579493
0.023917878 0.13662657 0.07882741
0.024892012 0.040518746 0.06948131
-0.17296737 -0.24748401 -0.10509421
0.038149156 0.3632383 0.112185955
0.06764417 0.186832 0.076090746
-0.04098658 -0.13530003 -0.036949925
0.041559678 -0.029168488 -0.0051677856
0.091554135 0.38568878 0.07957919
0.1254293 0.37149078 0.08656622
-0.10261333 -0.07773492 -0.07589261
0.018892102 -0.05786875 -0.023373393
-0.21409559 -0.16890708 -0.08607741
0.029198473 0.39269134 -0.036911435
-0.15620358 -0.2892101 -0.06711464
-0.05653398 -0.3353636 -0.0056873364
0.14701611 0.45490143 -0.09994322
-0.039049786 0.12126976 -0.03828036
0.03684132 0.29441804 0.0423447
-0.08907466 0.07640436 -0.14097263
-0.03998921 -0.13608433 0.023543708
0.11061091 -0.26661044 -0.05459862
0.19292845 0.30236107 -0.037820827
-0.21748169 -0.25834888 -0.09233936
0.017091095 -0.26896206 -0.0124460505
-0.08775187 0.0041272356 -0.033022262
-0.11246476 -0.06295379 -0.053222656
0.06339786 0.0048637767 0.03413231
0.14241661 0.10451383 -0.04322553
0.13496928 0.29615334 0.0583979
0.050070554 0.18583417 0.028160496
0.06828366 0.18040872 0.073386356
-0.13568151 -0.37173462 -0.043234944
-0.02638211 0.28742635 -0.052639227
0.17203191 0.44183868 0.011204819
0.15820314 0.24831223 0.043326043
0.16333838 0.38385415 0.02691107
-0.12342319 -0.04499222 -0.06765736
0.046866596 0.07261166 0.06465291
0.020769183 0.36270756 0.09449176
-0.01833775 -0.1642401 -0.03481573
0.038269717 0.24007417 0.06470057
0.20453869 0.3808002 0.07196526
-0.08366434 -0.09272765 0.025590042
-0.07876605 -0.095890164 0.04963274
0.07991373 0.3038131 0.05288539
-0.04156407 0.044942133 0.0020574357
-0.033817355 0.13308904 0.060255315
-0.032804307 -0.28160974 0.03856585
-0.12096694 -0.040750254 -0.0005093842
-0.03387744 -0.3538121 -0.17950502
0.21187149 0.40771464 -0.00064946915
0.13245313 0.018300436 -0.025609152
0.20126165 0.18674693 0.04318117
-0.10181692 -0.35324186 -0.20017947
-0.025576824 -0.35205662 -0.02099073
-0.07428873 -0.27755824 0.03485375
0.06865264 -0.08726261 -0.07849493
-0.035297345 -0.28852484 0.04760644
-0.09419979 -0.09558885 0.03885501
0.08194878 0.1274821 -0.0024938004
0.025315274 0.3815426 0.04541502
0.03703694 -0.06187814 -0.00097538554
0.05259152 0.3259313 0.004764193
-0.14802986 -0.17675617 -0.004129445
-0.1264649 -0.18454838 -0.038024344
-0.018517286 -0.024095874 0.03168577
0.20564088 0.42853615 -0.07601722
0.026208721 0.3231926 0.020410618
-0.15387861 -0.3317643 -0.02821515
0.17537452 0.40687636 0.038450304
-0.2022263 -0.12084086 -0.14623085
0.07036674 0.12540863 0.039348435
-0.030500866 -0.25446522 0.015019068
0.0117962975 0.060426664 -0.019007582
-0.024164712 -0.21553926 0.0066538816
0.031976707 -0.19205391 -0.23344783
-0.023492426 -0.31953925 -0.029580537
0.11152554 -0.21740453 -0.16073301
0.03567102 0.3045249 0.07645937
-0.102465674 -0.16557254 0.073629476
0.04629237 0.39499444 0.006684708
0.054395713 0.24673016 0.020176126
0.08689744 0.4277575 0.05008467
0.06781788 0.28522116 0.090807505
-0.017148262 0.22915412 0.020142447
0.071890585 0.007575585 -0.11003614
0.023891065 -0.019907972 -0.008951952
-0.18540132 -0.20720722 -0.039150335
-0.04290956 -0.09637075 0.02335125
0.022759603 -0.012688205 -0.027926432
-0.18165156 -0.2051214 0.059269343
-0.23226789 -0.163311 -0.036665555
0.040056042 0.16147463 -0.0049065463
0.09360562 0.41405234 0.10716102
0.0097564375 0.089220054 0.07321414
-0.057633754 -0.23422213 0.06876523
0.01811871 0.17096055 -0.017023794
0.1115217 0.19972508 0.061626595
-0.07547331 -0.33630425 -0.0049108695
-0.20148489 -0.25886232 -0.027213909
0.13734794 -0.006485234 0.029144216
-0.12915647 -0.18615244 0.020480677
0.13665703 0.27600384 0.018174766
-0.08081119 0.06744283 0.009612776
-0.14280717 -0.29447109 -0.020234074
0.16972406 0.33185637 0.05715892
0.017738983 -0.12802441 -0.0465542
0.07626599 0.25753838 0.09169452
0.023971757 0.25444973 0.054547206
-0.011023054 0.00944795 0.021795606
0.003875237 -0.23902158 -0.03585738
0.106230736 0.39697078 0.08838755
0.1049832 -0.24797647 -0.083932616
-0.031178258 0.032875277 0.00073157664
-0.016505968 -0.2840314 0.010696864
-0.10585393 -0.082678445 0.003937869
0.10832168 0.17152084 -0.031130603
0.08519923 0.16605866 0.004314157
-0.18483475 -0.3703488 -0.05485627
-0.09793826 -0.081339166 -0.038397912
-0.09002984 -0.3491608 -0.0053112055
-0.10154513 -0.3567164 0.033276785
-0.07969747 -0.19297872 0.038508184
0.09684086 0.09398547 -0.012746874
0.14884764 0.29999572 -0.0059280605
0.121404395 0.29162654 0.07225742
-0.06194717 0.06885923 0.0067793108
-0.05252198 -0.17529768 -0.02850681
-0.008541374 -0.37319523 0.0006624085
-0.00809968 0.32233828 0.021134872
0.1416167 0.25334203 -0.004685703
-0.029627547 0.24657762 0.0028044025
0.031051593 0.2527591 0.01331784
0.10931895 0.1504317 0.069919765
-0.16225052 -0.12105699 -0.044480674
0.09226836 0.33576253 0.115385756
-0.0010563943 -0.3024487 0.013181102
-5.202193e-05 0.30760667 0.04406504
0.087836504 0.21765207 0.015160277
0.04682719 -0.26351798 0.034628734
-0.09326124 0.06618063 -0.015578514
-0.1528813 -0.18035038 -0.058090147
-0.00927589 -0.3857297 -0.039619032
-0.17028171 -0.28903562 0.01607973
-0.01641045 -0.0383385 0.044044483
0.009505092 0.35448554 0.041543912
0.14917985 0.23380046 -0.051879227
1.6317474e-05 -0.21591558 0.011217255
0.14945206 0.044302683 0.00038261327
-0.07948112 -0.25687477 0.028998403
-0.10950962 -0.0925135 0.018058347
-0.13332088 -0.1821573 -0.032426737
0.008306001 0.18139523 -9.7285374e-05
0.11271881 0.44731882 0.02138184
-0.07514536 -0.21958111 0.06906084
-0.069717035 -0.055815995 -0.037890155
0.044727966 -0.07794852 0.0034349966
-0.033061918 0.066062845 -0.006981924
-0.030283442 -0.29845023 0.016875796
-0.022443263 -0.35686797 -0.0057537816
-0.1440519 -0.30021366 -0.017870978
-0.19114703 -0.15164615 -0.043727703
-0.02868931 -0.29316518 0.032077894
0.13825272 0.24408 0.055791132
0.096156865 0.31133452 0.030400662
0.070977874 0.36000225 0.040278353
0.05390382 0.102105685 0.072047405
-0.17288926 -0.1469635 -0.05818221
-0.10374022 -0.3704011 0.005236305
0.003489005 0.38662946 0.0033809165
-0.06629088 0.00553231 -0.05949025
0.10685181 0.3017548 0.078186564
-0.049976025 0.045755334 -0.096343435
-0.22447433 -0.22520548 -0.10808517
-0.07780925 -0.32207668 0.052282486
0.021030009 -0.30219916 0.030201174
-0.12789148 -0.26834518 0.07035555
-0.12781952 -0.29531673 -0.025288295
0.09686182 -0.043323886 -0.020163568
-0.20469175 -0.33257055 -0.013398485
0.020173777 -0.17311627 -0.018657068
-0.012639412 -0.17896828 0.014714307
0.057157174 0.20071761 0.04874616
0.016436286 0.04234206 0.054364417
0.08335503 0.3995383 -0.019802056
0.08356383 0.47204182 -0.037226807
-0.16711982 -0.14799796 0.037366908
-0.054940794 -0.27103508 0.027994554
0.09472061 0.035683528 0.032041818
-0.062213235 -0.20984387 0.008478594
-0.039725885 -0.1707956 -0.016403869
-0.17591685 -0.17635016 -0.0916713
-0.0076884003 -0.12307219 -2.0852414e-05
0.058100387 0.29734838 0.08044709
0.013099192 -0.10240868 -0.044181764
-0.10698935 -0.29975173 0.030746412
0.11192478 0.12329483 0.041198026
-0.20212685 -0.07708871 -0.1395017
-0.044301614 0.09187024 0.008366512
0.10218869 0.33965293 0.035821404
0.19212493 0.4390208 0.098675326
0.11464935 0.24943703 0.0988805
-0.036331054 -0.13942179 -0.048001647
0.14411494 0.04282338 -0.06694296
0.06238829 -0.34669095 -0.004798244
0.09213386 0.13950256 0.038385928
0.006653661 -0.24169621 -0.0503816
-0.02677102 0.29420623 -0.074993685
0.03858682 0.027388077 0.0010491248
-0.07607677 0.0072705103 -0.014126544
0.09395313 0.38768676 0.065692306
0.11414046 0.07102484 0.03491653
0.15323965 0.3982257 0.0414181
0.07494123 0.16107218 0.06344877
0.21055478 0.2946532 0.06341765
-0.24291323 -0.339369 -0.05410085
0.007823562 0.11664809 0.06109582
-0.06518715 -0.012093308 0.03999542
-0.058406405 -0.08523695 0.04662623
-0.032768667 0.1101046 0.044069905
-0.04213653 -0.09458952 -0.030817052
0.073487 0.35028905 0.097572014
0.0056517385 0.35400307 0.09802283
-0.026992243 0.27635506 0.018272273
0.002270643 -0.30090952 0.042989098
0.09396285 0.0938608 -0.017586725
0.048285086 0.24045171 -0.0323608
-0.015124467 -0.13893586 0.08817779
0.03189423 0.03541831 0.0041518854
0.011000309 0.3524202 0.079430975
0.07066166 0.07014034 -0.03750308
0.045326762 -0.30564186 -0.07643048
0.1500427 0.34766227 0.052260827
0.0092201475 0.43322617 0.029886616
-0.07123722 0.008699298 -0.0032249296
0.030278504 0.25741372 0.074677914
0.049734365 0.3757455 0.04224904
0.04142935 0.42083326 0.038136385
-0.12881602 -0.20297076 0.033972036
-0.22573106 -0.15051083 -0.0992708
-0.1594879 -0.25218552 -0.02808556
0.16067503 0.2688443 0.043651212
0.1069147 0.28316033 0.09323963
-0.22027107 -0.16563585 -0.059078638
0.012213454 0.08354581 0.05757192
0.021957494 0.2807895 0.035495643
0.0017565056 0.0036775707 0.024200357
-0.12778927 -0.13023224 0.0333137
0.15621597 0.042945344 -0.027496126
0.026202051 -0.26106605 -0.0778869
-0.18208152 -0.34911728 0.00842032
-0.10313808 -0.04137215 -0.016225321
-0.020531064 -0.20927732 0.07057034
0.054150708 0.41451573 -0.006728877
0.08498772 0.45001256 0.059582256
-0.0045555336 0.12618357 0.07448657
-0.15637496 -0.35297373 -0.008861453
-0.03098435 -0.31758207 0.047404934
0.037281606 -0.30952543 -0.05453212
0.17940888 0.21681452 0.04528844
-0.024541859 -0.3205949 0.0112288715
-0.04723121 -0.25882715 -0.2735584
-0.07598622 -0.059329513 -0.023377048
0.06497359 0.18309285 0.050509233
0.042540178 0.22661218 0.025454089
0.17067987 0.40400043 0.02825471
-0.05764331 -0.018018072 -0.008816199
-0.03946876 -0.21277374 0.0348475
-0.0636834 -0.09256171 -0.017140197
-0.0032267936 -0.13860421 -0.05748247
0.072790734 -0.30183783 -0.049617317
0.09414144 -0.15245523 -0.04162612
0.04349083 0.39304057 0.057019655
0.07284215 0.39858782 0.053206433
-0.032733817 -0.16778947 0.06396995
0.16681461 0.38072333 0.010146335
0.085239805 0.08435278 -0.0054358896
-0.004811719 0.2412242 0.09355399
-0.1594856 -0.1397781 -0.027288234
3.406029e-05 -0.17627254 -0.0063680843
0.037174456 0.15410757 -0.0063849622
-0.0064984076 -0.26835722 0.04584752
0.07499378 0.25322595 0.06703246
0.061594695 -0.12341628 0.035412647
0.06383334 -0.158537 -0.18901046
-0.08688067 -0.09132228 -0.001533264
0.07607481 -0.3111055 -0.033497788
-0.060539186 -0.17353135 0.04215154
-0.10325986 -0.13762107 -0.013340637
0.10854824 0.17847225 0.039478548
-0.24128416 -0.23842394 -0.053701065
0.01729984 0.11156859 0.018979046
0.09733392 0.15333788 0.04559043
-0.0734102 -0.027520465 -0.050006796
0.043214936 0.051388342 0.048136096
0.1242185 0.026846075 -0.03547964
0.036631748 -0.039506767 -0.025398755
0.11591793 0.32317066 0.039099004
-0.0155230295 0.12415858 -0.021859404
0.110662065 0.28479493 0.04023202
0.11097237 0.23192698 0.0091317855
-0.047387153 -0.1188276 0.044880077
-0.14098772 -0.25107238 -0.037117645
-0.17322783 -0.2843296 -0.18985139
-0.020608334 -0.27255505 0.06648631
-0.07530542 0.005654822 -0.007048952
0.14636497 0.12309446 0.019307254
0.020808764 0.2697698 0.0006995342
-0.17466411 -0.23576534 -0.021245386
-0.25181693 -0.30288884 -0.10280351
-0.026314372 -0.04495985 0.03957128
0.10385616 0.21315971 0.07119379
0.17233332 0.24725637 0.05678505
0.06586064 0.1703857 0.068787605
-0.0860091 -0.2275897 -0.0059645153
0.027316408 0.04789645 0.0570043
-0.07856595 -0.27441543 -0.26989388
0.022644298 0.019878343 -0.017839594
-0.017730122 -0.06832827 0.021250525
0.08638177 0.2130863 0.06383836
0.018359577 0.14230794 0.06789105
-0.14605121 0.021950023 -0.06027507
0.165935 0.4092205 0.08815775
-0.0028688079 -0.19990045 -0.14662306
0.113251254 0.37877873 0.09638193
-0.07569776 -0.2903068 0.027429128
0.110282406 0.026755845 -0.026332451
0.082005665 -0.24640869 -0.09984502
-0.00019855602 -0.27698767 -0.032435983
0.037875805 -0.41530895 -0.10620374
0.13693283 0.22772707 0.04193682
-0.15706053 -0.16683033 -0.07482637
-0.03243437 0.09209675 -0.014588183
-0.15491876 -0.19718324 -0.04763605
-0.00447222 -0.06251678 0.05106028
0.13433124 0.21646897 -0.0016995217
0.021770278 0.24192265 0.027610354
-0.27307257 -0.3154957 -0.08368467
0.02357429 0.064064376 0.0120196445
-0.21037844 -0.109112926 -0.17200436
-0.15060708 -0.19405827 0.04988869
0.0767456 -0.13936476 -0.12901539
-0.044346943 0.04055567 0.0376258
-0.18025437 -0.14809956 -0.112912074
0.019713517 -0.25702268 -0.07522534
0.11606082 -0.24927469 -0.021874143
0.046021745 0.3529534 0.0330366
0.16924591 0.43773976 0.08337134
-0.09502454 0.06447964 -0.0023687505
0.14194147 0.18561041 0.006240001
0.15349464 0.3501233 0.09830786
-0.07887956 -0.27874455 -0.0055709784
-0.026121391 -0.22932827 0.05180252
0.029038055 0.27844858 0.076048374
0.050639406 0.05669647 0.04316905
0.07027604 0.0074420897 0.023675546
-0.12943222 -0.18725197 -0.016221523
0.004420586 -0.21682629 0.019345956
0.055593684 -0.2345741 -0.15670152
-0.03414775 0.19270507 -0.016920146
0.19329047 0.4170828 0.030543067
-0.07247046 0.11667408 -0.121757366
0.21822974 0.39522344 -0.05946562
0.12101122 0.27620167 0.08202022
-0.10328936 -0.3518647 -0.013382835
-0.10560355 -0.22791377 0.03561492
0.027784932 0.105874054 0.01320995
0.14378458 0.089905456 -0.0031171623
-0.07873032 -0.27483752 0.014707616
-0.040859077 -0.17920329 0.05789525
-0.08552789 -0.12038769 -0.0729659
0.041052137 -0.1732138 -0.043133423
0.08542661 0.19288278 0.08074243
0.16613568 0.08065485 -0.049324837
0.08823019 0.05514689 0.0069899824
-0.20898022 -0.1284837 -0.066334195
-0.02768403 -0.012610156 0.0036282067
-0.17751881 -0.26216376 0.009829874
0.02332326 0.2295575 0.014468863
-0.10516478 -0.060039733 0.030813675
0.09545945 0.23274855 0.08559885
0.1860137 0.41015142 0.08718289
0.06281914 -0.06017532 -0.020268477
0.19360104 0.30136803 0.078122474
0.085792944 -0.04029367 -0.0028711993
-0.1253095 -0.28928438 0.029000137
0.14594288 0.28864014 0.09243989
-0.062450845 -0.3605031 -0.22155151
-0.20122167 -0.2258223 -0.0919462
0.018799394 0.35368198 -0.005361782
-0.0706056 0.05528931 0.01425077
-0.030501131 -0.10132332 -0.00019007326
0.057894353 0.36765808 0.055723246
-0.07781945 -0.15483402 -0.06114741
0.0069219177 -0.11303413 -0.053726245
0.14940405 0.24136324 0.066188745
0.22186379 0.3776375 0.034564495
-0.1616862 -0.060368095 -0.07194793
0.04252366 0.18189467 0.043229986
-0.0018404515 0.2425753 0.032742124
-0.11113572 -0.08455621 -0.11975688
0.097340114 0.11277587 0.0027713943
0.14363761 0.18649921 0.015040314
0.06486267 -0.04733022 0.039843976
-0.059196852 -0.2429552 -0.007245248
0.02661574 -0.35275787 0.00033793706
-0.11357117 -0.108652644 -0.042046007
0.055590447 -0.026233057 -0.006171354
0.113119856 0.37380546 0.09509847
-0.03948781 0.055084158 -0.021538366
-0.033919025 -0.15445454 -0.050859693
-0.14287642 -0.10844252 -0.03950862
-0.25090948 -0.21828172 -0.07822643
0.0075016874 -0.20596376 -0.25082096
-0.01569216 -0.00425103 0.023639644
0.082983345 0.12762797 0.08959548
0.00503707 -0.26631606 0.040974166
0.20886007 0.22953969 -0.007919264
0.1825446 0.14781617 -0.038589485
-0.010848436 -0.39300647 -0.12878214
0.04836551 0.1533786 0.048298895
-0.042624976 -0.2623166 -0.014672996
0.023497865 0.45248377 0.058257945
0.12833269 0.28516275 0.09098075
-0.056578986 0.046923038 -0.0122000165
-0.061616145 -0.07884621 -0.0078042825
-0.24147291 -0.13862361 -0.017194321
-0.019350795 0.10887127 -0.0046523064
0.06684791 0.41845414 -0.03533258
-0.08535198 -0.2680929 0.05517582
-0.11306309 -0.13684456 -0.04895767
0.012697578 -0.082616806 -0.02575924
0.08441214 -0.0076376908 -0.0026417028
0.0929542 -0.16592576 -0.045682095
0.11283422 0.43000966 0.08055007
-0.0097157 0.0035410272 -0.027561968
-0.063801914 -0.067159705 -0.04166185
-0.08532118 -0.22357813 0.039896034
-0.0342881 -0.011799038 -0.041798756
0.013004879 -0.14278762 -0.11299119
0.0518884 0.34113222 -0.010415963
0.096554205 0.42334566 0.036569215
-0.073054895 -0.38824168 -0.15509982
-0.058728024 -0.24450965 0.061515383
0.06521067 -0.27020627 -0.04884378
0.09003215 -0.22780527 0.0031850678
0.04022313 -0.08706868 -0.052593585
-0.09323897 -0.18463714 0.042714182
-0.13085993 -0.25080657 -0.018506048
0.09823016 0.33875793 0.050759748
0.107330166 0.07912475 0.031037573
0.0036616311 -0.13181196 -0.06071164
0.06617545 -0.18697138 -0.026100969
0.09484208 0.3831334 0.062062215
-0.2339144 -0.17037037 0.018305363
-0.08874778 -0.16280375 0.021273768
0.06447058 0.09845674 0.043731865
-0.10983935 -0.25827342 0.00026560586
-0.15846597 -0.29705355 -0.16539505
-0.039335065 -0.06610912 0.030388352
0.042957872 0.25333616 0.012013604
0.012402381 -0.24084547 0.043534398
-0.05926994 0.07272601 0.030329974
-0.02209742 -0.100201085 -0.03257412
0.16004458 0.37497085 0.13864349
-0.0036257298 0.1576199 -0.08117268
0.12533653 0.38071126 0.09962402
0.02173629 -0.2739077 0.023192879
-0.041407064 0.09599702 0.06467163
-0.15149325 -0.30970564 -0.16316132
0.08091359 0.3392502 0.0526143
-0.005506137 -0.2594532 -0.051784147
0.015723223 0.3413126 0.064429805
0.04869827 0.2062772 0.05467248
-0.018545642 0.043160643 -0.0014291011
0.00047022998 0.033417165 0.008960522
0.1178144 0.3790351 0.056237318
0.04187065 0.27032128 0.007490496
0.042405143 -0.2708809 0.026518889
-0.047411256 0.27273908 0.047362432
0.1769686 0.18077 0.040844757
-0.21522668 -0.30437493 -0.044811636
-0.092866294 -0.04475536 -0.05738082
-0.14242953 -0.23296721 0.039346866
0.12982443 0.27277076 0.00272642
0.09443174 0.15757972 0.07491239
-0.0017054628 -0.034310445 0.033298988
-0.15212135 -0.020549424 -0.0895286
-0.04356061 0.18654342 0.05275421
0.049469646 0.4280126 0.068542525
-0.10493727 -0.20776045 0.041750286
-0.08906742 -0.14364669 0.0124241635
0.027666518 0.05627949 0.0077682156
-0.07769549 -0.29690823 -0.1805169
-0.04368146 -0.12626338 -0.042013284
0.013083993 -0.19689244 0.012449264
0.13205266 0.28539997 0.09594409
0.09100114 0.13808013 -0.00039082125
-0.0013604974 -0.2751905 0.040372957
0.01920515 -0.24309689 0.010034609
-0.12347128 -0.15112168 -0.07636505
-0.006233421 0.011719 -0.008951474
-0.028984915 -0.054955103 -0.025177658
-0.0018691563 0.24489905 -0.04661371
-0.023065273 0.10668125 0.002930172
0.1229429 0.36978897 0.09435916
0.0034372348 0.01067444 0.00429771
0.105789244 0.39763308 0.061714493
-0.1331573 -0.27039126 -0.0055664573
0.064996764 0.31867123 0.09336126
0.15749478 0.16518138 0.051935658
0.07293824 0.2920462 -0.0011336718
-0.15662159 -0.17769258 -0.037715044
0.028154297 0.09317788 0.0137567865
-0.031569965 -0.17529587 0.044797547
0.02826442 0.03500794 -0.026114272
-0.051058143 -0.23719557 0.032741457
-0.120362945 -0.14527768 -0.022788385
0.056320846 0.1945039 0.02638795
-0.092582755 -0.21150745 0.021044854
-0.06597532 0.16779533 -0.014621373
0.0268783 0.10844754 0.018113198
-0.053431515 -0.23009911 0.066786
-0.14882661 -0.21106486 -0.06393766
0.21384294 0.33089983 0.05808362
0.0990251 0.10277211 -0.038504396
-0.05533223 0.065063946 0.01741158
-0.18483701 -0.20821717 -0.05262942
0.077860475 -0.099729165 -0.038904037
0.17286946 0.14005786 0.04561889
-0.0029332729 0.25290495 0.012405538
-0.21135393 -0.24554722 -0.043778744
0.09024683 0.34297523 0.09970207
-0.050728943 -0.30316254 0.008628686
-0.051360752 -0.35714537 -0.015983917
-0.13929541 -0.25430027 -0.024583671
0.15726833 0.42305794 0.026273323
0.0037473736 -0.061825298 0.04813593
0.019862628 -0.35794842 -0.008108416
0.082981594 0.13788833 -0.0063941428
-0.24380217 -0.26434767 -0.07171559
-0.108743116 -0.30687234 0.06639651
-0.06681841 -0.16147771 -0.009687209
-0.13313513 -0.3211802 -0.01667224
-0.034427598 -0.052095704 -0.056817595
0.20005967 0.33506754 0.059931144
0.035993993 -0.08000606 0.036601763
-0.053985048 -0.3501255 0.026399504
0.062957816 -0.029775051 -0.056184858
0.0115096215 0.3271282 -0.0038001353
0.10799404 -0.037622266 0.012145493
-0.05536201 0.053857327 -0.02776257
-0.24813999 -0.21030907 -0.060709227
-0.047644515 -0.076222084 -0.020807972
0.05232052 0.1910848 0.0824388
0.12637895 0.31340212 0.092137724
-0.09563545 0.05531872 -0.09351158
-0.19878142 -0.17870428 0.042741027
-0.071014754 0.07884889 0.0036899077
-0.24074002 -0.20097896 -0.071554884
0.007894157 -0.3886677 -0.03223863
-0.15477253 -0.21768004 0.028062858
-0.092422314 -0.09806486 -0.06949612
0.099307 0.13384295 0.014114956
-0.11124496 -0.16651605 0.012317619
-0.091449365 -0.24188018 0.042417675
-0.06067554 -0.07874654 -0.02699533
-0.015167478 -0.34341523 -0.1829836
0.17669125 0.40358242 0.039345633
-0.018680993 -0.311431 0.007943701
-0.006085586 -0.018070262 0.03472916
-0.048356477 -0.05866343 0.04617637
0.05712262 0.17727244 0.05631647
0.11785884 0.1947049 0.0067811045
-0.06789315 0.22942713 -0.058236733
0.03330099 -0.0387669 -0.048668347
0.17674923 0.3194839 -0.0043307845
-0.015663432 0.05089819 -0.0146489125
-0.021055574 -0.21509032 0.00013056408
0.10698446 -0.0483435 -0.004423193
0.021957874 0.1733363 0.062151752
0.08516267 0.15712737 0.043711994
-0.022494081 -0.0951374 0.023041757
0.111749455 0.16603594 0.036146864
-0.05875942 -0.04901846 -0.0192496
-0.09032926 0.19533522 -0.050450623
0.024909304 0.30784768 0.0048809396
-0.008907823 -0.15745834 -0.022066813
0.132404 0.2895614 0.049502373
-0.20419334 -0.2460203 -0.1102617
0.11273518 0.38193363 0.07973275
0.12338709 0.1627066 0.041148424
0.058923345 0.26350245 0.027592745
-0.13343722 -0.27152872 -0.014483811
0.017980732 -0.20497127 -0.050621986
0.08343601 0.09027721 0.042626783
0.10854083 0.082312554 -0.0066327336
-0.17391536 -0.19756965 -0.011380122
-0.2656218 -0.30921876 -0.1096233
0.0042061536 -0.19022414 0.06352774
0.15376332 0.3923381 0.05926978
0.038354125 0.37696052 0.036470793
0.08437085 -0.016768679 0.00365798
0.14304422 0.26823205 0.07004614
-0.022451034 0.04694097 -0.036837395
0.049926072 0.29888982 0.028513916
0.0025018256 0.023139391 -0.026399322
-0.0894196 -0.29365683 0.060980033
-0.0067761755 -0.22341447 0.04130537
-0.18019985 -0.14968535 -0.0056204074
0.06892551 -0.2568201 -0.13232772
-0.005357338 -0.3613612 -0.023443675
-0.21056244 -0.14798293 -0.08092512
0.15634564 0.2439624 0.051079012
0.17787053 0.42474034 0.017724883
-0.020818207 0.031789366 -0.044042915
-0.24391055 -0.2660311 -0.0038607877
0.015330339 0.39216283 0.0058505293
0.08958513 0.38137814 0.050693724
0.06139915 0.377239 0.0038857087
-0.07456866 -0.08264062 -0.030760022
0.19859606 0.30697396 0.054870192
-0.1463575 -0.11913786 0.0125829475
-0.14341551 -0.3098224 0.012432754
0.02576785 -0.1985025 -0.001688071
-0.16701828 -0.26707092 -0.007545519
-0.21848817 -0.25653687 0.014042779
-0.030239645 -0.04218008 -0.027039083
0.1960289 0.32321188 0.035604995
0.047559075 0.24508263 0.06354754
0.103610985 0.19675171 0.08483077
-0.09813837 -0.20738952 0.069732025
0.011894821 0.17313407 -0.0040401267
0.2363705 0.32516226 0.013362709
0.14892563 -0.027606528 -0.025632309
0.0387403 -0.20636618 -0.021065012
0.018106602 0.2108229 0.07059694
-0.121804446 -0.109366156 -0.040911876
0.01973663 0.12813404 0.014269137
0.13117668 0.08418697 0.009810019
0.20523618 0.1512745 -0.001444594
-0.2356941 -0.20345153 -0.09519482
-0.051288027 0.08721806 -0.036578763
0.14017335 0.25738356 0.05759937
0.04252347 0.1358664 -0.006176298
-0.048079494 0.0019832598 -0.033511046
-0.020479798 -0.3903503 -0.065407395
0.079045326 0.095387585 0.037512783
-0.12200882 -0.12109022 -0.078193024
0.0058802953 0.09163046 0.0014895247
0.04074466 -0.14734016 -0.07212914
-0.07360365 -0.27849394 0.015776943
0.04067952 0.36346355 0.09509916
-0.057078585 0.067065135 0.012360461
-0.20811833 -0.24787076 -0.038108937
-0.11603079 -0.07233039 0.008522116
-0.19878933 -0.23885301 -0.006862003
-0.067087665 -0.005541328 -0.013150172
0.035159137 0.14184274 0.027352154
-0.08478703 -0.27003825 -0.22966918
0.009043862 -0.33948997 -0.045724515
0.021268535 -0.36672553 -0.04723878
-0.08259288 -0.15610024 -0.043492526
-0.007095791 -0.10964722 -0.014515993
0.083915755 0.41798252 0.008723287
0.10989937 0.42925298 -0.0022404536
0.018669548 0.14118274 -0.02632176
0.025530875 -0.10171112 0.0018707983
0.032411344 -0.36790243 -0.16710187
0.071458206 0.29553777 0.008886119
0.09300739 -0.12292711 -0.064325266
0.12116843 0.22711901 0.061671644
-0.042976577 -0.08728187 0.016377047
0.0647391 -0.3021582 -0.12408545
-0.17332685 -0.33869064 -0.003269283
0.082682766 0.11924546 0.010468131
0.010521185 0.12188048 0.04254874
-0.02073026 -0.12773438 -0.061468016
-0.13801992 -0.18294875 0.05011683
-0.083622016 -0.23939894 0.039047368
0.013028319 -0.08630065 -0.022009775
-0.0734531 -0.16518514 -0.046741117
0.12602942 0.123429656 -0.0048544193
0.07793381 -0.2897876 -0.083380364
0.096570544 0.18430153 0.09695254
-0.12141561 -0.22135098 0.04936105
0.051028244 0.26972786 0.099286094
-0.027252045 0.06330841 -0.013085695
-0.071735635 0.025581237 -0.00463503
-0.2336881 -0.22867379 -0.107628986
-0.041057598 0.12601098 -0.008345654
-0.06576518 -0.35578254 -0.04324262
-0.06641267 -0.05820754 0.051928587
0.11011958 0.4051223 0.025597885
-0.021336509 -0.23093161 0.01780333
0.018357208 0.20673351 0.04240908
-0.07673816 -0.039025515 0.039787926
-0.10127782 -0.105702534 -0.029726066
0.17482391 0.28193864 0.045640495
-0.21832956 -0.19708864 -0.19879462
-0.03182328 -0.22146973 0.055903282
0.15116394 0.34505045 0.09240411
-0.043685094 -0.25744545 -0.22280008
-0.082718454 -0.006813146 -0.116759524
0.072772376 -0.15478116 -0.12145907
-0.09826097 -0.30051044 0.041311644
0.010632931 -0.19954462 -0.09947805
0.13690461 0.044795275 -0.04853328
0.13515471 0.32007074 0.063942514
0.060658704 -0.24386676 -0.17038539
0.07761974 0.14810655 0.03733072
-0.0569585 -0.029477656 0.052097626
0.09420148 0.42506877 0.029104155
0.012497933 0.032209415 -0.026444528
-0.1404512 -0.22840436 0.020784866
-0.099511884 -0.24196024 -0.0050719045
0.057331108 -0.013746038 -0.034023657
0.10685591 -0.012352065 -0.055024818
0.04599067 0.25926277 -0.0041586645
0.13013782 0.3095017 0.047755726
-0.020596074 -0.09281432 -0.029512415
-0.12671238 -0.21737944 -0.016711818
0.022309419 -0.06353506 -0.010616693
0.010997073 0.417602 0.07151371
-0.05910829 -0.1793891 -0.02299225
-0.17428441 -0.17561819 -0.040591713
0.023834115 0.24176654 0.046248548
-0.034117486 0.044057366 -0.0007135706
-0.004128798 -0.10477464 -0.014264214
-0.16623697 -0.12903361 -0.06629693
0.074407615 -0.13692114 -0.05426938
-0.040422123 -0.34453088 0.048771203
0.10674094 -0.051083777 -0.07718697
