# .PCD v0.7 - Point Cloud Data file format
VERSION 0.7
FIELDS x y z
SIZE 4 4 4
TYPE F F F
COUNT 1 1 1
WIDTH 1000
HEIGHT 1
VIEWPOINT 0 0 0 1 0 0 0
POINTS 1000
DATA ascii
-0.223303 0.11793334 -0.2866653
0.17750917 -0.14914207 0.22758064
-0.024013694 -0.1912293 0.15238844
0.060233682 0.14834823 -0.1610104
0.17312989 -0.116652094 0.3238557
0.033216167 -0.15677583 0.32366666
0.032657873 -0.18008132 0.31861994
-0.11244484 0.15669231 -0.17780168
-0.17145033 0.2123866 -0.2872117
0.085579485 -0.017621532 -0.26691455
0.057197787 -0.07616391 -0.2931527
0.022002162 0.17730346 -0.16991305
0.024072614 0.06481466 -0.041288976
-0.018568566 0.113574445 -0.15074997
-0.07037566 0.19451247 -0.1871892
0.0826433 -0.03784713 0.13250549
-0.012093207 -0.053287312 0.0024977184
-0.069061376 0.21073961 -0.17653783
-0.03137762 0.2993078 -0.29567307
0.037889745 0.049541127 0.00044061028
-0.017401695 -0.13817908 -0.020231104
-0.01433493 0.045144793 -0.027451925
0.079018846 -0.13120721 0.34742662
0.013260246 -0.1826835 0.23685573
0.09805649 -0.017505528 0.020282106
-0.19677128 0.15959072 -0.16411504
-0.15233475 0.13567856 -0.26778287
0.0776885 -0.06435259 0.14224744
-0.027601829 0.14499134 -0.14222704
-0.13103765 0.0138855865 -0.09453232
0.04750982 0.04669346 -0.031042509
0.13965972 -0.17311615 0.36584565
0.081530966 -0.077403486 0.25078818
0.06635124 -0.20009458 0.36369807
0.08361303 -0.18832885 0.34803718
-0.08103248 0.09484402 -0.12052213
0.12619963 0.016178459 -0.022968793
-0.07636469 0.05102052 -0.06947156
-0.030054087 0.21386422 -0.26914674
-0.09082821 0.015423562 -0.11129252
0.08249423 -0.012465218 0.14470907
-0.16936421 0.09369452 -0.16425003
-0.022392238 -0.02821742 -0.028756067
-0.0008992215 0.064473696 -0.07055976
-0.084529825 0.025970954 -0.092431985
0.20233463 -0.12518229 0.26933134
0.1416158 -0.058144692 0.024029177
0.11339078 -0.17258939 0.3435905
0.09450842 -0.14439616 0.37561348
0.03918133 0.0064589647 0.12033227
0.12907963 0.115044914 -0.2801139
0.009383481 -0.041369025 0.22241232
0.08133729 -0.11373504 0.2914358
-0.0907706 0.21276522 -0.1361222
0.024670023 -0.18078065 0.37796628
-0.022652993 0.27015495 -0.23093393
0.04250724 0.12520672 -0.22450432
-0.19271868 0.16743161 -0.19223396
-0.045580056 -0.07052731 -0.2900583
-0.084537745 0.1623744 -0.14376788
-0.06673719 0.17835727 -0.2009957
0.08170996 -0.14763463 0.31694138
-0.027198896 0.19237296 -0.21218596
0.022540849 0.17227384 -0.18658088
-0.0047396882 -0.115960985 0.2207671
-0.15196367 0.19902602 -0.24059215
-0.20071761 0.023945654 -0.3739486
-0.16109565 0.017822355 -0.33880043
0.07620201 0.0035348644 -0.04581026
0.1441581 -0.16299765 0.3012294
-0.13177907 0.03468728 -0.19904993
0.0323343 0.18057992 -0.28465122
0.08202636 -0.07765844 0.21903563
-0.17185618 0.05377587 -0.11849393
-0.035481505 -0.15701938 0.24195136
0.0013507276 -0.041930556 0.055899777
-0.07580179 -0.0047293417 0.004482846
-0.024697745 -0.16677023 0.25336295
-0.021749007 -0.09252664 0.24722406
-0.0972031 -0.08063725 -0.30042642
0.052833423 -0.2819015 0.2925227
0.14619301 -0.15637214 0.33298093
-0.19581641 0.188917 -0.20371595
0.027425153 0.0091948 0.039901815
-0.041524258 0.03285786 0.022066997
0.0038752633 -0.1761219 0.021000803
0.08461994 -0.047275353 0.08350946
-0.08434926 -0.15668452 0.07659758
-0.17349201 0.08584908 -0.29484046
0.10687244 0.14516678 -0.22661653
-0.14589004 0.010169657 -0.20498563
0.11835936 -0.10631859 0.32226524
0.04929556 -0.14329809 0.3554215
-0.022228567 -0.14373647 0.069410235
0.0031601356 0.015571714 0.0018871499
0.19548956 -0.22353424 0.28237993
0.043545157 -0.06414453 0.20255372
-0.030304646 -0.06166939 -0.35518017
0.06333844 -0.013394343 0.1673845
-0.03516819 -0.15796311 0.28216296
0.0030702173 -0.041403662 0.120999955
-0.16760379 0.012801603 -0.24798709
0.10583591 0.14224872 -0.43333176
-0.16039334 0.16571172 -0.1468685
-0.10100497 0.10120805 -0.1341809
0.09664266 0.18168658 -0.19812182
0.14863038 -0.12554213 0.26587877
-0.075929835 0.14074352 -0.1095224
0.15797482 -0.06793929 0.14674874
0.14875995 -0.22273089 0.28619465
-0.10395183 -0.07541136 -0.01573806
-0.20967805 0.016880695 -0.15706146
-0.087936 -0.07165331 0.097085185
0.0782647 -0.15897556 0.34957555
-0.005228253 -0.0647122 -0.29083365
0.17655063 -0.14692725 0.2545401
-0.011141146 -0.14363515 0.23633826
0.055794068 0.042233586 -0.19760738
-0.14083783 0.02893585 -0.15682742
0.009947224 -0.119960025 0.35282552
-0.10651567 -0.022547014 -0.22965324
-0.13935694 0.023248058 -0.14012085
0.046548396 0.16199672 -0.32228
0.09907918 -0.22228542 0.35100472
0.062317897 0.13263251 -0.12348741
-0.01347268 0.1978203 -0.12211797
0.010789198 0.010936532 0.030646669
0.08190371 -0.15223165 0.36455515
-0.06534047 0.090079784 -0.13550499
0.0151712345 -0.15962282 0.14658006
0.07596998 -0.07890886 0.25565952
-0.040300492 0.026963865 -0.06575722
0.017875927 -0.052203406 0.13909528
0.06405673 0.14465481 -0.24247387
0.07696485 0.038414028 -0.063399136
-0.060910832 0.024565388 -0.091482244
-0.10292771 0.11930577 -0.14115503
-0.07578433 0.09087453 -0.08480862
0.06921977 -0.13266692 0.34467918
0.18975197 -0.13517423 0.2601385
-0.08525595 -0.006974726 -0.17269017
0.1586084 -0.24532567 0.31695315
0.11451568 -0.09851483 0.20962688
0.078957185 -0.2741797 0.28810358
-0.1309558 0.14999202 -0.28020623
-0.16993056 0.034227148 -0.31406793
-0.09687288 -0.009676697 0.04782642
0.044871777 -0.093265474 0.24463047
-0.20739503 -0.03465927 -0.20001662
0.15419947 -0.22352189 0.2787071
0.008272611 -0.19684978 0.36283225
-0.04496252 0.26322612 -0.19383247
-0.11247549 0.13998547 -0.1265363
0.0036064135 0.092690155 -0.106639035
0.19842868 -0.24555743 0.32633653
-0.14593604 0.09839111 -0.20796789
-0.08830765 0.28715 -0.25868696
-0.01726373 0.100491725 -0.06890935
0.11869823 -0.1849291 0.3804597
0.078414194 0.16113885 -0.16236034
0.16261923 -0.15712164 0.29652482
-0.048298143 -0.13283828 0.12976019
-0.20228216 0.095476486 -0.3249319
0.13260749 0.03510255 -0.25272086
0.02531506 0.16957046 -0.38331783
-0.107946284 0.034614924 -0.15272157
0.15770806 -0.015553199 0.05078765
-0.06400439 -0.13948771 0.13868804
0.17400275 -0.09398381 0.33841956
0.119618654 -0.12932195 0.3322475
-0.109873466 0.13461687 -0.12533678
-0.12112688 0.16082485 -0.1685599
0.01741347 0.15569013 -0.104481004
0.12864283 -0.21438897 0.35577583
0.053720187 -0.00055136724 0.184118
-0.086454935 -0.032615263 -0.043944962
0.0034951135 -0.26186368 0.14753394
-0.06340235 -0.09440145 -0.20461115
-0.08320801 -0.0057560746 -0.029026724
-0.05524205 -0.17941011 0.13213603
0.08503235 0.04670821 -0.28019017
-0.055082075 0.0147892255 0.057523742
0.059439573 0.06193904 -0.22628546
-0.095837854 0.04937969 -0.09836084
0.036271133 0.07726591 -0.052368954
0.07345036 0.25773516 -0.2399347
-0.11561181 0.04139063 -0.07951326
0.12245163 -0.18419941 0.31727332
-0.17256439 0.052111104 -0.16859241
-0.046631355 -0.09228984 0.21294186
-0.1413538 0.092011414 -0.1964822
-0.03885538 -0.015105658 -0.054780975
0.05733689 -0.04837325 0.29995763
0.0007819756 -0.15958123 0.12237507
-0.08224674 0.29200354 -0.2345171
-0.088061646 -0.10474799 -0.12011146
-0.13602206 -0.035046164 -0.05884305
0.14064494 -0.17008153 0.22430262
-0.11487657 0.013446058 -0.05617557
-0.00983543 0.0444872 -0.011621653
-0.13413237 0.075063765 -0.143394
-0.07250355 0.018074688 -0.0795187
0.015985293 -0.047009885 0.1947869
0.0047387728 0.03335413 0.088657185
0.13703273 0.0058069536 0.10922169
0.0441945 0.14718336 -0.14031217
-0.040813293 0.21171461 -0.17094368
-0.1264764 0.15402724 -0.27400616
0.06273288 0.07293519 0.043172337
0.04708163 -0.1253718 0.325384
-0.13028847 0.27857634 -0.31563917
0.01524884 -0.12902252 0.3041439
-0.23217711 0.095743954 -0.33529666
-0.08037741 0.024224687 -0.19269034
-0.1329763 0.17890607 -0.28325018
-0.09401777 -0.04571398 -0.24406014
-0.0011028235 0.13308753 -0.05205649
0.11385016 -0.21581718 0.2956237
-0.048207678 0.12276047 -0.18696757
-0.13018061 0.0901242 -0.16138102
0.1390952 0.016639603 0.104568124
-0.09787565 0.10156049 -0.12696032
-0.21413225 0.13505699 -0.24476112
-0.072635934 0.13701276 -0.1278943
0.101078734 -0.061826706 0.3552543
-0.091700636 0.025479663 -0.17729986
-0.042898662 0.0076975655 0.13446072
0.19525428 -0.124769576 0.26996338
0.08886781 -0.056981828 0.1693383
0.053860616 0.10404906 -0.06653107
0.004423381 -0.029349128 -0.25092125
-0.030765012 0.07080897 -0.04128355
-0.10938939 0.17499456 -0.17462698
0.040493637 -0.2009155 0.21755832
-0.008266903 0.01938272 0.072532274
0.06513736 0.06872198 -0.073591955
-0.028347934 -0.1398935 -0.0047298507
-0.1385456 0.097689584 -0.107742265
0.1352166 -0.2828018 0.23938508
-0.06882023 0.051388368 0.012964652
0.15620954 -0.093532085 0.24691775
-0.024244808 0.047202308 0.07215274
0.039506648 -0.13331443 0.19749442
0.05420614 0.042606663 -0.1266781
-0.08193297 -0.0971261 0.1531246
-0.012418553 0.06838582 -0.1326916
0.07284943 0.15033095 -0.13569933
-0.11404285 -0.058508184 -0.1651062
-0.008648498 0.20097844 -0.2996727
0.06772905 -0.06817507 0.3073744
-0.07144909 -0.037694715 0.05903062
0.12342394 -0.19614287 0.33182308
0.08173622 -0.12258524 0.2970421
-0.097592115 0.1912702 -0.1721703
-0.02745287 0.18587478 -0.22758517
0.15547095 -0.1688971 0.2628416
-0.11243357 0.18528257 -0.13328192
-0.120513976 0.098298214 -0.13530146
-0.021230668 -0.08561753 0.2380001
-0.014211083 -0.0032582756 0.018510573
0.059740245 0.05789303 -0.23752503
-0.048428226 0.18759474 -0.14539044
0.07144418 -0.08894585 0.16256821
-0.17442568 0.12469645 -0.23010391
0.03140226 -0.13346022 -0.0040550446
0.13307686 -0.03295165 0.21068446
0.120062955 -0.20900969 0.10646491
-0.12319052 0.14766674 -0.23008256
0.10054611 -0.13783114 0.34576252
-0.08051252 -0.039631296 -0.049194917
0.17659508 -0.084540375 0.27848297
0.0623768 0.1902441 -0.17484406
0.12364251 -0.106704876 0.19234343
-0.10711254 0.17874168 -0.2750657
0.1679346 -0.23426679 0.29196912
0.048994884 0.20397279 -0.19975759
-0.05482147 0.058221728 0.022798376
-0.052637454 0.09371147 -0.07068384
0.16497146 -0.109402545 0.24430427
0.0017708752 0.1987401 -0.27845502
-0.05440187 0.088411644 -0.1180112
-0.042745356 0.20462108 -0.13256134
-0.109534934 0.16609047 -0.14212973
-0.0053605465 -0.16572532 0.24177462
0.03528548 0.037703425 0.04147195
0.021937223 -0.15474291 0.2659236
-0.03652934 0.14525442 -0.18324329
0.10072472 -0.23538622 0.27349696
-0.02719426 0.26049903 -0.26808402
-0.010780034 -0.05684738 -0.30329037
0.07299197 0.09307986 -0.082954735
0.10720487 0.017980417 -0.28740415
-0.088839486 0.17454706 -0.13869789
-0.10860743 0.19907798 -0.3054021
0.07920164 -0.20310374 0.3188232
-0.14489576 0.16896692 -0.22838564
0.0450723 0.2410378 -0.15479882
-0.016519466 -0.099259384 0.13964054
-0.0722432 0.20070592 -0.15956415
-0.14475228 0.07062636 -0.22946486
0.07811398 -0.07192697 0.2085551
0.11574016 -0.08753262 0.23014212
0.061511967 -0.089163296 0.14820953
-0.038265552 0.17184213 -0.18943381
-0.13649838 0.17139477 -0.14473714
0.062093403 0.2754466 -0.21552762
-0.02645577 0.068599075 -0.114639275
0.13799895 -0.3166962 0.28427395
-0.11142814 0.16336359 -0.16835162
0.033206765 -0.16570082 0.26208726
0.084184654 0.08253191 -0.22547367
0.16054961 -0.17077544 0.33341575
-0.17366718 0.16498505 -0.24531686
0.029744482 0.19956507 -0.14819314
0.13201551 -0.20511302 0.27903983
0.06122429 0.13730657 -0.3906908
0.055093642 -0.015728299 -0.22199482
0.044343803 0.23786294 -0.26843277
-0.12694533 0.12235056 -0.18836735
-0.108461194 -0.0993325 -0.2814041
0.05577765 -0.12220353 0.2971006
0.12018227 -0.26690823 0.29442963
-0.054579105 -0.10343067 0.11902373
0.16848606 -0.24486768 0.3221263
0.105757274 -0.0024582369 -0.2519662
0.17960086 -0.21676393 0.26585528
0.10039942 -0.26611608 0.28228018
0.0006286169 -0.035884656 0.17052433
0.0314385 0.052303012 0.110949665
0.047704805 0.15884824 -0.18930118
0.062776834 0.012319595 -0.25675172
0.13633281 -0.047073927 -0.034904867
0.07658765 -0.2040204 0.3347054
0.050583348 0.15962324 -0.20687185
0.0033222537 0.14147933 -0.19359368
0.14499955 0.054756362 -0.24418874
0.08135168 -0.1758866 0.3637208
-0.014505908 0.11308979 -0.11865982
-0.015745914 0.14879394 -0.13023777
-0.019969238 0.10593493 -0.08672652
0.022141023 0.05140489 -0.11132297
0.14363676 -0.10636605 0.19779432
-0.007475201 -0.05283578 0.14648773
-0.0181866 -0.10405771 0.17634135
-0.06853167 -0.10921885 -0.048188955
-0.09140715 0.034282137 -0.02552738
-0.0021705662 0.12839861 -0.038540523
0.0055651437 0.1599335 -0.21698618
0.056321394 -0.1243649 0.30519086
0.100955 -0.08963768 0.36580834
-0.15041347 0.13489771 -0.13012455
0.06877562 0.04500837 0.09912601
-0.010522979 0.0952542 -0.1632172
-0.035154007 -0.063209675 -0.047431786
-0.20280662 -0.016625047 -0.23798986
0.07835495 -0.09510908 0.15743366
-0.068303175 0.020870676 -0.21015504
0.18556415 -0.19049567 0.34503713
-0.15113558 0.22116388 -0.25681436
-0.0656405 0.20825355 -0.24276674
-0.061848767 -0.039719366 -0.21011585
-0.039709486 0.20432405 -0.236373
-0.06266071 0.07149549 -0.004022688
0.06529723 -0.24361548 0.26759747
0.13325037 0.03088639 0.03783627
0.027668925 0.057969693 -0.02638629
0.13416089 -0.10295347 0.20384155
0.10715728 -0.12830286 0.3382597
0.12201745 -0.17334327 0.31987002
0.04688884 0.05513673 0.056056242
0.12457794 -0.16937132 0.28286403
0.09641608 -0.09177653 0.20137441
0.03025238 0.082441 -0.14970493
-0.07216208 -0.055694044 -0.124709964
-0.21108423 0.09934127 -0.274573
0.017189758 0.05083948 -0.025114408
0.070530914 0.081223495 -0.15237972
0.073665954 -0.081101045 0.30700222
-0.043801453 -0.1366548 0.1580285
-0.022850633 0.03525061 -0.08583203
0.0280222 -0.16284198 0.2818962
-0.102615505 0.119728714 -0.09900805
-0.11498085 0.225753 -0.23568758
-0.16009238 0.03401 -0.17440887
-0.0054388335 0.062335458 0.006145262
0.07326178 -0.14428939 0.24877073
0.06950244 0.12113013 -0.099489585
0.033829827 -0.10186086 0.24234673
0.08731143 -0.13564613 0.3281173
-0.02760989 0.0020441236 0.078701414
-0.0118625425 -0.00207796 -0.27304184
-0.055803537 -0.10742247 -0.008009533
0.05913973 0.045307085 -0.12653153
-0.047449253 -0.18622977 0.049172215
-0.058429386 0.015593967 -0.17028292
0.09375625 -0.1827269 0.37760276
0.028466564 -0.016908549 -0.25731462
0.16652532 -0.14870067 0.31122717
0.04689837 0.1367645 -0.11009876
0.09005441 0.066268615 -0.23507628
-0.011488156 0.027000062 -0.025971226
0.11059425 -0.10698255 0.31928536
0.16558138 -0.29225284 0.2987568
-0.061691236 0.20201927 -0.22345915
0.00029871042 -0.115842804 0.2563475
0.007461722 -0.050119728 -0.11630955
-0.033705976 0.03905659 -0.023306469
0.029963315 -0.21648486 0.14133644
-0.03422728 0.00087209087 0.08173198
-0.15429078 0.024046196 -0.1748317
0.07850142 -0.17882071 0.36197045
0.021118294 -0.1215845 0.31342605
-0.0973155 0.18147627 -0.25148204
0.0005229604 -0.14507642 0.24028479
0.051224206 -0.1831071 0.3077138
0.00097271404 0.07491151 0.009725645
4.989572e-05 0.14322369 -0.14087676
0.06911219 0.24617602 -0.17255928
-0.15232988 0.0878655 -0.26824617
-0.10241477 0.08473073 -0.15911436
-0.22287028 0.20766449 -0.23760451
-0.0615311 -0.017012788 -0.1181617
0.028486246 -0.26133108 0.3076931
-0.12334492 0.06370281 -0.1572876
0.054715764 0.04936783 -0.2344473
0.022491202 -0.0758072 0.27029052
0.05105224 0.07827862 0.003109345
-0.059820484 0.020677032 -0.010727101
-0.0009522005 0.16821982 -0.20241816
0.12105074 -0.25046748 0.24831857
0.032085124 0.1754084 -0.14929013
-0.16863881 -0.0013297724 -0.30052868
0.12993576 0.030985452 -0.014078682
0.0008062191 -0.1726661 0.17255038
0.02560239 -0.013215224 0.12442204
-0.031342924 0.2588049 -0.23231252
-0.22497743 0.07956247 -0.3572944
0.035795618 -0.20858106 0.29152223
-0.084477164 0.052945502 -0.09217165
-0.13997778 0.17845719 -0.2757087
-0.066999 -0.03109796 0.04265387
-0.0004768059 -0.028571386 0.052265268
0.02870526 0.008982661 0.07344346
-0.0483198 0.14556906 -0.14483264
-0.15452999 0.0243036 -0.2497937
0.09696292 0.07482525 -0.17857748
-0.071704 0.21473138 -0.1575062
-0.028220184 -0.1663277 0.15788771
-0.0031356383 -0.048743255 0.12831931
0.012387589 -0.21495904 0.32387066
-0.03233067 0.20596339 -0.21790023
0.13532998 -0.016312545 0.12859173
0.11191032 -0.0793422 0.17384192
-0.01765668 -0.013726796 0.06894501
0.12514721 -0.12946832 0.27378067
0.100716956 -0.22674336 0.24060254
-0.07784427 0.08336404 -0.061528224
0.1380712 -0.06671119 0.11840509
0.03369876 0.055256054 -0.2591508
-0.090378955 -0.07307169 0.017871572
-0.076049104 0.08975332 -0.08697216
0.08889303 -0.012168572 0.048244387
0.05440169 -0.022592071 0.18279672
0.11377377 -0.08345685 0.2115363
0.05167989 0.18680882 -0.24350427
0.11380584 -0.19365183 0.38787436
0.07057769 0.15499094 -0.20826368
0.020133356 -0.006750208 0.12079782
-0.11830838 -0.020854112 -0.21183129
-0.13664605 0.1407929 -0.18654451
0.17284948 -0.16950086 0.29105535
-0.05739956 0.091291994 -0.024263065
0.14598966 -0.16846834 0.30871373
-0.09543672 -0.034998104 -0.25667343
-0.16418146 0.038655866 -0.1581475
-0.05627564 -0.16207454 0.054499794
0.07197761 0.19164622 -0.278372
0.014644175 -0.19509088 0.12971875
-0.14594226 0.09919357 -0.12400169
0.03520878 0.11270516 -0.18621472
0.028562734 -0.045823652 -0.22598322
-0.06851248 0.13121302 -0.12849332
0.062689 -0.02473315 -0.03339573
0.0777882 0.018934537 0.06522823
-0.19896072 -0.00828385 -0.20775758
-0.111664854 0.2016148 -0.20893875
0.052291732 -0.05905839 0.23335046
0.13072203 -0.050989415 0.2319768
-0.08374193 0.052229255 -0.098172665
0.106022276 -0.2604718 0.27394545
0.14304183 -0.2133527 0.31794342
0.07344458 -0.030497449 0.093272544
-0.09362192 0.17407927 -0.15093622
0.07237398 -0.16212268 0.3307474
-0.10236512 -0.015764426 -0.04709089
0.10412943 -0.1589369 0.3088023
-0.17206764 0.021770634 -0.21379547
-0.01175751 0.04282331 0.021394808
0.036550667 -0.2490078 0.2455674
-0.079948865 0.22884454 -0.15670393
-0.12088901 -0.004061064 0.012069994
-0.057380944 -0.020709615 -0.11451283
-0.09376395 0.21716312 -0.20874506
-0.10956947 0.21043141 -0.21096504
0.00070092466 -0.016264798 0.061911773
0.0033083672 -0.13024504 0.2680846
0.11893133 -0.050928093 0.28131726
-0.15212119 -0.0087629575 -0.2084599
-0.024297968 0.10374384 -0.00019206032
-0.052354958 -0.12592739 0.17491296
-0.060500793 0.10590738 -0.16726685
-0.12889823 0.12111555 -0.16543722
0.03618175 -0.04466994 0.12019968
-0.042359628 -0.053777315 0.079077154
0.14436318 -0.12225733 0.27153826
0.14481433 -0.23062061 0.338916
0.030803349 -0.23353343 0.30074412
0.025901953 0.16317831 -0.16463846
-0.13977964 -0.005047988 -0.22086231
-0.08646344 0.20813605 -0.22301093
0.06537196 -0.17339125 0.3124576
-0.10572254 0.07933292 -0.038942546
0.020850087 0.03950786 0.024760362
0.05611638 -0.14192644 0.2802241
-0.20956193 0.101740025 -0.22924885
-0.034965303 0.14198926 -0.10726772
0.04769699 -0.0055765836 -0.003702619
0.0008111816 0.084786855 -0.016279843
0.08333065 0.018208548 0.09547644
-0.061895892 0.0737126 -0.13408916
0.04413957 -0.028684493 0.036827203
-0.13004571 0.028472876 -0.1637314
0.032282483 -0.13334535 0.28389716
-0.09533178 0.069869965 -0.15954962
-0.049879618 -0.13870886 0.21780053
0.11040572 -0.18736537 0.13715082
0.07561681 -0.27564788 0.3075123
-0.19147263 -0.013978605 -0.18195866
0.11901815 -0.05299033 0.09536728
0.03961803 0.19741127 -0.27725336
0.1160878 -0.058103822 0.19831792
0.09725963 -0.12063142 0.3192105
-0.15991539 0.18445091 -0.09696515
0.15306796 -0.11393479 0.19102462
0.0662537 -0.08274794 -0.301743
-0.054440457 0.19574364 -0.119938985
-0.14549132 0.11171462 -0.11497954
-0.067096375 -0.14120634 -0.04928587
-0.031753495 -0.085213974 0.0942276
0.08349088 -0.06281761 0.26397926
0.020409293 0.22028176 -0.11628566
-0.018245792 -0.045762062 0.0804933
-0.029674308 0.23435266 -0.30056638
0.1002983 -0.19201596 0.28571406
0.10386579 -0.14727576 0.348456
0.058435805 -0.13396817 0.33458862
-0.06545646 0.055073965 0.031950176
-0.048439737 0.16778657 -0.12575008
-0.031673484 -0.1250507 -0.039235428
-0.022675844 0.15348653 -0.19068927
-0.077438 -0.0723812 -0.26474547
0.12110628 -0.12414398 0.25029764
0.06260699 -0.013589275 0.15763654
0.06477404 0.010244524 -0.022812344
0.005572699 0.00016100277 -0.24773985
0.015276026 -0.18941005 0.31658056
0.055958543 0.10235743 -0.113817275
0.108820066 -0.27077624 0.27274236
-0.10427129 0.089139335 -0.22790337
0.034349184 0.17474347 -0.21169655
0.10633529 -0.13830085 0.32361385
0.04853244 -0.17162238 0.28351918
0.094149455 -0.22820298 0.30460018
-0.1534685 0.21848477 -0.20215693
-0.18067898 0.14886256 -0.18908882
0.117606886 -0.18759912 0.25573733
0.058807924 -0.16982903 0.35876295
0.044683427 0.104048654 -0.36757356
-0.18130997 0.030234 -0.15616049
-0.09607959 0.017204124 -0.077557996
0.052538615 0.22280353 -0.3184642
-0.1519229 0.14959623 -0.14185187
-0.059844952 0.22096576 -0.19294418
0.0034810407 0.11702136 -0.07187841
0.11903308 -0.028614197 0.23599999
-0.04750999 0.15200272 -0.19611374
-0.1193124 0.20087714 -0.12953989
-0.0047508692 -0.24803707 0.26208594
-0.097768 0.27050915 -0.27122182
0.113662414 -0.17212343 0.3431975
-0.1969048 0.062070396 -0.18406965
-0.07139057 -0.035079468 0.11425595
0.030700894 0.11390606 -0.21165982
0.021971263 -0.017129898 0.12475473
0.112971134 -0.12684444 0.3917012
-0.04022554 0.017010218 0.015167915
-0.09164821 -0.018947927 -0.2757907
-0.15086275 0.16020973 -0.12632546
0.013139465 0.037727103 0.11530801
-0.21425517 0.013051 -0.1973518
0.07550478 0.09162973 -0.1947869
0.040658686 0.15543795 -0.16277419
0.02262249 -0.059297714 0.13845846
0.18555251 -0.1639833 0.2470363
0.027834164 -0.11868152 0.2822389
-0.15890324 -0.0124674095 -0.21304785
-0.1199333 0.15464245 -0.10476688
0.027292067 0.038799193 0.053496122
0.060256932 0.0021972377 0.13875347
-0.05972354 -0.04910124 -0.2588291
0.097012416 -0.2917525 0.24156812
-0.019933233 0.13358012 -0.14788772
-0.1023486 0.23502992 -0.23536247
0.023625208 0.25920314 -0.24613965
0.07500477 -0.13524072 0.34422275
-0.09132927 0.08579935 -0.15164469
0.10419513 -0.07182338 0.18677795
0.12652327 0.010781262 0.010819086
0.1276468 -0.07542701 0.26304495
0.028998647 -0.14124969 0.33154655
0.0034979521 0.21650006 -0.2724651
-0.05470993 -0.03800689 -0.26818654
-0.14317735 -0.020481762 -0.19385886
-0.02908041 -0.07644653 -0.30195513
0.07202812 0.051708348 -0.034506742
-0.053826917 0.18759513 -0.12717333
-0.034064036 -0.034200225 -0.28497177
-0.14213857 0.13874596 -0.17771615
0.07090005 -0.2627323 0.33795953
-0.16952866 0.23351327 -0.2492279
-0.0037990923 -0.012087115 -0.29151508
-0.05859471 0.004529843 -0.05534353
0.086762205 0.1772886 -0.156035
-0.10920692 -0.068515085 -0.2404439
-0.08598954 -0.032952994 0.020496588
0.048766084 0.020078845 0.047383234
0.1144413 0.15465142 -0.22362532
-0.11552316 0.27623788 -0.21522754
-0.011685108 0.23392937 -0.12175994
0.12983193 -0.135971 0.32977706
0.03953114 0.23370863 -0.14093524
-0.0026672294 0.24744435 -0.2627864
-0.15204264 0.020548455 -0.2933941
-0.014202704 -0.113039985 0.23260525
-0.19785707 0.090454936 -0.18537746
-0.0644417 0.069718204 -0.04710114
-0.02979279 0.1847978 -0.15356718
-0.12127868 0.058932606 -0.12028216
0.037283152 -0.19843718 0.38089755
-0.009928452 0.0441909 -0.0009803706
-0.007929514 0.080270745 -0.10485256
0.07726486 -0.073047616 0.25460726
0.064392835 0.11166924 -0.1724374
0.09578003 -0.25557366 0.33170363
-0.019875973 -0.15259092 0.23716584
-0.046087135 -0.038760208 0.0955644
0.07456867 -0.04375222 -0.030437909
0.03685277 -0.009648298 0.16869229
0.0693796 -0.15592875 0.3403891
-0.09437536 0.031451005 -0.18253036
-0.011385867 0.20393926 -0.22951902
0.17793839 -0.18860315 0.25046298
-0.16835336 0.066614844 -0.32230082
-0.097612455 0.08303168 -0.10675573
0.06469109 0.06264297 0.04052697
0.17041597 -0.13738948 0.23587179
0.0155717125 -0.029476129 0.27187228
-0.2143254 0.17498237 -0.23895071
0.07547737 -0.22876029 0.09988622
0.0981583 0.09880418 -0.28946134
-0.012687553 0.22269267 -0.1825242
0.17410389 -0.18517348 0.33217704
-0.10289389 -0.11202963 -0.2456677
-0.059738267 0.16317962 -0.11668519
0.034550156 0.14856894 -0.25943583
-0.10727142 0.077002645 -0.13016108
-0.007363016 0.019628191 0.024803935
-0.19647905 0.065302014 -0.23682535
0.11192011 -0.019076051 -0.074412346
0.07143375 0.022725428 -0.282748
0.16288127 -0.10861172 0.12374782
0.08894386 -0.06753722 0.12544368
0.06679665 0.019213984 -0.09395041
-0.011882651 -0.21437767 0.23399349
-0.09879256 0.08245092 -0.27856657
-0.106416866 0.16703233 -0.2153992
0.015232806 -0.03810044 0.16608872
-0.0015969443 -0.06820227 0.13058983
0.097869344 -0.23130469 0.35776463
-0.015207074 0.22761135 -0.21071528
0.14852856 -0.1159649 0.23858282
-0.0440115 -0.111816525 0.11742185
-0.17173822 0.15489367 -0.11041292
0.1906512 -0.114003874 0.26215336
0.038356736 -0.05766363 0.057539675
0.05597475 -0.007662458 -0.2630756
-0.01668232 0.03464783 0.019115526
-0.05529586 -0.05779062 0.13868901
-0.15887389 0.019038709 -0.21365973
-0.0054410435 -0.015090363 0.1448903
-0.05179263 -0.13411985 0.13283072
0.0815924 -0.29385397 0.33502328
-0.053664412 -0.07966807 -0.37594777
0.17130665 -0.1347788 0.24055107
-0.039707553 0.13427894 -0.13672218
-0.052148104 0.058269 -0.094898164
-0.14268184 0.05085956 -0.111757755
0.0042273216 -0.06269105 0.17395155
0.036720462 0.14379211 -0.28740665
-0.09773265 0.028612657 -0.20543958
-0.037363872 -0.087494455 -0.24819797
-0.052655164 0.08133717 -0.18675148
0.065905236 0.14768521 -0.12616052
-0.13884832 0.09861742 -0.17817442
-0.05355184 0.20131639 -0.14123476
-0.013524911 0.003622262 -0.08056843
0.0477402 0.17629085 -0.14262328
-0.033615556 0.1762908 -0.11099124
-0.07123256 0.1039963 -0.108435854
0.17966478 -0.09216323 0.07886233
-0.1038748 0.025082083 -0.03967117
-0.09695285 0.23184568 -0.23731749
-0.12024818 0.15230401 -0.14044307
0.070061825 -0.15692644 0.35090277
-0.082761064 0.08128713 -0.12371734
-0.020002952 -0.08402617 -0.27033576
0.051581897 -0.082299754 0.18945834
0.0986098 -0.023925094 -0.25291798
0.12205837 0.042002767 -0.11721653
0.05847972 -0.09626961 0.15115833
0.07303607 -0.04589335 0.11648265
0.001069168 0.25604245 -0.3027555
-0.15415461 0.06757531 -0.20808168
-0.004208595 -0.09142625 0.32542807
-0.011071076 -0.12808824 0.35435662
-0.13454191 0.19739075 -0.286738
-0.08157569 0.16405667 -0.18274602
-0.12173014 -0.0004642777 -0.20645325
0.08458781 -0.25375384 0.31135073
0.014923655 -0.024547618 0.12942313
0.15089355 -0.16146293 0.28757843
0.0074071046 -0.010901793 0.06830195
0.05146027 -0.074583896 -0.2768204
0.124088325 -0.23974591 0.36104143
0.07632419 -0.12021048 0.25921032
0.09523659 -0.07885389 0.13214394
0.03531906 0.21437742 -0.16361715
0.01086404 0.21694094 -0.22989078
0.0059421295 0.18261197 -0.21599697
0.021912646 -0.010534855 0.039285444
0.09160739 -0.23917629 0.26854023
0.12099181 -0.18569595 0.31564444
0.03186163 0.16055037 -0.18975821
-0.16047458 0.007053875 -0.32016876
0.053670373 0.06603737 -0.10637626
0.088809386 -0.33074433 0.29808325
-0.030382104 -0.22422339 0.3312305
0.07521282 -0.13162807 0.29367805
-0.037741385 0.14842816 -0.13503492
0.17334981 -0.06286887 0.05371239
0.17856823 -0.2631059 0.26065245
-0.09077993 -0.009205923 -0.0013283319
0.092064925 -0.22231926 0.35768715
-0.18463251 0.17678188 -0.14542085
-0.123335816 -0.028535476 -0.27112785
-0.1044487 0.1964921 -0.28756273
-0.03513039 0.27255648 -0.2471596
-0.23419943 0.15811795 -0.2553931
0.10343955 -0.26477036 0.25478086
0.12866189 0.022339646 -0.27809998
0.18488975 -0.21057276 0.2941111
0.15216628 -0.2347564 0.28112975
0.087957785 -0.00994176 0.16670425
-0.0075382697 -0.26960865 0.3031865
0.07241711 -0.04037254 0.20675819
-0.11255011 0.045723695 -0.078381084
-0.24100219 0.050295733 -0.369339
-0.1814196 0.22927162 -0.17442146
0.03173907 0.22364289 -0.21196006
-0.050840225 0.0064491574 -0.12295763
-0.1488869 0.10301455 -0.16756196
0.12912033 0.12610334 -0.27982634
0.013455252 0.042582005 -0.023264287
0.070071205 0.18378559 -0.21992934
-0.009474871 0.1975486 -0.1259554
-0.052984107 0.2151639 -0.13506635
-0.14157684 0.07519205 -0.19732408
-0.024066027 -0.17785786 0.2434148
0.045743592 -0.18789001 0.36538252
0.21696067 -0.1618105 0.3133791
0.050113983 -0.0019520852 0.108400665
0.06258653 -0.2826394 0.237769
0.07247154 0.036165893 -0.13039534
0.1307015 -0.22805287 0.27517205
-0.054117326 0.053772185 -0.07602113
0.21104018 -0.12636843 0.28963998
0.052110076 -0.32838738 0.31998375
0.10308705 0.13827345 -0.19536659
0.01943666 0.12994653 -0.21622497
0.002688982 -0.29454625 0.30890486
-0.13436885 0.09702366 -0.14999801
-0.06793568 -0.110809326 -0.28263697
-0.11089562 -0.033683207 -0.24058792
-0.032349765 -0.0125360945 -0.20825145
0.16712375 -0.16230042 0.26708943
0.10187375 -0.14077273 0.38558033
-0.14586557 0.1540897 -0.15591879
0.11246162 -0.1472557 0.31816515
-0.04879113 0.1698058 -0.17020364
-0.016138423 0.17349014 -0.15409873
0.12427513 0.014048823 -0.0194893
0.053243946 -0.28687394 0.26891935
-0.0887574 0.067028485 -0.0054596607
0.13687935 -0.112268195 0.11310127
0.080342375 -0.13033082 0.21618518
0.14857002 -0.13230601 0.17794903
0.15146376 -0.14352587 0.2960033
0.016263971 0.18400161 -0.18202297
-0.09236084 0.013424821 -0.014498029
0.14693233 -0.26800597 0.27220172
-0.13304082 0.15653324 -0.2020932
-0.12229224 0.10294255 -0.13675296
0.062052246 0.023397349 -0.23032045
-0.15622652 0.16202389 -0.16780663
-0.07934496 -0.02895991 -0.26033294
-0.102249265 -0.039025906 -0.25994244
-0.12639962 0.18873478 -0.26051238
-0.13714904 0.24791788 -0.1716476
-0.13921523 0.15305126 -0.119419076
0.081302375 0.019431818 0.014166029
-0.13840261 0.1338644 -0.24690957
-0.10538642 0.26727727 -0.2126535
0.0030290128 -0.05367734 0.026298618
0.016163373 0.071806505 -0.13859324
0.044516794 -0.21245873 0.30156097
0.07108101 0.023092905 0.142237
-0.19688667 0.053502817 -0.2173297
0.13350362 -0.20582063 0.33660707
0.117510304 0.11667498 -0.28230223
0.1942603 -0.20276788 0.1809378
0.028766332 -0.05497306 0.20245382
0.106971405 0.118580796 -0.1564662
0.0011079509 0.029780116 0.0575617
-0.08826413 -0.047605403 -0.2253597
0.013947906 0.080019735 -0.012388915
-0.08850311 0.16921073 -0.18878166
0.12008339 -0.07003569 -0.0052522123
0.028111488 -0.08445109 -0.28929806
-0.08735785 0.042270433 -0.07836859
-0.1310837 0.056435294 -0.17430425
-0.091311984 0.09910843 -0.1602542
-0.11310143 0.01994999 -0.27275208
0.118815355 -0.3124928 0.2907972
-0.19175301 0.14038338 -0.3428969
-0.03475817 -0.030379208 -0.28688884
-0.017609438 0.26264346 -0.33306563
0.06189136 -0.084346764 0.18901716
0.082658224 0.022074642 0.08667837
-0.14774485 0.14487794 -0.13850729
0.050313644 -0.13628113 0.26469222
-0.095038824 -0.034314346 0.04781076
0.134791 -0.26961243 0.29204312
-0.034233045 0.1722523 -0.21848714
0.06454572 -0.045200516 0.13184027
-0.04127344 -0.051169235 -0.25173268
0.017126782 0.09369244 -0.1698199
0.17843159 -0.16017136 0.29012242
0.025324812 0.084294215 -0.0624481
-0.15626459 -0.0025565706 -0.18206646
0.048625156 -0.09886709 0.31847766
-0.07619281 -0.08915085 -0.042888984
0.07418356 -0.08604264 0.2919309
0.029476268 0.24065156 -0.24166039
0.11355614 0.04872005 -0.09395196
0.16875115 -0.12834185 0.32955652
-0.05638753 -0.03648468 0.18471259
-0.16438833 0.0039634127 -0.23241623
0.02532396 -0.066102535 -0.29106277
-0.01412007 -0.02105904 0.10692314
-0.03208255 -0.00471287 0.08290832
-0.17995484 0.16529314 -0.28643626
0.073343 0.0011104785 -0.01874976
-0.0216428 -0.034166433 0.015611841
0.121659495 -0.2092061 0.36297905
0.1612027 -0.028380016 0.2121014
0.084779195 -0.27636158 0.31222808
0.098529816 0.09682075 -0.32746595
-0.1430519 0.20141636 -0.30135745
-0.03465681 -0.16115747 0.18183622
0.1039093 0.10282918 -0.21841785
0.09480224 -0.15247937 0.3377851
0.01827788 0.050552603 -0.061975285
-0.15173557 0.1820515 -0.15956931
-0.1010808 0.2032915 -0.11525323
0.02575955 -0.14097133 0.29773363
-0.11017549 0.15647593 -0.110189274
0.021617955 -0.17933127 0.288439
-0.083792165 0.17042486 -0.130353
0.05694737 -0.15921253 0.31070265
-0.0043621603 -0.15391327 0.3628807
0.106422834 0.005864471 -0.27196077
0.09934243 0.055691704 -0.1930086
-0.015810039 -0.043047655 0.15624806
0.14983176 -0.061444987 0.0047950153
0.060407653 -0.10692534 -0.3199491
-0.09307668 0.23742163 -0.25745416
0.04257855 0.039866354 -0.0075809387
0.056196153 -0.21074359 0.29633835
-0.012767857 0.026959252 0.10894656
-0.13616504 0.18309565 -0.21028334
0.10875646 -0.08602087 0.13889396
-0.113804914 0.19450861 -0.103718564
-0.23309508 0.084406495 -0.22589603
-0.15081403 0.13939567 -0.20612183
0.038946867 0.115709044 -0.12812532
-0.0295818 0.09953165 -0.021371478
0.03461032 -0.13082656 0.20398273
0.06830275 -0.21306548 0.36224177
-0.05973069 -0.04231784 0.049354073
-0.20862655 0.1180065 -0.31189567
0.062812746 -0.2211556 0.36025915
0.08159062 -0.13698827 0.32510015
0.16891295 -0.17069344 0.2876466
-0.00022939265 -0.028872158 0.081063434
0.070349164 -0.07061198 0.2909393
0.0071534733 -0.09418063 0.2740876
-0.17278165 0.07355435 -0.19830826
0.088721015 -0.27079368 0.23669802
-0.14750129 0.103354596 -0.13810442
0.11846657 -0.0723422 0.18089814
-0.04556682 -0.17547566 0.06405398
0.18593946 -0.18947484 0.2966738
0.09604608 -0.10395495 0.32333946
0.11562344 -0.04556055 0.20618853
-0.036047444 -0.06733512 0.1920469
0.00059337507 0.15061176 -0.11076357
-0.09045832 -0.053953636 0.022716349
0.012228086 -0.22285813 0.35344926
-0.039160687 0.02678246 -0.0056055537
0.04830169 0.20091553 -0.20443638
0.1272171 -0.22188832 0.28805834
0.03852443 0.2376315 -0.33822623
0.101069055 -0.23884584 0.32198286
-0.0856881 0.19172072 -0.13967381
0.009388388 0.0021541312 -0.041266643
-0.17455545 0.028515149 -0.25085902
0.10294876 0.05766234 0.007970803
-0.23877877 0.09218439 -0.24620152
0.2155446 -0.18732217 0.23928164
0.1306172 -0.08719767 0.12216466
-0.052586637 0.16446905 -0.123234935
0.09761442 0.020432342 0.082829505
0.020680593 -0.14141837 0.19727957
0.12411013 0.120387256 -0.2659399
0.10401681 -0.25967717 0.29853952
0.023975352 0.08227396 -0.038820162
-0.03952583 0.0062267883 -0.03914364
0.03946677 0.08686928 -0.17101188
0.13393004 -0.18055502 0.33395332
0.20022191 -0.17928812 0.3002603
-0.08779485 -0.0966586 -0.011014133
-0.019612188 -0.01364416 0.18016392
-0.04483038 0.121139616 -0.19761303
-0.032824624 0.22800797 -0.17936535
0.18893084 -0.23805887 0.2195628
0.16846576 -0.13014066 0.28580594
-0.037196234 0.21802607 -0.13813101
0.13494638 -0.07815626 0.38196424
-0.11628344 0.17408447 -0.16688567
-0.22798063 0.18345913 -0.26832652
-0.018772436 0.05368098 -0.09367303
0.03978051 0.010764447 0.06953849
0.14938328 -0.1396009 0.3607553
-0.04901884 -0.0847261 0.02792641
0.21179457 -0.20254172 0.23655923
-0.15826136 -0.0011013589 -0.1677848
-0.11819719 -0.039737273 -0.21316737
0.03005132 0.07530861 -0.08558143
0.016491672 0.06625163 -0.050595038
-0.11704174 0.19407184 -0.12727092
-0.15116943 0.19594589 -0.20160672
0.03476451 0.054186374 -0.09452288
-0.010848542 0.03139138 0.03592936
0.09901569 -0.19276315 0.30631107
0.04715206 0.06278156 0.04284406
-0.026682502 -0.11492092 0.08938147
-0.05813967 0.18223861 -0.16864748
-0.034146648 -0.13445728 0.19062766
-0.13372208 0.011839483 -0.15099043
-0.019716458 -0.09207914 0.16840701
0.13298863 -0.2356111 0.28528664
-0.07740689 0.1012038 -0.10737725
-0.04683893 -0.045693077 0.11148228
0.07823484 -0.100753166 0.2116916
-0.017251443 -0.08504109 -0.22577982
0.06574907 -0.12348302 0.32631811
0.023346031 0.16478747 -0.31315845
-0.21278097 0.16344033 -0.2444561
-0.08839746 -0.032090068 0.03827391
-0.11234295 0.1083358 -0.14074399
