# .PCD v0.7 - Point Cloud Data file format
VERSION 0.7
FIELDS x y z
SIZE 4 4 4
TYPE F F F
COUNT 1 1 1
WIDTH 1000
HEIGHT 1
VIEWPOINT 0 0 0 1 0 0 0
POINTS 1000
DATA ascii
-0.16249116 -0.032153256 0.033221405
0.064803876 0.08840641 -0.09671867
-0.295781 -0.22384062 0.21565084
-0.1874378 -0.16772872 0.18116885
0.09637184 0.039804876 -0.011101485
-0.09987048 -0.09267543 0.11975626
0.078099735 0.24086149 -0.19008936
0.06931116 0.24449274 -0.114480354
-0.18522067 -0.30506676 0.2134131
-0.112351246 0.04226391 -0.040722825
0.29765192 0.119268335 -0.21715143
0.057176933 0.29352975 -0.14722608
-0.09626645 0.0048452336 0.050476637
0.04073623 0.31499434 -0.13540812
0.021880513 -0.013246965 -0.0077655017
-0.18740226 -0.18510291 0.22547477
-0.022967903 0.016826058 -0.012904452
0.20803326 0.18103415 -0.1510611
0.23608245 0.17800596 -0.081628494
-0.1963504 -0.08252662 0.05839897
-0.062366348 -0.17461213 0.11442341
-0.109816276 -0.021155229 0.03556466
-0.03852561 -0.15342937 0.027323825
-0.020074395 0.14819251 -0.15408641
0.15990119 0.045339078 -0.05746693
-0.026411492 0.19622272 -0.17297298
0.14269854 0.20224237 -0.10744462
0.08286398 0.122779 -0.1087394
-0.059287556 0.050252054 0.025422229
-0.14971806 -0.12012304 0.055010132
-0.21388689 -0.19321306 0.21363047
0.11172199 0.16153781 -0.1066387
-0.051009897 0.23053202 -0.17627867
-0.19537061 -0.04132254 0.08653843
0.069759406 0.058381125 -0.067143425
0.02824872 0.12891644 -0.09366929
0.02224685 0.24573511 -0.076746695
0.01284357 0.028641453 -0.032406695
0.09033047 0.037244413 0.013673573
-0.049959406 -0.08942983 0.05609884
0.22353825 0.24893887 -0.13509637
0.021756906 0.1869445 -0.17897639
0.12433949 0.23355839 -0.09872782
0.21178116 0.12168742 -0.080106184
0.1268754 0.16398117 -0.009012613
0.2343286 0.17644468 -0.10434503
-0.2393544 -0.30273077 0.16149026
-0.29235828 -0.27665243 0.21461774
0.059949394 0.17957692 -0.08292425
0.18951805 0.09132283 -0.12017916
-0.0060789804 0.10513651 -0.066280544
-0.08025278 0.06876751 -0.017535252
0.115991384 0.22986737 -0.027394768
0.13020878 0.30303767 -0.13395654
0.03915065 0.061275635 -0.21898718
0.036232334 0.22164163 -0.097929396
-0.17077367 -0.25581867 0.1292159
0.23422273 0.098182745 -0.23065999
0.17115521 0.1198258 -0.0159748
-0.048877083 0.07461514 -0.08693006
-0.122900024 -0.17008807 0.12153061
0.014414224 -0.08048406 0.002493965
0.07703264 0.028143518 0.046667386
-0.005364649 -0.09924752 -0.0149039235
0.26860908 0.23523714 -0.12439778
0.09943316 0.0699617 -0.09379715
0.21787646 0.1575953 -0.069564044
0.1449078 0.26524794 -0.08070011
-0.058927402 -0.24881552 0.09668473
0.24768305 0.09672195 -0.24030952
-0.11389806 -0.06719675 0.06385429
0.17047238 0.2330113 -0.167672
-0.21608967 -0.26452848 0.14952807
-0.12922913 -0.10911857 0.07414976
0.058073815 0.07409679 -0.06555292
-0.081427336 -0.06485985 0.010272183
0.22063512 0.06325371 -0.19177626
0.07085179 0.18557858 -0.09069054
-0.11153768 -0.29708874 0.20065928
0.12366402 0.321687 -0.1810979
-0.09223087 -0.20138752 0.10371095
0.12576032 0.21466884 -0.008762906
0.03228882 0.058759253 -0.051907443
-0.014889175 0.025441058 0.005242256
0.004522365 -0.11301411 0.114091836
0.16389409 0.110999405 -0.027681855
-0.05028516 0.22079532 -0.20742582
-0.17901987 -0.25185353 0.2174469
0.12501651 0.1420835 -0.020240879
-0.0766739 -0.04063073 0.0594587
-0.14645989 -0.30294865 0.14494088
0.1496215 0.2582304 -0.06099226
0.15809238 0.11951418 -0.0042093694
-0.24241808 -0.26226437 0.24486364
-0.058311433 -0.14543141 0.06624426
-0.0953093 -0.0955895 0.090526715
0.19462122 0.20597607 -0.08153483
0.07826432 -0.05017589 -0.028722843
-0.12344393 -0.097879276 0.08289547
0.11602669 0.2135854 -0.060742047
-0.025440056 -0.058592763 0.030233825
0.06309232 0.10954769 -0.055673882
-0.028937757 -0.047698807 0.066229306
-0.1961524 -0.25750566 0.2567705
0.22596696 0.12800846 -0.11641008
-0.0025822145 -0.14546604 0.08474269
0.1480067 0.05627174 -0.06664207
-0.06355187 -0.21164872 0.06571935
0.1555519 0.2738446 -0.053314913
0.14692391 0.25564265 -0.0877257
-0.17475237 -0.106559925 0.042847734
-0.111836605 -0.23590457 0.21201922
-0.088787 0.02299629 -0.07791119
-0.23523818 -0.17546298 0.17719954
-0.103148215 -0.327018 0.12676689
0.20134284 0.123414226 -0.06285823
0.058826067 0.2235551 -0.058368117
0.09047801 0.13576178 0.0037031844
-0.1763162 -0.31078956 0.15336795
-0.08705777 -0.2270335 0.18165405
-0.13822679 -0.04870591 -0.0971331
-0.11234117 -0.11978721 0.053048063
0.1971116 0.14684512 -0.09159623
-0.06666506 -0.21314968 0.11228883
0.12965137 0.3095877 -0.10456296
-0.14161117 -0.2489837 0.12727088
0.09066237 0.23204619 -0.12512897
0.25190416 0.15107799 -0.13137378
-0.08412498 -0.16221204 0.04864564
-0.14105932 -0.20272543 0.10892206
0.033260915 0.28405142 -0.17316905
-0.033727597 -0.26935863 0.04090199
0.15123057 0.072122544 -0.13452068
-0.21769029 -0.22513199 0.14410456
0.014536714 0.047474496 0.058685567
0.049943376 0.0734646 0.037082296
-0.028813705 0.051517535 0.015581323
-0.06793497 -0.100954786 0.071437895
-0.012740885 0.009512142 -0.030363578
-0.06761539 -0.19590065 0.032537434
-0.00868512 -0.13030627 0.043960545
-0.16311026 -0.2717901 0.20125611
0.14564747 0.16893633 -0.05402477
0.2234589 0.07657532 -0.1153793
0.026880285 0.17485684 -0.08620011
-0.28925323 -0.3552575 0.10908127
0.16515116 0.20221184 -0.06376689
-0.036823466 0.18074852 -0.13270439
0.13722692 0.024237081 -0.16009371
-0.14959536 -0.21898076 0.14707875
-0.06157841 0.13056393 -0.20386402
-0.2568514 -0.22647806 0.15367316
-0.049112484 0.0456467 0.03589692
-0.012373771 0.017876955 0.06715697
0.15225206 0.09704195 -0.14020915
-0.15942003 -0.18198663 0.13928115
-0.06711278 -0.0595805 0.06973042
-0.28319693 -0.19583507 0.07150906
-0.26544154 -0.25375262 0.13064806
0.056629363 -0.10137978 0.040040728
-0.050602186 -0.08020105 0.11060982
0.17120655 0.06819355 -0.19058256
-0.1825665 -0.30058601 0.15297432
0.16655952 0.18578102 -0.137261
-0.023753826 -0.043379858 0.0923716
0.14138664 0.14512542 -0.048543446
0.233397 0.113617435 -0.13558811
0.0031895197 -0.03619527 0.060638145
0.055416927 0.25107062 -0.088822216
-0.025942314 0.049413297 -0.005479726
0.0330268 0.08838752 -0.20784435
-0.1976422 -0.20807137 0.15007949
0.018279294 0.032740448 -0.042873014
0.10842115 0.13893472 -0.09027437
-0.007080329 -0.121749304 0.11596334
0.21465525 0.11649692 -0.081188306
-0.20233218 -0.33587936 0.22616144
-0.21362276 -0.2670111 0.18724461
-0.011306556 -0.0048459047 0.0073114415
0.114496134 0.088252716 -0.0017642138
-0.2581583 -0.14030299 0.118931286
-0.021216322 -0.11804613 0.06134117
0.015184297 0.17733127 -0.08772569
0.017131869 0.056458503 -0.047254983
0.04281402 0.07691099 0.01721888
0.14388594 0.047917724 -0.093683414
-0.24206838 -0.2922201 0.13793053
-0.19362763 -0.10550898 0.029087909
0.031002132 -0.014820769 -0.020117981
-0.24740098 -0.29940024 0.21743312
0.18368965 0.027986055 -0.11804491
-0.16705906 -0.29398498 0.12142897
0.0491948 0.036907174 -0.00962471
0.2340122 0.23589844 -0.12963682
0.09027127 0.28502256 -0.11310632
0.13692018 0.10833558 -0.06761763
-0.014604769 0.04974363 -0.04212666
0.13591768 0.031495463 -0.22187808
0.11189858 -0.021783294 -0.14134397
-0.17738415 -0.19339323 0.1623262
0.02621424 -0.049196277 -0.002996408
0.054944385 0.0094154 -0.03988198
0.007898138 0.29382887 -0.18441002
-0.09022182 0.052469082 0.0030584428
0.18826519 0.05375659 -0.0575201
0.14732291 0.21422514 -0.10596944
-0.19490825 -0.12343567 0.11599963
-0.2660074 -0.22148657 0.1559714
0.03996552 0.25104752 -0.25631395
-0.33072117 -0.2181285 0.16045631
0.2798936 0.15293543 -0.062072735
-0.2694615 -0.21425547 0.14218448
-0.1908618 -0.29810596 0.18370289
-0.24897784 -0.20030709 0.15190525
0.1080135 0.18434086 -0.034751106
0.21401128 0.23834097 -0.10737213
0.19896194 0.038346484 -0.12680991
0.10523111 -0.020238176 -0.028156277
0.2596692 0.10602152 -0.20832299
-0.23450005 -0.21088447 0.2181674
0.007792217 0.14892286 -0.14238867
-0.006270383 0.02632192 0.040199343
0.20008707 0.24923418 -0.1055833
0.10622757 0.1760843 -0.098566756
0.2926779 0.2460716 -0.15427458
-0.17151278 -0.22791463 0.14177896
-0.016130686 -0.01656951 0.11032331
0.2315881 0.17922296 -0.12266472
0.013599088 0.024528911 -0.04567136
0.016589623 -0.089647084 -0.015363883
0.088480845 0.041094143 0.0040808823
-0.11074152 -0.23666441 0.15087529
-0.19749802 -0.26750517 0.17018469
0.13401636 0.100211404 -0.045916647
0.13972911 0.17610031 -0.07730053
-0.016321132 0.16298063 -0.20513228
-0.14807962 -0.34353727 0.17620352
0.15539534 0.074100986 -0.17942396
0.057586797 0.13658659 -0.10211162
0.15923207 0.059062324 -0.13808283
-0.16658439 -0.3346992 0.2449906
-0.21421115 -0.24309663 0.20172448
-0.2227831 -0.33028492 0.14625405
0.12615207 0.050188623 -0.21439378
0.26760358 0.027000112 -0.18614511
-0.021197662 -0.07477735 0.09493254
-0.021285703 -0.0524847 0.02815607
-0.06644312 0.06291046 -0.002963109
0.11684927 -0.033906158 -0.22536947
-0.040281583 0.0057448163 0.04063895
0.23718153 0.18214568 -0.1431643
0.15372406 0.23045364 -0.051121436
-0.050741266 0.016206976 -0.040331446
-0.05266193 -0.10954517 0.052222315
-0.016606767 0.15888546 -0.057308916
-0.24183008 -0.23628695 0.11164727
-0.24610105 -0.16685729 0.17559643
-0.25041512 -0.14516847 -0.002841934
-0.15542246 -0.32427952 0.1387418
-0.2638373 -0.17382325 0.034183167
-0.042958863 -0.15622312 0.06511039
0.08953912 -0.028783917 0.0038104022
0.02004174 0.089200564 -0.2576055
0.28008077 0.07176065 -0.22064607
0.042961854 0.16942136 -0.16601662
0.1609314 0.10665917 -0.13279492
-0.19780229 -0.20264879 0.14810874
0.08653229 0.077677734 -0.08557653
0.031129943 0.048090883 -0.043283448
0.06849435 0.06345434 0.012207397
-0.06903684 0.050966877 -0.040017776
-0.098221265 -0.22718464 0.16182019
-0.13768868 -0.23515944 0.19208077
0.057892155 0.029334005 0.021307204
-0.23723026 -0.26343736 0.1354865
0.0754688 0.043929543 -0.06691107
0.21511485 0.19397117 -0.034468826
-0.12834007 -0.04392315 0.033091303
0.00012506553 0.2072987 -0.08335703
-0.018100156 -0.07757738 0.10458075
-0.055619497 -0.110588394 0.056062054
-0.08606633 -0.10486807 0.12207863
0.03674923 0.1571483 -0.107776605
-0.052082162 -0.04177631 0.07459458
-0.32806742 -0.24697597 0.18376037
0.17552923 0.056233402 -0.14076817
-0.21100973 -0.18982251 0.18601239
-0.07137376 0.034813657 0.043308634
0.14735901 0.051174317 -0.06346877
0.0022357192 0.05249212 -0.07317682
0.02717039 0.2401753 -0.2620057
0.08664734 -0.059905015 -0.08762702
0.11637461 0.112778015 -0.045687262
-0.01847047 -0.011512364 0.0063548204
-0.049332134 -0.050360255 -0.008146218
0.15866335 0.3482247 -0.13479875
0.025169367 -0.078386635 -0.109739006
0.031378895 0.10729129 -0.042872503
-0.16376922 -0.15661755 0.1463688
-0.006450171 0.16746329 -0.042060528
0.19631872 0.21227902 -0.10046826
0.090685636 0.10310924 -0.045058846
-0.10414473 -0.18646434 0.16507205
0.08109901 -0.03179313 0.013775766
-0.21077591 -0.21078907 0.17900507
0.2562779 0.20482022 -0.0826927
-0.17319715 -0.1985385 0.11924039
0.0061508706 0.26900083 -0.07449721
-0.18931453 -0.21380715 0.17751156
-0.080700345 -0.16698296 0.129037
-0.039522827 0.06259663 -0.05253806
-0.12636401 -0.15344635 0.13778907
0.13806584 0.13818233 -0.08539482
0.043616544 -0.11968624 -0.043652482
-0.2598525 -0.2504396 0.16155256
0.10188064 0.31517792 -0.18364672
-0.016729694 0.026525192 0.016738702
-0.12486891 -0.08193143 0.072452486
-0.21101214 -0.31638384 0.124958925
0.04764098 0.29081282 -0.0887419
0.19150852 0.18448453 -0.123256385
0.037774 0.19943962 -0.08003259
-0.012170525 -0.0087003345 -0.017099803
0.075134814 0.30080968 -0.14532214
-0.13153051 -0.14518085 0.06641013
0.116971344 0.15272292 -0.08309033
0.06649385 -0.13620187 0.0065571917
-0.08118356 0.028137064 0.030464727
-0.16866095 -0.10703201 0.16303508
0.11678571 0.106437206 -0.023680119
-0.13937195 -0.18479304 0.09053983
0.26977557 0.12215092 -0.06654724
0.031415828 0.09255117 -0.008882114
0.10267386 0.16242258 -0.077246584
0.08709668 0.038225777 -0.07512176
-0.1064576 -0.10138946 0.13870716
-0.14893255 -0.23519881 0.20813309
0.24894756 0.10606206 -0.10220913
0.17835732 0.11419791 -0.06453498
-0.033090092 0.13620704 -0.050622515
-0.16948408 -0.283015 0.15050128
-0.118379086 -0.25590146 0.10238597
-0.13898732 -0.22602095 0.15723668
0.051909044 0.2414621 -0.035438694
-0.033490226 0.049888737 -0.0043755462
0.26563337 0.16382082 -0.100884594
0.22225364 0.19314612 -0.120770544
-0.05149277 -0.14806576 0.0806669
0.015217216 0.040319663 0.011084195
-0.029065708 -0.019661123 0.08969286
-0.12046533 -0.10219099 0.03627252
-0.1523315 -0.31691945 0.14333105
0.20829019 0.079784155 -0.11807332
-0.06289419 -0.09745499 0.066486396
0.0129483845 0.19291694 -0.046102546
0.2158021 0.17685486 -0.080447614
0.046561696 0.08948123 -0.04651254
-0.22290282 -0.17363192 0.16774087
0.12486944 0.27832448 -0.08914623
0.09801988 0.25441235 -0.08519859
0.0027611982 -0.14456548 0.09758883
0.18688577 0.32758632 -0.07509075
-0.055129938 0.16679817 -0.16445577
0.014953451 0.27518153 -0.15864006
-0.24546278 -0.34080315 0.064135276
-0.21884844 -0.18702294 0.17589538
0.23763639 0.031060012 -0.09508681
0.04474293 -0.04946859 0.035868064
-0.106377944 -0.1894882 0.061025873
-0.10318484 -0.03365617 0.06743518
0.16678585 0.17226744 -0.081409305
0.04487384 0.006060237 0.05900287
0.16790763 0.24731895 -0.096328
0.005012088 0.00057727075 -0.005949518
0.29335994 0.11349793 -0.12186567
-0.1389365 -0.116450086 -0.020391947
-0.18650466 -0.30176622 0.12874393
0.11278108 0.14817531 -0.099137336
-0.03179378 0.14197665 -0.15622608
0.08058749 -0.054140966 -0.087239444
-0.012703934 0.0046528005 -0.05438172
0.016829198 0.078696445 -0.009057889
-0.19622383 -0.21425645 0.14880201
0.1268895 0.08150685 -0.14050712
0.11809233 0.061924685 -0.29753467
-0.010882787 -0.061057925 0.023241827
-0.184933 -0.2408474 0.14896192
-0.133658 0.02185499 -0.09604018
-0.17490937 -0.061628673 0.034374546
-0.16373488 -0.12878233 0.09773221
-0.07818083 -0.019218754 0.07259761
0.11051686 0.13564575 0.008114739
-0.09207464 -0.07326781 0.13549803
-0.045802604 0.18830755 -0.1282451
0.20156859 0.20971045 -0.025178138
-0.12009303 -0.19907339 0.1812118
-0.16662869 -0.13936216 0.1792488
-0.21062009 -0.33660376 0.21263596
-0.013865827 0.024596544 0.021936825
0.16145128 0.18003723 -0.036903966
-0.10110842 -0.07475628 0.011445196
0.049810495 0.091257654 -0.020976126
-0.0013848535 0.29086986 -0.17352004
-0.032006934 -0.107078366 0.062281232
-0.106854185 -0.29966313 0.114894144
0.1963557 0.19072175 -0.08190191
0.14255728 0.20556524 -0.027035618
0.09008369 0.24892218 -0.019718751
-0.02971271 -0.054633655 0.071331985
0.17637709 0.0006188315 -0.11422176
0.041621003 0.10571041 -0.018630458
-0.24250676 -0.17463884 0.14606111
0.012122687 0.20058581 -0.120686315
0.13001634 0.1917434 -0.025187464
0.15414609 0.081705704 -0.08373359
0.08636296 -0.0051692827 -0.08304485
-0.14444266 -0.15434179 0.13516739
-0.2501016 -0.29300082 0.14345302
0.08510345 0.068084046 -0.0078542605
-0.17948937 -0.32259962 0.16312152
0.22046342 0.23587392 -0.12918657
-0.11717155 -0.22071312 0.2196372
-0.25821438 -0.23487867 0.2127498
0.04608411 0.092633456 -0.0173949
-0.15473017 -0.22465467 0.18150462
-0.21737406 -0.16019002 0.1500445
0.009555742 -0.09295168 -0.04877636
-0.13316856 -0.08303949 0.06180778
-0.09906892 0.015392721 -0.047289845
0.09839413 0.22569577 -0.12002159
0.14433217 0.16511272 -0.020836746
0.015578112 0.08624345 -0.03147108
-0.055424653 -0.13958602 0.037562463
0.046488117 0.10711853 -0.016180627
-0.24706832 -0.22075444 0.189211
0.3002106 0.16415834 -0.17946686
-0.052452557 0.16571969 -0.13800524
0.24806403 0.120248616 -0.109595194
-0.19617097 -0.17556988 0.14833198
-0.034522213 0.078045234 -0.24419726
-0.13404061 -0.12934835 0.1468316
-0.19951162 -0.15277347 0.08688976
-0.01025932 0.021781933 0.026828611
0.045200896 0.06214867 -0.058293022
0.2285003 0.24251786 -0.15490767
0.26128188 0.17153348 -0.14118443
-0.22691636 -0.30786565 0.14174362
0.09985372 0.13946791 -0.023116656
-0.072979175 -0.074170016 0.08386327
0.061383907 -0.053441375 -0.012750113
0.22095442 0.054489743 -0.16534865
-0.07335021 0.16598961 -0.19779918
0.02401311 -0.06462394 0.062324278
0.027371692 0.086570255 -0.061824337
-0.172016 -0.32308328 0.16972986
-0.09881445 -0.05920934 0.0290293
0.13463816 0.28054836 -0.11415675
0.17137827 0.14751768 -0.023714725
0.2737044 0.16067892 -0.17653821
-0.045106288 0.006660132 -0.03361936
0.071106605 -0.031185295 -0.24948154
0.07536317 0.12242801 -0.00050491095
-0.081380256 -0.20598333 0.17918524
-0.16652419 -0.110232 0.09701586
-0.17617626 -0.33325925 0.16718186
-0.25168708 -0.25594136 0.08337501
-0.0154927615 -0.15635714 0.075089216
0.0052449815 -0.113480486 0.0041555646
0.17295437 0.26581645 -0.10570886
-0.12619519 -0.2787391 0.21327288
-0.08714412 0.086714864 -0.15797459
-0.27831447 -0.29365006 0.12225233
-0.21008833 -0.38979578 0.1261781
0.08464126 -0.05944113 -0.013758208
-0.06470566 -0.09887544 0.0643754
0.031636838 -0.017778749 0.028344708
0.013963433 -0.06695106 -0.016557993
-0.08345331 0.11882162 -0.20333129
-0.0522217 -0.16505328 0.08544305
0.16425146 -0.014722335 -0.22014824
0.11867715 -0.029077955 -0.078004956
0.15482344 0.1484753 -0.08536746
-0.1102815 -0.04689198 0.002571846
-0.056971356 -0.09530183 0.10180347
0.090171784 0.29807258 -0.17103371
-0.078918196 -0.046516992 0.11951748
0.18850574 0.16120529 -0.058205135
-0.0783267 -0.22255147 0.13540955
-0.13321207 -0.23353316 0.16820541
-0.06373683 -0.16566214 0.06745932
-0.050009664 -0.20810668 0.14937806
-0.1590395 -0.20170233 0.21014072
-0.1363 -0.046137564 0.042032633
-0.22205721 -0.28012913 0.2505181
0.06694553 0.087714046 -0.065539934
-0.21417704 -0.3191881 0.09030451
0.09520614 0.00042263258 -0.018125465
-0.0041724187 0.05796743 -0.00054454885
-0.024833055 -0.16072978 0.13723847
0.15295587 -0.031390704 -0.17277558
-0.012003522 0.21374282 -0.123324476
0.059015747 0.14474346 -0.048726212
0.23388083 0.17257275 -0.12681045
-0.2179055 -0.14999554 0.13537075
0.13459301 0.26902273 -0.12555283
-0.04706066 -0.2681281 0.0688046
-0.042851128 -0.019365802 0.083402015
-0.002987021 -0.035932027 0.087976776
-0.08173238 -0.16723707 0.17391461
-0.03305668 0.14527416 -0.19108985
0.04112226 0.16629279 -0.090449564
0.0023705645 -0.01783098 0.0032669192
-0.13431971 -0.20658551 0.08650273
-0.27886775 -0.28462106 0.1370623
-0.100456856 -0.24605492 0.06818957
0.07115211 0.033118196 -0.079101235
-0.2640686 -0.24073873 0.13916963
0.12133672 0.0900886 -0.10048434
-0.15280892 -0.34059283 0.12056543
0.034115084 -0.17314161 -0.033106975
0.02996985 0.098889366 0.033779
-0.042380456 -0.18057464 0.027144428
-0.094007805 0.09928086 -0.07507895
0.05787669 0.010241132 -0.018220976
0.07428022 0.006497067 -0.008638893
0.22183637 0.16437681 -0.052672125
0.12788674 0.17686768 -0.07439357
-0.20760347 -0.2819892 0.16458361
0.09348127 0.19947305 -0.09115306
0.07710681 0.08078064 -0.05138254
-0.09732381 -0.19876978 0.19309257
0.068173654 0.1317506 -0.036473677
-0.07013434 -0.0063395198 0.023844238
0.017001888 0.246295 -0.1393128
-0.0016721889 0.10753854 -0.009286862
-0.17861919 -0.28578022 0.2499141
-0.08536194 -0.34398502 0.09898563
0.15953621 0.14389461 -0.027751261
0.19547494 0.23470998 -0.060280774
0.018853327 0.01934929 -0.04152852
0.057181504 0.30978015 -0.28024098
0.029904917 -0.13915329 0.06398554
-0.0075839693 -0.051267963 -0.013227204
0.17850837 0.13876486 -0.08050776
-0.2757988 -0.19707838 0.22980921
0.10517178 -0.026414555 -0.040929075
0.069797404 0.2078216 -0.06954558
-0.11243431 -0.016879272 0.02810468
0.058532033 0.34021494 -0.14355716
0.07987467 0.268266 -0.052344177
-0.11655963 -0.10965328 0.12808865
0.07392781 0.030239059 -0.09148782
0.02839852 -0.026941782 -0.0034951386
0.2902007 0.21757026 -0.1361211
0.066624016 0.22733983 -0.110112295
-0.05422423 -0.1614137 0.03725834
-0.17314084 -0.18754312 0.16656405
-0.25876758 -0.2218295 0.17123505
0.07699488 -0.045504607 0.023094082
-0.039674893 0.0742694 -0.048690982
0.1733283 0.1906345 -0.112582095
0.029776284 0.18460919 -0.11408505
0.06896895 -0.055505734 -0.07602116
0.21325395 0.19604753 -0.04242701
-0.066213556 0.04558514 -0.04318344
0.19154187 0.19867837 -0.05827889
-0.21587345 -0.20851421 0.22665699
-0.035195988 0.056740835 -0.018089268
-0.18485743 -0.18696173 0.1778383
-0.09086138 -0.075320736 0.09882317
-0.13653472 -0.12131751 0.1541252
0.30583996 0.14960684 -0.15365471
0.10280664 0.13697532 -0.040991593
0.15384732 0.064735316 -0.17021206
0.20079827 0.13383302 -0.06956787
-0.018407041 0.27729455 -0.09997632
0.03484278 0.19779699 -0.097395845
0.21265727 0.117081344 -0.13080451
-0.2281449 -0.21041857 0.15804578
0.11163112 0.07047242 -0.054439962
-0.2718573 -0.29826772 0.1335704
0.029295431 -0.019726364 -0.006850412
0.1723436 0.117309086 -0.038819894
0.07229855 0.15797447 -0.051265758
-0.216746 -0.2195421 0.2237509
0.09331048 0.23320876 -0.026180433
0.054956365 0.28392592 -0.16594854
0.16867313 0.19090767 -0.088115536
0.22965516 0.19863363 -0.20164537
-0.12137898 -0.22530915 0.1606351
0.09342737 0.2099068 -0.08385546
0.18891011 0.26368403 -0.09941516
0.3030285 0.15840091 -0.12082657
0.06633094 0.084363714 -0.0018958191
0.05195449 0.046745274 0.019683667
0.14952955 0.26428404 -0.12721248
-0.020448461 0.05795688 -0.198737
0.26065722 0.054568008 -0.12903325
0.13453549 0.054753013 -0.17367843
0.21156622 0.28541395 -0.15604828
0.21953179 0.19273654 -0.039284773
-0.048199907 -0.18347892 0.05360722
0.021803316 0.19080694 -0.09852867
-0.07114916 -0.15371084 0.1642917
-0.06662917 0.094200104 -0.07353451
0.0677205 -0.10826703 -0.037308577
-0.11937796 -0.20046784 0.10535901
-0.08727715 0.085801125 -0.085294604
0.12526576 0.19510722 -0.03839155
-0.11880472 -0.076299705 0.10641778
0.16185763 0.068164214 -0.18240754
0.14878337 0.25559643 -0.08722053
0.10664273 0.24737374 -0.06341731
-0.02454319 0.043861438 -0.021068722
-0.08993042 0.00044241876 -0.016078675
-0.2978715 -0.29686016 0.18036725
0.07357821 0.15608232 -0.047384024
-0.28133535 -0.1939222 0.12331434
-0.25777793 -0.3623895 0.087636836
0.020101903 0.2904547 -0.19308563
-0.06875411 0.0046247966 0.02516229
0.12837963 -0.002366612 -0.18204361
0.003455767 -0.017615447 0.05712466
-0.12374656 -0.13747206 0.08605202
0.17068161 0.29414266 -0.14806318
-0.25053245 -0.28735578 0.11384797
0.14570233 0.08963436 -0.043675218
-0.23318112 -0.21417132 0.24748941
-0.25338584 -0.22484687 0.1601186
-0.011168551 0.08044807 -0.029096989
0.14444612 0.20899737 -0.06720473
0.15114982 0.19207054 -0.04100903
-0.07053325 -0.018934859 0.019528393
0.16627628 0.08653044 -0.072091006
-0.20238447 -0.21939331 0.2519996
0.08185397 -0.060568854 -0.003694305
0.23404413 0.13929518 -0.07026976
-0.13911845 -0.09530547 0.026411097
-0.0021057997 -0.010310065 -0.00879128
0.0032322959 0.0021135781 0.031392455
0.009076904 -0.07160746 0.009988649
-0.16782992 -0.2539774 0.14232215
0.08283489 0.028622555 -0.009084615
0.11298077 0.117501676 -0.104029156
-0.01054107 -0.1549665 0.081877634
-0.24424621 -0.22904801 0.13662629
-0.16496852 -0.2109714 0.19803667
-0.09391317 -0.16541474 0.06486697
0.17518714 0.05776859 -0.15751402
0.17886235 0.10035177 -0.28428093
-0.1930561 -0.13725622 0.1860696
-0.11317862 -0.06923753 0.036037825
0.15544131 0.31442627 -0.10254933
0.17996268 0.1346794 -0.05680362
0.09076961 0.01685167 -0.091712914
-0.02922153 -0.09812423 0.116181664
-0.17582282 -0.318983 0.16923101
-0.10243876 -0.015148354 0.020378208
-0.10157416 0.038591623 -0.07015238
0.1941927 0.27726564 -0.06527089
-0.012869189 0.18447307 -0.24663584
-0.00798035 0.0136464685 0.05341156
-0.05126151 0.1545721 -0.17685941
0.15554865 0.21905829 -0.11640267
0.105667934 0.07348223 -0.0956911
0.187932 0.2151781 -0.06328362
-0.12405425 -0.13962013 0.089941084
-0.050495118 0.09190048 -0.09027205
0.0888611 0.13845412 -0.056609455
-0.07119669 -0.08341712 0.08884667
-0.12597977 -0.16988538 0.20089869
-0.29891866 -0.28906086 0.18964024
-0.043793205 -0.18427637 0.07876902
0.21857797 0.098682724 -0.05528806
0.031022808 0.121186666 -0.034642175
-0.14934872 -0.14493196 0.121078916
0.23446809 0.19420823 -0.094128124
0.03457589 -0.020779643 0.0112961875
-0.104008935 -0.0076677985 -0.07386049
-0.033425733 -0.13955235 0.12538669
0.04913824 0.062751055 -0.0090868035
0.11432549 0.26300138 -0.17171231
0.10610055 0.3066433 -0.14267561
0.069715835 0.19431621 -0.071392626
0.047103874 0.2795392 -0.15051335
-0.03897659 -0.028182982 0.082724065
-0.2890593 -0.26190838 0.18490086
0.09361944 0.029127076 -0.20837775
-0.11129661 -0.33671677 0.18960972
-0.25344798 -0.33134443 0.1469105
0.166704 0.015582397 -0.23932643
0.050272834 0.1559938 -0.038867902
-0.18483083 -0.23832178 0.1686667
-0.032043282 0.09941285 -0.07893784
-0.31928203 -0.24056715 0.12401872
0.12833005 0.14011472 -0.055203937
-0.023152076 -0.15844952 0.0724538
0.2206571 0.15739326 -0.042684287
-0.23022881 -0.24485213 0.21602274
0.06724377 0.25905254 -0.16164424
-0.17196721 -0.18405186 0.17069757
0.03845405 -0.032295853 -0.0037152832
0.053041473 0.013165152 -0.19569878
0.033196684 -0.13622151 -0.019356657
0.14822696 0.0097313 -0.062648244
-0.22961688 -0.2502043 0.21855038
-0.01077735 0.11335 -0.09708738
-0.037637047 0.07710399 -0.2776533
-0.0575014 -0.06660841 0.13537194
-0.21692154 -0.2872995 0.17401417
-0.24408835 -0.26001152 0.15426274
0.12815005 0.13748595 -0.053267024
-0.23853017 -0.3329605 0.115999416
-0.11401233 -0.23315677 0.18753548
-0.08559679 -0.022540992 0.10658976
-0.0966524 0.025714803 -0.020423014
-0.050374914 0.095922954 0.028793849
0.2600522 0.16354065 -0.09141368
-0.112922244 -0.20808971 0.18375911
0.025878128 0.04119683 -0.027386593
0.03606621 0.10269275 -0.07695752
0.082476504 0.23311523 -0.09913652
0.17277823 0.296791 -0.1315164
-0.032545034 0.04064507 0.012532047
-0.09414307 -0.10475556 0.10828359
-0.015548663 -0.21927443 0.023443852
-0.19285493 -0.1599394 0.10303036
0.009987663 0.1554661 -0.08191901
-0.023514915 0.052761767 -0.06728952
-0.05295253 0.05461541 0.024671122
0.011861837 0.20098634 -0.20749752
-0.054672144 -0.015412051 0.049908575
0.011234776 0.12068352 -0.06737774
-0.22250892 -0.16954724 0.14016949
0.039621484 0.14159341 -0.06066927
-0.10348944 -0.038505126 -0.030406475
0.15511276 0.23702595 -0.10137658
-0.10568673 -0.21583116 0.14804478
-0.15540585 -0.13668932 0.1345822
-0.29374808 -0.26868856 0.21204126
-0.25478566 -0.21593632 0.150436
0.22335103 0.087995514 -0.08188355
-0.07125574 -0.043223903 0.11024446
-0.091470554 -0.21286747 0.13154969
-0.22288947 -0.27382666 0.18298502
0.021521168 0.00064655667 -0.021535417
0.16755056 0.16165252 -0.095887735
-0.04948552 -0.16441642 0.060722016
-0.04421839 -0.14729992 0.066614494
-0.14987873 -0.14755759 0.16842023
0.118400164 -0.03767436 -0.29259107
-0.18358961 -0.2788841 0.15933582
0.05731425 0.31210244 -0.14489876
-0.21970797 -0.19148946 0.20841728
0.06498226 -0.0554473 0.012400685
-0.10031713 -0.09608569 0.104063176
0.1260518 0.023773057 -0.00847214
0.062342696 -0.10228499 -0.041361157
-0.14725038 -0.20473328 0.16816092
0.1456272 0.14288297 -0.00819797
0.1410847 0.21951535 -0.065028995
-0.119149506 -0.107317835 0.15359764
-0.20899752 -0.14000387 0.11651444
-0.080598064 -0.05067341 0.034494817
-0.03802026 -0.099515624 0.07429186
0.15829173 0.0915504 -0.08888477
-0.021238701 -0.20535974 0.08248582
-0.008093277 -0.054216873 0.01388624
0.12565872 0.2894031 -0.10384024
0.018340416 0.124497324 -0.032734472
-0.08107786 -0.16606046 0.09712565
0.06264726 0.055970665 -0.035549022
0.026467415 0.25796273 -0.10688754
0.07860251 0.20596881 -0.036715843
0.2310842 0.008155921 -0.16511291
0.071446165 0.21054123 -0.07860425
0.009594626 -0.13191955 0.10915822
-0.07239083 0.0642859 -0.04698226
0.091714606 0.04316327 -0.05901942
0.12238635 0.20917976 -0.08817772
-0.18840958 -0.2342661 0.1680738
0.1532767 0.27636474 -0.05955741
-0.28957033 -0.29769355 0.08920113
-0.10602276 0.043704502 0.027440537
0.22122665 0.025119508 -0.0688475
-0.09501886 -0.070097566 0.058696624
0.26919326 0.16001074 -0.09332688
0.10711689 0.2739865 -0.13902818
0.19691676 0.03385393 -0.16319403
0.098211415 0.17460938 -0.07528233
0.087906346 0.175528 -0.047423046
0.04310365 0.08513263 -0.074380256
-0.0320307 -0.13122013 0.08557062
-0.05789365 -0.07393721 0.11120211
0.10455493 0.0614844 -0.06637428
0.12740287 0.090694375 -0.069026574
0.30309403 0.18503226 -0.19115983
-0.000577653 0.20679808 -0.22790852
0.25919828 0.241642 -0.065986894
0.057917792 0.20071942 -0.19433495
-0.14366262 -0.19572589 0.13081086
0.10596289 0.12436474 -0.0054855826
-0.010929895 0.18186063 -0.22361398
0.16361198 0.045198746 -0.10032584
-0.13575692 -0.10493128 0.06403821
0.12145567 0.029242812 -0.208033
0.014308108 -0.005471063 -0.014968402
-0.123757474 -0.18151914 0.19824567
-0.081160374 -0.2626298 0.1619053
0.09109705 0.23568757 -0.15340921
-0.112193085 -0.064542435 0.12325566
0.058442637 0.10676939 -0.082131654
-0.025310848 -0.16031273 0.04683082
0.081453994 0.049704332 -0.13161619
0.14702488 0.08848539 -0.08272583
0.09043725 0.13829833 -0.09262456
0.06313514 0.3058706 -0.07941374
-0.11435634 -0.19782694 0.20138408
0.07897868 0.29563108 -0.15136006
0.17860603 0.111318 -0.055966243
0.15405086 0.13297428 -0.04193009
-0.19483495 -0.19697957 0.1364469
-0.123209566 -0.0659744 0.10879329
0.16722794 0.10744958 -0.024157558
-0.06792903 -0.07399414 0.10829385
0.14163247 0.19432561 0.0060925637
-0.26896536 -0.18133895 0.15999033
0.06843964 0.16441587 -0.02409836
0.07822985 0.2661972 -0.030130183
-0.22984707 -0.29868194 0.16208574
-0.006193642 -0.14870553 0.029020512
-0.22733581 -0.2948968 0.096686564
-0.1259728 -0.28252232 0.17310742
-0.01957921 0.057119787 0.029032951
0.04626256 0.25897095 -0.13025141
0.1223534 0.16633065 -0.0056954306
-0.21023601 -0.09919173 0.11383753
0.2090505 0.046956405 -0.12150727
0.24648216 0.09761167 -0.19587915
0.02371943 0.21308658 -0.1317178
-0.13526204 -0.0068921167 -0.060049713
-0.033733036 -0.21120338 0.08345184
-0.042202808 0.012196982 0.042490657
0.17786935 0.25231746 -0.1280227
-0.25772512 -0.25540066 0.13854949
0.08225581 0.04664395 -0.08666815
0.13500951 0.13332307 0.002103373
0.043284796 0.03504604 -0.004810043
-0.18219934 -0.084547885 0.0880033
0.038954496 0.08281887 -0.023375021
-0.1343882 -0.19692855 0.13334452
-0.14729893 -0.045159727 -0.009309573
-0.13319144 -0.047788706 0.07810858
-0.05382024 0.01779218 -0.026394632
-0.07940047 0.026366424 -0.010941893
0.11649698 0.053132456 -0.035297092
-0.3354277 -0.27194703 0.10899093
-0.015064865 -0.2547744 0.102826886
-0.107203566 -0.13929749 0.12522843
0.039090633 0.26346204 -0.11167844
-0.23140748 -0.22499345 0.1433897
-0.1024595 -0.11035017 0.1034581
-0.15242526 -0.009583202 0.052970275
-0.07441888 -0.25584182 0.1064387
-0.25013486 -0.3205234 0.04281273
0.17046654 -0.004868565 -0.20324197
-0.12488957 -0.05087039 0.00032807354
0.00032923426 -0.17200747 0.11187275
0.114767924 0.15010163 -0.106569834
0.13796873 0.135936 -0.032502335
0.14278607 -0.006519742 -0.26479772
0.13983543 0.20674543 -0.031204907
0.035221647 -0.09412094 0.064072676
0.18697564 0.020719014 -0.20895348
-0.045521677 -0.1259304 0.10107748
0.23638 0.07876043 -0.07884246
0.0048681186 0.08454225 0.02476903
-0.25881505 -0.22740841 0.24563137
-0.16049676 -0.086314395 0.085401036
0.032508556 0.07543484 -0.0424572
-0.24373573 -0.26161045 0.15461262
-0.09811143 -0.19190988 0.12956281
0.19194758 0.20406647 -0.114271834
0.28981152 0.13492034 -0.13209228
0.06315636 0.15947673 -0.022059763
-0.12520917 -0.09804912 0.053965785
-0.057396572 -0.055594653 -0.0079740705
-0.20801167 -0.17580011 0.18499976
0.028864045 0.22821213 -0.25578657
0.16142927 0.28013316 -0.13646367
0.12269329 0.1266509 -0.0076417285
0.035573035 -0.003223568 -0.02101204
0.109692276 0.125909 -0.09736589
0.04164881 0.1487299 -0.16852911
-0.018708274 0.067883946 0.026035039
0.115403466 -0.012721763 -0.24770212
0.17924769 0.04762336 -0.17106172
0.062284064 0.2067943 -0.108198516
-0.027351085 0.15806672 -0.09552672
-0.13073148 -0.28064233 0.11318128
-0.15645741 -0.23065954 0.16988485
-0.23190205 -0.281552 0.17837007
-0.22936758 -0.1603707 0.14533374
-0.18000335 -0.27980074 0.19630462
0.12301512 0.0636934 -0.120788135
0.19649631 0.13020779 -0.11013635
0.1418111 0.13532412 -0.044092868
0.13459902 0.2412489 -0.06443982
0.048102792 0.2093332 -0.11267718
0.19731864 0.083772354 -0.112217106
-0.0749288 -0.27156076 0.08924109
0.093212076 0.21944042 -0.07648305
0.04157984 0.05665369 -0.064265266
0.12551668 0.17923114 -0.020212986
-0.12014236 -0.36137003 0.19218701
-0.03476897 0.0014560653 -0.0019298692
0.07798679 -0.07976549 -0.0008905557
0.08268848 0.08558371 -0.024924627
0.18963106 0.19118161 -0.019631233
-0.044739217 -0.11936562 0.08140437
-0.0808948 -0.16835955 0.13025574
-0.22308598 -0.30402625 0.07597353
-0.13081028 -0.04840631 0.058874052
-0.02207286 -0.00903258 0.053806927
0.14646232 0.15673286 -0.0385274
0.07095251 0.09034557 -0.05544581
0.081512995 0.1297101 -0.046861928
0.16400439 0.1394515 -0.06680979
0.16776471 0.20618564 -0.06742603
0.22907495 0.0617733 -0.06893714
-0.23682122 -0.24235696 0.19384767
0.057133734 -0.07119869 0.05738038
0.14883344 0.16813491 -0.03852421
0.11310526 0.20741819 -0.02870528
-0.064388424 -0.27654308 0.15514551
0.12751089 0.17596366 -0.09026908
-0.15340734 -0.1516519 0.12181423
0.17757262 0.2489822 -0.1183151
0.087074056 0.049766503 -0.016929746
0.16210823 0.089317836 -0.11537167
-0.01568257 -0.05593314 0.020079864
0.07862442 0.10296049 -0.12181382
0.25233132 0.22379234 -0.05371991
-0.15991656 -0.26172596 0.19962522
0.035656333 -0.079531536 -0.005219815
0.2008928 0.041094635 -0.17130385
-0.31070483 -0.20917036 0.16908701
-0.07938188 -0.023817316 0.068625525
0.078280844 0.08079043 -0.022261936
-0.122863874 -0.32803065 0.1612477
0.086305134 -0.035308253 0.023345387
0.22329131 0.2118498 -0.096358486
-0.179567 -0.105390035 0.03278203
-0.23129731 -0.23509699 0.16062652
-0.099934615 0.042175308 -0.075765766
0.23417388 0.039715882 -0.14339784
0.11563959 0.23987076 -0.081377484
-0.06485616 -0.22401342 0.14943041
-0.10571035 -0.05132313 0.10251397
-0.09108068 -0.12911238 0.130078
-0.054328404 -0.069120646 0.05997524
-0.26852718 -0.18709572 0.1137341
0.20081039 0.14974146 -0.07960639
-0.12456272 -0.3335105 0.18015456
0.12754133 -0.03628288 -0.0826124
-0.01917495 0.04567818 -0.027815117
0.00082833867 0.027629903 0.07635787
0.013338584 0.2822085 -0.18143785
-0.026623493 -0.044247795 0.0541962
-0.26155978 -0.2119237 0.1640564
-0.09181657 -0.29377884 0.17957394
0.22627473 0.15329932 -0.14359309
-0.07369763 0.15527864 -0.19719338
-0.27246255 -0.32522038 0.18439828
0.17107922 0.22801472 -0.10892186
-0.11061924 -0.14150093 0.19076659
-0.06035974 -0.051972225 0.06818908
-0.022399079 0.16147201 -0.21712276
0.015507099 0.052958596 0.04854299
-0.14886715 -0.03987827 0.09604429
0.090484455 0.18814892 -0.032668915
0.2425301 0.08007306 -0.046533372
0.09660321 -0.06071773 0.02809523
-0.10546328 -0.19181056 0.11618662
0.011726179 -0.016162215 0.022105541
0.1689514 0.11112984 -0.11100471
0.018810779 0.14413798 -0.086671025
-0.1384927 -0.13870895 0.094629034
-0.022577193 -0.11621463 0.014034259
-0.17369464 -0.22066516 0.11537933
0.08840823 0.24702163 -0.062158734
0.085239194 0.06671175 -0.059000853
-0.054319624 0.13359249 -0.14556901
-0.07990424 -0.25560173 0.18757863
0.23363233 0.1977883 -0.099403314
-0.15938239 -0.0684874 0.062873565
-0.049527492 0.048441466 0.023778481
-0.028452557 -0.07367372 0.14670694
-0.25775412 -0.23325022 0.23567043
0.11789129 0.13006262 -0.1197196
