# .PCD v0.7 - Point Cloud Data file format
VERSION 0.7
FIELDS x y z
SIZE 4 4 4
TYPE F F F
COUNT 1 1 1
WIDTH 1000
HEIGHT 1
VIEWPOINT 0 0 0 1 0 0 0
POINTS 1000
DATA ascii
0.17528531 -0.16897243 -0.06571048
-0.14572695 -0.18803656 -0.089898095
-0.06617434 -0.14323464 -0.05483189
-0.28154692 -0.04374592 -0.046062704
-0.088211566 -0.12114852 -0.033514842
0.092092864 -0.07786545 -0.04072202
-0.015668232 0.23723885 -0.15890975
-0.33894825 0.010643704 -0.037450492
0.14834106 0.04593284 0.08310894
-0.05214441 0.0045286193 -0.047796622
-0.20381743 0.033041067 0.026686821
0.106075324 0.00985638 0.058640108
0.12197506 0.1270918 0.045056403
0.29753727 -0.20011266 -0.03837294
-0.06838784 0.01847798 0.050844077
0.040193368 0.01235267 0.046874054
0.021548418 -0.21611196 -0.13942684
0.029454285 -0.21354082 -0.10974192
0.05856056 -0.050265953 0.045191415
-0.07670456 -0.24408294 -0.07760465
-0.03373455 0.29797167 -0.042861294
-0.20600902 0.20747723 -0.17903365
-0.123091355 0.027707746 0.05243977
0.22889678 -0.21287633 -0.06689067
-0.123651944 0.18575422 0.10568299
0.21255788 0.11823497 0.18117793
-0.10283953 0.105962604 0.05507654
0.32012355 -0.12866786 0.027347809
-0.055968903 0.11309233 0.08993759
-0.09381052 -0.21940297 -0.11198013
-0.026675852 0.1367506 0.114995554
-0.021418087 0.21842277 0.0795196
-0.18232694 0.062479068 0.02538187
0.15076943 0.13346753 0.11450318
0.27716464 0.23055126 -0.091853164
-0.11443158 -0.046919018 -0.027365044
0.29460979 -0.0104829315 0.068282224
-0.103400744 -0.16243564 -0.0504447
0.022047322 -0.09308615 -0.045787424
-0.10552025 0.24607493 0.094101585
-0.084416 -0.009481456 -0.06593786
0.0018959163 -0.014165482 -0.08156196
-0.27872568 0.14638759 0.017310116
-0.2117485 -0.086584255 -0.09312599
-0.24008384 0.09089803 -0.22085662
-0.10170799 -0.2571416 -0.08227238
-0.05789255 0.2765249 0.09996865
-0.13052444 0.25399023 0.0775076
-0.21319583 -0.1507731 -0.086540624
0.03422042 -0.059893362 -0.029509855
-0.12829751 0.107862234 0.04044156
-0.17156842 0.25513878 0.11543084
0.11210334 -0.048667684 0.03416252
0.0801384 0.17513338 0.09052306
0.22543328 0.019733334 0.108707726
0.13753723 -0.06008659 0.012118874
-0.08223247 -0.08154202 -0.07636702
0.050859414 0.27403417 -0.12837583
0.14829926 -0.26706612 -0.056523643
0.24279508 -0.012876032 0.1065212
-0.117829636 0.25444221 -0.12191278
-0.27392548 0.098721646 0.07063943
0.033760615 -0.27383047 -0.11253824
-0.1681326 0.049236953 -0.028637279
-0.0480429 -0.085745364 -0.05583958
-0.022302486 -0.27793142 -0.104686856
0.14149277 0.14014809 0.08481422
-0.24751198 -0.07100326 -0.005610376
-0.32072178 -0.0013868148 -0.017606307
-0.18175867 0.01956671 -0.00088766246
-0.12664811 0.048688665 0.00071246165
-0.06117196 0.2374682 0.13460006
-0.17171468 -0.28187492 -0.1069038
0.13347937 -0.20683207 -0.10927957
0.10119689 -0.18705669 -0.033322617
0.0904044 -0.064294495 -0.016859895
0.06557291 -0.13470224 -0.06626029
-0.19168371 -0.24091876 -0.06675295
0.26775002 -0.040948834 -0.14452602
0.22175908 -0.03267911 0.028456038
-0.056902878 -0.08970675 -0.027808407
0.19156069 0.0227607 0.010697266
0.08907388 0.08844124 0.13171409
-0.15332448 0.288214 0.057427797
0.27192372 -0.04612368 0.011550094
-0.17871375 0.2258825 0.05975586
-0.06838887 0.067197904 0.06676235
0.18495253 -0.16307913 -0.053026065
-0.29190132 -0.0400124 -0.044617467
-0.029925708 0.1632172 0.12751198
-0.09576362 0.29035217 0.14634332
0.065157734 0.0636442 -0.12526277
-0.04204962 -0.08279717 -0.08192399
0.23179418 0.03597572 0.061350316
0.11795837 0.08239578 0.060294878
-0.1346458 -0.053818114 0.0051496136
0.24844472 -0.008110239 0.03312783
-0.09885273 0.015262873 0.04059215
0.2570858 0.0586076 0.1460971
-0.10860906 -0.24667503 -0.14877819
-0.14604753 0.25101864 0.13440856
-0.008344036 0.08629899 0.022608042
0.28878424 -0.0056187357 0.032748595
0.032757282 -0.07313757 -0.018463148
-0.0009555781 0.13832688 0.11385081
0.1945939 -0.3389383 -0.082902476
0.09119672 -0.21015657 -0.03711104
0.01942046 -0.18563363 -0.12646495
0.11157132 -0.26202023 -0.08815354
0.19798717 -0.07401354 0.00241583
0.19720724 0.20901774 -0.031833768
-0.19751862 -0.16560832 -0.07502109
-0.06672001 -0.079580866 0.016951002
-0.35142535 -0.082894824 -0.05827903
0.060133815 0.17484911 0.07552704
0.19074912 -0.004283909 0.07313252
-0.12741522 0.15417132 0.1364702
-0.18955731 0.0077779912 -0.041601077
0.067842156 -0.25423038 -0.06017276
0.11949495 -0.27950788 -0.10023987
-0.050253037 -0.2862166 -0.11826821
0.04645009 0.17168465 0.0870634
-0.057597995 -0.0076016616 0.025821166
-0.04925775 -0.17994373 -0.062230848
0.23095095 -0.21864243 -0.06499644
-0.052669387 -0.11884162 -0.022790173
0.25433072 -0.21681179 -0.05523501
0.06730808 0.065465204 0.09654014
-0.036762338 0.14652614 0.030137952
-0.29021916 0.09401321 0.0077727595
0.13842283 0.059071433 0.13628824
0.24855466 0.018366037 0.030061457
0.20754811 0.11150311 0.15694267
-0.03418544 -0.19410045 -0.060327724
-0.20252074 -0.15010759 -0.045933872
-0.09036398 0.10475954 0.0652477
-0.019199764 -0.0072548785 0.014808773
0.20049487 -0.10459206 -0.0010383272
-0.18803951 0.05882428 0.0063385596
-0.019778457 -0.27144498 -0.09167072
-0.0556889 0.059409842 0.09330329
-0.12639946 -0.26517934 -0.10089768
-0.13312484 0.028508445 0.07930055
0.2866705 -0.09868359 0.0070675225
0.057155985 -0.15719844 -0.04001043
-0.3431815 -0.011400036 0.0042711175
0.17758976 0.17353772 -0.13564663
-0.039438695 0.069911264 0.052998584
0.060937002 0.048106775 0.061780013
-0.14884107 -0.28633347 -0.16497737
-0.04121936 0.21899971 0.16472243
-0.110849164 -0.27408955 -0.13780093
0.06727122 0.027311113 0.09682901
0.16736542 0.14646097 -0.08670998
-0.105045535 -0.05715168 -0.024313925
-0.052310146 0.016865099 -0.009931596
0.04473345 0.17074606 0.057736054
0.25740203 -0.085204 0.052990556
0.26951185 0.0493942 0.05531091
0.100880936 0.016187752 0.06685885
-0.15135181 0.10007669 0.056290008
-0.03283324 -0.0085328 0.06516352
0.09027507 -0.027192045 0.028642176
0.109971166 -0.04225709 0.0013597958
-0.27609658 0.19384891 0.037626643
0.10495942 0.07249381 0.094273895
0.03610844 -0.079112686 -0.028819809
-0.08812943 0.22345138 0.10224421
-0.08025386 0.0062667527 0.037904534
0.22106226 -0.105593845 0.00054839836
-0.2946743 0.04726904 0.01327251
0.0649114 0.2062855 0.10468125
-0.11099111 -0.20815821 -0.072911486
-0.07267041 0.16854964 0.100091755
0.17196362 -0.22884408 -0.10014766
-0.24697219 -0.00137909 -0.07602411
0.058635186 -0.22499625 -0.060639884
0.07853168 0.28502005 0.14564764
0.23085383 0.14580688 0.08211434
-0.0097852005 -0.09887811 -0.071667016
0.048403013 -0.09122451 0.027871888
0.15876381 -0.084429905 0.06571175
-0.19451387 0.23227282 0.10373382
0.005783609 0.108112335 0.07078465
0.13806543 -0.08171928 -0.0104417745
0.24361707 -0.044694647 0.06877819
0.0724935 0.22467223 0.14955215
-0.18949525 0.19458039 0.08860358
-0.02033983 0.18408333 0.11070858
0.23866904 0.11484553 0.06785239
0.19871284 -0.10725568 0.016493458
-0.09117903 0.05723576 0.048898876
0.277929 -0.075609885 -0.03374237
-0.2726036 0.053902145 -0.054807957
0.13068968 -0.1690694 0.017047536
-0.30346513 0.071934335 0.05360815
0.3080197 0.028858652 0.033709753
0.01079866 -0.20256928 -0.054648526
-0.26360035 0.099165894 0.045993224
-0.10048672 -0.065134875 0.004345187
-0.07885655 0.2443699 0.08621501
0.14957233 -0.107528314 -0.015007485
-0.1080794 0.0052668494 0.021708988
-0.068000965 0.044894643 0.018761255
-0.0070561906 -0.08630225 0.015230053
-0.22902721 0.09699833 -0.20914812
-0.079177424 0.07940257 0.11125547
0.18032254 -0.10835208 -0.018136505
-0.020382455 -0.10002777 -0.045508564
0.103665836 -0.12719958 -0.05220378
-0.09594308 0.15648378 0.07140877
-0.16852725 0.07537837 0.028126454
0.30710095 0.010016551 0.09166172
-0.29855222 -0.02959237 -0.01615651
0.16817082 0.010843569 0.050147727
-0.05974368 -0.0394233 -0.10925806
-0.055661608 -0.21325225 -0.16367935
-0.02496654 -0.28467298 -0.10881961
-0.106615804 0.15690427 0.1478273
-0.17043653 -0.18229589 -0.062924385
0.20002693 -0.2714906 -0.03973071
-0.025671942 0.22408663 0.17539938
0.069086574 0.08233366 0.037016485
-0.26818973 0.23561949 0.046781357
-0.19353566 0.21979237 0.12890662
0.11807839 -0.24992695 -0.075000286
-0.10664596 -0.2371634 -0.08124348
0.2745871 0.0012977519 -0.17002414
-0.2021916 -0.073266156 -0.027477365
0.0642593 0.1446819 0.071737535
0.2628657 -0.053055167 0.027078466
0.13074732 -0.13492893 -0.047548167
0.25283873 -0.10289468 0.01732225
0.09623019 -0.121034466 -0.0110508455
-0.253054 -0.16626519 -0.05940882
0.25276887 0.061690338 0.122513555
-0.27468207 0.21099192 0.077306606
0.102651395 0.09532554 0.07927571
-0.12343017 0.2781195 -0.13601147
0.10922572 -0.25835672 -0.07441571
-0.33095908 -0.12873091 -0.092297606
0.043997217 -0.072668135 -0.050598066
0.32174668 -0.009757591 0.0481877
-0.12076474 0.019189589 0.04317527
-0.033434797 -0.110887 -0.07404669
-0.21753848 0.12410828 0.076156646
-0.23311464 -0.116401024 -0.068794526
0.044073913 -0.20859653 -0.09627387
-0.09023802 -0.019685524 -0.028831217
0.18413688 -0.14612381 0.0038670618
-0.2546484 -0.013070118 -0.0022146571
0.2212459 -0.16330363 -0.015093723
0.07810205 -0.09143249 0.018773716
-0.0032025944 -0.19550708 -0.045866385
0.005061079 0.18263327 0.06485796
-0.045175765 -0.08759389 -0.01912619
0.15747982 -0.08875734 0.011374396
-0.27490547 -0.16881071 -0.13755167
-0.23942958 -0.027793879 -0.031325426
-0.056883067 0.1317256 0.09770319
-0.24711044 -0.19850145 -0.117853515
0.07195294 0.28457198 0.1134264
0.21878786 0.15191211 0.061162572
0.019165106 -0.040699355 0.040229093
-0.07506171 -0.30062154 -0.13182206
0.22883025 -0.067660175 0.040417757
-0.13212557 0.19775996 0.12963748
0.1357494 -0.22967096 -0.0687595
0.033599444 -0.1785758 -0.07525308
-0.06543396 0.10932636 0.08301421
-0.18762375 -0.21767336 -0.13541177
-0.12611917 0.1756776 0.066159
0.009155035 -0.12451847 -0.044355616
0.024650343 -0.26024798 -0.07970346
0.12261264 -0.006033689 0.04168027
0.046045158 -0.011508058 -0.09878427
-0.19163041 0.18466038 0.043096494
0.1969433 -0.26678312 -0.026701886
0.097909555 0.20668663 0.16403314
-0.2721488 -0.1370548 -0.13007559
0.21674278 0.033924844 0.11296752
0.24450706 0.10093656 0.117743455
0.23027636 0.15737635 0.123118035
0.07159633 -0.03983263 0.0057816855
-0.10849235 0.19953857 0.09815805
-0.16614187 0.14518307 0.0570603
-0.10165571 -0.19666813 -0.0693397
0.34788835 -0.03561742 0.078146435
-0.25727513 -0.10254714 -0.03766233
-0.2877416 0.15571482 0.07413507
0.13459942 0.064800784 0.110478625
0.0951965 -0.3456005 -0.13498013
-0.16793868 -0.2175373 -0.11857884
-0.0041951244 -0.14348507 -0.10529513
-0.17333625 0.07019179 -0.003214809
0.2963123 -0.10727982 -0.03871673
-0.1374784 -0.3321265 -0.12507106
0.032871325 0.3131792 -0.09975175
0.1445463 -0.03133895 0.10383098
0.107488304 0.13278522 0.12290038
0.15582895 0.119767256 0.0919773
0.07903175 -0.2874853 -0.10400784
-0.23457061 -0.15989363 -0.096464016
0.025543483 -0.25980815 -0.08376487
0.2003194 -0.07621516 -0.0026884913
-0.17408998 -0.095833845 0.0012451111
-0.14932969 0.011356364 0.05796161
-0.12225438 0.08479587 0.09706626
0.0059646466 -0.24798672 -0.108846135
0.13587415 0.15536994 0.082294345
-0.2536135 0.045355152 -0.05132081
0.16223367 0.11660252 0.04749836
0.24410225 0.09889063 0.106206715
0.05429439 -0.15469801 -0.025304122
0.11928929 -0.12843089 -0.07308246
-0.17421404 -0.010335263 -0.03185783
-0.11062776 0.17206766 0.06731511
0.10170187 -0.02371453 0.032125905
-0.24578966 -0.11304459 -0.0630769
0.10558501 -0.14293191 -0.02511054
-0.090247035 0.064512335 -0.0063088946
0.16168419 0.10018867 0.100392185
0.15656297 -0.17193034 -0.075505644
0.005090253 -0.2526467 -0.09323039
0.26893926 0.10458869 0.095700905
0.2357062 -0.021432962 -0.0027481015
0.07309645 -0.07721731 -0.017896395
0.0904224 -0.20999166 -0.077786185
-0.09285166 -0.1595517 -0.080707155
0.06545672 -0.01855088 -0.0028963739
0.26061055 0.18805 -0.076099955
0.25291428 0.13611707 0.11522186
-0.23643507 -0.011678519 -0.020460611
-0.19748934 -0.2064001 -0.13652964
0.09376411 0.10381796 0.08668156
-0.26859823 0.13743013 0.0698085
0.10757827 -0.2768376 -0.13110939
0.019017491 -0.32003066 -0.11474205
-0.13000324 0.019778809 0.0057954066
-0.10873323 -0.24977611 -0.17587575
-0.25107187 -0.20899601 -0.17001137
-0.15123518 0.046741508 0.065638475
-0.16552018 -0.13029295 -0.03131507
-0.09916663 0.2546745 0.096476845
0.16814749 -0.12675163 -0.03418002
0.02663622 0.2417431 0.12320159
0.085720666 -0.045045823 -0.008773787
-0.091566525 0.062650725 0.07403617
0.03629304 0.21239537 -0.12382159
0.1968918 0.20248114 0.17852831
-0.05244084 -0.052452616 -0.030604249
0.047772348 0.085466646 0.05096914
0.03841664 0.1826303 0.11986932
-0.10951733 0.02385411 0.060118947
0.23912427 -0.08708009 0.025857938
0.13626444 -0.29647017 -0.038167432
0.24984072 -0.015975304 0.047263276
0.21239881 -0.22499473 -0.03393927
-0.21301739 -0.03374275 -0.068112835
0.18159601 0.12154516 0.071136385
-0.21606037 -0.14706893 -0.0986522
-0.07661766 0.20496894 -0.08188221
0.28525898 0.008992549 0.07661879
0.080706134 0.19860275 0.18090841
-0.030146854 0.08593471 0.026772315
0.17593859 -0.058333118 0.024051782
-0.12612626 0.13084313 0.07480026
-0.2588065 -0.22069792 -0.13342607
0.06169168 -0.1724893 -0.0018537531
0.19960345 0.12536615 0.07000174
0.034468953 -0.36156672 -0.11717275
-0.25482234 -0.08992422 -0.079639286
-0.034826037 0.086784035 0.013431242
0.024802286 0.09717772 0.079740606
-0.31066215 0.12371377 0.03915331
-0.06499684 -0.08520652 -0.046006724
-0.27364504 0.2033374 0.07939137
-0.13252549 0.10999147 0.056480423
0.17077336 0.15711004 0.17167144
0.10026437 -0.16570945 -0.015215739
0.23283996 0.03015975 0.1231566
0.058956284 -0.2567962 -0.06491806
0.17318888 0.049076755 0.14355686
-0.18124485 -0.020224854 0.007086409
-0.09881796 0.2943887 0.0855054
-0.1782175 -0.14418074 -0.1148185
-0.03833986 -0.11424169 -0.06481427
0.027025485 -0.2606462 -0.105163485
0.14980954 0.28051674 0.07998799
0.20344408 -0.21243809 -0.08184194
0.008170967 0.14934282 0.09869151
0.041923344 -0.25296208 -0.097891696
-0.2425154 0.057935312 0.06271085
-0.15893382 -0.047387186 -0.052126605
-0.14032917 -0.29097533 -0.100288846
0.007026927 0.20091547 0.1353233
-0.18546079 0.11029845 0.072674446
0.16020201 -0.07833842 -0.03660408
-0.33395252 -0.015599311 -0.043590557
0.19654544 -0.11979142 0.021553872
0.28389642 -0.12327262 0.022220634
0.004566544 0.16435085 0.072806224
-0.019695098 0.030278696 0.014902854
0.2476551 0.11846808 0.10401446
-0.10078423 0.16176966 0.08510721
0.052652203 0.078165054 -0.0054991813
0.21958913 0.15668051 -0.08928554
0.118859135 0.09529648 0.06485122
0.026867384 -0.26429212 -0.111069836
0.25152075 0.15329815 0.15649424
0.035989966 -0.28400192 -0.11941885
0.08418065 -0.07334609 -0.051463928
-0.29171315 -0.10876718 -0.11011508
-0.25945666 0.04421214 0.0024747502
0.23509821 -0.07567769 -0.014360981
-0.21751171 0.05828659 -0.008632482
0.05436423 0.16421111 0.0704532
0.27445325 -0.046972122 0.11637053
0.032007128 0.21537642 -0.1280304
-0.19335322 0.15886287 -0.12630339
0.054640286 0.1809077 0.050435632
-0.22280304 -0.07498423 -0.02285519
-0.26221234 0.12268332 -0.17483413
0.10451449 0.17311649 0.18605128
-0.061644934 0.24686825 0.10402396
-0.18930736 0.111611 -0.23849589
-0.044396993 0.23918179 0.10547755
-0.05792068 -0.024001539 0.0062722485
-0.13225651 -0.043159056 -0.06564708
-0.23414981 -0.14559303 -0.05092171
-0.019398054 -0.2480916 -0.0578988
0.32902414 -0.07965142 0.0684361
0.033446983 -0.10680988 -0.009406681
-0.116160594 -0.13512152 -0.045459114
-0.29487687 -0.018341104 -0.092612594
0.14632645 0.07185613 0.12119028
0.10076953 0.014142528 0.065106
-0.19918731 0.021701526 0.004892594
-0.17280817 0.1747403 0.0605086
0.1937348 -0.3184025 -0.07614887
-0.20373291 -0.009100469 -0.024610007
-0.077612385 0.21220937 0.05111369
0.17203458 -0.21163008 -0.05405817
-0.032548003 -0.16769195 -0.07468467
0.189245 0.08444854 0.16164826
-0.26825547 0.13917208 0.08441674
0.26786166 0.09467098 -0.07249036
-0.24749948 0.16006863 0.04187116
-0.14414988 0.030631201 0.016269721
0.21390589 0.23201033 -0.045417912
0.14220124 0.1499267 0.14082769
0.22361842 -0.06182784 0.08555285
0.22499467 -0.11634481 0.016248945
0.05367776 0.003705612 0.022171343
0.23261881 0.037399206 -0.17991897
-0.337966 0.023172721 -0.057810117
0.22754586 -0.039662883 0.088630445
0.251278 0.023277476 0.068796754
-0.2992926 -0.082984254 -0.07555748
0.1700951 -0.20696941 -0.025238412
0.1479027 0.013365458 0.057294812
0.0021745616 0.07070534 0.053739425
0.14329161 -0.06165683 0.023020035
0.06943829 0.22220685 0.117461264
0.19663562 0.05771458 0.13776141
0.28833392 -0.058898836 -0.029665591
-0.18755107 0.25426525 0.13967527
-0.108259425 -0.23062836 -0.15132031
-0.09424906 0.041677203 3.3944238e-05
-0.26929677 -0.16196871 -0.12383818
0.14354405 0.06596786 0.10773728
0.16909331 -0.22325586 -0.0029101076
0.1269385 -0.1532605 -0.066278264
-0.15366147 -0.19838814 -0.10133823
-0.021706413 -0.26126987 -0.065025434
-0.19981684 0.26790583 -0.19331694
0.12200321 0.043711074 0.104442134
-0.13887699 -0.11068531 -0.08878926
0.018150946 0.23153576 0.098875165
0.17949688 -0.20225857 -0.02181087
0.21648571 -0.090131804 0.008310667
0.02526824 -0.096471265 -0.055126477
0.2221347 -0.13277687 -0.05300308
-0.17676304 0.3157656 -0.09934671
0.06580114 0.22324054 0.14389835
0.109647244 0.2745702 -0.121085525
0.13843969 -0.3110185 -0.12256353
-0.14169857 0.12476664 0.10798979
-0.055656243 0.21321066 0.17241524
0.08843592 -0.09210666 -0.019743385
0.04852754 0.0631627 -0.0016254213
-0.22421321 0.13188069 0.0028786552
-0.12542301 0.030057287 -0.0030395351
-0.050194796 -0.041244887 -0.041558452
-0.13695985 -0.14789756 -0.061993517
0.18979248 0.06167919 0.14909063
-0.3583676 0.10247389 -0.03210888
0.14425148 0.12831649 0.05915063
-0.3127929 0.09006285 0.014225512
0.249637 -0.06925392 0.033951014
-0.003505133 -0.26641986 -0.05891007
0.16064869 -0.0951245 0.0047539254
0.11154682 -0.111059785 -0.07008297
0.002314366 0.22657247 0.11318998
-0.13257393 0.16385934 0.07438074
-0.09205723 -0.076151185 -0.043958668
0.037738323 -0.21526049 -0.10727515
0.022251125 0.0038584375 -0.013382797
-0.31558567 0.06414795 -0.05054634
-0.031414147 0.1785703 0.1049797
0.29630342 0.013768727 0.104740165
-0.13317946 -0.06879518 -0.052823853
-0.030728232 -0.28423524 -0.106044136
-0.13151978 0.11034449 0.024117893
-0.25248784 -0.13266411 -0.089617886
0.20271006 0.010403799 -0.1592795
-0.012511634 0.29773092 -0.08889678
-0.07319983 -0.33491674 -0.12372567
-0.04364637 0.30113086 0.11799234
-0.10010205 0.25444397 -0.06280333
-0.17606743 -0.21686833 -0.06976711
-0.08650766 0.00010006463 0.0006380042
-0.026825212 -0.01735584 0.042580504
-0.0039728596 -0.038132492 -0.03876734
-0.09283628 0.20519292 0.12663454
-0.059031375 0.2634152 0.1773015
0.047954105 -0.06365617 -0.0035869312
-0.31885535 -0.011662514 -0.12282813
0.14575067 0.30930734 -0.064197294
0.14066488 0.16391514 0.072450936
0.12227169 0.27083775 -0.07593655
-0.06494003 -0.25313205 -0.1626617
0.25154015 -0.12000485 0.05273932
0.17424068 -0.07836586 -0.044353757
0.014984619 0.13465907 0.14854619
0.097265676 -0.22079809 -0.10821742
-0.15410301 -0.18192747 -0.09239865
-0.20742577 0.078962 -0.1956109
0.00042233622 0.25013718 -0.04357255
-0.027794177 -0.048906226 -0.07042042
-0.1193339 -0.15293169 -0.0903158
-0.012353721 0.15063828 0.06859432
0.19841655 0.17988595 0.13340953
-0.2808146 0.047691215 0.013681831
0.009219688 -0.11599198 -0.08385536
-0.095306285 0.055595666 -0.015733108
0.06278566 0.13731377 0.100215
-0.1411966 -0.08387361 -0.026565703
-0.056681138 0.26721618 0.13782948
0.28475693 0.12431332 0.14816907
-0.1374717 0.28696913 -0.17907643
0.24389476 0.1015188 -0.14232032
-0.04791233 0.34569126 -0.093583524
-0.026070235 -0.09592908 0.028079245
0.077636875 0.071712285 0.080335796
0.1068156 -0.27405992 -0.09962009
0.2384908 -0.149581 0.0042533865
-0.27121267 -0.20354114 -0.12397896
0.019072281 -0.15826157 -0.024284076
0.23597443 0.10814024 -0.14397232
0.1760877 0.2530438 -0.049482178
-0.015165668 -0.12538475 -0.0031004925
-0.11361722 0.21323977 0.15701519
0.013763842 0.17655562 0.15663657
0.1485142 -0.051877614 -0.003621687
0.17555562 -0.19034371 -0.017447852
0.23347177 -0.036541577 0.022428926
-0.009564907 0.19754001 0.059042834
0.116103664 -0.18808812 -0.055280395
-0.16224952 0.039880857 0.008329675
-0.013539173 0.22197433 0.1371957
0.16779126 -0.12610565 -0.0050496804
0.15854254 -0.15880854 -0.043873385
0.09212823 0.036896154 0.04408271
0.2830635 -0.13329 -0.01614746
-0.36288646 -0.03981446 0.00055384176
-0.027760709 -0.27394417 -0.15080328
-0.16720907 0.13493046 0.06430911
-0.13191728 -0.112240285 -0.11090406
-0.21163031 0.21279743 0.02908827
0.17992646 -0.17541751 -0.04181039
-0.086227365 -0.06754196 -0.030911919
-0.23542559 0.12372252 0.034628045
0.078860365 0.23917156 0.16933504
-0.10733887 0.22441411 0.0431817
0.22443394 0.13704777 0.11129856
0.01937049 -0.30175135 -0.17276984
-0.21846607 -0.19474587 -0.1126387
0.10721617 -0.028476462 0.01631714
0.14426461 0.15702376 0.14342013
0.14428978 0.20421417 0.096319
-0.11177768 -0.06442245 0.0395225
-0.074465714 -0.17182815 -0.07071859
-0.039450914 -0.25622594 -0.080469765
-0.12783033 0.08224638 0.014901148
-0.15804522 -0.23155116 -0.10854921
0.32451883 -0.05970818 0.022605557
0.03470144 -0.08303627 -0.068696894
-0.011987777 0.14577046 0.14785382
0.01312542 -0.12247988 -0.054317214
-0.28909093 0.007423267 0.038740564
-0.022937069 -0.21227066 -0.120264344
-0.19980368 -0.05874747 -0.07110322
0.15784733 -0.23364563 -0.10968813
0.06758424 0.08706433 0.036727123
-0.18378209 0.20072089 -0.1117008
-0.20882076 0.051086783 0.06256376
-0.07252929 -0.15383527 -0.097024865
-0.08040808 0.06862295 0.032205604
0.22600573 -0.13727108 0.0076820203
0.026123555 0.31218266 0.08582303
-0.30417746 0.175418 0.07346763
-0.029981159 -0.06356926 -0.026518315
-0.2463941 0.21894725 0.08388907
-0.20935518 0.19097368 0.11331796
0.08012729 -0.0594914 0.027198352
0.26570234 -0.12710004 0.032230437
0.07868633 -0.20188357 -0.012679876
0.18128298 -0.2805673 -0.084307425
-0.10596875 -0.12799178 -0.0782016
0.06655146 -0.12092551 -0.058114465
0.34986073 -0.004917364 0.11394011
0.17632847 0.2060587 0.13655633
-0.16375902 0.09088633 -0.018673895
0.055533826 -0.042494062 -0.08306967
-0.22723736 0.028466694 -0.020600047
-0.110875785 -0.21727128 -0.107744694
-0.14377722 -0.12951583 -0.007282949
0.17307307 0.17183733 0.15612756
0.04039971 0.20407295 0.08339404
-0.22926162 -0.18944806 -0.137987
0.240188 0.14395134 0.10464394
-0.04825232 0.22053312 -0.106744446
0.17082709 0.0856684 -0.1089773
0.117778204 -0.2837012 -0.09348485
-0.25362384 -0.024624776 -0.036535736
-0.025992818 0.23954122 0.15290104
-0.20377977 -0.18451627 -0.12623909
0.029718526 -0.0028639345 -0.0044093556
0.19449785 0.07976531 0.10262747
-0.12546393 0.15939486 -0.11797629
-0.030939227 -0.08121786 -0.019699225
0.29088995 0.022652414 0.012025824
-0.31000566 -0.11393214 -0.08561909
0.07294692 0.18674248 0.08940996
0.10633226 -0.3115962 -0.050271757
-0.08114069 0.2665465 0.1478193
-0.049946774 -0.03775625 0.030288508
0.21903886 0.14439026 -0.14176509
-0.15469293 -0.21924037 -0.06811524
-0.004719653 0.27383754 -0.07821376
0.06510627 0.2904124 0.14164366
-0.054507684 0.18877828 0.11341321
0.024351249 0.19783603 0.108759604
0.08057102 0.2510325 -0.10186461
-0.15218444 0.1773131 0.116525196
-0.014152856 0.000644685 -0.05319565
0.08545664 0.1433472 0.11942068
0.06787027 0.30909985 -0.11677401
-0.30331907 0.03183887 -0.061923277
-0.082569875 0.26393136 -0.057579715
0.15569755 0.16469118 0.15940598
-0.10284867 -0.13239883 -0.061806027
-0.052554492 -0.24586447 -0.0902326
0.11383998 0.019602686 0.09290949
-0.36731407 -0.12514006 -0.057653423
0.26728407 -0.088050336 0.037672944
0.2708152 -0.062249035 0.060875427
0.05509741 -0.27570325 -0.1187768
0.034765664 0.16878632 0.12956983
0.09784204 -0.018552603 0.06433349
0.03130982 0.22905827 0.14252608
0.23515117 0.15892212 0.09955225
-0.15477216 -0.29616532 -0.10317415
0.21689491 0.07670122 0.118362986
0.021242034 0.13364737 0.083760165
-0.2457126 -0.10436022 -0.042198047
-0.34861517 0.11902082 -0.014163921
-0.02624949 -0.062882 -0.05105954
-0.1365488 0.14426047 0.098444894
0.18071058 -0.13428459 0.0350889
-0.12690333 -0.13681924 -0.046433173
-0.1121247 -0.21081588 -0.044353914
0.00157952 -0.29569125 -0.10847191
0.297883 0.02314213 0.07157719
-0.019942537 0.23380405 0.08728564
0.15057169 0.23180984 -0.06969723
0.25494885 0.0924694 0.08821418
-0.018824287 0.2583823 0.115486905
-0.045431845 0.32489637 0.1452384
0.15295632 -0.013659411 0.048778385
-0.109151155 0.068029866 0.07648947
-0.20557947 0.017461477 -0.0059880787
-0.10880959 -0.21795303 -0.06558058
-0.22984295 0.060888108 -0.21935864
0.07322021 0.1382665 0.052752662
-0.006087563 0.3021973 0.15819828
0.30969453 -0.01729 0.049655918
0.12182583 -0.22564046 -0.10771925
0.07105978 0.089133136 0.027785257
-0.10295729 0.2751968 -0.06685506
0.060899287 -0.30124488 -0.10134261
0.1789186 -0.25277662 -0.09405544
-0.15859316 -0.027978789 -0.044899277
0.16706511 0.17668642 -0.0771108
-0.12805158 -0.30019912 -0.13967529
-0.21052718 0.17676297 0.08356838
0.09173977 -0.108039215 -0.019027015
-0.28141743 -0.10795417 -0.02538341
0.02532473 -0.2624146 -0.061046146
-0.04159509 -0.26561144 -0.13609397
-0.063587785 0.051849313 -0.062702864
-0.21081871 -0.10501657 -0.04431996
-0.025748655 -0.1527381 0.00911679
0.028650675 0.060961038 0.08965064
0.029545302 -0.11407325 0.0072936597
-0.0973149 0.18101358 0.07680693
0.123954296 0.08845736 0.06758061
-0.16243382 0.24431975 0.09510014
-0.10813888 0.005381731 -0.0018451632
-0.15873225 0.08643855 0.031598352
-0.07615941 -0.29727808 -0.17619418
0.19749397 0.147865 0.07148168
0.30753928 0.11645525 0.10729003
0.1984529 0.1110469 -0.12766895
0.20079546 -0.1112603 -0.0615239
-0.1302141 0.25150874 0.078323215
-0.15683247 0.1550429 0.100222975
0.19389056 0.08395164 0.10643464
-0.20262544 0.20290743 0.06827223
0.005238235 0.13573396 0.079959095
-0.01556289 0.24088441 -0.1602578
0.11767462 -0.118494645 0.028508957
0.059527487 -0.17774586 -0.006891177
-0.08888913 0.24688715 -0.09142969
0.1262327 0.14582421 0.15167837
-0.0072879177 -0.29834768 -0.1398537
-0.029199729 0.29367065 -0.031484786
-0.17604756 -0.09229586 -0.033860274
-0.27637768 -0.10164861 -0.07451063
0.14634621 0.16252893 0.16810787
0.05581753 0.1713519 0.12143998
-0.12993772 0.18401682 -0.18769695
0.27049205 -0.098734416 0.016555574
0.1459014 0.23910104 -0.021219032
-0.06693744 -0.10957315 -0.02553423
0.001984698 0.08454467 0.06478302
0.1374247 0.21053228 -0.092346296
-0.15592615 0.039180502 0.020262143
-0.06646522 -0.21933205 -0.12477323
0.24517436 0.12970066 0.094058216
0.21458778 0.056571543 0.11391655
-0.062092178 -0.2008522 -0.113305524
-0.11562368 0.12354615 0.021176282
0.12335437 -0.20988446 -0.07380297
0.27668202 -0.071449675 -0.00079585885
-0.0404536 0.12839703 0.09144855
-0.023193538 -0.09843034 -0.048121467
-0.1277783 0.07243187 0.060165185
-0.18935688 0.20221154 0.09632571
-0.14564627 0.20577872 0.053207744
-0.19331346 0.15926085 0.054308176
0.064423986 0.04616522 0.014658493
-0.14839125 0.20149142 0.14334813
0.205859 -0.16947548 -0.031313382
-0.06407752 0.09466411 0.035763778
-0.12266337 -0.30239758 -0.14811859
-0.16770568 0.17661124 -0.12936585
0.19084814 0.06386652 0.09682443
0.020557621 -0.27772897 -0.12329364
0.0022483089 -0.20764019 -0.07511568
0.18485016 -0.11031638 0.008308881
-0.17038393 -0.19289891 -0.12149771
-0.061420247 0.100761354 0.09442784
-0.10886569 -0.31117892 -0.112076916
0.22150196 -0.262153 -0.09954041
-0.13942154 -0.030370278 -0.04410515
0.094473265 0.10034642 0.13273415
0.06673242 0.23570766 -0.059470996
0.009767685 0.027527733 0.0047185966
0.13739151 0.018973967 0.066323884
-0.17048399 0.030188564 -0.022327157
0.1275707 -0.0144762555 0.07170157
0.25399786 -0.09819473 0.03484949
-0.17996062 0.22662492 0.13104944
-0.2279925 0.19008802 -0.13733351
-0.23119488 -0.0003914148 -0.079663455
-0.038497802 -0.2637592 -0.07853633
-0.25440353 -0.16016258 -0.074841365
0.22534549 -0.22735865 -0.03936587
-0.07805696 -0.020499947 -0.024007741
-0.2238691 0.19130607 -0.17504549
0.24839681 0.02596192 0.07153006
0.120520785 0.14246567 0.08652014
-0.2568287 0.08816627 -0.026694378
0.20165841 0.04172949 0.10490546
0.01994559 -0.1491009 -0.104348406
-0.11889081 -0.06360628 -0.055505343
-0.25137684 -0.011799545 -0.01241542
-0.25070047 0.18913983 0.0789147
0.09423384 0.026064038 0.040787246
-0.14988771 0.011552597 0.032903206
-0.17642416 0.07229011 0.018512014
0.12169679 0.029401962 0.10086151
0.099004626 -0.18878528 -0.055988286
0.09030395 0.080697194 0.09500903
-0.25408518 -0.122973315 -0.03891848
0.022705428 0.19499138 0.09045042
-0.04871246 -0.3192229 -0.17537355
0.032324605 -0.15787987 -0.056453466
0.12555754 -0.25612053 -0.07231951
0.17489226 0.240127 0.10415266
-0.2596049 0.11000697 0.00391498
-0.019955585 -0.32781863 -0.12743744
0.15076175 -0.30411255 -0.076531716
-0.021299211 0.15800394 0.05010104
0.17849547 -0.12468218 -0.007992844
-0.13748881 0.05619287 -0.01901146
-0.32757345 -0.053266875 -0.023221664
-0.16210458 0.28411007 0.049333274
-0.030738557 0.2726758 -0.11140522
0.21963735 0.080358885 -0.19289362
-0.22523247 0.18760343 0.036484215
0.11343605 -0.0932102 0.018454729
0.22500996 0.040330075 -0.15640625
0.28500664 0.09015676 0.096285984
0.28970364 -0.03088708 0.029600916
0.13733916 -0.15739535 -0.0051664305
-0.05571144 0.05774614 0.056328524
0.13761649 0.24019118 -0.12514487
0.11876095 -0.18165736 -0.03444399
-0.14721698 -0.11294861 -0.038244605
0.11086546 0.28910002 0.15006791
0.1444797 -0.20555198 -0.049967706
-0.18934852 0.09369457 0.038973674
-0.36365753 -0.029147536 -0.029098904
-0.17319785 -0.040891167 0.03448128
0.18380097 -0.1558973 -0.047369674
-0.05122735 0.33119318 -0.06432246
-0.019281913 0.1737436 0.09101512
0.12942925 -0.2045045 -0.041213002
-0.021527154 0.16237542 0.06088761
0.1551205 0.16814941 0.16398326
0.061184425 0.07965837 0.012038474
-0.10656916 0.19636549 0.14901277
-0.2986229 -0.036510494 -0.07025821
0.12568691 0.27436456 -0.0781617
-0.07486285 -0.04243993 0.019283606
-0.10380351 -0.24095869 -0.05513617
-0.19821669 0.06076931 0.052552614
-0.07705812 0.32364908 0.09949169
0.015689643 -0.32455352 -0.16346116
-0.104234755 -0.0040004323 0.061617922
0.2659801 0.12568086 0.12648748
-0.23642857 -0.19162996 -0.09761549
0.22582436 0.025589244 0.10085129
-0.016298681 -0.284353 -0.13525672
0.27016273 0.027029462 -0.12247704
-0.0825214 -0.04381557 -0.04641829
0.011148618 0.14877178 0.09193507
-0.15933181 -0.08601828 -0.0086702965
-0.06371064 0.21403691 -0.16041486
0.0021607303 -0.007497632 -0.08414782
0.17653684 0.23059636 0.17207824
-0.27337185 -0.0006329282 -0.081856675
0.26411572 -0.0340306 0.031104635
0.27098346 -0.0148202125 0.057325926
-0.027598735 0.26895013 0.17668998
-0.10677031 -0.27471575 -0.12578256
0.32457075 -0.011686072 0.09458011
-0.098967195 -0.0110807195 -0.050367977
0.18044533 0.10470033 -0.14652616
-0.08697839 -0.26400742 -0.09327688
0.062327776 -0.038235802 0.04348555
-0.09715012 -0.010738093 0.04914489
-0.10813491 -0.08788885 -0.0069738454
0.008482013 -0.23314294 -0.103247166
0.16373298 0.22000949 -0.0656251
0.12248703 -0.16583362 -0.056631934
0.2486047 -0.07681536 -0.007888872
-0.21060042 -0.22688426 -0.13619402
0.14734952 0.08058459 0.039607882
-0.023783313 0.21472985 0.15213238
-0.17919706 -0.025276877 0.03404954
-0.38138342 -0.051282212 -0.09633578
0.06343441 0.21001166 0.13593158
-0.24567087 0.18189959 0.094783515
0.21036568 -0.046461314 0.0012764654
-0.13255072 -0.22699256 -0.101827435
0.25383425 0.06752593 -0.17245312
0.19240163 -0.17940012 -0.020425815
-0.042222235 -0.24884117 -0.15018544
0.068758205 0.25086063 -0.11913259
-0.18302977 -0.14550857 -0.025260333
0.26457083 -0.21520787 0.013065337
-0.1582216 0.007236118 0.0052097808
-0.038359106 0.017996809 -0.0028662179
-0.06144742 0.031867113 0.009794951
0.06952807 0.27723128 -0.082317755
0.040899083 0.24868944 0.12073464
-0.10451094 -0.18232486 -0.137002
0.1606268 -0.10506087 0.030728096
-0.127629 -0.19594988 -0.12169512
-0.066090554 0.2510935 0.1784282
0.1468043 0.19118771 0.06823658
-0.272686 0.0045789434 -0.013341729
-0.102525 -0.25535697 -0.12232414
-0.3393553 -0.09264417 -0.044538673
0.30333745 -0.09788009 -0.020584729
0.029339543 -0.0051946016 -0.029820545
-0.060671944 0.2580606 -0.12896945
-0.10729741 -0.13717687 -0.050909605
0.13128966 0.091544904 0.02055118
0.031372834 -0.28512454 -0.088530056
-0.10189026 0.01481676 0.052434385
0.20564736 -0.03377965 0.08331088
0.08500007 0.015615619 0.014969298
0.03179278 0.019026447 0.0046305554
0.05134896 0.10258268 0.1037545
0.15566683 -0.10087435 -0.028174052
0.12482102 -0.30234644 -0.083826646
-0.22456296 0.11247477 0.03960582
0.11197467 0.09809709 0.07218821
-0.108132355 -0.034279715 -0.03415765
-0.0046806983 0.17187119 0.07384971
-0.2619515 0.022561125 -0.26036453
0.10016107 -0.021545231 0.03788323
0.18207914 0.044250216 0.098678246
0.20857485 0.18895786 0.09268112
0.022308186 -0.04263546 -0.02744716
-0.03497823 0.118746385 0.062689506
0.00981682 0.12109205 0.056697574
-0.07034579 -0.14360754 -0.0022752224
-0.0075750784 -0.16008948 -0.036233306
-0.13303098 -0.13941881 -0.09574512
0.18819548 0.22595243 -0.10555431
-0.08670631 0.27528748 0.1265283
-0.11268309 0.072197154 0.022207096
0.052997075 0.20482302 0.13936253
0.004847847 0.16219549 0.102802426
0.023173478 -0.05099856 0.030821664
0.10457753 -0.03052966 0.0764337
0.01923034 0.23129311 -0.092853606
-0.1724911 0.21084447 0.11862902
-0.102026165 0.21624392 0.09100389
0.20198622 -0.11860724 0.0032699516
-0.2664219 -0.13261646 -0.09857407
-0.24959372 -0.07346407 -0.051434223
0.08662511 0.16470419 0.14992791
0.0031505453 -0.31293976 -0.09351434
0.043891035 -0.08106175 -0.04976547
-0.05435847 -0.11335371 -0.06398399
0.00043787662 0.19540878 0.1450445
0.30265504 -0.07802241 0.07569989
-0.031043086 0.2748429 0.14116383
0.09089132 -0.26225278 -0.10568155
-0.13208291 -0.05979212 -0.034470946
-0.08252754 -0.16061129 -0.026266277
-0.36440983 0.02887957 0.021012096
0.08765551 -0.020544518 -0.026289705
-0.07489554 -0.21446443 -0.09053538
0.12167717 0.059600532 0.053491205
-0.10187051 0.014387454 -0.023371795
0.044953443 0.14618687 0.07402332
0.049342413 0.17755099 0.10158832
-0.08017627 -0.15535083 -0.10748211
-0.16754559 0.09016452 0.089464635
-0.055606727 0.21717183 0.07922029
-0.16564183 0.22137626 0.15567347
0.030375686 -0.09108203 -0.07101558
0.23659378 0.032965884 0.123447485
0.090639584 -0.054565493 -0.013944705
0.10689746 -0.023443911 0.025476133
0.26752973 -0.12879539 0.044261724
0.04810876 0.26644924 -0.08736968
0.15586133 0.25549713 -0.09446269
0.08694166 0.23908404 -0.0607381
0.19058359 -0.08100003 0.061726503
0.32752052 -0.16416831 0.041010533
-0.301302 -0.05582934 -0.06875255
-0.13430332 0.22356778 0.12368219
0.02617486 0.21336125 0.15451807
-0.1621975 0.25190336 0.08127927
-0.18535893 0.10717036 0.04323866
0.083802894 -0.16231535 -0.012860717
0.027025672 -0.10833951 -0.033878427
0.12460457 -0.14837359 -0.035722494
0.008157556 -0.28590855 -0.08677052
-0.35015547 0.11126788 0.03403853
0.080957904 0.11246103 0.0473931
0.12807137 0.10175429 0.08931786
0.031408507 -0.31528485 -0.14479212
0.08891428 -0.23727795 -0.047641832
-0.082055576 0.007253445 -0.024044119
0.04529786 -0.13856252 -0.04016765
-0.10447308 0.2096431 0.07440859
0.017530289 -0.2509326 -0.090783596
0.22336952 -0.09500875 0.025966562
0.05083966 -0.072034486 -0.035937272
0.03231469 -0.30765936 -0.13883014
