# .PCD v0.7 - Point Cloud Data file format
VERSION 0.7
FIELDS x y z
SIZE 4 4 4
TYPE F F F
COUNT 1 1 1
WIDTH 1000
HEIGHT 1
VIEWPOINT 0 0 0 1 0 0 0
POINTS 1000
DATA ascii
-0.26703757 -0.19847791 -0.0087709455
0.09670232 0.0739334 -0.022350345
0.15431003 0.2383093 -0.08078983
-0.086499974 -0.11229326 0.07792697
-0.11388556 0.07580065 0.105704136
-0.14576754 0.13032143 -0.017192906
0.07350232 0.050416496 0.079876624
0.13442698 0.03473444 0.010093154
-0.06691291 -0.064948544 0.11191971
0.01623014 -0.079802446 -0.015556278
-0.13503313 -0.01946935 -0.030039744
-0.23983167 -0.026711555 -0.077316605
-0.20029299 -0.17242566 -0.042882286
0.09766065 0.09414198 -0.032973293
0.018939778 0.12402123 0.08714039
0.19596832 0.062486187 -0.007114248
-0.10347684 0.2104539 -0.058674473
0.2437654 0.027660947 -0.100139074
-0.15882418 0.029173369 0.06281472
-0.033730984 -0.114518635 0.16368048
-0.07414526 -0.12647103 -0.22992212
0.13964786 0.06765597 -0.043220878
0.0019568587 0.07725551 0.104335845
-0.09176963 -0.14241397 -0.26874217
0.090484485 0.11292039 0.06934142
0.3518224 0.1019955 -0.15146722
0.25688294 0.0050820466 0.08803171
-0.05424422 -0.08493898 0.22534113
-0.24198137 -0.08504015 -0.15348038
-0.11310764 0.08825369 0.10981577
0.11912197 0.026021231 0.0038104348
-0.16104352 -0.14465223 0.066778176
0.25810552 -0.0069613066 0.04972194
-0.024091383 -0.016322028 0.08525471
0.03461589 -0.08890552 0.033875737
0.12611403 -0.034988645 0.10644206
-0.1560934 0.1391965 -0.07686237
-0.04419185 0.16787961 -0.13926068
0.052628104 -0.08088249 -0.29173186
-0.029958177 -0.04839816 0.17782402
-0.23830067 -0.24784535 -0.19773158
0.19520259 0.015142633 -0.100619435
-0.021155568 0.1930491 0.0676847
-0.2829015 0.06917315 -0.07392481
0.21833432 -0.015302088 -0.31593022
-0.08084941 0.18461211 -0.001931312
0.038389847 -0.09832434 0.20820178
-0.07256586 0.13571614 0.052410387
0.03802121 0.21684785 -0.12190031
-0.024290154 -0.1435057 -0.29506063
-0.14921121 -0.16888438 0.15788208
0.27461913 0.04391804 -0.14883697
-0.04585284 -0.10113724 -0.23037042
0.19421487 0.026817115 0.1369665
-0.068136364 -0.102692224 -0.07252433
0.00092720945 -0.12536566 -0.18379416
-0.12745792 0.05992729 0.00022627389
-0.15528849 -0.09415134 -0.014062161
-0.18672775 0.20952357 -0.15884173
0.16193944 -0.08357354 -0.16381693
-0.0017004118 -0.059139896 0.24324304
-0.06737372 -0.082044505 0.23464291
0.18095279 -0.031017318 0.2164359
-0.18694492 -0.1737423 -0.35763025
0.07266848 -0.050493043 0.21017687
-0.17776328 -0.17621696 0.069782436
-0.10352824 0.10821146 0.060153
-0.039075665 0.14043811 0.11530569
-0.028441055 0.14807785 0.09214891
-0.08362304 0.20308076 0.013735296
-0.19673 -0.21883321 -0.043722223
-0.032922734 -0.04094225 0.223631
-0.09094307 -0.12911893 0.19297871
-0.15365298 0.010107888 0.11297051
0.014796905 -0.08765048 -0.24535218
0.013252118 -0.03025232 0.20064911
-0.17243071 -0.16941312 -0.26903138
0.14674704 0.20069592 0.041666865
0.25280163 -0.033243503 -0.27811956
0.09932982 -0.10680289 -0.2557619
0.040601198 0.1415106 0.05757912
-0.07985224 -0.09363617 0.0792432
0.15913764 -0.035492368 0.18943182
0.08204914 0.1431531 0.025713973
-0.04748751 -0.08736772 0.20230012
-0.0058644777 0.18766224 0.13969442
0.120016016 -0.070252515 0.1980216
-0.021938935 0.058322623 0.1029444
0.24658449 -0.023937088 -0.24251501
-0.066935375 -0.1284418 -0.29362175
0.047563694 0.13035221 0.16835338
0.22435822 0.056958057 0.009053826
-0.056667455 -0.11631526 0.17965104
-0.021369921 -0.02616645 0.04782029
-0.049953513 -0.107628 -0.2069582
-0.011066793 0.1053521 0.054964356
-0.13594295 0.07801194 0.045910012
-0.04113117 -0.10027025 0.22411369
-0.0094830785 -0.004023023 0.011869794
-0.21373707 0.05451322 0.060709476
0.20102507 0.009696673 0.13770883
0.066973895 -0.033229437 0.17491566
0.003414311 -0.07351257 0.09830294
0.15776996 -0.081603386 0.22349241
-0.029825976 0.1662285 -0.029300377
-0.01595695 -0.05689629 0.23666763
-0.04772295 0.18749632 -0.12009255
-0.15358302 0.018987015 -0.021078436
-0.18499058 -0.06998543 -0.1581919
0.08371917 0.043963034 0.026336793
0.08550017 -0.017910859 0.24292386
0.008699684 -0.13512203 -0.2567467
0.04949238 0.0883745 0.08163437
0.13605002 0.18905236 0.046081882
-0.05952021 0.16825446 -0.032472692
0.32730353 0.015719162 -0.08997124
0.18765958 -0.04043572 0.14877859
0.037390318 -0.06997755 0.10468558
-0.122708105 0.13320744 -0.014780531
0.17441683 0.012271806 0.11994515
0.11886433 0.15837039 0.07465048
0.21690816 -0.0019179679 0.068103895
-0.06640443 0.13595241 0.12427283
0.019682558 -0.09606721 0.24564053
-0.05900378 0.009920202 0.046018917
0.09399153 -0.1032658 -0.10085711
-0.2114257 -0.1537243 -0.038423114
0.08258434 -0.07677858 0.14080858
0.23192665 0.060583558 -0.10612441
-0.27322456 0.08309691 -0.081947945
-0.11041932 -0.113511726 0.17138341
-0.013278598 0.046031367 0.010827819
0.040822152 -0.120226376 -0.38625678
-0.16163713 0.10701093 -0.068464495
0.11182646 -0.028576234 0.1775939
0.25296608 -0.0060962387 0.11867205
-0.12525065 -0.025988292 0.056505468
0.07581351 0.13054632 0.03692762
0.024387043 0.05387528 0.028148394
0.18491937 0.24602233 -0.15161136
-0.114736095 0.07258243 0.1272276
0.14168565 0.13303122 -0.05876077
-0.0535537 -0.038578726 0.047302045
-0.15938574 -0.19779189 -0.28584012
-0.23240982 -0.18323705 -0.17169008
-0.081521735 -0.09285707 0.07772254
0.14995743 0.2397644 -0.1688111
0.051894005 0.11217754 0.09904183
-0.040091515 0.13871098 0.026211541
0.0036914106 -0.102709666 0.20423183
0.14106336 0.004810939 0.23129645
0.12797134 0.19130506 0.077277936
0.038530737 -0.01634547 0.1944814
-0.046344686 0.1355473 0.051865295
-0.19822581 0.14465764 -0.14503422
-0.017642517 0.1488087 0.11420073
0.1413843 0.17445117 0.023913387
-0.14994302 0.15270658 -0.10496572
0.015378593 -0.106117256 -0.4005262
-0.01292735 0.112225994 0.064992376
0.15202555 0.07107135 -0.11687589
0.043872066 0.1572142 0.0830196
-0.09280649 0.024948362 0.07022938
0.1992914 -0.016673679 0.14755239
0.14680262 -0.033072483 -0.32424092
0.068585515 0.0077313054 0.089560874
0.07493851 0.16835305 0.010884498
-0.06712159 -0.09890701 0.14547834
-0.10962904 0.19427948 0.0122863185
-0.0616745 0.07897929 0.089976035
0.065949604 -0.01877509 0.15860537
0.08775042 0.15169765 -0.07192768
-0.099981144 -0.12076371 -0.32945058
-0.19937876 -0.13140218 -0.20837057
-0.22650185 -0.2523092 -0.122975424
-0.19127652 0.107864305 -0.059465185
0.16118877 -0.08487944 -0.32197276
0.056431115 -0.105160974 0.12005621
-0.2136787 -0.13467547 0.1280437
0.19074304 0.0024380325 -0.10308514
0.14262463 0.17527841 0.057974495
-0.036527652 -0.08744943 -0.3759169
0.06330809 0.15750408 0.11444812
0.1392559 0.11838448 0.08366907
-0.081180826 0.03169213 0.013313532
0.16226359 -0.071184225 0.17400599
0.06795273 -0.12110303 -0.21007802
0.23254135 -0.045599524 0.15069148
0.19133943 -0.01292046 0.20179018
-0.039063085 0.0816287 0.07434505
-0.1188271 -0.13848004 -0.38417095
-0.1970906 0.10968483 0.056826115
0.16499639 0.1283442 -0.15791811
0.17777875 0.073746115 0.102986336
0.17886062 0.009396571 0.00081019686
0.11595313 -0.034609713 0.09218962
-0.14834662 0.02706912 0.041351456
-0.082636446 -0.09697784 0.115470774
0.18561111 0.18040687 -0.17567593
-0.20453477 0.15939291 -0.15183716
-0.16472086 -0.0008513419 0.030682217
-0.03601089 0.108958945 -0.0026914328
0.086052254 -0.11419941 0.0642546
0.019443944 -0.10659601 -0.30733383
-0.22942846 0.06753741 -0.023026047
0.20744967 0.1848804 -0.0646052
-0.13641994 -0.055538867 0.08334541
-0.26659182 -0.15979995 -0.05077856
-0.105109766 -0.030322857 0.0954661
0.25417975 0.025123192 -0.07599483
-0.13439886 -0.15611787 -0.13964525
-0.24189779 -0.13424537 0.13488403
-0.2310112 -0.12303715 -0.25745177
0.14011459 0.22586611 0.014908139
-0.1402927 -0.0057163625 0.14834718
0.10837676 -0.05391155 -0.24045132
0.08381689 -0.0435015 -0.18318433
0.054889176 -0.020918269 0.23507826
0.01289978 0.14424111 0.015337318
0.080901936 -0.09379652 -0.24702832
-0.10659713 -0.14613214 0.18490773
-0.15478586 0.106231906 -0.053000245
-0.018255558 0.06787055 0.11600164
-0.16518486 0.13797963 0.08409009
0.22467065 -0.012169065 -0.22407384
-0.12043965 -0.08420628 0.058990106
-0.16848373 -0.15187894 -0.246005
0.22756337 -0.042100117 0.17683098
0.20381793 0.01756833 0.13351174
0.28604543 -0.045194928 -0.030006593
0.015588819 0.24749823 -0.1689088
0.07252103 0.035970286 0.035099667
0.035510644 0.21251564 -0.07847905
0.1245151 -0.051150057 0.18080828
-0.13558307 -0.13975109 -0.117128275
-0.19530803 -0.009430595 -0.015100072
0.15234879 0.17171475 0.00671788
0.02151436 0.16557804 0.07839654
0.22849311 0.043367215 0.099823356
-0.011795801 0.17128485 -0.03360956
0.15809672 0.0006201253 0.18374221
0.26808506 -0.03241005 0.06593955
0.035419356 -0.093171395 -0.26559374
0.08748897 0.19501461 0.05978275
0.27878448 0.010387136 -0.068820275
0.19323744 0.05295954 -0.029908894
0.29180112 -0.020843066 -0.22194897
0.2922171 0.043495767 -0.073246315
-0.10134121 -0.01791999 0.150901
-0.15354586 -0.17009196 0.118845515
0.21569307 0.01127025 0.13274038
0.026521573 -0.08592806 -0.40605465
0.027040513 0.2046605 -0.017369473
0.15443368 0.02168782 -0.04700486
0.01378354 -0.0046521337 -0.1591939
0.2972518 0.04017651 -0.07524357
0.07497247 -0.06725535 -0.24595459
0.07043842 -0.057098586 0.16940038
-0.17583176 -0.08865877 -0.039514918
-0.16938286 -0.11871943 -0.33507878
0.006662583 -0.068872124 0.17082587
-0.12578365 0.06208425 0.09234829
-0.15720615 0.1232292 0.118993886
0.0883473 0.00751369 0.09890127
0.103471935 -0.07045357 0.0153800845
-0.1590636 -0.17750183 0.12685245
-0.032945342 0.22123674 -0.021007076
-0.073709585 -0.09977638 0.20953041
0.069912985 -0.03726482 -0.06536196
-0.05044629 -0.02719414 0.13693722
-0.08003224 -0.12341941 -0.18337975
-0.13438557 0.13310364 0.07211841
0.0754343 0.07267821 0.039958578
-0.14591911 0.15531406 0.15954861
0.3330951 -0.02818181 -0.055677548
-0.10953361 0.061762072 0.06196155
-0.18131761 0.17448394 0.017905746
-0.1606519 -0.042166673 -0.026916979
0.29501173 0.023062179 -0.20457749
0.17482251 -0.061743576 -0.2517274
-0.01325556 0.1635191 0.1380778
-0.17306721 0.10674505 -0.16510388
0.12615201 -0.08659905 0.05982321
0.09102193 0.20674786 0.17069007
-0.080559485 -0.16011378 -0.02797104
0.032072864 -0.12507744 -0.12974563
0.24338686 -0.039238457 -0.27380726
-0.08093512 0.0062209596 0.10547807
-0.16685231 0.19366106 -0.041604497
-0.09994047 0.022753544 0.10345077
-0.07308283 0.08094086 0.1019169
-0.030697586 -0.16751662 -0.2400135
0.1690918 -0.09120823 0.10410408
-0.17370406 -0.2157048 0.034698203
0.15873745 0.18499863 -0.15112592
0.08760343 0.1190802 0.07195719
-0.2088739 -0.21560697 -0.0699225
0.08392704 0.19855036 0.033377793
-0.10363904 0.09078824 0.096834034
0.16039066 0.099388294 -0.11533756
-0.0048557185 -0.109491445 0.20241722
0.1602554 -0.07520683 0.038407817
-0.04800805 0.0695176 0.14643094
0.121347494 0.13787553 0.024764458
-0.14072992 0.04947252 0.078918666
0.09933456 -0.059610046 -0.008966284
0.063205324 0.15145972 0.012722364
0.114568956 0.114163496 -0.13257135
-0.17034434 -0.13443094 -0.17609005
-0.029071858 0.13288967 0.15891801
0.115364656 0.12891038 0.06617861
0.1198275 0.06509675 -0.06271585
0.0072225924 -0.063545495 0.12892856
-0.29351684 0.08134283 -0.07851382
-0.073677346 0.14263994 0.10555207
0.075861044 -0.050493915 0.21751118
-0.21148184 0.115656376 -0.13870758
-0.14827627 -0.14547567 0.03778693
0.08949589 -0.0033446504 0.21576138
-0.051033147 0.23680335 -0.011323252
0.11733543 -0.027133761 0.19837095
0.17206359 0.08439022 -0.15795133
-0.18729396 -0.09606543 -0.037506886
0.069036804 0.20470315 -0.012049382
0.23044509 -0.072697945 -0.24950221
0.11532991 -0.013900706 -0.05842971
-0.0559248 0.08594537 0.12376622
0.1021471 -0.050980754 -0.09934514
-0.18220998 0.06420576 0.01471726
-0.10421517 0.07175284 0.13235132
-0.11131279 0.10949178 0.12133963
-0.15463926 -0.06611198 -0.041931164
-0.074492 -0.13426463 -0.34349397
-0.026020415 -0.08261236 0.029739263
0.26375255 0.02800635 0.0866366
0.3582221 0.048804104 -0.038375147
0.062758 0.20737624 -0.06222348
0.13491058 -0.046239853 0.1595119
0.044715583 0.22514093 -0.041942496
0.27901316 0.05297411 0.07360947
0.16428837 0.060862612 -0.08226029
0.29904392 0.005066452 0.07025292
-0.14124583 0.08325457 0.0194115
-0.026591787 -0.09516174 0.007126436
-0.1601894 0.026810717 0.013784773
-0.103435874 -0.006883336 0.06326183
0.115732305 0.055822432 -0.0047528497
-0.04258665 -0.1174915 0.06623165
0.1293509 0.02961418 0.161067
-5.4688797e-05 0.15714082 0.1182811
0.3335547 0.034990836 -0.055933733
-0.06338642 -0.12455153 -0.08636798
0.055220254 -0.074658945 0.1838324
0.12577432 0.004921999 0.14429115
-0.23265192 0.09152745 0.018457724
0.0100768665 -0.01860607 0.16887753
-0.20239216 -0.029386453 -0.021921009
0.076152526 0.123755306 0.08052443
-0.1764861 -0.18694016 -0.087182775
-0.09827461 -0.07716218 0.07927597
-0.0014479075 -0.054468047 0.0027268326
-0.09378247 0.14597845 0.032519057
0.07390161 -0.10661361 -0.16649652
-0.07637573 0.18779089 -0.012429309
-0.0507733 -0.19454032 -0.2368283
0.2049008 0.057989318 0.1385675
-0.1641621 -0.20041455 -0.22827768
0.21099214 0.028537525 0.018991433
-0.08898027 -0.03959767 0.036581676
0.20339149 0.16680963 0.058555685
-0.13172223 -0.08611573 0.16766407
-0.22363906 -0.18705928 -0.089119576
-0.14286728 0.1584518 -0.0492856
-0.16122086 0.09965732 0.06328284
0.09484335 0.1841453 -0.23422791
-0.2136256 0.0964778 0.086195245
-0.12543035 -0.012699788 0.09464547
0.021276332 -0.019099224 0.20078512
0.34822467 -0.01972159 -0.05959462
0.17577368 0.15319565 0.00724804
-0.20010261 -0.088412665 -0.11926007
0.13726927 -0.023172436 0.052234985
0.13648383 -0.08913982 0.20635551
-0.09199091 0.10579541 0.067514546
0.1836983 -0.0025599299 -0.061262015
-0.22165732 0.0422666 -0.005393948
-0.096182965 -0.01948946 0.08823647
0.026092041 0.19106084 -0.05639888
-0.12252315 -0.12730435 -0.14129704
0.11922567 -0.075642385 -0.13123986
-0.13067265 -0.09482613 0.24389683
-0.035602365 0.17481455 -0.18354222
-0.105811745 -0.20987505 -0.19227543
-0.05600606 -0.14942834 -0.2972039
0.09787431 -0.06394273 0.24830256
-0.048904676 -0.09805952 -0.21848848
0.061309468 -0.08034615 0.2502603
0.116687916 0.21256205 0.0006854146
0.046090823 -0.07340061 0.10598238
0.075610526 -0.14668539 -0.25277975
0.17615351 0.02507747 0.0011901859
0.031116353 -0.09094496 0.18392289
-0.058590557 -0.1332008 0.24717346
0.19056423 0.010532654 -0.05902615
-0.13999525 0.021980843 0.053948898
-0.018285297 0.024991155 -0.0072608185
-0.1399604 0.04136495 0.12643713
0.2881505 0.09501626 -0.12772135
-0.19306031 -0.13791835 0.08106604
0.266417 0.0392303 0.12500706
-0.17979042 -0.16253477 -0.047195062
0.07929621 0.18899901 0.13711528
0.053425983 -0.11630641 0.20874724
0.0040366673 -0.01844535 0.036556736
0.28704283 0.028837437 -0.004402402
0.2524868 -0.044262845 -0.2870542
-0.15622744 -0.16266373 0.039986696
-0.2103612 -0.13656712 0.0103231
0.114301085 0.029473465 0.082912326
0.09133336 -0.0584293 -0.31439504
-0.07692825 0.13775095 -0.0072283875
0.22003166 0.009475867 -0.0787137
0.3026957 -0.025523165 -0.075714424
-0.038172357 0.10313922 0.056151904
0.06357243 0.04172084 0.083581656
-0.07466174 -0.02650983 0.0660345
0.088519976 0.17072046 0.032723412
-0.12155284 0.13028264 -0.10237348
0.073077194 -0.05733996 0.1685646
0.06356867 -0.14112264 -0.20217493
-0.036007594 -0.12387375 -0.2981367
0.16069858 -0.079736 -0.1892772
-0.15276831 0.00870277 0.035696786
-0.11683776 0.07890376 0.08755264
0.054516543 0.02943352 0.1699941
-0.14547977 -0.111195184 -0.056437567
-0.19699547 -0.13183258 -0.1491906
0.19279847 -0.018114336 -0.29525605
0.058016535 -0.07290877 0.22173469
0.26700193 0.006334502 -0.15540345
0.0023357766 -0.06401238 0.22578429
-0.13256474 0.05550438 0.13455696
-0.09149574 -0.01989807 0.07782981
-0.27634057 -0.24847016 -0.2202563
0.19819818 -0.0022724723 0.09914823
-0.1226626 -0.12884875 0.18086192
-0.20197079 -0.067984 0.011879884
0.14768419 -0.111080386 -0.23686606
0.009706466 -0.06149678 0.122863874
-0.21565108 -0.22650605 0.051707815
0.007584432 -0.08112085 0.118521094
0.29437396 0.0076374486 -0.13683331
0.21297002 -0.013640322 -0.20153178
0.2964037 0.021865878 0.06335258
-0.14250161 0.090165734 0.043350317
0.011084352 -0.08366281 0.17656237
-0.09781382 -0.12151083 0.18462537
0.16841082 0.07844341 -0.15419684
-0.108695805 -0.12254135 0.15590669
-0.07378132 0.015691563 0.14336607
0.30617994 -0.0338496 -0.06560293
-0.1696358 -0.1907822 0.06817345
0.24593493 -0.033988304 0.17864126
0.13799779 -0.09447267 -0.007508303
0.2690077 -0.024842102 0.011580793
-0.07183782 -0.12315287 0.14957935
-0.18293518 -0.11343523 0.14621606
0.19689488 -0.016568413 0.15071288
-0.26611608 -0.17155692 0.08432201
0.024784856 0.041909866 0.012474675
-0.059620153 0.115510784 0.13227363
-0.14089386 -0.13674578 -0.0032779172
0.3477825 -0.025389876 0.06149691
0.13022485 -0.1020582 -0.2556687
-0.117813624 -0.04296084 0.12217154
0.35742384 0.019601565 -0.03192142
0.15218115 -0.014086484 -0.2758127
0.2560824 0.079929866 -0.0028006483
-0.04839513 0.20053521 -0.003982165
-0.13511646 -0.14985107 -0.09907012
0.043243945 0.19565251 -0.082819685
0.053841054 -0.041955527 0.11958912
-0.00024562786 -0.13796353 -0.3364256
0.1126368 -0.100717455 -0.24041292
0.0016116515 -0.091628715 -0.06288129
0.12286087 0.17992182 0.0748479
-0.119419985 -0.11396174 -0.010230052
-0.08108727 -0.045088124 0.012192633
-0.06220204 -0.10271527 -0.31775323
0.07841008 -0.07140018 0.12131362
0.12700102 0.027220886 0.0778031
-0.16163138 -0.13230972 -0.031927682
0.26275885 0.028941883 -0.014053318
-0.2249417 0.020632105 -0.03180351
0.0224752 0.1904918 0.08897018
-0.17020953 0.04860695 0.109076545
-0.040852785 -0.0987757 0.1971086
0.2780844 0.038881015 0.059716284
0.012432944 0.26431394 -0.13807823
-0.15170455 -0.07882511 0.13575758
-0.07255313 0.13391261 -0.021936174
-0.2529625 -0.15542072 0.008891104
0.07266121 -0.05883197 0.18871681
-0.10407655 0.011316107 0.04258777
-0.053127833 0.2242217 0.0064833295
0.33342952 -0.039385587 -0.17018607
0.042064466 -0.055080038 0.2545555
0.21945888 0.001236306 0.002786416
0.17272915 0.18089744 0.008179404
-0.104248166 -0.19959266 0.0907802
-0.030260269 -0.052304264 0.2567307
-0.1885322 0.04632512 0.093222626
0.063767694 -0.116357654 -0.28413242
-0.11438276 0.106758915 0.06501439
0.2805828 -0.0009611567 0.09099359
-0.14200063 0.104924865 0.029121151
-0.1004786 0.002933092 0.061860707
0.095495634 -0.08469457 0.012899958
-0.08518308 0.11682347 0.09766653
-0.066037685 0.11434441 0.09986183
-0.13643856 -0.08740877 0.026620973
-0.059300978 -0.018318003 0.06948639
-0.22900955 -0.20955957 -0.008838782
-0.19783151 -0.1365949 -0.15787537
0.15289563 0.21946755 0.10056465
-0.09536161 -0.19218029 -0.12780552
0.10599119 0.07176173 -0.029304048
-0.025992215 0.11271526 -0.30328524
-0.23295605 -0.16107725 0.10830604
-0.21980563 -0.008447262 0.02440456
-0.15049884 -0.09042535 -0.3882133
-0.28679404 0.0105705215 0.060239397
0.041658122 0.14496689 -0.02942577
0.23771338 -0.023520797 -0.29676697
0.16669697 0.006693978 -0.04299099
0.013898486 0.024157973 0.05341714
-0.15638864 0.17297965 -0.027124662
-0.14117403 -0.19307776 -0.31143743
-0.12935555 -0.09228446 0.08890306
-0.15449168 -0.17548251 0.16327235
0.03382008 -0.10898961 -0.16113581
-0.20162988 0.047458526 -0.115969546
-0.2148125 -0.14545707 0.055777013
-0.059354037 -0.13942412 -0.19435252
-0.022932457 -0.087818965 0.2500837
-0.23222992 0.06949535 -0.1589951
-0.13020441 -0.16571057 -0.108781226
0.13590191 0.047351666 -0.06788173
0.007169279 -0.091828585 0.21058163
-0.20869023 0.042132504 -0.031514026
0.1351656 -0.010933217 -0.03287429
0.039001033 -0.077345714 0.11974696
0.13681489 0.061627436 0.049236994
0.050640006 0.011563756 0.119405024
0.09424299 -0.062284272 0.15896809
0.11494076 -0.037259404 0.11362705
-0.12992169 -0.0030893604 0.13539748
-0.21260387 0.093794465 0.014145579
0.2735514 0.062456623 -0.0023969556
-0.16182709 -0.033540476 0.02945875
-0.11522404 -0.111321785 0.08389948
0.21632567 -0.027078878 -0.23592165
-0.3121288 -0.20391965 -0.020640524
-0.17000657 -0.18322892 -0.12720741
0.16727673 -0.0026026014 -0.05126038
-0.057560388 -0.058171105 0.1308851
0.30371836 0.019702066 -0.23189938
0.041585583 -0.04082419 0.22207867
0.029261934 0.12037848 0.08542894
-0.06005637 -0.124378376 0.06998729
-0.23795532 -0.13675255 0.109563604
0.24777184 -0.0026991419 -0.06495326
-0.16257656 -0.080317594 0.16097267
0.02097108 0.02879904 0.022408696
-0.119764365 0.06230087 0.075369194
0.1574568 -0.0118241245 -0.08797989
-0.011019824 0.24407351 -0.044866037
-0.18206099 -0.17812455 -0.2379341
-0.23300196 -0.20727688 -0.03323056
-0.18521838 0.10683177 0.035669558
-0.15116723 0.06804421 0.14604566
-0.24606891 0.03699538 -0.16297704
0.20742095 0.022003151 -0.2052861
0.15578628 -0.045879982 0.19158402
-0.189663 -0.083499864 0.12261943
0.10387413 0.18581998 0.03578272
-0.14885615 -0.14077653 -0.040981658
-0.12791657 -0.11977982 -0.13163866
0.028113466 -0.06844002 -0.41707408
-0.24013034 -0.14064355 -0.22308615
0.28610545 0.026144259 0.08854944
0.0054874658 -0.03500954 0.25085962
-0.2931511 0.0312555 -0.08702942
0.0114846965 -0.021083735 0.07005123
-0.20592846 -0.07917748 -0.13276795
0.04033508 -0.07550529 0.23310359
-0.00038219322 0.034148242 -0.00034008434
0.26920915 -0.0639269 -0.19137414
0.21972243 0.05950865 0.0020021724
-0.16234872 0.09445403 0.021674996
0.17378765 0.12316802 -0.19262889
-0.17890067 0.121507786 -0.0939242
0.1459493 0.014888931 0.118519016
0.112938225 0.0109197125 0.25115475
-0.27213332 -0.15860301 0.03055425
-0.052108996 0.1259046 0.019484337
0.046905227 -0.121804565 0.03155002
0.16700791 0.17135157 -0.05029002
0.18316856 0.14369182 0.015559598
0.047467075 0.058506574 0.025515947
-0.06283145 -0.15443344 -0.064172976
-0.20271166 0.061353724 0.07372178
-0.20177975 0.123193495 -0.11288297
0.110494025 -0.09133273 -0.10946183
0.0036076598 0.14923692 -0.026242742
0.103639826 0.0435834 0.010630688
-0.048103258 -0.1082815 0.06580599
-0.16983289 -0.14007743 -0.06267194
0.20799793 0.034957875 0.08234528
0.090660185 0.11804231 -0.07896325
0.0008800991 -0.09121372 -0.18483444
0.07776102 -0.04536515 0.16875927
0.1693678 0.10208695 0.00598089
0.041948155 0.002099713 0.0011815702
-0.019542087 -0.09741362 0.16280834
0.30502194 -0.029887727 -0.019270906
-0.04270217 -0.014053744 0.111030586
0.07330234 -0.06298087 0.19891639
0.12202423 -0.04729268 -0.20873803
-0.002071422 0.19370507 -0.009834655
-0.07577223 0.07210212 0.15532005
-0.12354221 -0.04744159 0.07527713
-0.016213398 0.19618829 0.11112262
0.16094099 0.03164545 -0.035060406
-0.14037798 0.13246465 -0.12384863
-0.15627567 -0.006523916 0.044846687
0.04906178 -0.047456767 0.22375219
0.18031707 -0.052438084 -0.3128296
0.08190829 0.012875473 0.052047852
-0.08518274 -0.026176026 0.024906604
-0.20675945 0.083308615 0.038283978
0.0060121547 0.20495355 0.00807852
0.14721315 -0.004055295 -0.15138946
-0.17794207 0.2064387 -0.062330365
0.12227437 -0.0961841 -0.3418639
-0.06988413 -0.029526673 0.18361956
-0.04290346 0.009507966 0.087691516
0.0627749 0.22796011 -0.04404988
-0.0077842413 0.050618798 0.071633466
-0.2102998 0.05467082 -0.039977353
-0.22277732 -0.13425781 0.11373767
-0.10224031 -0.0115942 0.092200145
0.22608782 0.026578106 -0.14124568
-0.21445116 0.10467076 -0.026497466
-0.25667113 0.022480493 -0.007646063
-0.24621013 0.048197474 -0.20570527
0.18038656 -0.013577064 0.0526785
0.20189781 -0.05348206 -0.18385245
-0.24264906 -0.19603978 0.03729242
-0.23213823 -0.02915514 -0.13722137
-0.03980485 -0.09110496 0.19961797
-0.036498286 -0.11548717 0.1479815
-0.17962223 -0.15780714 -0.039140128
-0.14303906 -0.14325593 0.16914347
-0.1852941 -0.092082255 0.10474835
-0.08478645 -0.10057935 0.083373465
0.06675975 0.032591693 0.12475905
0.23395018 0.06361064 0.1020314
-0.07731608 0.22547917 0.0053453306
-0.15231179 -0.1616942 0.0190371
0.13415347 0.0038943677 0.20457779
-0.17808867 -0.16016096 -0.30201855
0.12056292 -0.10114868 -0.30447644
0.04423898 0.1967567 0.14229085
0.07492011 0.14417408 -0.22644222
-0.14963247 0.051847573 0.03786122
-0.22027543 -0.18049975 -0.19049323
0.092117034 -0.10106056 -0.14021347
0.080583 0.06965748 -0.03436406
0.02550174 -0.018959027 0.23008071
-0.18766505 0.03809748 0.0560822
-0.21485929 0.06753 0.022829501
0.061110105 -0.050316323 0.1532067
0.07988634 -0.086147934 -0.030309767
0.007388115 0.049712274 0.052490957
-0.09199844 -0.15689118 -0.096666835
-0.1107731 0.110264875 0.0148258135
-0.08895415 0.08013746 -0.0017003259
0.23774812 0.0105032055 -0.18303804
0.20246865 0.11653451 -0.15396893
-0.06674558 -0.10668758 -0.3988196
0.10778374 0.109723695 -0.14532568
-0.24091494 0.047820643 -0.121250756
-0.15832816 0.06994921 0.1415762
-0.08703105 0.20999353 -0.21434842
-0.06276644 -0.15162069 0.17109308
-0.090644866 0.10062477 0.05722213
-0.009980888 0.15349925 0.05422285
0.14876504 -0.0116209285 -0.17613707
-0.09763608 0.18692772 -0.03859014
0.27692527 0.010964516 0.030947309
-0.19679919 0.00057890953 -0.10789188
-0.21924505 -0.13784195 0.13623047
-0.17958604 0.10527334 0.14373758
-0.19118895 -0.22926618 -0.27240032
0.102459796 0.00012796235 -0.0017256323
-0.004124116 -0.15451343 -0.2451714
-0.05130174 0.0145439515 0.12620176
0.028210724 -0.10490997 0.20568627
0.17694789 -0.09460572 -0.19413817
0.2704035 -0.037896723 -0.14446202
-0.113985665 -0.06479638 0.16950643
-0.029376796 0.19703504 0.053043712
-0.09498643 -0.15452507 -0.3086232
-0.05600018 -0.17414479 -0.040424675
0.14301307 -0.07755126 0.08548792
0.19259766 0.013358867 0.16618632
0.088163435 0.20683745 -0.009619236
-0.04037358 -0.10491773 0.23636347
0.28427315 0.051838413 -0.08785585
0.23066159 0.023718897 0.14307863
0.04832992 0.12964939 0.03728034
-0.0059019444 -0.11490466 0.1426181
0.22579339 0.019995624 0.060564376
-0.2551612 -0.011847129 -0.09040988
0.08771244 0.090665184 0.06776851
0.010034207 0.09565797 0.091296434
-0.14689593 -0.17979789 -0.29108834
0.14432569 0.1297021 -0.059203524
0.026555004 0.19946362 0.024529891
0.1329703 -0.0912148 0.07753558
0.3275252 0.008313666 -0.17410177
-0.063894615 0.027069207 0.042354863
0.2308561 0.057834804 0.18180315
0.17641257 0.016165603 0.21869577
-0.26228666 -0.15004556 -0.11853035
-0.2855391 0.011532651 -0.036426667
0.10238478 -0.09801764 -0.088801205
0.17679358 -0.038146872 -0.08141297
-0.15464741 -0.09957058 -0.006524369
-0.085987 0.13701916 0.0985301
-0.031731706 0.15565121 0.16181107
0.0842278 -0.07037651 -0.035962876
-0.14220107 -0.115526654 0.17036875
-0.15925132 0.068734966 0.083729476
0.06102195 0.21523124 -0.031112187
0.05096106 -0.06030281 0.02111181
-0.13328701 -0.08956826 0.21236478
0.18159495 -0.06873685 -0.27429396
0.1871433 0.19731285 -0.22679135
0.06650984 0.07179387 0.04398431
-0.257953 0.10631085 -0.22371298
0.18336365 -0.0594371 0.22023827
-0.15319052 -0.082698986 0.1304429
0.28516966 0.013215522 -0.33012855
-0.20426612 -0.13761425 0.1603303
-0.14051269 0.04837278 0.055568904
0.010375844 0.07070116 0.04658228
0.16805781 0.24387343 -0.2980221
-0.006708204 0.11643428 0.092230365
-0.096438184 0.16579692 -0.2340473
0.1947864 0.04067131 -0.0021460059
0.10407428 -0.045248315 0.18664426
-0.13070549 0.124590136 0.14593948
0.1675521 -0.03988434 0.18866715
-0.083338626 -0.16376737 0.19061719
0.15736662 -0.04101766 0.21316136
-0.16535279 -0.1836623 0.015270478
0.0092280535 -0.12692273 0.14264777
-0.16265398 -0.076007456 -0.08919711
0.23437747 0.027917555 0.1100922
0.046805404 0.016903065 0.08919961
-0.15160853 -0.12434911 0.063578896
-0.15046602 -0.10903303 0.191006
0.17020772 -0.015463397 -0.26680663
-0.052099366 -0.1333635 0.19711077
0.19222122 0.03963161 -0.22661704
-0.14442681 0.06859777 0.0934216
0.3293197 0.059755586 -0.04314848
-0.15591367 -0.12752557 -0.014119108
0.18427305 -0.07441706 -0.025591739
0.11995436 0.21783787 0.056636404
0.23790787 -0.051892255 -0.046385445
-0.025869414 -0.0441644 0.057147607
-0.16843598 0.03710746 0.0644562
-0.29017612 -0.01440833 -0.10126187
0.16121024 -0.021083377 0.19484632
-0.17905028 -0.06785769 -0.15070315
-0.047151096 0.18466507 0.020006262
0.1852198 -0.063946806 -0.034758493
-0.097267784 0.043971267 0.090560935
-0.011865903 -0.052112795 0.17159843
0.10132701 0.1571211 -0.1698581
0.03612028 0.11870762 0.061561603
-0.07255312 0.060733292 0.08212652
-0.19049057 -0.022436129 -0.07880518
-0.06956179 -0.16949654 -0.32599577
-0.12461897 0.04993184 0.039233297
0.19808264 -0.085606925 -0.33226895
-0.017653255 -0.07771352 0.029032305
0.14752372 0.096056476 -0.11249424
-0.18532343 0.12127799 -0.03163474
0.29550722 0.030959243 -0.25446716
0.2844978 0.025924414 -0.26171318
0.005009247 0.06291829 0.09322351
-0.26435524 -0.17461888 -0.021326452
-0.2483283 -0.13646269 -0.08129687
0.22618906 0.07285742 -0.0457904
-0.15982167 -0.16869119 -0.03134737
-0.075550206 -0.011366157 0.10199143
-0.14185427 0.087303825 -0.004859891
-0.22587545 0.08618891 -0.081443235
0.14378694 0.020825226 0.058101654
-0.18417545 -0.13689491 0.11284181
0.098857895 0.21611623 -0.078254506
-0.093431294 -0.16977242 -0.34491795
-0.008131569 -0.12681821 0.17359126
-0.009905185 0.18831049 -0.012652597
0.14975172 -0.037864853 -0.08421882
0.032643374 -0.042203553 -0.35098606
0.3407365 0.015576368 -0.09304851
-0.08716502 0.15869796 0.016063828
-0.2688627 0.063037895 -0.016101528
0.03341228 0.15879254 -0.033264607
-0.24429975 0.017625244 -0.26010388
-0.24302645 -0.08090273 -0.18134604
0.083236806 -0.059823893 0.11445308
-0.11937813 0.008054709 0.12102
0.29385886 0.01661064 0.032101974
0.045112483 -0.06804076 -0.30379254
0.1230579 0.2075615 0.022958776
-0.008121892 -0.13079622 -0.017515047
-0.1648705 0.21497427 -0.15980059
0.15982947 -0.08330239 -0.3412841
0.048731152 0.14086936 0.15892312
-0.16903323 -0.18779051 -0.1678023
-0.11756159 -0.014800783 0.0507906
0.02450525 -0.081164405 0.0070573157
-0.044884577 -0.13487783 -0.37386352
-0.16008393 0.036771495 0.079199865
-0.120462544 -0.17351235 0.14995281
-0.103155285 -0.020642253 0.13278131
0.017092213 -0.05837588 -0.27801475
-0.036160126 -0.056579 0.15302618
-0.20517965 -0.15488195 -0.2997592
-0.08734918 0.17571464 0.014136569
-0.011718715 -0.07758302 0.24711765
-0.0880005 0.059371766 0.034976233
-0.01779428 0.23591433 -0.07137363
0.37194282 0.059862483 -0.06596678
0.110847846 0.083688974 0.05376087
-0.22475295 -0.19762522 -0.11707894
-0.0027366537 -0.108707994 -0.28391942
0.13691664 0.15887874 0.0077127
0.20253131 0.0029757302 -0.27355215
0.19754201 0.026216561 0.15461853
0.34442228 0.06313835 -0.034160014
-0.15328854 -0.089279935 0.12212977
0.14792706 0.040886976 -0.079458
0.09434638 0.17125608 0.028579624
0.052953623 -0.08150157 -0.1313578
-0.032898657 0.036820136 0.044176307
0.13139248 0.13333592 0.0061933673
0.11222587 -0.047784895 -0.19858168
-0.06615947 -0.15474227 -0.29462123
0.11025676 -0.013749094 -0.015798256
0.0015726128 -0.109683566 0.26212898
0.20328231 -0.036855258 0.10507507
-0.1665327 -0.24142668 -0.10284582
-0.039697174 0.15953088 0.034025747
-0.21334349 -0.009765846 -0.10491963
-0.04661577 -0.051105194 0.14541727
-0.08355985 0.09192169 0.041076437
0.115371175 -0.08290338 -0.18373154
0.13150686 0.059498653 0.03132311
-0.16004653 -0.21591064 0.07425636
0.21267019 0.24701495 -0.116348006
-0.1535238 -0.18960913 -0.10918173
-0.037406333 -0.10358719 -0.38240498
-0.00902452 0.10349385 0.16709314
0.015983526 -0.07498885 0.19385879
0.09394028 -0.07854972 0.13608818
0.0019358991 -0.03728295 0.121019274
-0.079596646 0.22874044 -0.0020483106
0.1037361 0.10503474 -0.19642487
0.01056509 -0.047148958 0.1430931
-0.0175814 -0.08259175 -0.050751165
0.12772991 -0.029263286 0.1286898
-0.049387727 0.1013405 0.17074515
-0.063292176 0.24099813 -0.010519644
-0.112065636 0.04474114 0.051344037
-0.19090046 0.08978103 0.0807589
-0.03609327 -0.08443474 0.10711241
0.055179037 -0.08330797 0.089836955
-0.087780476 0.06839427 0.1253581
0.011574075 0.059287176 0.049492717
0.24948603 0.033330914 -0.3711047
-0.18549688 0.15771705 -0.058192164
0.04933635 0.08339023 0.07549245
0.21478164 -0.06284439 0.0023392364
0.093200505 -0.08614779 -0.13202442
-0.05353029 0.023855895 0.061520867
0.2276025 -0.042384617 -0.31767222
-0.21767296 -0.16948567 -0.091008626
-0.18015909 -0.17599003 -0.07087288
0.28041872 0.043448087 -0.1293788
-0.09655842 -0.18071689 -0.18797177
0.05516281 -0.12109434 -0.03108016
0.03482115 0.18296921 0.00866428
-0.22045869 0.048420794 0.03762129
0.16843578 0.19488858 -0.043795597
0.11003588 -0.09175153 0.20422232
-0.087511145 0.10643439 0.0944666
-0.024129422 0.1713686 -0.1871354
-0.035313476 0.16928393 -0.1369447
0.089686744 0.054800335 0.0049825963
0.065157525 -0.0073852777 0.12482504
0.089456834 -0.100869246 0.2206243
0.1779684 -0.008387066 0.11176627
0.0031227234 -0.13991606 -0.16651155
0.020726817 0.023377769 0.03934649
-0.15846767 -0.123950325 0.11447863
0.13188927 0.0006826379 0.2051247
-0.046894975 0.15770636 0.1337013
0.0710127 0.1928514 -0.05644982
0.28344503 0.064980865 -0.07557509
-0.039570913 0.08552676 0.09132429
0.17717285 0.0779311 -0.07227884
-0.17661266 0.06710182 0.09154571
0.021047963 0.18013264 0.08656839
-0.18085504 -0.058739923 -0.095457904
0.12499262 -0.013892351 0.06111461
-0.06564814 0.18932939 -0.04308753
0.17894353 0.070112005 0.06538766
-0.23668869 -0.21792556 0.06667712
0.31262553 0.042002194 -0.055029444
-0.23474626 -0.14331266 -0.19692047
0.21536033 0.018035034 0.14529502
-0.04223452 -0.110532984 0.19972442
0.08716666 0.014330729 0.20198792
-0.11708861 -0.075690955 0.047384642
-0.28562608 -0.12696692 -0.046582453
0.11597942 -0.058099307 -0.10587965
0.108486846 -0.07569149 0.24384692
0.10043107 0.053355664 -0.0048819524
0.02960478 -0.08216092 0.09801746
0.02676777 0.1875216 0.1694325
-0.051022694 -0.10142241 0.19697626
0.0012022188 -0.06250544 0.16845089
0.18738921 0.038632415 0.10138011
0.17003496 -0.027970422 0.08875647
-0.22537915 0.04133538 0.042198367
-0.22130713 0.05040843 -0.11146785
-0.22692987 0.10175757 -0.041658536
-0.072495244 -0.1227129 0.20326248
-0.12480809 -0.037237324 0.07190107
-0.2034232 0.050995532 0.06979875
0.084964216 0.01790599 0.071151674
-0.21011928 0.04017525 -0.124541864
-0.07316451 -0.18079062 -0.12501365
0.19907627 0.014583278 0.17651086
0.034755446 -0.040781323 -0.16987522
-0.07765436 -0.087683804 0.14897665
-0.24854168 -0.18241869 0.044941742
0.1376911 -0.027027544 0.22299154
-0.003550911 0.07990931 0.015388715
-0.22516626 -0.24172884 -0.084345855
-0.19021223 -0.0033478714 -0.113789536
0.14538072 -0.026117727 0.23529784
-0.16574858 0.17267257 -0.1050378
-0.2859813 -0.17403416 -0.11788801
-0.07458338 0.2137906 -0.0040758937
0.0990326 0.09668284 0.03991581
0.3256954 0.0012618895 0.054272234
0.061455056 0.17558274 0.1320627
0.17742863 0.009195903 0.16639125
-0.029653857 -0.071431875 0.09884384
-0.15261038 -0.13315725 0.114744544
0.12276191 -0.04812654 0.14267223
0.021102633 -0.0045809154 0.055388305
0.018104842 -0.13975188 0.029278193
-0.093029514 0.03146601 0.11001293
-0.17962101 -0.17828374 -0.09862922
0.21708487 0.11041161 -0.13449986
-0.13232805 -0.13087024 -0.04974522
-0.12882467 -0.012037027 0.07916093
-0.20771194 -0.11463015 0.11195514
-0.10884691 0.012939939 0.07784893
-0.1208027 0.1775025 -0.043181356
0.04110487 -0.03554724 0.12712526
-0.2801232 -0.01079835 -0.058293886
0.22946899 0.05609921 0.058950372
0.07444101 -0.12506676 -0.21062174
-0.2845852 -0.15451558 0.032034058
-0.19041675 0.0823141 0.057269268
-0.18107717 0.054452676 0.06345375
-0.027118957 0.06302664 0.05928479
0.0403884 0.18032959 0.17253387
-0.25580448 -0.20978916 -0.19671835
-0.1410681 -0.095559865 -0.075882144
