# .PCD v0.7 - Point Cloud Data file format
VERSION 0.7
FIELDS x y z
SIZE 4 4 4
TYPE F F F
COUNT 1 1 1
WIDTH 1000
HEIGHT 1
VIEWPOINT 0 0 0 1 0 0 0
POINTS 1000
DATA ascii
-0.06931554 -0.0148299495 0.00904248
-0.05671723 0.15579154 0.21868764
-0.073311016 0.22421648 0.24429363
0.080034204 -0.060828056 -0.10222888
-0.072451405 0.29669148 0.13487795
-0.039846964 0.0030023628 -0.031952366
0.27948573 -0.035245232 -0.09178424
-0.063243225 0.173923 0.12948725
-0.0074085025 0.2129344 0.19821142
-0.17804454 -0.052548334 0.0061081373
0.1732756 -0.04652709 -0.121161625
0.2777055 0.041957337 -0.13289255
-0.08461076 -0.091346 -0.05241601
-0.04646824 0.16825815 0.11163287
-0.08304879 0.17176716 0.226423
0.015695272 -0.1827866 0.09615826
0.27012208 0.18876334 -0.08345083
0.14146025 -0.15946603 -0.17030814
0.095015004 -0.030260675 0.07338742
-0.17351656 0.05726946 0.01895725
-0.21741399 0.104121216 0.031120295
0.096787035 0.14575696 0.06903784
-0.19910315 0.09944212 0.07763909
-0.07120801 0.1399136 0.07656771
0.15848342 -0.15510364 -0.18787879
-0.2818255 -0.13110629 -0.001385709
-0.1828015 0.0954846 0.0345816
0.21867464 0.08010212 0.02302035
-0.12811762 -0.14627606 0.023144033
-0.10479117 -0.06374457 -0.07406541
0.066177554 -0.23830096 -0.13607296
0.12819226 0.16613671 0.026032947
-0.04556313 0.25088647 0.22996023
-0.11492145 -0.06393463 0.015166321
0.08104899 0.10623879 0.051308524
-0.20437978 -0.051409695 -0.033810638
-0.18069147 0.047517583 0.02167255
-0.103628024 -0.2528933 -0.09673751
0.017499955 0.1987819 0.18531078
-0.056712642 -0.052919038 -0.055166
-0.13684717 -0.14645848 -0.01266727
0.1166462 -0.21743017 -0.18666849
-0.07173774 -0.22141594 -0.09145455
0.13773061 -0.02047047 -0.06430314
0.174797 -0.038116932 -0.16367304
0.06761493 -0.15764588 -0.042804662
-0.27332577 -0.09465771 -0.075256184
-0.09043919 0.1483317 0.0051536625
0.0027394546 -0.115679905 0.11986302
-0.087703265 -0.18912718 -0.06436834
-0.06791829 0.022933427 -0.0452231
0.23589073 0.009113048 -0.06962105
0.20221873 -0.113744326 -0.14774036
0.039445635 0.29943904 0.17063947
0.121468626 -0.10280412 0.026565395
-0.17820476 -0.03953842 0.07495092
-0.15169789 -0.0098959515 0.017859817
0.23402356 0.09589279 0.0006897154
0.1800277 -0.050854277 -0.11763684
0.15023112 -0.19301401 -0.21492524
0.011819537 -0.14580786 -0.1409005
-0.0191899 0.26039115 0.1806887
-0.10399279 -0.1532984 -0.06967211
0.28536952 -0.082717925 -0.10399619
0.12926912 -0.030817553 -0.050203655
-0.15757522 0.021335049 0.047798477
0.18277992 -0.112504736 -0.10704171
0.09872361 0.12807278 0.0006185526
0.1096907 0.046956815 0.008252567
-0.034203194 -0.02191158 0.05730414
0.1943649 -0.2139248 -0.20616828
-0.18532573 -0.17900717 -0.09671563
0.1406786 0.2295536 0.08549652
0.055125255 -0.26947892 -0.14012614
-0.1910528 -0.11549223 -0.0043599852
0.010884943 -0.056185383 0.084148444
-0.20694919 -0.20441763 -0.055750154
0.11579787 -0.00653303 -0.022719413
0.0038627046 0.12650259 0.17411536
0.18486942 -0.19087327 -0.11306339
0.20801857 0.05327468 -0.065736964
-0.1788083 0.18748552 0.052373555
-0.1287056 0.0043447665 0.017042186
-0.1489567 -0.21504056 -0.05518251
-0.073228784 0.3089215 0.15940264
0.15257938 -0.11882997 -0.06225554
0.11061274 0.011655536 -0.08382314
0.29346272 0.021053249 -0.14841063
0.22411194 0.15544266 0.015668273
-0.09328808 0.28880405 0.18234909
-0.26812 -0.1397543 -0.06843405
0.19299631 -0.16675381 -0.28557485
-0.12911184 -0.00744589 0.026573887
-0.13845761 -0.2689566 -0.14972536
-0.18137191 -0.29473734 -0.1490155
0.05880567 -0.1772336 -0.012245066
-0.000563023 -0.28220943 -0.16558346
0.19407688 -0.16446728 -0.12335107
0.059038155 0.09913437 0.06964039
-0.08640252 0.1653959 0.07627284
-0.23032685 0.086034484 -0.028478866
-0.13877746 0.3729302 0.16428754
0.037958987 -0.24338752 -0.10559504
0.048301186 0.25694212 0.09201404
-0.087046415 -0.120187975 -0.14274123
-0.05789826 0.15424353 0.13815735
-0.016593186 0.2381516 0.23008269
-0.16691294 0.30211446 0.15494388
0.16239811 0.1161983 0.034892984
-0.025474994 0.28551176 0.18609348
0.07629237 -0.09953197 -0.064669184
-0.031848777 0.3004991 0.22032748
0.07734704 0.1845218 0.10497716
0.08131382 0.21526572 0.084716454
-0.22930907 0.056733955 0.06794498
0.13616313 -0.09018396 -0.097162545
-0.19156799 0.05745942 -0.0048346906
-0.11283301 -0.2674537 -0.14711249
0.06820891 0.14298332 0.13207592
0.06351889 -0.17748326 -0.07214207
-0.21734616 -0.06758152 -0.005086422
-0.23458076 -0.13794513 0.018291183
0.007913289 0.104358725 0.024240592
-0.112637095 -0.11933258 -0.030320907
0.18036993 -0.017556274 -0.071627885
0.21649276 -0.049939826 -0.073931575
-0.29753977 -0.10796382 -0.019447172
-0.1884675 0.20128228 0.088078216
0.09183375 -0.00096638245 0.020434687
-0.17901963 -0.1579875 -0.07741075
0.0885773 -0.1664753 -0.11601062
-0.20205346 -0.09336809 -0.024843927
-0.06868156 -0.20530762 -0.113962606
0.09230639 -0.011709119 -0.046089742
0.0062930607 -0.039011717 0.09674594
-0.046884213 0.12324997 0.08500798
-0.15167412 -0.22667173 -0.12200603
-0.11851055 0.25636333 0.2121801
0.071219966 0.0941285 -0.021246742
-0.054062847 0.016607748 0.03441006
-0.124463655 0.11516896 0.039122313
0.12967175 0.122581735 0.10250468
0.009528215 0.21305625 0.18912204
-0.07259144 0.21745546 0.25161934
-0.06806658 0.21990642 0.07618939
-0.04572374 0.07728152 0.07756853
0.25362036 -0.13517675 -0.17721455
0.27279246 0.13781084 -0.03617235
-0.12489878 -0.060270775 -0.005764857
-0.018513285 0.26816383 0.17263964
0.17454588 -0.07540154 -0.035346717
-0.17133331 -0.11609567 0.0160134
0.13240711 0.04351114 -0.081078924
-0.06353658 0.12648633 0.07333093
-0.06586422 -0.13060942 -0.15336372
0.017204428 0.17267218 0.10982706
0.0071646865 0.024640126 0.0045566307
-0.1417834 0.06714086 0.03748233
-0.13054915 0.2872724 0.1916569
-0.1616044 0.03463326 0.075183876
-0.26618764 -0.11251318 0.044386644
0.17903064 -0.17142689 0.049178224
-0.12801099 0.21160717 0.0641676
0.010168832 -0.27040008 -0.13117072
-0.06889106 -0.25766838 -0.1443367
0.057287984 -0.20292377 -0.123412736
-0.14744896 0.09524069 0.032274235
-0.04200187 0.17745687 0.2107614
0.10810518 0.018865358 -0.0028346865
0.1866622 0.19682275 -0.033925984
0.052157875 0.13088727 0.09145592
0.046894167 -0.15044574 0.025270602
-0.081979245 -0.049175028 -0.02544911
0.22611317 0.09009175 -0.1298853
-0.12059066 0.06105103 0.07491232
-0.15356581 -0.095470645 -0.05961591
-0.19949426 0.1416846 0.09472086
-0.019803792 0.05469659 0.024907757
-0.18878604 -0.18148737 -0.10443206
0.008111905 0.13582832 0.16469015
-0.010772177 -0.092462935 0.08747219
0.064484015 0.24201918 0.2133571
0.032845926 0.18853179 0.114176035
0.10454491 -0.026370501 0.077938445
-0.11789357 0.11724348 0.061823793
-0.2776942 -0.112307146 -0.059966795
0.22334336 0.22476242 -0.0510659
-0.027365072 0.1644935 0.15049763
0.060816184 0.14689136 0.119663544
0.16860676 -0.12682232 0.015507973
-0.20324606 -0.11343214 0.022721227
-0.1429815 -0.16795756 -0.00031490967
-0.09603667 0.0015172263 0.03555813
-0.09060227 0.15071356 0.1165257
-0.009756585 -0.09065725 0.016632877
0.27194366 -0.18494578 -0.14931472
0.08725105 -0.2085833 -0.16495553
-0.16336907 -0.24233545 -0.08437855
-0.07469024 0.37435654 0.13946243
-0.14544111 0.030432202 0.06285178
0.21272035 0.15039435 0.038071796
-0.21580176 -0.09643303 0.04147105
0.26972976 -0.00053109176 -0.08542948
-0.19285259 -0.1387441 -0.019233309
-0.18033634 -0.16490763 -0.055238135
0.0163133 0.25577688 0.11337276
-0.04494366 -0.17841467 -0.10387142
0.13099326 0.21343109 0.027896013
-0.21084297 -0.1647232 -0.01656209
0.05651024 0.029887028 -0.03526065
-0.10878174 -0.15577397 -0.023116797
-0.14987472 -0.2378709 -0.092590384
0.017170653 0.19650805 0.2058012
-0.20293103 -0.034186125 0.036712103
-0.12122824 0.22194579 0.22255605
0.054047536 0.14312723 0.062457673
0.12390011 0.012146867 -0.061329942
-0.011054724 0.052196346 -0.0007375562
-0.0656131 -0.05215673 -0.04217186
-0.19121179 0.018098947 0.055803508
0.041373536 0.08335364 0.10027067
0.05221698 0.06894406 0.0010153336
0.13513404 -0.061807152 -0.065086916
-0.017151967 0.28563243 0.21065173
-0.13546327 -0.17656569 0.02097614
-0.008437898 0.089903034 0.050296433
0.23488295 -0.07105687 -0.088563256
0.116859734 -0.102130674 -0.15716074
-0.18946868 -0.04030922 0.010595957
0.280399 0.0067916876 -0.17027268
-0.15868066 0.0782198 0.09824619
-0.072575964 0.34560972 0.15627056
-0.14678131 -0.016628178 0.08825558
-0.2727444 -0.07899747 -0.008173726
0.12034364 0.17974928 0.02758435
-0.0538376 -0.023249066 0.025754727
0.30728546 0.04949087 -0.19517988
-0.02270877 -0.15890218 0.06369198
-0.1915022 0.30051473 0.25475222
0.20273423 -0.03783154 -0.08185116
0.004161407 -0.11997264 -0.032318898
-0.028916221 0.17253137 0.14424776
0.08869531 0.039037894 0.0022211734
-0.13163736 0.007467439 0.02552044
0.20053968 -0.13975033 -0.18243845
-0.07872389 -0.19099978 -0.024519295
-0.1496216 0.1850563 0.06304008
0.1754558 0.09116686 -0.026446475
0.23544194 -0.0610168 -0.10075703
-0.07794846 -0.16236822 -0.13496567
0.12922283 0.2554551 0.038792294
-0.131734 0.04353253 0.0073399753
-0.18789119 -0.055033654 -0.021724373
-0.2091083 -0.09509214 -0.018039793
-0.12716934 0.32813984 0.11334664
-0.21617083 -0.019515071 0.012266453
-0.091730766 0.22068098 0.07044111
0.08486638 0.023405956 -0.016869195
-0.2504102 -0.22884183 -0.033357743
-0.07946229 -0.06690515 0.05237022
-0.11861905 0.13947834 0.08519898
0.06821994 -0.022647347 0.13974373
-0.037841234 -0.3055215 -0.16772586
-0.13337567 -0.2123171 -0.1015469
0.123675585 -0.17793612 -0.012690944
0.20609446 0.004105878 -0.027530683
-0.1298921 0.32738066 0.13028708
-0.009901664 0.30526352 0.25603583
0.041494325 -0.21166521 -0.01529672
0.21852836 0.17295265 -0.07679636
-0.15096459 -0.13965283 -0.10374273
0.26436362 -0.038315214 -0.19085164
0.11867865 0.25180653 0.0044688303
-0.030841192 0.30749655 0.2626501
0.15414517 -0.08484351 0.025788588
0.08500687 0.17498249 0.09436516
0.04538674 -0.21465132 -0.22131835
0.020212155 0.28070575 0.18417226
0.17847663 -0.19610706 -0.1932216
-0.116051875 -0.2172875 -0.086621374
-0.15566346 -0.24704872 -0.13577873
-0.07357085 -0.11487034 0.003993941
-0.046207048 -0.019673891 0.021953192
0.0743757 -0.17977336 -0.024297567
0.020743273 -0.22088547 -0.028087875
0.24190442 -0.15308475 -0.25106767
-0.110825576 -0.23124063 -0.15181072
0.26653126 0.13174827 -0.091697164
0.23905759 0.046044517 -0.10861998
0.043968454 -0.14533798 -0.07438118
0.059036814 0.24589802 0.019085698
-0.04149744 0.30841327 0.21811031
-0.23593552 0.09815555 -0.03318658
-0.11234095 -0.015485008 -0.029613962
-0.10969919 0.23717764 0.24159093
-0.13885893 0.10325308 0.04236417
0.16987248 -0.10510662 0.0510504
-0.045986623 -0.13857424 -0.081914335
-0.17594106 0.2884521 0.12048351
0.120688096 -0.16398098 -0.051281236
-0.13684349 -0.0055375015 0.07021355
0.10990315 -0.26958147 -0.17350614
0.15337789 -0.2579797 -0.2661058
0.26901335 -0.15875679 -0.2160341
0.22116335 0.10618693 -0.11248812
0.03382676 -0.28307465 -0.22966377
0.023401944 0.32225236 0.18336049
-0.11848537 0.20285985 0.21286894
0.09489146 0.07135773 0.057790216
-0.15439746 -0.22879903 -0.08727872
-0.15186441 0.066011906 0.027351346
-0.15501831 -0.31600234 -0.14567333
0.0038386995 -0.1846771 0.026435226
0.008561508 -0.21153305 -0.0034914042
0.00759628 0.14749348 0.16088696
-0.09316608 0.34179068 0.113041475
0.07206258 -0.28453836 -0.12319496
0.15448053 -0.019964933 -0.01845258
-0.17019328 -0.047212612 0.022648204
0.01528473 0.22596304 0.2164681
-0.12821782 0.025658198 0.0047055734
-0.17723764 0.13078047 0.002894284
0.26011023 -0.108226076 -0.20698836
-0.06511121 0.111532226 0.016927063
-0.10452219 -0.077139065 -0.020255677
-0.17692854 -0.2383634 -0.13975051
0.20779759 -0.226932 -0.20150925
0.23518042 0.13869691 -0.03202372
-0.13322216 -0.27466613 -0.1683517
-0.1205985 0.0063721463 0.03736663
0.17292994 -0.1255501 -0.14139645
-0.12902264 0.27649528 0.28830963
0.19928528 -0.13949198 -0.11844304
-0.07339965 0.25532943 0.11843006
-0.17309096 -0.13023575 -0.025452428
0.104540065 0.2597611 0.07546564
0.028295686 0.25229952 0.18120328
0.03789565 -0.2254551 -0.26401803
0.2021929 -0.046831623 -0.11763061
0.22888228 -0.11590386 -0.14867824
0.24980487 0.1385201 -0.09616651
0.22474961 0.019482313 -0.065429874
-0.055627957 -0.1795349 -0.022655133
-0.15806045 -0.1810066 -0.09979226
0.21154161 0.09674742 0.014464265
0.011410372 0.16425733 0.14441305
-0.13347177 -0.25225613 -0.01567198
0.051071387 -0.020354943 0.10305191
-0.26223516 -0.2167196 -0.102651164
0.09752824 -0.12763205 0.02003185
-0.03275297 0.06917362 0.013561515
-0.18009597 -0.014772813 0.08270314
-0.15566257 -0.12825045 -0.07426718
0.124009594 0.17742518 0.020989362
0.21582173 -0.14373854 -0.13773642
0.11773112 -0.0936145 0.07451133
0.12336158 0.11532138 0.032880574
-0.11006144 0.23391457 0.01617494
0.10911917 -0.23278214 -0.25250313
0.00094515254 0.03332578 0.019476991
0.008643747 0.05574316 0.03634414
-0.15573816 0.05080044 0.047421657
0.26944458 -0.020315588 -0.19829123
-0.029812895 -0.01996484 0.02085663
-0.08382401 0.088358454 0.024350086
0.15786166 -0.15201096 -0.11848778
-0.011991956 -0.3462285 -0.17281803
-0.024010563 -0.123540655 0.013832088
-0.18087167 -0.13971344 0.011919823
0.13438942 -0.0068881284 -0.076077335
-0.16430771 0.17815128 0.10695108
-0.15233131 0.010839557 -0.0028703967
0.015544049 -0.08624439 0.07718941
0.008508372 0.20855248 0.20752844
-0.06574284 -0.274602 -0.0938281
0.17413783 -0.066930905 0.032147083
0.21761851 0.051688768 -0.03777677
-0.20087962 0.088806115 0.08386734
0.21533008 -0.059016254 -0.023516782
-0.023205495 0.09078432 0.09507429
0.18038715 -0.076405786 -0.084182195
-0.3200139 -0.06220637 0.0035585994
-0.16961856 0.0682619 0.015933575
0.095318496 -0.018312208 -0.013847833
0.25256133 -0.10955538 -0.19173074
0.14341643 0.018267127 -0.0077146916
-0.09842401 0.21816076 0.06935205
0.023088155 0.14019339 0.1874674
-0.066108525 -0.0012353357 -0.0041976543
0.050467514 0.1717371 0.14157641
-0.07572562 -0.13214485 -0.06936479
-0.246796 0.050990045 0.037127856
0.16113007 -0.092050314 0.054429468
0.1120506 0.18921828 0.075209044
-0.1154027 -0.084623076 0.07030157
-0.070993386 -0.008421443 -0.000111939444
0.25872838 -0.015216497 -0.1703172
-0.15146473 0.15671784 0.17379636
0.2141137 -0.1811751 -0.13989103
-0.2509265 -0.0010724503 0.066173546
0.22518824 -0.024625279 -0.072817765
-0.16255121 0.046721987 0.103338264
-0.04798115 0.24967131 0.23698105
-0.041254345 -0.1533226 -0.0740135
-0.0042423652 -0.17330147 -0.04420176
-0.026934382 -0.18566833 -0.0697775
-0.03850997 0.11770933 0.048504684
-0.016227365 -0.1139253 0.063158445
-0.083700866 0.27413788 0.1062435
-0.12497651 -0.29126227 -0.17346382
0.07554459 0.20506912 0.09086645
0.0669131 -0.19925769 -0.0061707227
0.084514685 -0.04996411 -0.106837995
-0.05976218 0.13080436 0.037193578
0.09600277 -0.13369696 -0.05027459
-0.20707965 0.13683267 0.096333474
-0.17337614 -0.094022736 -0.023793945
-0.18987875 -0.17836133 -0.021387303
-0.042593658 -0.0591947 -0.07899051
0.037337255 0.041259624 -0.029313847
-0.034166 -0.031240083 -0.019083805
-0.1997068 -0.11424301 -0.045596614
0.16975924 -0.14555413 0.013276214
0.039301045 0.0029134427 0.021959541
0.07702751 0.24686803 0.09889426
-0.0076072887 0.122611605 0.028634591
-0.072953746 0.117833495 0.03927906
0.14741386 0.18759345 0.013476193
0.10622105 0.062061783 -0.06516182
0.0878584 -0.055899184 0.020350898
-0.040002488 -0.13059062 -0.10837306
0.032379925 -0.11479761 -0.0671428
-0.13596575 0.098382324 0.05389536
0.22815752 -0.12584078 -0.1786827
-0.16286092 0.25696132 0.22639757
-0.24020156 0.13634999 0.08292947
-0.07202076 -0.011790534 0.020578315
-0.16703303 0.002257822 0.08175363
-0.24728854 -0.026571399 -0.017669374
-0.07084285 -0.03318428 -0.029749436
0.029580595 -0.2188117 -0.15308861
-0.039521985 0.14177501 0.09800594
0.25814137 0.15350497 -0.0052029146
-0.017800482 -0.1633928 -0.09860872
0.21956621 0.17086183 -0.007234093
0.031882722 -0.062264662 0.06813854
0.019138623 -0.1396335 -0.054797817
0.07002 0.04105077 0.0615238
-0.21681146 -0.20212606 -0.06356243
0.29214063 -0.1561516 -0.17446531
-0.14744495 0.08377288 0.06319347
-0.20894583 0.008321682 0.03767636
0.21272534 0.1329121 0.023202443
0.07654495 0.014663395 0.009009459
-0.24985363 -0.17143299 -0.053552747
-0.1575425 -0.19105758 -0.076811194
-0.19259113 -0.14614528 -0.06999315
-0.16840973 0.06711822 0.031453196
-0.0927119 -0.1757134 -0.112295926
-0.11462734 -0.12547663 -0.057944063
-0.028762195 0.24555185 0.26989782
0.05931282 -9.065356e-06 0.02953715
0.2692507 0.098644726 -0.06626672
-0.1252855 0.28073582 0.16837987
0.0020211018 0.28258404 0.14820516
0.1295097 0.13778342 0.05347062
-0.20173417 0.17214338 0.07984654
-0.08871093 -0.0031101836 -0.0051663206
-0.012403894 0.31880084 0.20298856
-0.13800469 0.16379873 0.14178078
0.2824997 0.077646665 -0.09405833
0.18237646 -0.009024227 -0.0461628
0.1283391 -0.06979033 -0.045992203
0.14104646 -0.04021782 -0.045649868
-0.050242703 0.18135473 -0.005030626
-0.0048976326 0.18029751 0.11704471
0.09596746 0.13441393 0.14233536
-0.022830991 0.1744456 0.14099608
0.12275466 0.20370647 -0.014135373
-0.033367563 0.20928694 0.23116973
0.0019349856 -0.2927194 -0.1065563
-0.08808935 0.11150383 0.09242254
0.054442648 0.16099472 0.1908419
0.2517665 0.09153622 -0.033768293
-0.053338703 0.002063052 0.010291162
0.19635153 -0.02497724 -0.020920334
-0.1203272 -0.0871096 -0.08874622
0.17170167 -0.057996344 -0.01852562
-0.03349654 0.07994372 0.05201381
-0.04477306 0.07795584 0.108174235
-0.10892263 0.12793535 0.04340864
-0.25275913 -0.16526155 -0.055845942
-0.04242392 -0.21386944 0.010595206
0.28584507 -0.058214564 -0.08633846
0.16759838 0.055602703 -0.055232227
-0.007554991 0.30255055 0.21353744
-0.29156354 -0.10845473 -0.0042649293
-0.14692871 -0.14411853 -0.029923914
-0.19065793 -0.11033287 -0.019758197
0.22345933 0.027570603 -0.018460793
-0.016332109 0.3481122 0.20713143
-0.15189126 -0.2922124 -0.19432816
0.2549997 0.09728932 -0.070317894
0.05877935 0.07302283 -0.008494493
-0.2569185 -0.032810118 0.015607685
0.2469038 -0.021708675 -0.13669585
0.005559936 0.0014387588 0.044982295
-0.1957658 -0.11375892 0.00053449953
0.25298843 0.010048951 -0.13444306
0.11010035 -0.14164475 0.016603837
0.098676234 -0.121767126 -0.037074607
-0.16127217 -0.0027049955 0.057449266
-0.015348 0.114798926 0.026084859
0.22538003 -0.0052245003 -0.088513196
0.072725065 0.26209202 0.1546886
-0.00054516084 -0.22886063 -0.09450827
0.054548953 0.23365223 0.20608538
-0.096117355 -0.19813375 -0.12546326
0.14198641 0.04564175 0.01744654
0.016862644 0.31433284 0.23796815
-0.10177693 -0.15784816 0.014661675
-0.04480012 -0.10936917 0.06109063
0.16580673 0.20892122 -0.0008491643
-0.079493016 0.037136868 0.06657183
0.1363437 -0.014105414 -0.082220964
-0.0131536815 -0.10072219 -0.077645585
-0.2266307 -0.079674326 -0.053886276
0.25848785 0.044952992 -0.013808503
-0.062437583 0.2339807 0.18747924
0.043508142 -0.17108504 -0.08663833
0.2368599 -0.23260315 -0.19597137
0.14268832 -0.13168491 -0.025591755
0.124163836 -0.19113553 -0.14131197
0.2855949 0.030548496 -0.0894906
0.173326 0.15986499 -0.05276466
-0.07316282 0.24996513 0.2187555
-0.260245 -0.065932 -0.015532936
0.03222009 -0.07452512 0.097148664
-0.12583598 -0.17142019 -0.009239346
0.24295592 -0.075958885 -0.1265118
-0.02925541 -0.20329732 -0.10382271
-0.0061928104 -0.293761 -0.05705408
-0.0130948 0.3096199 0.26330656
-0.27387422 0.011874462 -0.004971624
0.28674242 0.1168736 -0.118407816
0.19053474 -0.040248882 0.012788849
0.081014 0.0815023 0.007345549
0.1538086 -0.22191611 -0.165238
-0.15156287 -0.09865603 -0.0033914107
0.1744706 -0.027508203 -0.13089254
-0.026778728 0.08523841 -0.017320499
0.107022606 0.03303845 -0.03849212
0.25044197 -0.10175494 -0.10659302
0.16002975 0.23997621 -0.01872083
-0.19225839 -0.11256166 0.01829585
0.074890286 0.25655568 0.04230036
0.10781766 -0.028207963 0.034405205
0.08179275 0.06758965 0.030325128
0.10090053 0.20372927 0.058366396
0.18454741 0.10416178 -0.09885453
-0.044568487 -0.05109932 -0.06014561
-0.26029456 -0.17827767 -0.035054393
0.17964464 0.11752038 -0.030077176
-0.013334681 0.24671763 0.17478584
-0.035262726 -0.15331474 -0.026872737
0.14730011 -0.22320107 -0.16171488
0.119383685 0.13527821 0.06125589
0.056292128 -0.17287701 -0.08396924
-0.21468912 0.073412046 0.077683896
0.060218506 0.1392253 0.07690384
-0.10772944 0.0038812156 0.06304973
-0.038159285 -0.080192015 0.08480721
0.031329896 0.17396577 0.121334836
-0.0015610121 0.094228536 0.010940013
-0.11192842 -0.15264866 -0.059142735
-0.15422946 0.13893202 0.063485906
0.14709343 -0.08699231 -0.03999247
-0.2600636 -0.05866006 0.0057507115
0.1334273 -0.22721907 -0.16649753
0.15993057 -0.18615186 -0.18022336
0.030958273 0.06530489 0.030810656
-0.2092217 -0.08129378 0.04890922
0.099631675 -0.19730213 -0.14370799
-0.0836043 -0.02741015 -0.041035935
-0.054165993 0.2935245 0.19573146
-0.08742764 -0.075877 0.027383558
-0.11011201 -0.20910323 -0.10948791
0.04636465 -0.02952952 0.025099196
0.1910562 0.24867268 0.026204256
0.064288795 0.04923398 -0.013383537
-0.14003105 0.28588125 0.20364639
-0.090887554 0.11186906 0.025794752
0.26670367 0.069246836 -0.07907877
-0.12344203 -0.04599481 -0.030480446
0.2502351 0.21321267 -0.032476474
0.15179898 0.21162267 -0.04575201
0.10888346 0.15676138 0.06667577
0.2659168 -0.13888454 -0.18968986
0.13348944 0.10530989 0.039686203
0.19744515 -0.14541587 -0.13579851
0.01740052 0.18889304 0.14165816
0.078076825 0.22477868 0.09231211
0.16501571 -0.05051881 -0.07952361
-0.10380546 0.019627003 0.018038265
0.10131511 0.16250312 0.06952255
0.1921289 -0.17852636 -0.302486
-0.1804445 -0.18457888 -0.033746745
0.07486166 -0.24673598 -0.16728495
0.119086295 -0.15394364 -0.11395418
0.17079738 0.121262714 -0.009873325
-0.0019356774 0.26346678 0.19623658
-0.051328912 0.14339145 0.2107164
0.17684323 0.17902097 0.008806427
0.12377022 0.14685115 -0.0021644975
-0.16534838 0.07180898 0.03074183
-0.20507038 -0.0069961958 -0.002208152
0.18198258 0.12734464 0.014823991
0.23025861 0.031959135 -0.10401195
-0.25392902 -0.22455236 -0.052852754
-0.2097382 -0.026308859 0.011304704
-0.013668364 -0.21614242 -0.11489313
-0.03103398 0.20920196 0.15339123
0.21376336 0.035050265 -0.06572717
0.12761079 0.2259217 -0.03883653
0.011070563 0.18144915 0.19614859
0.2869517 -0.02656228 -0.13255554
-0.15799434 0.10245482 0.019900981
-0.06752833 0.18530506 0.079067774
-0.1644942 0.00042323978 0.040418398
-0.07200069 -0.02354733 -0.00025914892
-0.045405027 0.27321002 0.15464738
0.22636192 -0.13287029 -0.112680435
0.055746347 0.24033108 0.1792163
-0.038842455 0.13701442 0.02035594
-0.010158301 0.32970005 0.23563458
-0.06058667 -0.13651475 -0.06400559
-0.20621452 -0.24873134 -0.07764729
-0.047566157 -0.049227275 0.03409443
-0.09095057 -0.30773816 -0.16736613
-0.112385474 -0.12671995 -0.08504862
0.035329275 0.065128714 0.0033657963
-0.084511474 -0.08084024 -0.036961816
-0.051947374 0.1825534 0.195219
0.029645564 0.004086149 0.07432755
-0.23525088 -0.22834745 -0.14436848
-0.23715045 -0.065281965 -0.023064122
0.27856916 0.10407803 -0.069317654
-0.017504957 0.021465695 0.015814893
0.054543152 0.23884845 0.20989808
-0.13748986 -0.19583645 -0.047915887
0.17516215 -0.09097697 -0.04986682
0.09308199 -0.18268478 0.0011503918
0.17360541 -0.15372641 -0.08198063
-0.11493429 0.21343324 0.23078963
0.23990656 -0.056157168 -0.15396127
0.08001766 0.04766632 0.024894275
-0.10831946 0.26346204 0.1893016
0.057025224 0.056360584 0.04194249
0.22682244 0.16915826 -0.023566527
-0.09855485 0.20293507 0.079582766
-0.08427153 0.14585479 0.081118196
-0.20212531 -0.25423542 -0.10233993
-0.11775422 -0.02410742 -0.018253986
-0.13379219 -0.03775692 0.082814835
-0.12422418 -0.04460114 0.008510483
0.09828121 -0.2001272 -0.1256203
0.034921084 -0.22177768 -0.17462356
-0.23456743 0.14762259 0.042962544
-0.25921884 -0.041397326 -0.030480228
0.0519195 0.13332902 0.1571719
-0.15658091 0.06866145 0.110531524
-0.26281485 -0.1638812 -0.020559702
-0.004235858 0.092087686 0.069392666
0.17797942 0.022129674 0.0014802564
-0.19151463 -0.22036842 -0.043971833
-0.08545038 0.27601463 0.23418748
-0.010013936 -0.1824581 0.035352737
0.22966476 -0.1220533 -0.073634505
-0.18253191 -0.21961491 -0.059218317
0.19884285 0.23324476 0.0050105215
-0.06845715 0.24548534 0.17121902
-0.17883927 0.07521277 0.0830153
-0.069620535 -0.04346756 -0.07288375
0.11265722 -0.10914295 0.033663496
-0.17452462 -0.031011762 0.019585725
0.12349464 -0.048095938 0.101636626
0.05365907 0.04523634 -0.0055467063
-0.10333365 -0.084676415 -0.073323585
0.033906523 0.18218525 0.22475348
-0.080241375 -0.17653474 -0.06524403
0.08046213 0.014986772 0.019290661
0.061301008 -0.19848965 -0.042398736
-0.07740425 -0.20004702 -0.07042696
0.23979501 0.10338651 -0.048350994
-0.042540554 -0.119317 0.02734132
0.16236344 -0.015221248 -0.037144132
0.15748554 -0.052907776 -0.073636115
-0.069404945 0.0361645 0.021175597
0.044671316 -0.23787741 0.03440289
0.18595017 0.14690702 0.030027762
-0.02446291 0.13043645 0.17158972
0.21928933 0.13309875 -0.009483079
-0.037337918 0.09037141 0.07456736
0.027874414 0.14714742 0.14520565
-0.19669752 0.06056013 0.052845962
0.019302083 -0.02605728 0.09230485
-0.055547383 -0.19651045 -0.12366597
0.16084509 0.23154062 0.010400464
-0.051897585 -0.095724106 0.06659232
0.095529385 -0.027409656 -0.13366538
-0.0109716235 0.19505972 0.18803413
-0.13205144 -0.119055115 -0.04252023
-0.21907325 -0.089875676 0.032702066
0.02455737 0.24363302 0.22228433
-0.17147148 -0.179788 -0.018914508
-0.014067652 -0.22249116 -0.09619864
-0.23112306 0.016848948 0.011085081
0.1389285 -0.26099172 -0.12251907
-0.01957575 -0.10775473 0.013913617
-0.23643978 -0.020135397 0.06369113
0.213347 -0.1725546 -0.15996751
-0.17340177 -0.25799116 -0.10787421
-0.0989371 -0.18069506 -0.056826204
-0.063038684 -0.19069807 -0.09967103
0.20648125 0.11387211 -0.03599627
0.271316 -0.013235405 -0.0713873
0.11941325 -0.10829165 -0.09034807
-0.12274957 0.024785448 0.052543942
-0.177591 -0.19155242 -0.013016872
-0.068052374 0.10380595 0.024821315
0.019001678 0.11169859 0.11692198
-0.15739779 0.12670694 0.10754372
0.13048157 -0.110954106 -0.07520672
-0.08510579 0.066843376 -0.0028014162
-0.12161567 -0.17302842 -0.00082002964
-0.0022448183 0.011382006 -0.029858569
0.0073269717 -0.2931499 -0.10185861
-0.039765168 -0.14288966 0.047635425
0.2502177 0.0480111 -0.1251046
0.12494967 -0.042092804 -0.063787945
-0.0019841946 0.03402952 0.015799847
-0.10054481 0.21259187 0.22153099
-0.29515356 -0.05333238 0.03514983
-0.1582231 0.11596178 0.06209841
0.0042123445 0.049784735 -0.004237881
0.059254777 0.24876659 0.23329748
-0.2803 0.0040508 0.08976133
0.122438416 -0.14498816 -0.14681567
-0.14748938 -0.19983444 -0.11270724
0.1983032 0.22517514 -0.03588967
0.062025484 -0.2086917 -0.06021377
-0.17010422 -0.13792604 -0.04984885
0.20214057 -0.093627095 -0.091165625
-0.1036857 -0.077239044 0.0002893014
0.18107826 0.05835572 0.0028336663
0.24651214 -0.14682716 -0.17961963
0.16393788 0.20064345 -0.021444472
-0.1197373 0.14068304 0.08862547
-0.12046708 -0.26549506 -0.13058096
0.26431674 -0.038905293 -0.12855512
0.07921617 -0.10659496 -0.060415484
-0.011427713 -0.2929555 -0.17363925
-0.08977889 0.17867632 0.079746015
0.012354817 -0.05794068 0.018321222
0.08179678 -0.25888842 -0.19187635
-0.05314768 0.04536466 0.016106008
0.27475944 -0.039264448 -0.13734663
0.17524868 -0.046628095 -0.054348525
0.1354019 -0.18932691 -0.1825302
0.21125343 0.059982575 -0.029039206
-0.13930713 0.14427975 0.07627155
-0.21634251 0.16217363 0.09316995
-0.18659718 -0.0011444043 0.035806354
0.08466041 0.11184198 0.12231296
-0.039442565 0.25233603 0.25723654
0.018352415 -0.07145475 0.114228636
-0.03124571 0.13767415 0.18818791
0.19645299 -0.09420368 0.03669314
0.13131063 -0.021675514 -0.010863439
-0.21371911 -0.2214776 -0.14320907
-0.2170771 -0.0013416974 0.0557909
-0.11673586 0.21638522 0.26144978
-0.17028916 -0.04317205 0.01937419
0.19642422 -0.071889505 -0.15616189
0.036763396 0.18329276 0.12970103
0.021571523 0.30057308 0.15382558
0.08761605 -0.22781897 -0.16165744
-0.011068979 -0.055819675 0.06946138
-0.09395164 0.20213023 0.11917726
-0.20799647 0.10754201 0.035668563
-0.24897188 -0.16410582 -0.01663822
0.046536542 0.0712638 0.001133731
-0.12755437 -0.2033595 -0.046056338
0.2624738 -0.02864118 -0.13615784
-0.085390896 0.29816338 0.12305663
0.028932367 0.095719844 -0.025016446
-0.2155056 -0.107433796 -0.045227416
0.07255966 0.03493488 -0.021884067
0.31339508 0.049016405 -0.10699942
-0.09767072 -0.16041152 -0.10945145
-0.10685665 -0.0026222034 0.04132378
-0.043781962 -0.15642738 0.023187846
0.06443806 0.18715958 0.18860474
0.2638966 -0.018271359 -0.12940387
-0.0260069 0.23244512 0.20992951
-0.17094225 -0.12842293 0.024789063
0.110598326 -0.04421468 0.025036234
0.07401856 -0.21777253 -0.03948396
-0.16328987 -0.052732218 -0.007410374
0.06565452 0.001865114 0.07470179
0.02667716 0.25058064 0.18612006
0.2061011 -0.16075812 -0.22685812
0.03415557 -0.17667721 -0.110945515
0.19216616 0.17067137 -0.034246877
0.024188261 -0.06897999 0.14220883
0.090407655 0.1373218 0.024044158
-0.076469176 -0.09633181 -0.018358048
-0.07597983 0.07031886 -0.030949356
0.08513343 -0.024146067 -0.049507737
-0.05279092 -0.28067753 -0.06500552
-0.18330012 0.046452492 0.015755953
-0.0928365 -0.15320408 -0.041330867
-0.021011699 0.077259615 -0.007246057
0.033169493 -0.30676815 -0.17935954
0.03403993 -0.0059951073 0.010454545
0.05157446 -0.1776116 -0.11673922
0.089044936 0.04913428 0.031723194
0.1493789 0.13610247 0.041078646
0.06610856 0.08369269 0.039447684
0.1457643 -0.0138334595 -0.0068987836
0.09729742 -0.13325548 -0.06130584
-0.08473457 -0.1487028 -0.017563114
-0.022814361 -0.29853222 -0.17718281
-0.06317857 0.01890042 0.034318484
0.05525299 -0.118415885 -0.016567536
0.14715244 0.09600403 0.09290146
0.056086976 0.059900545 -0.053460244
0.20874506 -0.19347794 -0.26918852
-0.055450536 -0.17767203 -0.08659537
0.23123324 0.096123464 -0.0020908606
0.28514913 -0.018781895 -0.13940315
0.28208905 -0.13052368 -0.12722209
0.2022445 0.18263192 -0.021829378
0.28405285 -0.007289747 -0.096044056
0.2123743 -0.18350153 -0.17610775
0.05421111 0.005323811 -0.16770187
-0.24188106 0.05916222 0.05580295
0.29710194 -0.11659404 -0.19619748
0.14194079 -0.09902892 -0.0923381
-0.06092371 -0.28233266 -0.11914874
-0.22009942 0.06016358 0.09977209
0.2743762 0.023919411 -0.062086698
-0.07523926 0.20313963 0.13952777
0.20765701 -0.025062552 -0.055766482
-0.20568812 0.018515425 0.09414326
-0.28572503 -0.1451346 -0.034488168
-0.22591425 0.099374585 0.052160725
-0.24236877 0.18159269 0.07191936
-0.1854782 0.06563768 0.03062358
0.05894794 -0.2983931 -0.15604018
-0.14475867 0.32683167 0.17626733
0.019144446 0.18791631 0.13770378
0.16963856 0.07459966 0.08898372
-0.16709451 -0.053055584 0.05612278
-0.22765777 0.04409162 0.05677354
0.03554479 0.25072202 0.16313246
0.14561962 -0.03400775 -0.121678345
0.08417163 0.25589213 0.15360425
-0.07334726 -0.11038813 -0.0031003365
-0.052491266 0.17905194 0.2283983
0.14155135 -0.118208125 -0.04037561
-0.18530087 -0.14878134 -0.06972109
0.041027565 0.23731168 0.16166215
-0.072967924 0.15591477 0.18283713
-0.04073609 0.2713154 0.24839725
-0.16065991 -0.047689892 0.059456874
-0.0046632336 0.23945735 0.22778514
-0.10401661 0.115798816 0.06613423
-0.12330179 -0.06477328 -0.01717418
0.13709323 0.037337504 0.026838448
-0.06719542 0.20700382 0.047069944
-0.07935271 0.006198859 0.05723532
0.025372032 0.034443803 -0.055297576
0.07946561 -0.30346882 -0.25123227
0.18844931 -0.11805689 -0.023168229
0.15037313 -0.037446555 -0.1056801
0.15578076 -0.1647968 -0.09293451
-0.15873404 -0.2692251 -0.122163445
-0.04915097 -0.042407893 -0.027615007
0.004679134 0.09919897 0.09214134
0.22560763 0.021610819 -0.14032385
0.26367736 -0.13881187 -0.23118614
-0.037982292 -0.23448695 -0.13884129
-0.03642275 -0.27653387 -0.11794873
-0.05413571 0.18216905 0.116494626
-0.16925895 -0.15011492 -0.011238145
0.30036867 0.09532608 -0.13728526
-0.079225525 0.21512473 0.28571966
-0.20579366 -0.047910355 -0.026973164
0.10264469 0.047641225 0.075437345
-0.02707261 -0.20177054 0.03802231
0.21874844 -0.1433731 -0.16537617
-0.2069791 -0.050284117 0.043352917
0.24762873 0.08224881 -0.07730583
0.018943997 -0.28749147 -0.19205037
0.18187128 0.05033838 0.05455432
-0.10288349 0.1453221 0.059957694
-0.04235633 -0.09595517 0.014203301
-0.044353537 0.32364967 0.19017987
0.20029838 -0.09245511 -0.13673897
0.10417177 -0.06322055 -0.13588913
0.08145796 0.25616056 0.090094306
0.012494245 -0.043157924 0.13608596
-0.10502515 0.24428435 0.15249778
0.08924896 0.023705725 -0.03260268
0.077411726 0.20634611 0.18440916
0.015699321 0.19074067 0.20468998
0.046209242 -0.23450781 -0.009512722
-0.1163737 0.011463277 0.092806846
0.27139926 0.06564304 -0.0766642
-0.09091711 -0.07267187 -0.054558072
0.31499478 -0.041628886 -0.18749133
0.14197461 0.18133199 -0.04566088
0.070259094 -0.2991309 -0.2066986
-0.008206273 0.00048489144 0.021442892
-0.18637712 -0.0782923 -0.010651955
-0.14862134 -0.16183 -0.03906622
0.10944233 0.2789049 -0.0020964853
-0.08142755 -0.2722719 -0.16509804
0.20317014 0.06525937 -0.0658174
0.16578804 0.19394916 -0.063496165
0.065313354 -0.2633368 -0.19761008
0.22675635 0.11768617 -0.012831133
-0.1896858 0.07619747 0.045799375
-0.2840426 0.031133153 0.0067863897
-0.05765165 -0.25091296 -0.118987784
0.06964395 0.060569547 -0.007859779
0.27084804 0.076362826 -0.07657624
-0.18391857 -0.19616221 0.026070092
-0.049472682 0.0677581 0.10922604
0.07344398 -0.25973016 -0.17519027
-0.21097033 -0.18004271 -0.0070086913
-0.024331426 -0.13591048 -0.1205441
-0.022182887 0.3363888 0.17908168
0.05933003 -0.24303615 -0.10609553
-0.16420321 -0.09314244 -0.018531637
-0.036211677 -0.07982015 -0.07287951
0.016803132 -0.020617494 0.08632245
0.18732876 0.18771335 0.06839262
-0.024518644 -0.059848648 0.038127474
-0.18722296 -0.22372018 -0.07410466
-0.11150283 -0.17998451 -0.058521025
0.034889698 -0.20029812 0.013854928
0.030389536 0.3334547 0.11766368
-0.10282115 0.0034578184 0.011417069
-0.20775868 -0.10722807 -0.040736344
-0.22690675 -0.009306572 0.067300834
-0.19636337 -0.058879748 0.05135494
-0.12197349 -0.050303385 0.03911178
-0.08231573 0.032853566 0.04680737
0.018583693 -0.071709 0.07351388
-0.23700352 0.06520478 0.092066176
0.2815164 0.08603979 -0.06568191
-0.08729737 0.13018222 0.06707794
0.07102075 -0.09572377 -0.14317736
0.16720374 0.032996763 0.0415758
-0.19775942 -0.0386697 0.07180165
0.09856701 -0.16899142 -0.10729434
0.02949197 -0.027072871 -0.02500165
0.16759151 0.11885265 0.01476291
0.19542183 0.0018669529 -0.09400315
0.09971717 0.007036252 0.058007255
-0.22303826 0.1534977 0.041077375
0.030614022 0.24028245 0.12476424
-0.12570421 0.04914846 -0.016959585
0.07088765 0.026868101 0.016216949
0.023550358 0.035384145 -0.04412069
-0.0747798 0.038395967 0.0014904555
-0.10752486 0.24156056 0.18956028
0.14540666 -0.18902633 0.006576187
-0.22914456 0.13056998 0.03788869
0.1222086 -0.089795515 0.015497187
-0.09348358 -0.15553413 -0.0695366
-0.055937216 -0.14645304 -0.023596078
-0.02472937 0.1800762 0.08043226
-0.21351767 -0.0042589684 0.046992343
-0.06354544 -0.10228421 -0.030714095
0.21745771 0.17452061 -0.011771053
0.121977665 0.057487234 0.056397412
-0.08932403 0.2059937 0.12647232
-0.0943054 0.08637916 0.046558287
-0.097592376 0.24471422 0.2192793
0.15892294 0.013198487 -0.026327077
-0.050657794 -0.21341935 -0.086990476
-0.18497127 -0.1574114 -0.08718805
0.06494031 -0.25815064 -0.10960547
0.19732255 0.061674867 0.0061086393
0.24312447 -0.21206436 -0.24688675
-0.046337366 0.1266406 0.085881256
0.090965174 -0.23204064 -0.14758389
