# .PCD v0.7 - Point Cloud Data file format
VERSION 0.7
FIELDS x y z
SIZE 4 4 4
TYPE F F F
COUNT 1 1 1
WIDTH 1000
HEIGHT 1
VIEWPOINT 0 0 0 1 0 0 0
POINTS 1000
DATA ascii
0.16950469 0.084746145 -0.018704608
0.12591782 -0.038333353 0.1475089
-0.08279623 0.19261996 -0.067655325
0.124466546 0.17284304 0.0066008987
-0.24303558 -0.15115966 -0.03376736
-0.22104742 -0.07320252 -0.16934963
-0.13846843 0.08068881 0.0728215
0.15925936 0.049913485 0.13255607
0.032791708 0.09958894 0.052950673
0.007747639 0.23368527 -0.024178712
0.1617778 0.020725109 0.032557458
0.10268027 0.24762726 -0.05091756
-0.10297227 -0.20287055 0.15910661
-0.20047949 0.12572257 -0.0027168654
0.12983736 0.25962326 -0.23780206
0.059594933 0.05641806 -0.01106534
0.077111416 0.13439015 0.0072967913
-0.16709699 0.14359559 -0.08349583
0.08842366 -0.06877727 0.048128337
-0.17989536 -0.111391686 -0.080886625
-0.13867156 -0.12944904 -0.0029086927
-0.053959146 -0.17486125 0.10352944
0.2461033 0.114200525 -0.033837385
-0.047755167 0.05586018 0.088463895
-0.16210964 0.06349894 -0.02392424
0.20990518 -0.12257519 0.019493422
-0.06894477 0.10259556 0.03283811
-0.12504128 -0.26998338 0.06278039
-0.097574495 0.21663629 -0.22572032
0.14887397 0.12602083 -0.024311742
0.31290498 -0.10846125 -0.0019914047
-0.106163815 -0.07159711 0.0023445017
-0.097258866 0.07466698 0.14408849
-0.042616546 -0.035770025 0.041976776
-0.120619245 -0.17062326 0.1066488
-0.16125192 0.051823635 -0.28532714
0.22888288 0.15299025 -0.0953629
0.10570115 -0.04019401 0.03288009
0.052687034 0.18626718 0.002104523
-0.15257804 0.0956404 -0.009644439
-0.13301891 -0.14432813 0.002458576
0.05459435 0.26049614 -0.006002623
-0.03455429 -0.098361045 0.059783082
-0.06138321 0.07923514 0.02977836
0.12717386 0.19784239 0.04245623
0.14171198 0.16009761 -0.049213234
-0.21245605 -0.058549765 -0.010888103
-0.2510922 0.079731666 0.0024572616
0.3052247 -0.050116144 -0.077380076
-0.097669974 0.21686368 -0.18146642
0.10251138 0.11786345 0.090208046
0.08535238 0.04247443 0.17053065
0.08588383 -0.13078265 0.068558045
0.046947442 0.16286175 0.03623883
0.28594428 0.022892749 -0.16848092
0.06537945 -0.09401341 -0.054069277
0.13893609 0.23742862 -0.15001948
0.17328128 0.19643587 -0.02668228
0.04625205 -0.23003963 0.13849212
0.07816041 0.00074259995 0.17291203
-0.32102412 -0.13921826 -0.021219084
0.13676651 0.18500094 -0.019297706
0.04173416 -0.109022886 -0.026130931
0.08523265 -0.16537866 0.13674368
-0.030610723 0.14257649 0.095421985
-0.23838468 -0.07967012 -0.21612431
-0.20325631 0.07967138 -0.027573003
-0.23455033 -0.043206032 -0.22784157
0.25090533 0.03184626 -0.20382169
-0.12295673 -0.17195971 0.022710536
-0.09524094 -0.062313136 0.073694535
-0.010215481 0.24915957 -0.0904974
-0.15138859 0.11649503 0.046762932
-0.17948687 -0.2009431 0.017737824
0.3667191 -0.028991042 -0.18571979
0.22392303 -0.014367296 -0.2712378
0.27532673 0.18076357 -0.006907817
-0.2874056 -0.103022866 -0.07628037
0.28395054 -0.115793966 -0.027035434
-0.17769684 0.04174789 -0.26126006
-0.09057669 -0.18651499 0.12301416
-0.27297598 -0.1658093 0.04534642
-0.15130068 -0.17104447 0.049932834
-0.19688942 0.21668755 -0.14831835
-0.03461994 -0.1661992 0.080169946
0.19748408 -0.031126587 0.022914259
-0.20947737 -0.07152363 -0.061575424
0.09468035 0.06478979 0.052163508
0.16593297 -0.20135371 0.060831305
-0.053126227 -0.2634584 0.10617138
-0.19949174 -0.14048743 -0.05834062
-0.035577327 -0.0023042127 0.057128716
-0.01840945 -0.19349734 0.15517135
0.12341406 0.12548283 -0.06614911
0.22950743 -0.16481277 0.050340395
0.0046068868 -0.12448052 -0.027081877
0.06641505 -0.23837109 0.16372268
0.21893536 -0.021726374 0.015061296
-0.17649908 0.03890536 0.017631602
-0.10870555 -0.12792398 0.047469977
0.10331777 0.13018182 -0.11574301
-0.20752455 0.08045618 0.075162195
0.19722044 -0.11292953 -0.012327549
-0.18061101 -0.08139815 -0.02196067
-0.07116388 -0.031584267 0.05356488
0.22068864 -0.050453372 -0.06596335
-0.050215952 0.014495035 0.17032833
0.2263699 0.09513064 0.04188268
0.013308672 -0.11073764 0.03236903
0.055406492 0.13550292 0.07340397
0.11700682 -0.14803039 -0.0090169255
-0.12219723 0.23203298 0.028767327
0.12414491 -0.08855272 -0.0059097926
-0.029732902 0.21331638 0.04215478
-0.19078909 0.08177215 -0.06943297
0.030390259 0.15870322 0.03592077
0.15874113 0.08494472 -0.014710645
0.045781426 -0.08221921 0.06570064
0.070639834 -0.20247225 0.11523354
-0.011216894 0.17607917 -0.015499425
-0.09732533 -0.032227162 0.09680342
0.07626661 0.1328901 0.04101793
0.12524769 0.013657852 0.022532871
-0.19274372 0.058378864 0.13869238
-0.13445795 -0.066553526 -0.016975168
-0.11328911 -0.11392685 -0.036422066
-0.042727686 0.078570545 0.083915636
0.16260478 -0.1630118 0.010254338
0.15949278 0.10574918 0.06762756
0.34210107 -0.07820189 -0.07275216
-0.1614644 -0.11542388 -0.04130568
0.052452248 -0.012733172 -0.0017945701
-0.20834808 0.13384579 -0.12144158
0.13094467 0.085802585 0.15318805
0.0039904043 -0.026134739 0.14601858
0.24169922 -0.14112034 -0.02575074
0.05148559 -0.03729537 0.046229847
0.119296126 0.19509612 -0.008939781
0.107914306 -0.042318713 -0.016401635
0.05538134 0.102258645 0.04902561
-0.18761449 -0.1293758 0.0070972876
0.08882636 0.087251 0.08520272
0.15215643 0.057781395 0.0786214
-0.15602002 0.0811432 -0.0065998505
0.11999269 -0.15619417 0.042197008
0.14515282 0.20302199 -0.18731561
-0.15540838 -0.086122215 0.0053854715
-0.102475524 -0.17115168 0.088622
-0.06971186 -0.16273062 -0.0014544283
-0.015609243 0.0059121875 0.19597113
-0.2015054 -0.15961953 0.0019283578
0.012488169 -0.06884903 0.019290429
0.088706106 -0.1688768 0.024767667
0.29028744 -0.002620877 -0.13143279
0.006033477 0.24403137 0.051786516
-0.0686361 -0.12154635 0.09515482
-0.056104917 -0.18177469 0.085228205
-0.12712526 0.0029525065 0.11385966
0.024564745 0.13883023 0.022733903
0.027896637 -0.23687057 0.1575887
-0.1381513 0.12492207 0.021995865
0.1592192 -0.21460216 0.08817985
0.32677487 -0.1582818 -0.021176498
0.0545345 0.18217053 0.04495403
-0.066796914 0.13361132 0.017521914
-0.18518089 0.10046122 -0.026718337
-0.14498113 -0.08357452 -0.025369026
0.059613746 -0.1998286 0.059914272
0.16210546 0.12071196 -0.038424395
0.027380597 -0.23283933 0.14628278
-0.032834206 0.065172605 0.09168395
-0.14803529 0.043522965 0.009009871
0.14908558 0.033861507 0.06873721
-0.23107651 -0.113656245 -0.03406698
-0.09197109 -0.11997917 0.008410285
0.18088284 0.12648554 -0.38374758
-0.0716959 0.11114743 0.09562187
0.19185835 0.22227456 -0.07806054
-0.16841422 -0.037196483 -0.01588254
0.12775366 0.14838311 -0.1460324
-0.055722997 -0.03158551 0.14087918
0.11274982 0.100600414 0.006984075
-0.23285112 -0.2171821 0.029444601
-0.31551412 -0.09036108 -0.10921341
0.07620708 -0.13524356 0.007861025
0.0027141655 0.046196412 0.21763164
-0.16653986 0.02860271 0.024996523
-0.2064518 0.08170229 -0.38616714
0.12797779 0.21044308 -0.11658182
0.27005276 0.035889324 -0.25811148
-0.06601716 0.122308925 0.051375307
0.077213086 -0.1802957 0.08868396
-0.067945875 -0.0044672647 0.13597664
-0.2010964 -0.16823536 0.07341046
0.1687059 -0.21615751 0.057588518
-0.19683678 -0.18272015 0.06780704
0.044079784 0.2085065 -0.1804314
0.12778921 0.077189766 0.06564001
-0.14832705 -0.022987006 0.14994703
-0.26715788 -0.13948031 -0.04786458
-0.024000287 -0.17476456 0.05012698
0.11628536 0.1700007 -0.21508262
0.11518444 -0.23912692 0.09808978
0.031038126 -0.15010834 0.11508239
0.0003974985 0.28401855 -0.24459216
-0.047326595 -0.19842044 0.12542017
0.19609211 0.14493652 -0.1287763
-0.04867147 0.14891984 0.073810674
0.037277345 0.0076295123 0.20602188
-0.24387588 0.010191354 -0.1522957
0.036977377 0.22367938 0.043138582
-0.0005546531 0.070993446 0.057372425
-0.05240852 0.21519877 -0.06561233
-0.09909499 0.14356327 -0.01908416
-0.06300121 -0.016594214 0.13247393
-0.2608571 0.21497871 -0.17514135
0.13454 0.07949028 0.05020982
0.19801237 -0.012444498 0.086311184
-0.09124727 0.06695918 0.13708313
-0.27534437 0.10119195 -0.13059099
-0.071227364 -0.10361303 -0.03485512
-0.03931965 -0.07809967 0.008211179
0.029997472 -0.00056805444 0.13937046
0.21685812 -0.0851319 0.006245997
0.041587804 0.034285683 0.12334441
-0.040092014 -0.081447296 0.039669193
-0.08211552 0.11045165 0.074857585
0.13520421 0.18851039 0.03818522
0.14957234 0.053547945 -0.40577972
0.08902493 -0.22207354 0.14135407
0.2959854 0.047060456 -0.16752936
-0.17933193 0.19107746 -0.05038902
0.036005713 -0.20283903 0.1343021
0.07727306 0.045196567 0.0686083
-0.057289556 -0.084810376 -0.020213345
0.1947047 0.1963097 -0.20474097
-0.19399418 0.044070214 -0.04032915
-0.2034456 0.009891288 0.087972
-0.15142031 0.12442339 -0.018421557
0.19892946 -0.13954602 0.05690743
-0.04006283 0.016995907 0.008363964
0.05247011 0.2875582 -0.23380771
-0.12811874 0.15424138 -0.0040054293
-0.04683297 -0.0059628887 0.1867072
0.1537901 -0.08270559 -0.022504535
-0.23832044 -0.07115851 -0.043531653
0.07617874 -0.15894018 0.06996737
-0.23130557 -0.038365196 -0.06123346
0.11130226 -0.178745 0.11861704
-0.12037265 0.035442565 0.11436658
0.048322625 0.0742167 0.101715796
0.20993389 -0.079521835 -0.024096789
0.051015206 -0.1808061 0.10789811
-0.049340513 -0.2240579 0.089158416
0.017984226 0.07069553 0.04819955
0.102206215 0.012128342 -0.03543461
0.18328705 -0.23431738 0.13814124
-0.11460569 0.27452767 -0.04177442
-0.1724623 -0.14913975 -0.032791704
-0.28536904 -0.05001386 -0.19338055
-0.042079095 0.045937613 0.105168775
-0.32429588 -0.10810389 -0.13856795
0.012179429 -0.22801983 0.15631896
0.25844583 0.14241302 -0.07286371
-0.26981938 -0.111945376 -0.07680625
0.24272603 -0.03577781 -0.043374103
0.03188592 0.0016114336 0.03981536
0.006297136 0.27153194 -0.2304332
-0.05818546 0.1341146 0.0291094
-0.072667755 0.19639356 -0.29709646
0.062927164 -0.23412453 0.11289422
-0.18155669 0.087450266 -0.070856504
-0.14697677 -0.13187231 -0.113135315
0.26389813 -0.057994805 -0.0404594
0.13939874 0.01586906 0.059266523
-0.11858436 0.21459095 0.02241857
0.1005342 0.04367673 0.12066401
-0.12592039 0.19206886 0.024530448
0.12457148 0.18793868 -0.03527563
0.02886045 0.036781467 0.14140987
0.14615734 -0.10171055 0.019796094
-0.020741858 0.22196564 0.08012342
0.08871948 -0.14721927 0.038607884
0.19152853 -0.047297105 -0.06172694
-0.20257097 0.14590558 -0.009277417
0.12554547 6.0769585e-06 0.009640117
0.00681774 0.06873569 0.15620027
0.0110187605 0.19646204 0.0064149257
-0.22453041 -0.14814326 -0.009536736
-0.1033912 0.097586416 0.06987307
-0.046527896 -0.16953145 0.08452905
-0.07914868 -0.037317205 0.1621008
0.048301555 0.16399221 -0.010617258
0.2279845 0.0052956194 0.024589976
0.120281555 0.11734544 0.03362927
0.27705693 -0.06439597 -0.12326831
0.16958112 0.16204001 -0.15926173
-0.027715668 0.058426265 0.04693299
-0.039329547 -0.027389186 0.16289702
-0.23010424 0.0040895455 -0.3073568
0.12595157 0.034983404 0.07598699
0.24172682 0.105067745 -0.2953342
0.19648361 0.013198945 -0.04686742
-0.0900242 -0.013080489 0.16125387
0.12991312 -0.057596873 -0.030875608
0.25470415 -0.01978564 0.027486421
-0.114834905 0.113503225 0.09013649
-0.031455968 -0.0007592086 0.055660814
-0.11989513 -0.04452391 -0.045575943
-0.10399256 0.020205535 0.1567586
0.15205371 -0.120937645 0.02384467
-0.08399674 0.1229164 0.05570656
-0.23740439 -0.03609923 -0.0149581125
0.14959824 -0.1819402 0.11062759
0.18076006 0.18928167 0.011802869
-0.164351 0.021144206 0.1228819
0.0031037368 -0.16193841 0.042425994
0.16488773 -0.14151517 0.09408012
-0.01149501 -0.1083003 0.024513949
0.3173126 -0.09274259 0.040670402
0.024160214 -0.022461712 0.08730568
-0.12683314 0.18861036 -0.24426688
0.009913757 0.17425735 0.089243986
0.045251563 0.20862627 0.0115378555
0.1828861 -0.024140727 -0.12651345
-0.025086071 0.14649339 0.050068934
-0.12402804 -0.067883015 0.002662432
-0.21062511 -0.028593572 -0.06271128
0.13179897 0.11676774 -0.114435785
0.27059704 -0.084080905 -0.010142037
0.21819465 0.043538153 0.025414294
0.10707634 -0.17373514 0.1609027
0.087785766 -0.17066568 0.09075711
-0.28916255 -0.04146049 -0.1528868
-0.043696683 -0.12515445 0.047485184
0.09703324 -0.12643404 0.019647568
-0.15131336 -0.11015785 -0.084125996
0.060788035 -0.20784484 0.120874204
0.25281942 0.016438868 -0.16369425
-0.22019796 -0.07013619 -0.078596465
-0.0970341 0.17597748 0.033138014
0.204479 -0.12201409 0.050386965
-0.20159815 -0.18321896 0.07257527
0.100646235 -0.18926896 0.11638342
0.08587885 0.25764385 -0.010707807
-0.003154582 0.211175 -0.25617954
0.062045757 -0.18713315 0.08383016
-0.24197984 0.10653621 0.009299512
0.11016054 -0.132429 0.088384025
0.08399721 0.15804107 0.03233324
0.0077511566 -0.18743172 0.09900719
-0.20639357 -0.10991084 -0.07363401
-0.10877537 -0.07232746 -0.060064763
0.13378216 0.20024996 -0.015947055
0.16207343 -0.017824007 -0.048136953
-0.16107982 0.0625412 0.005045656
-0.026190886 -0.0417727 0.01427451
-0.10939143 -0.007006995 0.052028596
-0.20516397 -0.16480714 0.029345423
-0.24959952 -0.15132496 -0.003165304
-0.15075272 0.024780594 -0.27310598
-0.16159596 -0.24748185 0.13914338
-0.1132194 -0.19209066 0.107897125
0.21520491 -0.17456008 0.11590036
0.20569871 -0.07558543 0.03134923
-0.2602797 0.007990454 -0.39774424
0.12221577 0.03209941 0.12888937
-0.06915735 -0.0807922 -0.029242942
-0.006810848 -0.06309884 0.011661933
0.054500036 0.06980648 0.07913716
0.10017776 0.13326924 0.08911068
0.059398692 -0.06821278 -0.021563284
-0.089324184 0.1977906 -0.0681137
0.14735745 0.1112577 0.06975497
-0.075119816 0.15540089 0.05037928
-0.2744394 -0.09520129 -0.14630455
-0.010049557 -0.09962346 0.011512212
0.20961839 -0.11487457 0.09323728
-0.09175804 0.14562625 0.06420818
-0.10561479 -0.051665656 -0.042057037
0.17031214 0.075347714 0.065687306
0.119536765 -0.14370582 0.12827621
-0.17787877 0.055118285 -0.3108117
0.110879086 0.1403453 -0.01818695
0.015422577 0.00070255325 0.067740574
0.0199437 0.03372428 0.121855155
-0.067839034 -0.011755086 -0.007592024
-0.10704069 -0.1778581 0.07559674
-0.15510367 -0.083650686 -0.0526513
-0.092509255 0.040339775 0.046551466
-0.052584887 0.12769917 0.053428426
0.11243487 0.1218612 0.09828658
0.26367426 0.19645113 -0.10714302
0.30072984 -0.046432283 -0.09899969
0.15718056 0.082211636 0.048365194
-0.14758112 0.076301955 0.06437122
-0.2599471 -0.16018565 -0.038648516
0.0073779994 0.17301539 0.09723817
-0.041188657 0.058557052 0.13146213
-0.113809444 -0.11877748 0.084900185
0.15130053 0.13121356 -0.0658743
-0.12134442 0.10772521 0.04973079
0.015461248 0.26798025 -0.11498349
0.05934159 0.06409869 -0.0071563614
0.01934026 0.010813489 0.11206305
0.07377865 0.06210582 0.08613704
0.11832123 0.22717297 -0.10352341
0.24540175 -0.11328543 0.013460434
-0.1853132 0.13833985 -0.16099206
-0.016870039 -0.058876954 0.045012146
-0.0668801 -0.06779717 -0.06376985
0.11551351 -0.13288875 0.07442312
0.03060456 -0.008601239 0.12429097
-0.12241831 0.08723306 0.045396853
-0.17222415 0.11422744 0.036566924
0.10043346 -0.16349137 0.102283746
-0.0374176 0.18624967 0.0038085224
-0.058872804 0.20223263 -0.0649844
0.23098426 -0.02027935 0.010068858
-0.24346097 -0.06129674 -0.17596222
-0.24822661 0.13214825 -0.18083157
-0.077833936 0.02713482 0.17557082
0.14853013 0.014149003 -0.0015176536
-0.13291271 0.17771593 -0.079481885
0.1249616 -0.14904341 -0.010230321
0.03991422 -0.15176427 0.10829137
-0.03467573 0.15735273 0.051743325
-0.053147722 0.12221525 0.10143906
0.33416235 -0.09582485 0.031020477
0.17676982 -0.16777712 0.11174636
0.11221899 0.0074270405 0.16631384
-0.20639326 -0.077817865 -0.17092875
-0.13110797 0.062125698 0.009169648
-0.14596473 0.11782869 0.0098538725
0.25805262 -0.051277597 -0.05243825
0.22966719 0.090670705 -0.3165165
-0.1841756 0.04754314 -0.052000325
-0.07893127 0.19680819 -0.050060857
-0.00029836135 -0.0538342 0.18970749
-0.0985211 -0.0388055 -0.01774884
0.19529153 0.23009205 -0.09922349
0.18412031 -0.097401924 0.010847321
-0.02740346 -0.13405786 0.049799155
0.13707006 -0.061623797 -0.033079017
0.17759629 -0.08309554 -0.04749957
-0.13295321 -0.14007854 -0.0877048
-0.20819575 0.013172279 -0.3602417
0.2355895 0.16952205 -0.08584268
-0.25959957 -0.11715408 -0.060221393
-0.25708833 -0.1255811 -0.05015182
0.0037492854 0.22887689 -0.029427944
0.14283837 0.1395933 0.045675512
-0.08377767 -0.15706038 0.008804213
0.03813564 0.14435783 0.07591704
0.2523985 -0.08276355 0.05101581
0.059680384 -0.021075105 0.19128157
-0.14953147 0.19159152 -0.18499067
0.25258207 0.04126257 -0.1958655
0.1608193 -0.09369351 0.010666593
0.10652542 -0.18320967 0.1376804
0.13324848 0.1467197 -0.15435275
0.32877865 0.036415778 -0.17654526
0.117555514 0.0026624484 0.15987039
0.11120827 0.1885147 -0.22316678
0.10108883 0.09261582 -0.040202234
0.013944178 0.19736278 -0.24960238
-0.17974283 0.02804806 0.07445922
-0.26098132 -0.10266399 -0.0785172
-0.15507986 0.02473864 0.12472832
0.27769312 0.03182869 -0.324221
0.0011331036 -0.17188127 0.115786254
-0.0641383 -0.11865795 0.1043211
0.08519635 0.27274662 -0.19469105
0.05999759 -0.01754202 0.033526033
0.13034822 -0.02131627 -0.03346304
0.06644811 0.14036854 0.058800053
-0.24698393 -0.08442681 -0.057525896
-0.20136869 -0.25776994 0.08058133
-0.22520165 0.036186174 -0.04514363
-0.27184322 -0.11332554 -8.8303284e-05
-0.050298043 -0.041566215 0.1713309
-0.06421225 0.1640759 -0.03835629
-0.027199134 0.11756447 0.12139105
-0.120371416 -0.14730231 -0.048154548
0.26208737 -0.12349161 -0.054642983
-0.16211504 0.18645796 -0.15112989
0.026459958 0.030985264 0.06897215
-0.19197121 0.0966477 -0.010756477
0.038630165 -0.2039504 0.14107558
0.0065334407 -0.090038165 0.056969427
-0.1670398 0.035280988 0.14943263
0.043607984 -0.17298955 0.082122006
-0.006216633 -0.03539429 0.14325404
-0.07232683 0.19898054 -0.10271418
0.14296885 -0.08927087 -0.027705202
0.089147545 0.09128105 0.007874091
-0.18085483 -0.034033354 -0.23256151
-0.238588 0.039468702 -0.01698453
-0.018173417 0.039141584 0.15180854
-0.1246483 0.118016124 0.051339597
0.009432216 0.035314437 0.06528251
0.23103207 0.046198543 -0.19305772
0.20192932 -0.021726225 0.015604364
0.098379545 -0.07218778 -0.058440194
-0.023260428 0.09358638 0.09683605
0.21428415 -0.09232011 0.017460434
0.2519735 -0.012070242 -0.14971942
-0.17876333 -0.056684 -0.115471184
-0.2458036 0.027376726 -0.29999617
-0.0060309744 -0.15310304 0.08010541
0.06127571 -0.0411203 0.06368795
-0.017333519 -0.086164825 0.03556189
0.28299403 -0.07183505 -0.121080406
0.11754669 0.1078138 0.061055247
0.028657313 -0.10217332 0.08305289
-0.16430569 0.09469258 -0.3473231
0.22520974 -0.11771296 0.06790448
-0.07535819 -0.084170006 0.032796837
-0.28305125 -0.010308079 -0.24990433
-0.23911273 -0.2017953 0.035216745
-0.092520766 0.07812148 0.09901694
-0.2920708 0.17351872 -0.14010704
-0.03283459 0.13677895 0.013317494
-0.059932478 0.083489604 0.15310432
0.07301953 0.12646073 0.072384715
0.09001538 -0.16546175 0.09718499
-0.042601302 -0.0032966246 0.11916821
-0.1726539 0.17366478 -0.26763642
-0.25245818 -0.11806779 -0.15621854
0.027917534 0.051021527 0.12130814
-0.19083644 0.0074029192 -0.24832772
0.07286388 0.06914739 0.0878378
-0.054163385 -0.0579554 0.098760545
0.25688034 -0.0006940462 -0.18883799
-0.2531457 -0.17091516 -0.06032972
-0.27803662 -0.18259105 0.0027530475
0.1918218 -0.012952967 -0.09582186
-0.05365208 0.0013664401 0.04060771
-0.16520515 0.038810827 0.1627457
-0.018831072 -0.22672538 0.14831485
0.18810028 -0.16818129 0.023378702
0.04380861 0.24637586 -0.07322321
0.18467498 0.008310812 -0.2646342
-0.22187632 -0.07338303 -0.114894986
0.08473476 0.18037046 -0.069565885
0.043299384 -0.16243565 0.045257743
-0.087768614 -0.053797018 -0.029324053
0.24911582 0.040324762 0.021010054
-0.047171727 -0.21512333 0.12279228
-0.087869324 -0.17652297 0.057440106
0.11783254 0.2366471 -0.15734036
-0.11865879 -0.18819447 0.094068356
-0.13834924 -0.24397852 0.13644248
-0.047702853 0.13022314 0.03757282
0.06255298 0.20283255 0.0706015
0.018919276 0.21027015 -0.21375984
-0.041758593 -0.2057441 0.08398126
-0.0803524 0.065257646 0.16779125
0.23451713 -0.06627164 0.018936142
0.019966269 -0.19100997 0.12132319
-0.16094542 -0.14598241 -0.043096956
0.21260698 -0.19150914 0.04169153
-0.13628593 -0.19766451 0.12469528
-0.21447074 0.04976439 0.05282211
0.14729477 0.06727046 -0.066986576
-0.046920735 0.080057606 0.18349804
0.044466253 0.07102961 0.13369502
0.04098371 -0.024307657 -0.018255638
0.003938301 0.23584634 -0.24459012
-0.23840809 -0.15891525 -0.065749295
-0.24856171 0.059528813 0.044590127
-0.12192843 -0.075838625 -0.07578484
0.026926916 0.11855184 0.037466887
0.3119873 -0.058943283 -0.026881525
0.18492067 0.12209503 -0.41643777
0.1996893 0.05680494 0.0041688727
-0.14583427 0.11046821 -0.05376019
0.25629967 -0.12855098 -0.020186834
0.04643339 0.13456017 -0.028702704
-0.18150543 0.120945096 0.058581285
-0.24406442 0.027441056 -0.26669177
-0.036401566 -0.058125753 0.02914861
0.08814863 -0.038394194 -0.036991984
-0.0331637 -0.25223637 0.12018145
0.12073657 0.03420304 -0.028211424
-0.07593636 -0.0188294 0.16361322
0.1535656 -0.223814 0.120351665
0.077744275 0.26285294 -0.2736486
-0.10436056 -0.084219486 -0.061943866
-0.20244543 -0.15350127 0.0006239071
-0.008910398 0.10570043 0.07740386
0.009058714 0.09193388 0.08485071
-0.2622786 -0.03964829 -0.14278689
-0.068854086 0.22577302 -0.0044338945
0.17621394 0.103815906 -0.0095216865
0.22765774 0.035630662 0.043112457
0.046673838 -0.1481822 0.017403413
-0.100116186 -0.21720268 0.12716736
0.09593785 -0.11604627 0.13207588
-0.14341359 -0.099897854 -0.029638076
0.15893196 -0.0614856 -0.03804721
-0.16801146 0.008235437 0.09083689
-0.048709065 -0.20056735 0.04448175
-0.07864935 -0.1872327 0.08884256
-0.21816663 -0.14296068 0.03380033
-0.20635629 -0.13698685 -0.08695139
-0.021144217 0.051468033 0.1160076
-0.015792951 -0.03674788 0.06513433
0.039161175 0.11110895 0.110220216
-0.050468784 0.22072314 0.04982459
0.07240476 0.124990664 0.069479436
-0.2487587 -0.010673795 -0.109657176
-0.017957125 0.005885463 0.06021485
0.24401419 0.09016945 0.034493204
0.25409475 -0.07551179 0.0027273449
-0.17732143 -0.03973765 -0.10779663
-0.11232493 0.06456167 0.077118725
-0.20812897 -0.1518547 -0.02242193
-0.059589587 0.15598972 -0.005758209
-0.11197758 0.17741674 0.04420771
-0.005287575 -0.0049922876 0.038183443
0.08038881 0.01900756 0.14971024
-0.17412758 -0.13425566 -0.06722728
0.15581208 0.1351515 0.05972027
0.20565829 -0.13201246 0.02282543
0.01931784 0.09241845 0.061554626
-0.102873035 -0.17401303 0.12200924
0.078321114 0.12447258 0.006564756
0.07131264 0.26704764 -0.27563387
0.1840019 0.047628704 -0.2190738
-0.029462261 0.14403224 0.114318885
0.0941777 0.006748349 0.1440974
-0.05258125 -0.19542974 0.08704632
-0.121476084 0.065447666 0.108287714
0.35133168 -0.07522504 -0.028937947
-0.3603454 -0.065413564 -0.11937464
-0.1814812 0.11415318 -0.007799592
0.13996959 -0.06763234 -0.0015632064
-0.12367227 0.0814541 0.066438936
-0.17533654 0.07383074 0.050466865
-0.108207166 -0.11182934 0.012298807
-0.12740043 0.010087921 0.05151087
-0.032659415 -0.064010344 0.009753419
0.246213 -0.036086 0.019249966
0.124456406 0.11140583 -0.015779411
-0.10480065 -0.17044866 0.12551934
-0.11793493 -0.21324907 0.09251402
0.29153258 -0.13079527 0.0630628
0.079676926 0.00032876167 0.09243349
-0.010252214 -0.07826281 0.06166588
-0.21821663 0.09508867 -0.11770858
0.16681309 0.14623186 -0.028007414
0.11352328 0.036960233 0.19436324
0.14881647 -0.118476875 0.052953467
0.15856978 0.10607378 0.03761828
0.18199605 -0.08885399 0.06253711
-0.114679895 -0.22289565 0.111280605
0.0340121 -0.13152108 0.04390997
-0.11394329 0.13244316 0.03651204
-0.047261063 -0.18068585 0.08064471
-0.09762976 -0.04764855 -0.06374926
0.31714815 0.0703927 -0.29627213
-0.21293133 -0.09963807 -0.1619224
0.16894557 -0.135738 0.031503536
-0.11180613 -0.123718426 0.022950772
-0.27633625 -0.008880893 -0.19622485
0.21801117 -0.07628351 0.051321406
0.12652579 -0.028163848 0.058373097
0.18626805 0.13207312 -0.05266174
0.010146488 0.21247137 0.017278157
0.08548218 0.18504694 -0.042004332
0.14042586 0.02450873 0.1935209
0.020262556 0.029059706 0.1457621
0.040130034 0.2573707 -0.12471545
-0.23007794 0.059451867 0.0017761186
0.121283114 0.12555681 0.07431146
-0.29400873 0.17000306 -0.09961617
0.20655148 0.042260487 0.12856771
-0.15623029 0.035641048 -0.08599624
0.058703978 -0.079437464 -0.0030563364
-0.21895683 0.16979839 -0.18820937
-0.23615217 0.18886255 -0.14410275
0.019326411 0.025850864 0.15924251
0.07042388 -0.09007679 0.073997065
0.24763402 0.053043127 -0.18531711
-0.22806779 -0.13771354 0.048379224
0.18998323 -0.02649729 -0.0596787
0.2985669 0.021843147 -0.14553158
-0.20497982 0.14889775 -0.11546147
-0.275324 0.0351661 -0.053428546
-0.26081112 -0.08660293 -0.105600946
-0.32536572 -0.109600425 -0.08880264
-0.2248461 0.0020453865 -0.0687842
0.16061164 -0.20554937 0.06292353
-0.05933515 0.055567652 0.089486934
0.18254277 -0.0229352 -0.18417703
-0.21897839 -0.04145183 -0.06859422
-0.04965777 -0.20674954 0.13876824
-0.14775594 -0.041887287 -0.0243432
0.029718153 -0.07546501 0.025960982
0.18772517 0.118072785 0.014963918
-0.19502975 -0.004517019 0.11236125
0.078625575 0.044932898 0.08280065
0.058252916 -0.046260692 -0.0059166565
0.14109379 -0.025648437 -0.058988255
0.23402734 -0.07577059 0.049808975
0.007840924 0.020970998 0.020880014
-0.03244177 -0.103408456 -0.030536849
-0.077530734 0.10157681 0.054889534
-0.24231085 -0.16761142 -0.010989164
-0.091827236 0.1506732 0.11561248
-0.068028875 0.013555872 0.06121314
-0.09338805 -0.02104461 -0.03871646
0.007109148 0.23091519 -0.12004703
-0.030871816 0.22310257 -0.29058635
0.058359824 -0.11766293 0.047306675
0.06067618 0.2141399 0.039967053
0.3185777 -0.09533949 0.028578363
-0.0547324 0.065511204 0.1603765
0.051197976 0.035213932 0.111380056
0.045800976 0.030220533 0.19139136
-0.15846467 0.07850593 -0.00958279
-0.11751978 0.2294582 -0.16970992
0.0008803244 0.20794207 -0.238791
0.15495843 -0.109051906 0.029705849
0.23561525 0.18708101 -0.09265876
0.110821456 0.036625005 -0.008677513
-0.30129892 -0.14337346 -0.0026788902
0.24963279 -0.15530692 0.01248687
0.110598035 -0.050660685 -0.020559061
0.22087885 -0.18288566 0.12250822
-0.03955058 0.25700426 -0.17647961
0.19599256 -0.12260272 0.051244576
0.18367548 0.105744295 0.07387608
-0.18252978 0.17897104 -0.05863377
0.07984411 0.16412722 0.04482914
-0.16907139 0.015422215 0.16784821
-0.1963941 0.08789053 -0.010620436
-0.17783375 -0.12173629 0.02921767
-0.16986217 -0.22457287 0.14142302
0.17122212 0.03458123 0.02285682
-0.16038683 -0.007642166 -0.053216327
-0.19807819 0.11386324 -0.1384794
-0.054771435 0.08216039 0.07172768
-0.16834918 -0.13498677 0.026504789
0.14159362 0.18797748 -0.07398445
-0.25012028 0.010221039 0.08274052
-0.009756101 0.100395404 0.09164083
-0.04555061 0.17239821 0.034228295
0.090699404 0.256473 -0.19635785
0.097451046 0.25410137 -0.26351768
-0.04630201 -0.02266155 0.113158755
0.037104692 0.055549547 0.09260566
0.25421143 0.2049872 -0.12226371
0.021848174 0.057678882 0.10922514
-0.20859277 0.04259483 -0.32345363
-0.19726677 0.03443763 0.09532667
0.19787249 0.16601305 -0.09953982
0.14299762 0.08017341 0.11085011
-0.14362055 0.19539589 -0.19379398
-0.21129037 -0.10280252 -0.07368945
0.2896252 -0.11282801 -0.030827368
0.001611318 -0.18264899 0.017616574
0.30017748 -0.0923794 -0.02264134
0.07767102 0.27779308 -0.020421786
0.1337817 -0.14706655 0.11529187
0.20368135 -0.088349774 0.04487282
-0.3502378 -0.08985157 -0.13162373
0.24047971 0.044454437 -0.17661038
0.14294259 -0.17789292 0.08822749
0.27520344 -0.03770325 -0.1491465
0.15760756 -0.17669962 0.07567391
-0.13284583 -0.22842903 0.1663884
-0.25449318 -0.172781 -0.06243021
-0.020663358 -0.12760566 0.0157178
-0.010283691 0.22641566 -0.05779414
0.10308435 0.09624064 0.08313934
0.2369893 -0.16927168 0.10289321
0.036749028 0.13013178 0.027689718
-0.10813515 -0.080633946 -0.07149496
0.15025087 -0.06654111 0.03127534
-0.19504808 0.027439274 0.07226764
0.07924176 -0.21017165 0.1508717
-0.010081606 -0.14065406 0.016039142
-0.007885696 0.10951223 0.07091649
0.07172148 0.23710752 -0.28138644
0.1400956 0.13502489 -0.052275717
-0.1985637 -0.0018716366 -0.071285665
0.14895502 0.14772458 -0.059371803
-0.21327619 -0.024898013 -0.26002935
-0.13120374 0.010943879 0.10940073
0.14598875 -0.14024195 0.055393618
-0.12024109 0.19017741 -0.08112067
-0.25195485 0.0207349 -0.33950654
0.2813293 -0.062429003 -0.02057831
0.16860446 -0.15828198 0.02640856
0.25852773 0.1326484 0.05952032
-0.0026157042 0.00960797 0.028737599
-0.02696732 -0.2040142 0.06563068
0.19614603 0.106012724 0.041304145
0.074839085 -0.11826567 0.12117877
-0.15019347 -0.058658294 -0.009084339
0.14536151 -0.08538604 -0.017692462
-0.059509445 0.26278076 -0.22994988
-0.08849402 -0.21919136 0.06328867
-0.17058845 0.004406272 -0.32567078
-0.15372112 0.085636936 -0.02919963
0.24503836 -0.15579294 0.050819397
-0.004003903 0.043436874 0.16544512
-0.20239525 -0.0976086 -0.0027816335
-0.20040707 -0.14352946 0.011430193
0.21524997 0.04098026 0.13799927
-0.25029802 -0.0016333892 -0.194508
0.08530735 -0.017633455 0.16538708
-0.22629867 -0.11609146 -0.042406257
-0.24376847 -0.15343218 -0.030811083
-0.19855422 0.03846614 -0.018555826
-0.21401012 -0.17423743 0.058602035
-0.0038494074 0.23303941 -0.0066665513
-0.31305078 -0.14849211 0.024780195
-0.090166405 -0.07247263 0.06114891
0.2211444 -0.10301641 0.099315435
-0.019049747 -0.020790016 0.060522627
0.19382411 -0.15133066 0.10133826
0.030597314 -0.056981117 0.037518233
-0.041306727 0.053522766 0.15780415
-0.12250131 -0.049058955 0.029878013
0.24338616 -0.040807918 -0.19939551
0.08109304 -0.012306801 -0.031212708
-0.024692308 -0.13346715 0.059521873
-0.005808449 -0.007776441 0.08348991
-0.036081728 0.13124955 0.12338825
0.07032332 0.02126301 0.027940221
-0.03598088 -0.11817083 0.051522486
0.14394005 -0.122906275 0.026701074
-0.27131087 0.039805878 -0.008234433
-0.19687101 -0.13813524 -0.006863032
0.1913283 0.1887337 -0.11553749
0.028940752 0.1912781 -0.027583571
-0.04926018 0.08341954 0.07935442
0.24055594 -0.11029632 -0.06529928
0.04540217 -0.045462336 -0.009423433
-0.20403096 -0.09547177 -0.08704045
-0.09956397 0.02516797 0.09281412
-0.0050098137 -0.11851632 0.01691043
-0.118444785 0.18201546 -0.043911256
0.012332731 -0.18269053 0.14735153
-0.18893184 0.11739498 0.030374277
0.13558915 0.14648952 -0.07317435
0.13401626 0.038930792 -0.2940849
0.17775282 0.034973267 0.16535023
0.10921478 -0.103399105 0.06784887
-0.12822813 0.18521082 -0.18502454
0.011218398 0.047138296 0.15234455
0.017552033 -0.26443055 0.09634345
0.08160752 -0.16636302 0.120953314
-0.18049023 -0.16695507 -0.050369494
-0.10999056 -0.04855274 -0.07540623
0.20837863 -0.10454202 0.0026889164
0.08330122 0.117827825 0.079058744
-0.2653541 0.009550396 0.0298308
-0.15754576 0.22208843 0.05365839
-0.11397449 -0.0346586 -0.043901067
-0.00038076105 0.20881331 -0.2724174
-0.026169999 -0.047426593 -0.0045178956
0.08203629 0.004747048 0.0964099
0.0763754 0.23544195 0.028878031
0.19009274 -0.043506827 -0.05587423
-0.07561545 -0.11735806 -0.028399369
-0.19886275 0.020539545 -0.09352759
-0.23417988 0.08751982 -0.024526045
0.1853897 -0.15949252 0.07322989
0.18036956 0.15189844 0.08355796
-0.074254766 0.03144678 0.19001307
-0.12919484 -0.02047446 0.18773045
-0.22656496 -0.031953577 -0.02377973
-0.07669645 0.26827314 -0.3051671
-0.23781803 -0.034931365 -0.15234028
0.11988526 -0.1830058 0.12656534
-0.12816393 0.06580576 0.17032006
0.08481105 -0.22158411 0.16766253
-0.09380651 0.22045696 -0.09701296
0.047757562 -0.16409749 0.16626945
0.04906777 -0.09502928 -0.03692025
0.066155694 0.119825326 0.06292692
-0.14030097 -0.22668453 0.06453385
-0.09239023 -0.0069625345 0.099158086
0.2708848 -0.12718081 -0.015520848
-0.07862829 -0.0019746004 0.1976461
-0.16485035 -0.014916873 -0.008274653
-0.1511291 -0.09231263 0.04088439
0.15421642 0.123834774 -0.029918559
0.12264038 0.13743605 -0.022983402
-0.16665627 -0.05913578 -0.044163864
-0.069162264 -0.14380333 0.037198484
-0.196799 -0.027784172 -0.13337776
0.091592655 0.0723956 0.07451612
-0.06638584 -0.1794983 0.085227296
-0.104024775 -0.059749573 0.053054683
-0.20587815 -0.19340643 0.06734373
0.06211949 -0.04017796 0.12182729
-0.15629502 0.19913687 -0.088093944
0.20323347 -0.14663643 0.13772951
0.20443344 -0.09572014 -0.041091934
-0.016629923 -0.15229934 0.04901241
-0.14664169 0.12173249 0.027485806
0.16948806 0.1829851 -0.15472616
0.19400068 -0.045270808 0.049297847
0.2239438 -0.00897126 -0.041080937
-0.06738721 0.05746264 0.13365696
-0.11237959 0.19493043 0.03191217
0.20442748 0.10201411 -0.26705393
0.1275445 0.12737474 -0.11148165
0.045835715 0.14703251 0.078072004
-0.04828874 -0.025774973 0.068993405
-0.20363066 0.12008804 -0.36218747
-0.07435875 -0.065288216 -0.046411235
-0.042524952 -0.06261346 0.037657868
-0.062209733 -0.17615333 0.07069323
-0.18053459 -0.014473135 -0.08629707
0.102584064 0.124962024 0.0115732895
-0.1891962 0.036568467 0.07967444
-0.14044857 -0.043763567 -0.02338914
-0.0255051 -0.08635259 -0.015372365
-0.059311606 -0.17783757 0.059530485
-0.1480647 -0.22248004 0.09054639
0.12284647 -0.011804979 -0.059227973
0.23513481 -0.019461852 -0.13576283
0.2176857 -0.041123416 -0.049473196
0.14699613 -0.101475835 -0.058918044
0.12881039 0.18120039 -0.07187175
-0.18328294 -0.14572021 0.06723249
-0.03889757 -0.12431053 0.07716464
0.02773177 0.1788109 0.019285819
-0.3059056 0.033827562 -0.29292947
-0.015117867 0.22997935 -0.072753064
0.08084527 0.1166854 -0.023355948
-0.20684719 0.07896051 -0.027281206
-0.02591463 0.13282174 0.04298807
0.15061912 0.025505088 0.002118138
-0.22696082 -0.010185841 -0.05935759
0.037733074 -0.052864302 0.042215496
0.12448916 -0.12162295 0.10806741
-0.032085028 -0.088888586 0.008346255
-0.15807518 -0.17397313 0.08828085
-0.07955608 -0.012893332 0.17316258
0.08796697 -0.16218537 0.106343016
-0.010006742 0.027221046 0.07136039
-0.20713873 0.076240666 -0.0045060082
-0.2884584 -0.1730837 -0.047264695
-0.075416446 0.05447737 0.036400955
0.24065681 -0.09046943 0.04364389
0.35095665 -0.047243845 -0.061444044
-0.14246902 0.0038363268 0.11176397
0.29684734 -0.1269815 -0.064895876
0.18106496 -0.10139047 -0.08270334
-0.12606263 -0.14691289 0.061186742
0.0064281905 -0.15282935 0.12138237
0.19805692 0.13681476 -0.07073095
0.23627242 -0.21510014 0.09244387
-0.08127091 -0.012596633 0.054047294
0.0066425675 -0.1043886 -0.0020970437
0.15959504 -0.012641644 -0.031450737
-0.07643518 0.20462333 -0.2794803
-0.15232576 0.12097651 -0.019425826
0.17073119 -0.041173093 -0.0032886916
-0.15823825 0.22789384 -0.11375157
-0.20249641 -0.046069678 -0.14483105
-0.03498947 0.07571724 0.13084105
0.20170034 0.21891469 -0.07461705
0.043294717 -0.21166088 0.1223961
0.13442722 -0.08398392 0.036209278
0.26589486 0.025217919 -0.2059563
0.23832127 0.11846748 -0.073494665
-0.09252838 0.11641645 0.07734952
0.03395553 -0.22873507 0.1254801
-0.09421145 0.1260511 0.019613018
0.16435513 0.13264717 0.06236764
-0.18242477 -0.012087461 -0.08383291
-0.09428143 0.205993 -0.25216532
0.19041538 0.09029917 -0.026390713
0.19889386 -0.09886883 -0.00081100885
0.16012879 -0.2139747 0.11405198
0.14236158 -0.16505817 0.08019329
0.1170726 0.023042869 0.008390692
0.21565741 -0.064495765 -0.013854621
0.13534929 0.12496708 -0.06573802
0.04063581 0.03496179 0.14039525
-0.07019226 -0.1888115 0.09872857
0.23145713 -0.004292277 -0.18580677
0.06509531 0.27758497 -0.19663659
-0.15757869 0.097193114 -0.0052296934
-0.07529009 -0.09219168 -0.008180828
-0.15463936 0.017394133 0.13572079
0.21702354 -0.011456442 0.037030358
0.146926 -0.18810642 0.09176708
-0.064729765 -0.0062657148 0.17821273
0.29606894 0.016535228 -0.17669927
0.22001076 0.074466355 0.027578494
0.16507003 -0.07282904 -0.0609973
