# .PCD v0.7 - Point Cloud Data file format
VERSION 0.7
FIELDS x y z
SIZE 4 4 4
TYPE F F F
COUNT 1 1 1
WIDTH 1000
HEIGHT 1
VIEWPOINT 0 0 0 1 0 0 0
POINTS 1000
DATA ascii
0.1482574 -0.23022881 0.07174325
0.019491052 -0.08277491 0.15632495
-0.0827424 0.19022001 -0.13521728
-0.17739297 -0.11841336 0.17235541
-0.16179436 0.2276624 -0.10412528
0.23111752 0.02535872 -0.04406553
0.075291574 0.10431719 -0.11854411
-0.15599875 0.0412018 0.00017600563
0.03959731 -0.22664316 0.1502507
0.17080997 0.2219389 -0.18227404
-0.07475554 -0.042474274 0.06871433
0.059923083 0.22599371 -0.15555388
-0.13435052 -0.018902726 -0.09714495
0.020416744 -0.04885526 0.06881222
0.03436737 0.017251173 -0.029390883
0.1392959 0.12174241 -0.07969225
-0.22743313 -0.15543124 -0.090533584
-0.26919082 0.08404937 -0.019043617
0.16632576 0.21071103 -0.17687353
-0.021666175 -0.049961567 0.045313977
-0.09541492 0.066588916 -0.015139335
-0.15972552 0.02256451 0.02335073
-0.018558674 -0.2955001 0.030762667
-0.17497613 0.0051013324 0.025283962
0.19077343 0.031954993 0.042482093
0.2999969 0.09088079 -0.100104876
-0.31343886 -0.06497362 0.14909431
-0.03272575 -0.20928961 0.17071104
0.26904726 0.18304355 -0.1736397
-0.06676988 -0.085488625 -0.0770572
0.23474707 -0.06788924 0.04754375
-0.08783908 -0.20889746 0.18016282
-0.11602296 -0.08055107 0.2042273
-0.2605346 0.12150138 -0.0033586912
-0.007881496 -0.20068702 0.20410459
-0.15949564 -0.02536849 0.12019753
-0.061255 -0.056701172 0.13035886
-0.2735115 -0.15169488 -0.13104926
-0.30901384 0.057594188 0.085467294
0.08762726 0.13167877 -0.14304233
0.17663307 -0.008572918 -0.02633963
-0.081561096 -0.019712532 0.061364856
-0.29788405 0.12631862 -0.002921167
-0.05655531 -0.10208588 0.122260466
-0.10751018 0.26761883 -0.21666513
0.28178048 0.10408037 -0.0863309
0.09607102 -0.17666112 0.20113145
0.3588322 0.0049284687 0.004421154
-0.19160712 -0.23095195 -0.053616576
0.07742261 -0.055283796 0.07787159
-0.16018412 0.027884256 0.009349881
0.14740191 0.23192975 -0.24591714
0.06822124 0.13607974 -0.09203215
0.13757272 -0.2555379 -0.01794874
0.13854527 0.12386517 -0.10091064
-0.14389002 0.056220334 0.037800375
0.04164197 0.2282621 -0.21492475
-0.25900394 -0.0991717 0.11414278
-0.08329109 0.0056413994 0.11646571
0.2397703 -0.23779696 -0.09795766
-0.122625545 0.021050282 0.07236922
-0.08479967 -0.13284504 0.17890519
-0.16952492 0.22492725 -0.13154839
0.24491175 -0.042981524 0.06831779
0.35671604 -0.010001175 -0.027234409
0.16134496 0.047416687 -0.0013402504
-0.09179155 -0.060388397 0.073793285
0.014320813 -0.15124986 0.17788666
-0.18788044 -0.08643838 0.20199446
-0.057716276 -0.16414028 0.03804516
-0.20422399 -0.11543666 0.1707437
0.055767868 0.15281542 -0.078598104
0.20735547 -0.019986518 0.019535275
-0.10242589 -0.3172005 0.013245111
0.056078177 0.16813995 -0.12612261
0.24263422 -0.0010864874 0.038418747
-0.24523118 0.07540114 0.037829306
-0.21136533 -0.23475055 -0.042580757
0.13304497 0.05967503 -0.018937161
0.22764976 0.12829095 -0.091691986
-0.19746156 -0.28629425 -0.06567027
0.29435933 0.036638923 -0.07743113
0.24631843 0.16591343 -0.18971892
0.28746673 0.053957798 -0.105800465
-0.012830369 0.0051015457 -0.109827586
0.086934604 0.07204413 -0.07480031
0.29740465 0.17344663 -0.17743841
0.23895672 -0.01152438 -0.03206479
-0.24273163 0.041580945 0.065093696
0.29097787 -0.05862369 0.064579636
-0.15062891 0.019650647 0.11221588
0.20599355 0.055894706 -0.06809491
0.2003078 -0.12851186 0.1601639
-0.07499341 0.17824881 -0.11492293
0.1957712 -0.1596334 0.15190221
0.03426534 -0.15495902 0.12045928
-0.067436665 -0.13496655 -0.032558184
-0.048336525 0.30002946 -0.23764186
0.27523974 -0.14340119 0.1109774
-0.062551335 -0.18450469 0.25672024
-0.067225 0.004067237 0.036234148
0.35308138 -0.08095879 0.059975713
-0.08990919 -0.059373006 0.12987188
0.2692842 -0.09057351 0.09468905
-0.027479986 -0.2007454 0.21988393
-0.12423051 0.089132875 -0.014913059
-0.20064783 -0.10290637 0.11210095
-0.039296757 -0.21301512 0.2016192
-0.28578144 0.24368933 -0.15027027
-0.0024896506 0.23035926 -0.12722813
-0.18476562 0.024156094 -0.018105648
-0.28751612 0.17186452 -0.098216176
-0.11333075 0.20399997 -0.16807741
-0.15585174 -0.026032949 0.049788587
0.28351894 -0.0069422354 0.07377262
-0.15894249 -0.053113844 0.13626646
0.04389852 -0.19172536 0.13072072
-0.22159342 -0.0406964 -0.14454003
0.2803541 0.17047767 -0.13756871
-0.0099073 -0.18112133 0.1942196
-0.064882435 -0.13000584 0.19134879
0.16875222 -0.16823931 0.14401452
0.1455154 0.08190863 -0.067169465
-0.089482725 0.26750353 -0.19048958
0.3176764 0.08612137 -0.110207826
0.010985671 -0.07083903 0.043625616
0.07898349 -0.109927855 0.09280136
-0.07918019 -0.24530922 0.17464603
-0.15390757 -0.015255965 0.14312379
-0.0054373923 0.25865334 -0.21108478
0.1973488 -0.19656387 -0.15773544
0.28992516 0.09640476 -0.08732491
0.24732141 -0.09147053 0.12392407
0.009036417 0.07077812 -0.087664135
0.18548107 0.14058778 -0.13332061
0.14006117 -0.23846057 -0.052542582
-0.02216601 0.036785897 -0.014145086
0.08460038 0.08476216 -0.12386982
0.11604523 -0.091619745 0.050366074
0.06389722 -0.17008662 -0.024373438
0.1551571 -0.18954387 0.17593914
0.09114981 0.13588259 -0.10732798
0.2316419 0.21772996 -0.15247017
-0.27753025 0.03685724 -0.19028756
-0.025632584 -0.18773226 0.24712215
-0.11760168 -0.00082382536 0.13803552
-0.27360946 0.013038383 0.13303575
0.18459922 -0.057372645 0.09852314
-0.014806774 0.16910708 -0.10179046
-0.10948576 0.15454683 -0.09466344
0.06624673 -0.22634783 -0.054495223
-0.13854831 -0.116204806 0.23703846
-0.09603062 0.15228468 -0.07542799
0.2672484 0.069831304 -0.102944136
-0.27464932 -0.15103003 -0.13355741
0.15694246 -0.12170006 0.1751823
-0.16904286 0.04476026 -0.19513714
0.019267133 -0.06291963 0.08449189
-0.09078791 -0.15493861 0.016176667
0.10590274 -0.18241107 0.1270289
-0.2311366 0.0070409086 -0.053644005
0.16032755 -0.0053872205 0.037071537
-0.1805276 0.16757143 -0.1261925
0.08027934 0.053639766 -0.062947385
-0.23316938 0.12000097 -0.04913738
0.13283996 -0.22825156 0.2015692
0.0057837814 -0.16692336 0.017321436
0.19860251 0.14456777 -0.11894458
0.12922335 0.09161247 -0.118842766
-0.28298625 -0.096116215 0.13191843
0.24731722 -0.13881445 0.15340644
-0.08681104 0.088885754 -0.10030505
-0.019721651 0.12911335 -0.09914479
-0.20335063 0.13676219 0.00045247204
-0.010697899 -0.12766969 0.11672564
-0.051805217 0.13178006 -0.029377257
0.013093833 -0.12371553 0.19022869
-0.099169515 -0.046757717 0.04946871
-0.060754307 0.25698453 -0.16996291
0.1381902 -0.0475106 0.089296035
0.124886535 -0.21275894 0.017824452
-0.03577014 -0.11449311 0.13318264
-0.13544719 -0.19356437 -0.050294764
-0.1994515 0.09713116 0.01062698
0.276155 -0.034169566 0.023494093
-0.23561142 0.19787072 -0.11853752
0.040290184 -0.1631253 0.09782756
0.088227645 -0.05659562 0.08547488
-0.29951438 0.13795926 -0.03356423
-0.09470529 -0.077538766 0.17718528
-0.07672028 -0.07257711 0.06135504
0.050516278 0.29808077 -0.19902375
0.18122953 0.09048552 0.0061074733
0.15814796 0.080703884 -0.003576699
0.06525265 0.024693763 -0.075978905
-0.25200748 -0.050534017 0.13358745
-0.019230386 -0.1685763 0.23958778
-0.25796807 0.15290718 -0.0409947
0.0628493 -0.10029142 0.13532184
0.21229516 0.2519002 -0.19212756
-0.0638074 0.037917178 -0.058183447
0.30086306 -0.1695028 0.10131072
-0.039743304 -0.23165672 0.013896845
-0.21202746 0.031466756 0.026073398
0.29459855 -0.10106593 0.11564691
-0.15122302 0.09027499 -0.07508989
-0.23933074 -0.14237736 -0.081663
0.062989235 -0.084454775 0.07027249
-0.11554065 0.2237865 -0.10962544
-0.18912254 -0.02061341 0.10872656
0.14196742 0.2635441 -0.251668
0.01641335 0.14608945 -0.104269415
0.07450998 -0.074470244 0.16032922
-0.07638312 -0.07359367 0.1471498
0.12631968 0.029941065 -0.06316893
0.27681816 0.21413042 -0.17133954
-0.08648914 -0.14578451 0.16233711
-0.027615141 -0.2013703 -0.2047276
0.2353975 0.0016988952 0.020534445
0.04467813 0.025080439 0.006321885
-0.22513506 -0.0067271353 0.08785499
0.015937747 0.19904992 -0.17539017
-0.05223339 0.04858862 -0.05138668
0.04060424 -0.19681273 0.16437916
-0.22425385 0.029347274 0.06750399
0.15498516 -0.012315062 -0.05317691
-0.20039457 0.076903805 0.013651043
-0.07282368 0.26932052 -0.20756784
0.1533174 -0.06337909 0.089053325
-0.31444457 0.051688243 -0.030887524
0.29962268 0.07929456 -0.10871436
-0.28908697 -0.0066590603 0.10526714
0.35952422 -0.02647472 0.0036753903
-0.12482353 0.0260162 0.017202124
0.16916014 -0.13183416 0.12098748
-0.22769661 0.015923165 0.15253733
0.06651145 -0.21622029 0.17288247
-0.020516893 0.19545074 -0.11046821
0.061942484 -0.17526981 0.21643381
0.11995563 -0.1940618 0.030896975
0.2639486 0.034381438 0.037077613
-0.31617028 0.15373106 -0.03977742
0.17130437 -0.01294263 0.051893987
0.14111641 0.116387255 -0.05398971
0.14706649 0.21425673 -0.19417739
0.1198584 -0.0077716666 0.046452958
0.151448 0.008544028 0.049768876
-0.1545656 -0.07157131 0.118525416
-0.16097827 0.18681136 -0.1063236
-0.16503046 -0.062013663 0.1554196
-0.06120855 -0.15520978 0.19139278
0.3575788 -0.013722268 0.01372519
-0.3222061 0.04879182 0.062175956
0.06501648 0.08119036 -0.012119775
-0.23064342 -0.08124486 0.14912556
0.05737049 0.2466407 -0.24093483
-0.10049754 0.06543788 0.019841788
0.15872352 -0.1355048 0.16252014
-0.23005004 -0.08824234 0.18583038
-0.08320526 -0.113313906 0.2267506
-0.16307375 -0.25616992 -0.027064545
0.2104333 0.06453277 -0.072954625
-0.2538714 -0.10594214 0.071178645
0.20607696 0.10494875 -0.075008765
0.0261166 -0.17416699 -0.026611133
0.08899688 -0.16864371 0.1526102
-0.035586145 0.0048366035 0.06751598
0.16662304 0.12568086 -0.10652305
-0.105357565 -0.12613147 0.1585685
0.13053629 -0.09161058 0.08036625
-0.07425561 -0.09843994 0.1318329
0.0037637723 0.18966168 -0.13179632
-0.043088734 0.1659922 -0.15407805
-0.20232739 0.16788158 -0.13791849
0.15405576 0.1528607 -0.1473025
-0.25288185 -0.10521301 -0.11937848
0.07393433 -0.013428196 -0.052357003
0.20023067 -0.22526747 0.0778293
0.13167657 -0.005233986 0.05953632
-0.11734174 -0.053444352 0.10373172
0.30127946 0.043135952 -0.0067502977
-0.029046925 -0.16445479 0.19780219
-0.12696753 0.30549198 -0.18617591
0.22701482 -0.15005969 0.07249707
0.0057936017 -0.24396943 0.24420246
0.05127774 -0.015993387 0.014618624
0.022132926 -0.17933582 -0.047266982
0.13379367 0.12354107 -0.12740205
0.017432185 -0.21815056 0.24322063
-0.23711646 0.23584431 -0.068970755
-0.14618808 0.09386856 -0.032141645
-0.15224376 0.26702496 -0.15803738
0.31121364 -0.16023271 0.04590428
0.26037872 -0.105615534 0.02886907
-0.043393612 0.07354653 0.018637974
0.060189847 0.06927771 -0.023237944
0.036248025 -0.1720641 0.22134516
0.24656022 -0.09262398 0.059282362
-0.26932865 0.001723754 0.15431565
-0.29637328 -0.0024879617 0.0831785
0.19757396 -0.17223352 -0.14727409
-0.26922387 0.14294408 -0.0732477
-0.19122593 0.18076006 -0.10567387
0.0959669 -0.1395802 0.10303883
0.122505 0.10555377 -0.06658489
-0.061928194 -0.005920299 0.1015976
-0.27273622 -0.053739183 0.16936527
0.12552565 0.06917192 -0.080621526
-0.2540906 0.034831904 0.028133942
0.015355354 0.21077876 -0.123304576
0.07093724 -0.004899578 -0.03140223
0.2950351 0.027667688 -0.065063216
0.124471545 -0.07964544 0.031829804
-0.30679885 0.024604512 0.06112286
-0.12212952 -0.12392494 0.13442463
0.05762471 -0.17264177 0.23696432
0.020968812 -0.21521728 0.18812805
0.23529567 -0.05791034 0.10596476
0.16393769 0.020197751 -0.08920571
-0.0342291 -0.15758224 0.23418505
-0.18274744 -0.118478656 0.1287037
0.17224568 0.0033911571 0.0069947704
-0.2803597 -0.032819178 0.07920637
0.1858084 0.06505072 0.024730278
-0.054263648 -0.32241738 -0.0011870976
0.26096454 0.07919601 -0.070417926
-0.2118923 -0.153875 -0.16103001
-0.013027838 0.18229467 -0.09204175
-0.013067394 -0.07634709 0.07730985
-0.25965303 0.23638198 -0.10580504
-0.2274021 0.013498438 -0.14742583
0.09129303 0.16057958 -0.18962796
-0.12713131 -0.12096373 -0.023145813
0.086023904 -0.030679459 0.07894005
0.07030351 0.13449688 -0.03413104
-0.18971615 -0.016251326 0.13381237
-0.22561657 0.083396316 -0.043850962
-0.06679465 0.22130248 -0.13460396
0.23212253 0.015816057 -0.031523976
-0.21243574 0.061240435 -0.003877221
0.07519639 -0.022432737 0.11093708
0.13812678 -0.15638413 0.14733945
0.03337853 0.013813795 -0.090275705
0.009423325 -0.14701404 0.2156043
-0.24861173 0.18682517 -0.042239346
0.06739906 0.1105102 -0.06863725
-0.14785124 -0.112976976 0.20583878
-0.10801127 0.1882862 -0.06075561
0.021538755 0.18069695 -0.22598225
-0.022448074 -0.18638341 0.017553877
-0.06411832 -0.16487627 0.20318107
-0.028841347 0.07933005 -0.08182149
-0.16737473 0.072524995 0.0576308
0.116128765 0.17168288 -0.0977073
-0.24215093 -0.1294269 -0.07970079
0.30644402 -0.06112989 0.034337603
-0.06474123 0.20118202 -0.1908976
0.039159976 -0.05933784 0.029693974
-0.31186977 0.09331746 0.040068377
-0.123226516 0.21836738 -0.10096541
0.20364556 0.05939357 -0.057412617
0.10034564 -0.21272293 0.03872676
-0.27862823 0.09272896 0.06840579
-0.09528896 0.10197414 -0.055485945
0.19569625 0.04381299 -0.048450064
0.091807306 -0.239193 0.19077092
0.19985415 -0.17652085 0.16326421
0.12070958 0.13116595 -0.041332554
-0.1512747 0.11667871 -0.015717272
0.0141241895 0.2318317 -0.20232734
-0.10448302 -0.06924475 0.09879028
-0.015585694 0.22068854 -0.1950911
-0.040624227 0.15479566 -0.08775647
-0.15548053 0.115058176 -0.027553648
-0.1889418 -0.027952926 -0.107414536
0.0268399 0.14855778 -0.113572925
-0.3439177 0.024969783 0.00976193
0.019590179 -0.032681193 0.07469042
-0.105944745 -0.15404445 0.20684816
0.28244907 0.12774527 -0.0732495
0.12540805 0.078998275 -0.08709176
0.22840501 -0.04448452 -0.019382127
-0.07071422 0.14721072 -0.14841011
0.18511656 0.18482699 -0.15176481
-0.34443018 0.062200714 -0.024723137
0.12966561 0.06811375 -0.09621741
-0.0768024 0.16222033 -0.15529953
0.30230266 0.113830484 -0.1259534
0.2141739 -0.11123111 0.0706293
0.27830562 0.0054704295 0.018880107
0.0946858 -0.152274 0.13617244
-0.044260293 -0.15352984 0.19585748
0.021334039 0.24797182 -0.21984255
-0.32754415 -0.004821845 0.079612724
-0.1530583 -0.08400405 0.20355447
0.032292116 0.18876773 -0.17422706
0.020625684 0.17450872 -0.17850676
-0.039415307 -0.20657422 -0.033329535
-0.14074692 -0.055301864 0.17945705
-0.015043472 -0.18085007 0.20528683
-0.27231666 -0.068284154 0.19082983
0.27455106 -0.010912382 -0.07242619
0.08648364 0.057308376 -0.040446285
-0.23881754 -0.06420446 0.10671256
0.30866474 -0.10143423 0.083992444
0.051564492 -0.23974837 0.2047777
-0.16054069 0.23876952 -0.10878089
0.25002974 0.17413841 -0.1853187
-0.13384095 0.04146478 0.039846834
0.09999409 -0.14275613 0.09116868
0.0071168467 -0.14916338 0.16435473
-0.29688966 0.05352287 0.02182601
-0.12707634 -0.043092296 0.0632772
-0.06302854 0.07907113 -0.05332162
0.24066028 0.01839185 0.02409988
-0.013390305 -0.13187063 0.15190122
0.11939514 0.21857296 -0.17684723
0.17113364 -0.04644702 0.012453413
-0.03265202 0.09446913 -0.08203841
-0.2921279 -0.025857594 0.10387309
-0.10520496 -0.25018042 -0.19158916
0.12249852 0.20927896 -0.18029469
0.14440736 0.1391669 -0.1520381
0.04189578 -0.11857417 0.19266754
0.053812277 -0.14504497 -0.024001598
-0.21077704 0.20750077 -0.06883826
-0.17482258 0.2135296 -0.15934032
0.00784348 -0.043961674 0.013523161
0.0007442714 -0.12277014 0.09572053
0.17698687 -0.05376096 0.042925987
-0.17516245 -0.19851631 -0.07869113
-0.040303458 -0.14747417 0.17261487
-0.09522173 0.06188488 0.093767606
-0.0645442 -0.19277318 0.18665992
-0.038853873 0.28640392 -0.22340117
-0.06568776 -0.17570832 0.19669768
-0.2442361 0.003363766 0.059129294
-0.023368407 -0.15361394 0.10560021
-0.2879083 0.035209563 0.078583844
-0.08011556 -0.15287407 0.17674342
0.27859175 0.13555093 -0.088881485
-0.01309685 0.24428968 -0.23528041
-0.12275781 -0.19009952 0.2278287
0.13418688 0.15327118 -0.15920226
-0.13330592 0.22960435 -0.12612352
-0.17822908 0.08408578 -0.01898429
-0.10460642 0.17116013 -0.034696355
0.018381683 -0.25539735 0.04073273
-0.21779487 0.15689729 -0.018906329
0.049496643 0.104163915 -0.13067798
-0.19874987 -0.15788443 0.15557827
0.20050733 0.1652649 -0.09703418
-0.13592957 0.26309818 -0.16639566
-0.19787048 0.08622183 -0.00048175862
0.103924766 -0.14099443 0.11809156
-0.038651448 -0.1536702 0.12962279
-0.1449529 -0.21015488 0.13708584
-0.17576943 -0.02448544 0.09448914
-0.064164355 0.20711508 -0.1269024
0.2558286 -0.0065863025 -0.0236046
-0.03410961 0.27706566 -0.16963935
-0.30687284 0.10957379 -0.014530585
-0.0019180704 -0.072230905 0.08520143
-0.025900822 0.07417823 -0.028601155
0.11499028 0.18685469 -0.12726545
-0.15382631 -0.123783655 0.121472985
-0.21050361 0.15733176 -0.08845362
-0.26250324 0.03582107 -0.009174429
0.13808742 -0.090942375 -0.014804982
-0.21854265 -0.020648712 0.122874945
-0.16002703 -0.24884757 -0.07448169
0.3070934 0.0210684 -0.09124147
-0.2718164 0.03213269 0.018571673
-0.18900083 -0.14063187 0.17899895
0.29792443 0.0505235 -0.13248152
-0.036592565 -0.17122355 0.15652514
-0.1444789 0.13461751 -0.08561968
0.16483255 -0.115228124 0.05814472
0.28013188 0.060880013 0.014175781
0.21199302 0.035168752 -0.041072376
0.14748417 -0.26346904 0.19130841
0.015419435 0.201935 -0.15427385
0.1835581 -0.061160095 0.035598427
0.25945845 -0.073498055 -0.0109766405
-0.1986225 0.08279488 0.026330877
0.2362958 -0.00086176203 -0.027816046
0.21971583 0.14577167 -0.13332412
-0.22758916 0.08731794 0.042599373
-0.039149746 -0.19712776 0.0011339608
0.29128915 0.073964916 -0.014304323
0.25975785 0.0940674 -0.07848675
-0.14478683 0.071914874 0.015972799
-0.04660032 -0.107281275 0.0913621
0.10815127 0.06970061 -0.017531604
-0.05022485 0.08829344 -0.04510564
-0.22336254 0.20734441 -0.11297528
-0.09547669 0.086640805 -0.033827562
0.18076785 -0.14864437 0.19614327
-0.23707798 0.20717756 -0.10122613
0.15217419 -0.19172573 0.1936563
-0.13222471 -0.06574221 0.11205864
-0.26297626 0.087750636 -0.006721472
-0.29055807 0.12089241 -0.012624909
-0.23260418 -0.010048117 0.068385124
-0.073207065 0.26058713 -0.19810355
-0.043519642 0.17888024 -0.04444479
0.2547659 0.093016416 -0.055026673
-0.30109572 -0.04631491 0.08437735
0.27283746 -0.014562342 -0.026556168
0.09624609 0.08278728 -0.019615138
0.15708159 0.04249343 0.0067137545
-0.020667741 -0.055390008 0.08090873
0.17714359 -0.06869962 0.062325064
-0.2608715 -0.05387643 0.19393344
0.13852534 -0.18759193 0.16955872
-0.15764943 -0.16673377 -0.090039775
-0.113896236 0.041613337 0.069276564
-0.18768309 0.08365341 -0.0702565
-0.17159997 0.11105119 0.041380033
0.19735903 -0.06294732 0.052202057
-0.13679141 -0.13840534 0.17427666
-0.20355 0.17417948 -0.12051394
-0.08999665 -0.048428047 0.13882929
-0.2843849 -0.06371812 -0.10694121
-0.07690367 -0.18780027 0.2119291
-0.11542985 0.17997865 -0.17183696
-0.007687094 0.33811367 -0.2172767
0.09359728 0.24024685 -0.19220191
-0.17775168 0.2630639 -0.1521954
-0.20635289 0.06094497 -0.00020557076
-0.264756 -0.04434265 -0.12406919
0.15722083 -0.0014275507 -0.0032233149
-0.17263338 0.10125382 0.03769748
-0.20717348 -0.20840287 -0.050491355
-0.18705866 0.1414516 -0.05795091
0.1485417 -0.133237 0.11875907
-0.117554516 0.1461413 -0.097565345
8.297417e-05 -0.16169561 -0.043505125
0.27810296 -0.19487058 0.078098215
0.18770954 -0.10996837 0.11975239
-0.23441173 -0.27163467 0.022809312
-0.008688219 0.15102515 -0.078728154
-0.19492526 0.2060348 -0.08565595
0.03284831 0.215164 -0.09189927
-0.08776821 -0.1341257 0.15288122
0.061419625 0.13524768 -0.06455854
-0.086729966 -0.17783687 0.16126116
0.04823991 -0.03768562 0.09364489
-0.0026250933 -0.021688275 0.06026825
0.009733773 -0.1299899 0.09311875
0.16176984 0.039520785 -0.08424928
0.20306864 0.082920924 -0.12268003
0.17816491 -0.013376015 -0.051287107
-0.20357242 -0.17127728 -0.078821294
-0.11744726 -0.21774726 0.012098424
-0.28058133 0.051969256 0.114118576
0.22446698 -0.16379124 0.1061218
-0.0065050144 0.060152765 -0.11009039
-0.13124813 -0.018760392 0.08843796
0.28437537 -0.014319579 -0.019474393
-0.06413138 0.13273147 -0.106667146
-0.114489235 -0.027097773 0.07131474
0.2767415 -0.008142006 -0.07247206
-0.073242314 0.2729647 -0.13809636
0.18125087 -0.19470823 0.0421157
0.09970772 -0.16555744 0.18460372
0.25253087 -0.12534595 0.12192144
0.013655782 -0.24987516 -0.022920208
-0.26357996 -0.12075566 -0.11201288
-0.18857369 -0.23084868 -0.030370018
0.11396595 -0.1474699 0.09508597
-0.1888373 0.118102096 -0.03105637
-0.23992564 -0.030184636 0.15793404
0.012496835 0.07200902 -0.032782122
-0.28424716 -0.101503566 0.12299622
-0.3016864 0.105032295 -0.028912116
-0.13857014 0.053310506 -0.012924907
-0.031103274 -0.21629012 0.006841285
0.2372348 0.019934408 0.049362224
0.19642985 -0.048204638 0.058601305
-0.057388682 -0.111698695 0.22653867
0.004759934 0.017545482 0.0679749
-0.09052681 0.04930324 0.0072353873
0.30587858 -0.18694794 0.08517389
-0.034991324 -0.15368754 -0.018246684
-0.01915009 0.28783157 -0.25435105
-0.20289718 -0.061776858 0.13849625
0.24559607 -0.13961723 0.08525039
-0.058135208 0.07785061 -0.05916808
0.27017015 0.09731474 -0.111127585
0.13447206 -0.038807105 0.13361463
0.2884542 0.13714664 -0.110985875
0.31917754 0.048749816 -0.059281472
-0.21261667 -0.037487827 0.09638398
0.22980112 0.109809436 -0.15337121
-0.30277053 -0.030923039 0.075379014
-0.2738896 0.19245282 -0.043592013
0.1928455 -0.022776317 0.0703757
-0.14388901 0.0059722867 0.08929276
0.23244278 -0.036534186 0.054931916
0.033345096 -0.0043148086 0.024522033
0.03577096 -0.16632996 0.1962532
-0.00746957 0.16297609 -0.11412801
-0.037245378 -0.14071324 0.13032793
0.26742333 -0.017162755 0.0465015
-0.2042192 -0.004742673 0.11290677
0.28274074 0.041938517 -0.10821768
0.0120369075 0.2973091 -0.24804883
0.08601124 0.071759164 -0.10692036
0.20020121 -0.15207371 0.14111826
-0.2082556 -0.08619953 0.13868691
-0.078606 -0.21669173 0.16268432
0.121356696 0.043886915 -0.033449683
-0.07744423 0.045588188 0.018500187
0.014830254 0.035915274 0.051086247
-0.022683056 0.04354602 0.00780099
0.23487951 0.030524822 0.0029189696
0.2745762 0.14760987 -0.13850647
0.1044643 0.24385773 -0.15722771
0.06241452 -0.062174365 0.1433238
0.023130594 0.14952287 -0.05225237
-0.05543608 0.061738633 -0.055279054
-0.23636226 -0.14403373 0.17834716
-0.22599645 -0.12847342 -0.083117574
0.15085813 -0.21244432 0.16503088
0.0813176 0.0456464 -0.07232789
0.10251627 0.008758618 -0.04778626
0.18791835 -0.062604755 -0.0010645897
0.0107232835 0.24798155 -0.2700659
-0.14974709 -0.15501529 -0.023775572
-0.15738215 -0.011591334 0.12761408
0.022522988 0.07104594 -0.068555824
-0.11351059 0.007873907 -0.04096554
-0.090091035 0.19523692 -0.07278816
-0.17975931 0.10542205 -0.017012209
-0.1690868 -0.17987467 0.19434585
-0.025471313 -0.1387671 0.19139375
0.2671999 -0.07038774 0.03174841
-0.28182077 0.09373491 0.018673029
0.12189588 -0.027995879 0.01405211
0.23944004 0.109206386 -0.095885456
-0.2659502 0.16501234 -0.07150546
0.05661646 -0.09283001 0.047143262
-0.13572435 -0.12868817 0.19040789
0.07702803 -0.21501398 0.020697614
-0.27592796 0.13337639 -0.069216296
0.026460396 0.2316931 -0.19505568
-0.012096186 -0.050822493 0.028252637
0.04495175 0.060608376 -0.017850993
0.03473319 -0.11089408 0.038947176
-0.12487544 -0.20864028 -0.05568929
0.13327974 0.21819314 -0.20178016
-0.30312976 0.024793632 0.124830574
-0.19207235 -0.055335507 0.20473081
-0.17220281 0.25419667 -0.1515982
0.14395067 -0.21586536 0.036405124
0.14837027 -0.035788264 0.0387235
-0.14533772 -0.13140523 -0.08339735
0.2887922 0.121196814 -0.058889043
-0.1777209 -0.012710812 0.062624685
-0.035280034 0.28877532 -0.20446974
0.28674695 0.017414806 -0.09810962
-0.12147621 0.023213891 0.025036242
-0.07174228 0.0005429249 -0.02448075
0.052873835 0.13066515 -0.13705781
0.23416995 -0.12259512 0.046939567
0.09448412 0.015056372 0.020065084
0.11138134 -0.22187367 0.16029233
-0.19769667 -0.1547042 -0.092473455
0.20361249 0.21339035 -0.15444921
0.13927986 -0.06916551 0.03237616
-0.23595296 -0.082022846 0.21858647
0.24110019 -0.09530083 0.037902895
-0.14574744 -0.050701402 0.08122983
0.25497243 -0.10549211 0.029639676
0.17715786 0.23756252 -0.18357514
-0.01363897 0.0046857814 -0.08619145
-0.054808926 -0.21710445 -0.016054373
0.031059507 -0.17206267 0.15828885
0.28564936 -0.07957509 -0.01337206
0.31608137 0.032981735 -0.0118213575
0.059595093 -0.2963087 -0.07310218
0.32471368 0.041673746 -0.004279887
-0.14570524 -0.1515979 0.18640596
0.12983921 0.17460625 -0.16087143
0.27265313 0.032940123 0.018630503
0.22887236 0.13614345 -0.11289965
0.15177676 -0.15377031 0.21440783
-0.09280241 -0.2260525 0.01913664
-0.2628319 -0.13046356 0.14240448
0.092601076 -0.21725297 0.08820764
0.06531361 0.14737241 -0.07625168
0.039722033 -0.22262667 0.18820065
-0.18324554 0.2506807 -0.16330622
-0.20852111 0.09592127 0.019395918
0.19730699 -0.05109456 0.06700414
0.0041952343 0.025192076 0.033320565
0.27978185 0.08799052 -0.08974344
-0.018713992 -0.042963672 -0.09306091
-0.13897932 -0.1231962 0.14979295
0.050953858 0.27753314 -0.18368454
0.18161038 -0.15443848 0.033717297
-0.07677509 -0.08589938 0.1717514
-0.22968595 -0.0874457 -0.19788732
-0.073677056 -0.22747627 0.20701809
0.072846375 0.15888983 -0.1556506
0.07299773 0.13697581 -0.11748209
0.13261116 -0.22385783 -0.10512888
0.14893658 -0.20148571 -0.023329332
-0.16605882 0.25638077 -0.14967099
-0.22347231 0.0053075966 0.13559785
0.015455582 0.24698326 -0.1512921
0.30617705 -0.095880136 0.015219257
0.13060465 0.21810545 -0.1902978
0.18038313 0.07191884 -0.06957091
0.09699415 0.2275919 -0.20326005
-0.0148148965 -0.17204112 0.21416359
0.22368535 -0.15643477 0.0988716
-0.1140563 0.20323725 -0.066429324
0.23422119 -0.2089129 0.066183485
-0.21539244 0.17664762 -0.09541401
-0.015316793 -0.04913209 0.09458287
-0.11408801 0.21589419 -0.092521034
0.3312453 0.15001406 -0.08106673
-0.2670474 -0.07651723 0.10293452
-0.22226383 0.021053907 -0.19688159
0.23147497 0.072853684 -0.025706682
-0.26114386 0.12628339 0.008726193
-0.16447294 0.13670464 -0.14149983
-0.116219945 0.04318069 0.020030826
0.0040711244 0.24072814 -0.13444999
0.29437158 -0.0039224904 -0.033060204
-0.22767247 0.23948406 -0.1168442
0.14230146 -0.03919762 0.08972137
-0.06795655 0.22261344 -0.2240645
-0.16740057 0.13444825 -0.061832517
0.17460611 -0.13366161 -0.18398204
0.100186475 0.072896555 -0.11422063
-0.18315637 -0.22011617 -0.044468064
0.12768488 0.12533292 -0.10852319
0.03598762 -0.1275432 -0.0005317481
0.111425385 -0.21393365 0.045608014
0.00056142587 0.08842157 0.010745821
0.010957724 -0.21647851 0.23144959
-0.27268296 -0.062943846 0.1247658
-0.23136039 -0.059489906 0.1525227
0.24560076 0.15205935 -0.20780417
-0.17819823 -0.00021821409 -0.2550248
0.023176417 0.263738 -0.17418793
0.15048201 -0.2686181 -0.08050571
-0.14619982 -0.041823193 0.04177416
-0.22223103 -0.13083753 -0.14122234
0.041103207 0.23776709 -0.21638288
0.26597783 0.13664195 -0.10138301
0.25854293 0.09145181 -0.05727195
-0.30334702 -0.032368205 0.14679278
-0.21610755 0.29091373 -0.1440668
0.13275053 -0.107094556 0.14616843
0.34776 -0.019402837 -0.018434217
0.25196356 0.0079005435 0.029325362
-0.004002359 -0.019179085 -0.060124855
-0.029592164 -0.1202022 0.08774643
-0.15047938 0.114050955 -0.052143436
-0.033924945 0.20829007 -0.10125966
0.19651243 -0.0541964 0.0031189125
0.102337286 -0.14370547 -0.027576242
0.037632186 0.019702422 -0.06598478
0.049587898 -0.18842167 0.20654155
0.020396361 -0.16587108 0.17197013
-0.33042482 0.1323297 0.041120365
-0.13447642 0.10238696 -0.09858784
-0.09851451 -0.27845326 0.021374058
0.0032634407 0.15137537 -0.050994888
0.11574283 -0.10046511 0.13257152
0.034930214 -0.20805827 0.24210373
-0.31171003 0.09228039 -0.08626105
-0.20766419 -0.059499707 0.12328082
0.0043830858 -0.27427816 -0.06658916
-0.095978685 -0.17915489 0.14653456
0.24180685 0.11087748 -0.17095833
-0.02751657 -0.050631817 0.09444837
0.28745717 0.07994568 -0.14386247
0.1653698 -0.20160279 0.13037011
0.25457487 -0.16973355 0.111581706
0.091619864 -0.20086649 0.20634314
-0.21535909 0.01854778 0.09417852
-0.071367145 -0.011164935 0.0539225
-0.25321406 0.055024453 0.024247738
0.052658923 0.04681532 0.057625666
0.049766805 -0.2533225 0.14406176
-0.012087962 0.010740567 0.051688142
0.27203253 0.010527178 0.07039155
-0.03105163 0.25771764 -0.2304819
-0.080796584 0.2263556 -0.1601403
0.22750244 0.08929184 -0.09077304
0.21796332 -0.14883351 0.17130396
-0.19521679 0.21678714 -0.13820116
0.17523097 0.17253873 -0.10882307
-0.24393761 0.18655841 -0.07708061
0.12121091 -0.03062474 -0.008534042
0.22781986 -0.1148025 0.10643022
0.09571679 0.036529336 0.017361324
-0.11652903 -0.17390849 -0.035276234
0.2855683 -0.15426779 0.07381733
0.13174254 -0.14543661 0.12520063
0.008929599 0.05103177 -0.081303805
0.2018996 -0.16363412 -0.092686474
-0.0890619 -0.04826849 0.14414324
-0.12667786 0.07832536 -0.0108128935
0.2755616 0.00488294 -0.10192528
-0.20090513 0.049015578 0.086687185
0.2033114 0.027338743 -0.01411073
0.3368389 0.0064870957 -0.08415895
0.28081182 0.1798735 -0.1352142
-0.08733757 -0.1394095 0.14155522
-0.21996456 -0.1826949 -0.07037677
-0.21711674 0.0018883846 -0.11522114
-0.20343857 -0.07188488 0.09063668
0.16015099 0.022311697 -0.032980278
-0.017850595 -0.26029456 -0.010272794
0.14641486 0.037590764 -0.0680618
-0.021378336 0.040643334 -0.034653425
0.07818637 0.14777924 -0.07277458
0.03398132 0.04445419 -0.01787868
-0.12788741 -0.27743283 -0.059406534
0.13247 -0.1747364 0.24630708
-0.10121799 0.08261396 -0.0934147
-0.17957155 0.10187804 -0.01593976
0.11555539 0.1387682 -0.08519954
-0.04543311 0.20626979 -0.16112189
-0.0015089454 0.19577178 -0.08902475
0.0037712245 0.24583279 -0.20179541
-0.20745428 -0.15934749 -0.12994675
-0.036025815 -0.047495276 0.0709409
-0.20873293 0.0978666 0.00031853153
-0.009940019 -0.10156611 0.10572366
0.1114704 0.04435138 -0.087668985
0.19712667 -0.10870099 0.06267672
-0.14643078 -0.14349717 -0.11210103
0.26696143 -0.07227665 0.040827703
-0.02485608 -0.17572638 0.16789722
0.27848306 -0.041061237 0.02097889
0.25838146 0.13865714 -0.1571422
0.2588327 -0.13941781 0.10748167
-0.19194911 0.06857405 0.09617756
-0.18275459 0.1909935 -0.038463887
-0.22358967 0.14386933 -0.07611349
-0.2044816 0.17093919 -0.06497101
0.19253443 -0.06966455 0.03605222
0.17790253 0.15368786 -0.1853084
0.15077667 -0.035759754 -0.0012805224
-0.13598534 0.08976581 -0.040057313
0.1408 -0.16438106 0.1003272
-0.17542826 -0.17633158 0.21861316
0.014152442 -0.0023242424 0.0076535954
0.016150154 -0.025028236 0.04195537
-0.07497462 0.20825629 -0.11317001
0.25159603 0.05003777 -0.07743182
-0.038825706 -0.07242877 0.07848929
-0.20693281 -0.07502395 0.18182343
0.007126271 0.06304877 -0.07313352
0.060149398 -0.06782876 0.13292679
0.0064593437 -0.15351352 0.19264694
-0.037611514 0.13475491 -0.11713824
-0.25134906 0.11296612 -0.06297351
-0.1489491 -0.1211277 0.009899124
-0.25675097 -0.029226203 0.10326601
0.115431644 0.0020279512 0.0666457
0.09515759 -0.18241133 0.15726687
-0.08798776 -0.019821292 0.027618753
0.30943492 -0.04720612 0.023488874
0.11557923 0.19409497 -0.19667599
-0.22868705 -0.04065714 0.105533585
-0.002624398 -0.18130736 0.19073293
0.10664878 -0.25831667 -0.032040514
-0.1169641 0.23465545 -0.14784434
0.27728096 -0.01870499 0.035881117
-0.23701166 0.01449625 0.06977235
-0.32641008 0.09018337 -0.018672282
0.16462396 0.2762236 -0.23155144
0.024055924 -0.05167362 -0.0859135
-0.04080464 0.07426959 -0.0885427
-0.20684905 -0.10097906 0.089224696
0.1348405 -0.14210983 0.16835299
-0.1260856 -0.10219531 0.14920937
0.0713533 0.087550014 -0.03454982
-0.21407048 0.08208415 0.024576413
-0.14795296 -0.20252855 -0.027847271
-0.26664826 -0.017491817 0.10257519
0.24346991 0.15018225 -0.078592725
0.23631209 -0.10882457 0.12242482
-0.16134942 0.056000147 -0.0014648521
0.023046346 -0.09814918 0.11780235
0.21584943 -0.04491669 0.05021157
0.2401628 -0.18864958 0.16310619
0.074174754 0.07520062 0.007726132
-0.084302984 0.045172364 -0.026708724
0.17815875 -0.042235002 0.0009705204
-0.18168999 0.16872208 -0.022059279
0.1733944 0.07827013 -0.094977826
0.0037828875 0.17311496 -0.08276129
-0.07384684 0.18707214 -0.20126158
0.16938506 0.260807 -0.20582011
0.06771508 -0.16503322 0.002701806
-0.2795169 0.18138415 -0.15948348
0.30135924 -0.03072476 0.07294063
-0.058885995 -0.12140739 0.24667734
-0.28070986 -0.22236572 -0.09677892
-0.21191058 -0.08147375 0.096266225
-0.21332794 0.17811228 -0.08981761
-0.17119718 -0.25819632 -0.06573565
-0.22444454 -0.13725516 0.15944515
0.12214013 0.028474746 -0.010706444
0.113496155 -0.061406534 0.13550016
0.07155808 0.06346601 -0.039388254
-0.21123771 -0.07281502 0.16248593
-0.1508234 0.074021794 -0.014213338
0.12352792 -0.11227136 0.17119065
-0.18132885 -0.050062552 0.11693921
0.24911115 -0.12883829 -0.25327352
-0.22901855 0.095967285 0.033069916
-0.16181734 -0.21700275 0.21406761
-0.14424871 0.08334342 0.04638952
0.08535429 -0.080880955 0.09581271
0.13985191 -0.20879094 0.22164392
-0.23553655 0.16279177 -0.11082
-0.017416855 -0.16470434 0.13492276
0.010916039 -0.09658963 0.089937024
0.12977457 0.13458936 -0.12522301
-0.2235446 -0.09084605 0.19414853
0.30910268 -0.057160076 -0.013619324
-0.3217098 0.049739588 0.027837079
0.013469273 0.039636213 0.02358272
-0.074546814 -0.08459568 0.16535407
0.13180009 -0.0015418304 0.03487994
0.041343395 0.0018999008 0.08051852
-0.104443595 -0.10979354 0.1370776
-0.14164785 0.08666798 0.024317324
-0.10900438 0.0006934882 -0.026788503
-0.021719633 0.24036376 -0.23612508
0.20883481 0.011135887 -0.040977754
0.2072669 -0.153587 0.1673965
0.06800935 0.013545891 -0.065494865
0.08452267 -0.16104627 -0.03153984
-0.20441715 -0.103341065 -0.042308357
0.040885355 -0.14223433 0.152702
-0.19679625 -0.09045769 0.15018792
0.113465846 -0.057064537 0.04206903
-0.1889375 -0.12895977 -0.11707543
-0.17739013 0.029091014 0.025360618
-0.08653204 0.19578694 -0.071362056
0.016548496 -0.24513271 -0.053006098
-0.2537838 -0.08420056 0.13566539
0.04133127 0.20014854 -0.1320762
-0.26199555 0.1562276 -0.0154437935
-0.040225342 -0.100192286 0.10672799
-0.25399905 -0.08232506 -0.1733059
-0.21816753 -0.009624862 -0.21709898
0.0188235 -0.17793912 -0.015922202
0.11202103 -0.164771 0.22001256
0.06392558 -0.09876268 0.12045146
0.23093113 0.22571152 -0.21142277
-0.19881366 0.15173337 -0.13685146
0.18269555 0.13646275 -0.112703554
0.07526917 -0.1608762 0.13698378
-0.20712829 0.08897379 0.0198641
-0.27848187 0.21966344 -0.099377744
-0.24191476 0.127907 0.003159236
0.17100058 0.042058725 -0.068261966
-0.03416558 0.2631332 -0.15383969
-0.18257621 -0.11580183 -0.15024222
0.2273986 0.07091793 -0.093936436
0.2529785 -0.04488469 0.007698455
0.14181226 -0.12846985 0.11018051
0.19727984 0.16358013 -0.17995405
0.12641524 0.07517789 -0.12863286
0.15132155 0.22514519 -0.15190871
0.14769067 0.25890034 -0.20851132
0.01408551 0.11358546 -0.11155929
-0.15799902 -0.027019782 -0.13111562
-0.05721024 -0.15731694 0.019977808
0.3012712 0.08353483 -0.10248486
-0.11150121 -0.03513544 0.15527016
-0.05610326 -0.116128735 0.004601366
0.2203745 0.096113324 -0.028362459
-0.017811714 0.24847284 -0.17575014
0.34138387 0.0039960127 -0.0119033605
-0.21341978 0.1646806 -0.03780176
-0.08743694 0.123861335 -0.058097787
0.2515834 0.047581848 0.03672919
0.08592682 -0.016522098 0.079870686
0.11761798 0.17599191 -0.090475805
0.083846934 -0.19172928 0.13613032
-0.18726653 -0.10968838 0.18630305
0.20422131 0.15980493 -0.08944636
-0.27328533 -0.18655577 -0.13140245
-0.24081422 0.038337924 0.004899284
0.034096148 -0.011713057 0.08086662
-0.24740182 -0.08455268 -0.15916587
0.2785888 0.12101153 -0.19131924
