# .PCD v0.7 - Point Cloud Data file format
VERSION 0.7
FIELDS x y z
SIZE 4 4 4
TYPE F F F
COUNT 1 1 1
WIDTH 1000
HEIGHT 1
VIEWPOINT 0 0 0 1 0 0 0
POINTS 1000
DATA ascii
-0.04066264 -0.13218124 -0.005349883
-0.13156235 -0.29598278 -0.11254317
-0.17886013 0.001475803 0.008255464
0.1817373 0.0013190351 -0.1635112
-0.110441975 -0.07442573 -0.03301647
0.031508274 0.1226772 0.06744915
-0.054614108 0.08306627 0.0366409
-0.014525575 0.1797892 -0.03902068
-0.0071616946 -0.019473244 0.0995554
-0.09668834 -0.13038683 0.1835505
0.094114006 0.036049873 0.0996449
-0.020810684 -0.038459186 0.12898262
-0.027519237 -0.14906584 0.05475832
-0.11955422 0.13862278 -0.0029240693
-0.013238733 -0.16994855 -0.20938058
-0.07720894 0.016713323 0.14114419
2.0565014e-06 0.1341833 0.018275851
-0.026325526 -0.056222532 0.12408668
-0.1245424 -0.06439445 -0.024029762
-0.26806778 -0.103873804 -0.110274054
-0.12766592 -0.2427246 -0.02396217
0.014249873 -0.09459717 -0.061345056
-0.21804366 -0.028171398 -0.057084564
-0.06834666 -0.22060014 -0.25295854
0.028353173 0.22994055 -0.038320027
-0.07092684 -0.21100633 -0.2900313
-0.059002485 0.12955955 -0.04440069
-0.17040448 -0.047189817 0.07600241
0.18930164 0.08532614 0.20444117
-0.09572096 -0.079804644 0.020134032
0.22117917 0.06236903 -0.1619641
-0.07099459 0.0657526 0.12409875
-0.10187715 0.10792314 0.12064441
-0.008714625 -0.079259634 -0.23476644
0.006252244 -0.12896341 -0.29644513
0.22673063 0.054272827 -0.20671003
-0.22629982 0.08133641 -0.07888325
-0.10486874 -0.17846288 -0.05006029
0.16808744 -0.023846015 -0.22271165
0.004279109 -0.1500022 -0.009224293
-0.044193204 -0.2237545 -0.3030804
0.14375825 0.032190517 0.01913121
-0.24439721 0.024965305 0.034219947
-0.0831262 -0.023042722 0.039004374
-0.053574305 -0.1745688 0.11479306
-0.1395036 -0.21618105 0.1261934
0.044173907 -0.15365924 -0.1934223
-0.1671559 0.071001574 -0.03783842
0.04509894 0.10701944 0.057034247
0.08785342 0.020507157 0.18431903
-0.03345998 -0.15271346 0.22707115
0.113929726 -0.025026236 0.19760822
0.055149484 -0.0939303 0.0452882
-0.04734419 -0.13726395 0.12785855
-0.02101626 -0.20261116 -0.10875493
-0.14702392 -0.18989758 -0.2553273
0.06788796 0.26215976 -0.010813849
0.19288822 0.031717774 -0.13672443
-0.08995219 -0.21639623 -0.30152506
0.18216595 0.09319783 0.16100828
-0.02830019 -0.17819455 -0.19697855
-0.037489526 0.0002720218 0.09499013
0.022519363 -0.053790327 0.26011565
0.019930132 0.15293339 0.046741955
0.13763557 0.016135817 -0.22015533
0.19340453 0.06773081 0.16144049
0.21020308 0.0930551 0.08457514
0.11773406 0.033315428 0.061685123
0.04142796 0.26410583 -0.058946148
-0.09961237 0.16148944 0.026160339
-0.116448924 0.121821776 -0.025370572
-0.07789479 0.10016421 0.04309372
0.1739829 -0.009760871 -0.12815984
0.096154206 -0.078764446 -0.019691484
-0.00022513488 0.013655535 0.04568817
0.07175516 0.0032210026 0.11049453
-0.10146065 0.097586416 0.1555961
0.083448626 -0.10746115 -0.09926644
-0.041085992 -0.20037831 0.16523357
-0.041241847 0.09810911 0.048948783
-0.031065794 -0.15153389 -0.10787783
0.17436026 0.05720698 0.20525567
0.14980274 -0.047627397 -0.06724102
0.104625866 0.026652966 0.19196598
-0.21521309 -0.036767844 -0.15941022
-0.15075421 0.120773196 -0.06270308
0.051746868 -0.023509217 0.15692599
0.14903438 -0.0021666316 -0.35359868
-0.2464095 0.026204543 0.08671202
0.26295692 0.12394613 -0.024967246
-0.01821961 -0.19228165 0.044250622
0.2061311 0.0595502 -0.19180126
0.15187891 0.069438934 -0.15280674
-0.020947471 0.11271825 0.04847204
-0.062515974 0.043443512 0.06928664
-0.12672268 0.08105015 0.037012037
-0.16876966 -0.02929342 -0.27759668
0.22261485 0.100489296 0.05229429
-0.18675222 0.054303218 -0.00960572
-0.13116479 -0.1769973 -0.006480282
0.09271166 0.2635477 -0.074175976
0.080126755 0.03886415 0.19459967
-0.14399754 0.13941507 -0.014546971
-0.089647025 0.076497056 0.10648222
-0.053974453 0.13240626 0.025075728
-0.109273694 0.10009852 -0.14713447
0.046267446 0.20831928 0.03893293
-0.17895794 -0.003444496 -0.04620909
-0.13277332 -0.0944474 0.0404482
0.08482868 0.05494951 0.14835325
-0.031178562 0.07367366 0.069941215
0.057045996 0.12581706 -0.15287477
-0.031516522 -0.14783023 0.14263305
-0.0683874 -0.23453657 -0.26100257
0.024133693 -0.11438593 -0.4182587
-0.056230623 0.15018842 0.14670452
0.08280614 0.15102638 -0.03902591
-0.03140387 -0.2421376 -0.3239612
-0.13106617 -0.100303374 0.20930105
0.20090151 0.0035236333 0.12509325
-0.04326376 -0.21831663 -0.10343077
0.09824801 0.12920982 -0.05993061
-0.037489202 0.02597001 0.102980115
-0.034208637 0.113259174 0.01909152
0.06251676 0.0060428185 0.08402576
0.050258525 -0.045443445 0.20134996
-0.12437892 0.020670375 0.07975698
-0.101291046 0.123063914 0.047448337
0.1544959 -0.039370228 -0.29842016
-0.19625953 -0.051012404 -0.10454089
-0.18022932 -0.03969594 0.023204787
-0.03948118 -0.058518708 0.16825895
0.17899303 0.057523206 0.103803575
0.042391863 -0.09643365 0.12347935
0.011740335 -0.026786044 0.2114484
0.22560212 0.1530165 0.1302037
-0.07756411 0.1815286 0.03542474
0.09451435 0.27336413 0.024962949
0.062628664 -0.109396055 -0.19982906
-0.05931292 0.034883514 0.08926327
0.035571292 -0.05449529 0.177008
-0.0692865 -0.044212583 0.0054604476
-0.122402884 -0.19811964 0.08525573
-0.089143984 -0.181798 0.07014092
-0.059584085 -0.16642672 0.09993643
0.034560442 -0.025299756 0.24234378
-0.047376808 -0.08484165 0.11966316
-0.110345624 0.033518452 0.08835409
-0.062547654 0.15426752 0.0838141
-0.108075194 -0.016885191 0.074966595
0.07478622 -0.04403127 0.24552634
0.0016201499 0.123220675 0.031522118
0.115676574 0.108660415 -0.034476295
-0.20696962 -0.2632171 -0.0014671043
0.0575335 0.13427247 -0.225547
-0.0907564 -0.08584239 0.080605514
-0.1531125 -0.05550439 -0.1348985
0.08597928 0.18894155 -0.051142287
0.1262852 0.12712191 -0.0890326
-0.051461603 -0.038277175 0.14566793
0.08259827 0.12581347 0.010214365
-0.11263757 -0.182474 0.12653716
0.03710853 -0.07254814 0.12429171
-0.13669416 0.07648887 0.036765266
0.21469411 0.038373094 -0.27539518
-0.11812702 0.15173088 -0.0027375955
0.20526299 0.03267461 -0.13926429
-0.04896642 0.14815313 0.14914156
-0.038469665 -0.13685048 0.20184489
0.0453707 -0.11126999 -0.13690597
-0.013436807 -0.1248953 -0.150292
-0.15842588 -0.24393435 -0.12209265
0.045840744 -0.07115107 0.11777959
-0.114092715 0.123009294 0.13905233
-0.16972844 0.113443844 -0.026753929
-0.2731426 -0.02553239 -0.15789632
0.028151395 0.08339707 0.019322336
-0.061498966 -0.20099305 -0.06597721
0.23599505 0.0017843171 -0.27895147
0.052400574 0.19570403 -0.1727164
-0.11602829 0.06805814 0.02685802
-0.09044237 -0.28484428 -0.15034759
0.031274527 -0.11020564 0.031416677
-0.17801508 0.056880157 0.07346567
0.17427954 0.013880511 -0.17362443
-0.18801984 0.04834802 0.055810362
0.053894762 -0.00328391 0.16824633
0.06573733 0.21327193 0.08739328
0.27027088 0.16167466 -0.0594523
-0.058662467 -0.14272922 0.10936468
0.1395239 -0.018863728 -0.08779058
0.30666837 0.16031821 -0.043312702
0.06957236 0.15074669 -0.09593387
-0.26548678 -0.0011054935 -0.17645097
0.12761487 0.18656895 -0.064940125
0.02427195 -0.15811247 0.053748194
-0.0032202778 -0.18333721 -0.11413692
0.02758744 0.015320993 -0.005786983
0.17298219 0.022494122 -0.31301937
-0.07308631 -0.0065223617 0.13324282
-0.055235956 -0.13958175 0.0026695025
0.11700242 -0.017419588 0.2509793
0.10574877 0.085393585 0.04582163
-0.19109713 0.055757828 -0.008097955
0.19213215 0.013518872 -0.101701856
0.078019395 0.15133047 -0.0070524984
0.11223194 -0.008081515 0.095082015
-0.031385906 -0.0023393468 0.08168164
-0.042809136 -0.16104016 -0.119613394
0.014238737 0.06898267 0.0895647
-0.20453158 -0.021050334 0.11816631
0.21106632 0.04257923 0.0069101923
0.1036752 -0.03423477 0.16539034
-0.11713155 -0.19539662 0.06315784
0.16647819 0.010296063 0.002514025
-0.058779262 0.12925513 0.07462228
0.024489494 0.05993847 0.049357284
0.1987184 0.075977854 0.1038548
-0.01347559 -0.20108625 0.04204568
0.039284408 -0.1269277 -0.23767462
0.22581455 0.15465061 0.027247602
0.11224945 -0.02005737 0.19842018
-0.028632687 -0.21658346 -0.12964255
-0.006148645 0.19564678 0.028750809
-0.15009084 -0.1863143 0.13928916
0.046977583 0.2175652 -0.12440893
-0.22734089 -0.0037490774 0.042717367
0.009228365 -0.06613017 -0.17497325
-0.0272045 -0.029671343 0.13598281
-0.07443344 -0.20431149 -0.29762664
-0.115522906 0.049151767 0.17669661
0.08314927 0.24952818 -0.01099856
0.2516511 0.04341302 -0.27504742
0.103201866 0.1736857 -0.23152716
-0.09191371 -0.17546555 0.17503858
0.0060195304 0.10527033 0.07751876
0.01642275 0.18726811 0.0069770026
0.094825305 -0.04619677 0.12643194
0.06609683 -0.09572428 -0.17687364
0.12254004 -0.05831306 -0.042404898
-0.10269947 0.052446436 0.044812024
-0.15642622 0.1153378 -0.011309367
-0.15136556 0.080445945 -0.04516359
0.10657021 -0.01863511 -0.30173105
-0.1646179 0.03630242 0.09170141
-0.14038678 -0.27670026 -0.18488103
-0.14348221 0.07409147 0.026021997
0.021439597 -0.07276 0.23740475
-0.12462075 0.14667588 -0.018713517
-0.026379809 -0.010811937 0.08483637
-0.0375356 0.1896361 -0.15166369
-0.052918244 0.117449254 0.012720695
0.18882431 0.033303756 -0.011251735
0.19069363 0.13442914 0.14215952
0.1928168 0.043104976 -0.35858187
-0.033066053 0.20232376 0.07118159
0.21632878 0.081496015 -0.011274551
0.059712812 0.17575538 0.02525001
0.24058929 0.09536996 0.020134648
-0.23361559 -0.0056844098 0.10362826
-0.047115795 0.010711825 0.06467275
-0.15326124 -0.015391429 0.005757084
-0.09537691 0.0014654404 0.0019163812
0.05970972 -0.083350316 0.19324607
0.07526897 0.08943294 -0.06866173
-0.20820431 -0.02272364 0.020068618
0.08415814 -0.053472284 0.13782454
-0.059745353 0.05388434 0.05239544
0.25962973 0.16385855 -0.08195932
0.048711322 0.19364688 -0.18172503
-0.13271366 -0.09885142 -0.035890438
-0.10190785 -0.05761841 0.03652554
0.05273371 0.1073688 0.04217985
-0.027865529 0.14041284 0.026663795
-0.026244411 -0.084747545 0.20219208
0.013802989 -0.113001876 0.06978038
-0.11301682 -0.16125691 0.1245051
0.2044331 0.060106058 0.10746318
-0.049659785 -0.19156851 0.041638725
0.15354984 -0.08425886 -0.30752888
0.06128507 0.05857143 -0.008064883
0.0337028 -0.029369958 0.15125263
-0.063332595 -0.21179089 -0.0070839883
0.11465718 -0.0037375626 0.13935326
0.0548388 0.050890274 -0.0046543665
0.3507933 0.17777039 -0.041890465
0.0664558 0.079016626 0.060118034
-0.2330955 -0.002765549 -0.029423464
-0.012598524 0.040198706 0.044762153
0.039511885 0.23901068 0.014358671
-0.051198907 0.15279366 0.09522668
0.0560987 -0.11505412 0.06712923
0.295993 0.08825716 -0.06786787
-0.21864577 -0.05136761 0.020658197
-0.0014016532 0.13912803 -0.013294118
0.15585868 0.09314876 -0.010315741
0.17398432 0.066712275 -0.16990519
-0.12115168 -0.010631342 0.05847305
0.046705108 -0.006310503 0.13060758
0.12386777 -0.006557266 0.14921321
-0.24432582 -0.08068898 -0.0949295
-0.20501697 -0.26769403 0.03701545
0.04230122 -0.019881656 0.25488868
-0.16922167 0.104119584 0.101921275
0.16425024 0.023073925 -0.21069813
-0.05816572 -0.21240428 0.13774072
-0.25706932 -0.045592766 0.0906862
0.036252826 -0.03503824 0.095613055
-0.02865123 0.12849775 0.036941666
-0.09648406 0.23037942 -0.083419465
0.0025834583 0.07473657 -0.0005662721
0.021599129 0.14959908 -0.34627244
-0.14733331 0.14044681 -0.029845878
-0.06009622 -0.07797968 0.12686945
-0.1531528 -0.2708199 -0.21898264
0.041541103 -0.05747165 0.19224645
0.09021865 0.061133962 0.12688133
-0.040303864 -0.16428335 0.1175048
0.077428795 0.08351565 -0.026030997
0.096862346 -0.07334324 0.17451258
0.17894047 0.004473125 -0.1373451
0.1102168 0.032936756 -0.059993442
0.03061171 -0.092942104 -0.09360744
-0.23751645 0.004800927 0.07404869
0.00401295 0.12826891 0.05598689
-0.14916764 -0.086321294 -0.12630178
0.26747617 0.06782147 -0.27698353
0.18495357 0.055384714 -0.029252723
0.17020065 0.035210017 0.12027699
0.2731979 0.11443663 -0.18798897
-0.14753461 -0.24940418 -0.13752471
0.007841048 0.12038473 0.06955964
-0.036584813 0.16726416 0.016778473
0.27806515 0.130519 -0.17489831
-0.053994097 -0.0035482906 0.04315146
0.134407 -0.06502832 -0.15519442
-0.034327134 0.0877566 0.043338344
-0.047674384 -0.0058837943 0.092698336
-0.071317576 -0.03825954 0.050310872
-0.06395538 0.056060914 0.04939995
-0.011485783 -0.19037151 -0.35160857
0.035366327 0.06824068 -0.02783646
-0.06481936 0.009801334 0.04370251
0.05773674 -0.13418308 -0.31642038
0.17492066 0.037897762 -0.28022143
0.057231333 -0.09255859 -0.13862878
-0.18625028 0.05428376 0.06884656
-0.07105153 -0.06485414 0.1620109
0.0051176185 -0.14607963 -0.104110524
-0.095081374 -0.20946467 0.15545572
-0.08819348 -0.22046989 -0.32875434
-0.09297405 -0.012295688 0.14482984
-0.026111301 0.20021492 0.015802046
0.074637085 0.15386023 0.01717222
0.1795718 0.050974995 0.14070967
0.015049847 -0.03352813 0.117772445
0.07597774 0.1460409 0.009085822
-0.18452242 -0.2645826 -0.11686588
0.037775416 -0.088042624 0.17009099
-0.044826634 -0.13545191 0.1930474
0.008644979 -0.0577263 0.20468366
0.05933662 -0.19321513 -0.14830656
0.18346 0.05938867 -0.20671941
0.009349119 0.13891307 0.13680561
0.2708369 0.15258683 -0.18212251
-0.10444947 0.075049154 0.081387796
0.07692956 -0.026326802 0.032533273
-0.12272851 -0.0023923086 -0.04474387
0.13672104 -0.090181895 -0.1564566
-0.16920216 0.04621662 0.04636549
-0.24453706 -0.004863698 0.06758487
0.2362893 0.13570695 0.035016578
-0.25609452 -0.055001557 0.06663906
-0.21678963 0.0036419225 -0.13926542
-0.23220465 0.008237816 -0.06390988
0.14062247 0.019314611 0.04312461
0.31309742 0.10836616 -0.053993743
-0.01368942 -0.2148194 -0.3154127
0.22091617 0.07629321 0.17651506
0.21255223 0.117622264 -0.049711417
0.027046017 0.19625501 -0.30551845
-0.21886268 0.029677507 0.028553087
-0.04574806 0.08619711 0.037430473
0.1752151 0.09589169 -0.043728415
0.13688783 0.050253056 0.16296734
-0.05880104 -0.17048222 -0.15019797
0.15438752 0.07438261 -0.2694832
0.0474106 -0.11619251 -0.33637983
0.06384824 0.02909392 0.15084337
-0.09569343 -0.17425877 0.048954155
0.12764543 0.032255337 0.23945597
-0.09286072 -0.2160846 -0.14040726
0.031694636 -0.08367964 -0.12597871
0.14473848 0.04732473 0.15593362
-0.037101015 -0.13417667 0.15719636
-0.05258632 -0.21050183 -0.2812317
0.014680211 0.17663294 -0.0017820997
0.15151714 0.07224056 0.11138667
0.06717821 0.21035497 -0.14171301
0.00061939436 -0.03456103 0.14867236
0.053316694 0.09294845 -0.12407899
-0.0058437227 -0.1520751 -0.063586496
0.15631121 0.021817585 -0.24600591
-0.056366716 0.08072431 0.06891676
0.048676442 -0.023708936 0.08464319
-0.1525527 -0.24196048 -0.0781763
0.17744085 0.06631966 0.13004771
-0.14180817 -0.2063493 0.02316222
-0.25219592 0.08881936 -0.10328327
-0.12795442 0.120015636 -0.15939048
-0.08885341 0.093769796 0.15487468
-0.29142773 -0.03716216 -0.04272781
-0.04678609 -0.022578847 0.08978217
0.06788611 0.22910026 0.0023808053
-0.15506634 0.11557297 0.028810358
-0.12823874 -0.27378234 -0.2427607
0.009869005 0.07549078 -0.010912762
0.021578912 -0.10389416 -0.14737411
-0.24374743 -0.04555779 0.06093285
-0.115418814 -0.13323946 0.116002105
-0.10153827 0.22634222 -0.0655141
-0.16944522 -0.044795606 0.04018245
0.05163487 -0.12079864 -0.31192946
-0.038650487 -0.17514236 0.106257886
0.16881667 -0.01083127 -0.33075738
-0.08107493 -0.23235442 -0.2524008
0.099521816 0.0069438056 0.11735629
-0.027758222 0.11792624 0.09561973
0.068315305 0.004041149 0.14743611
-0.079713166 -0.19783275 0.14147669
-0.0831197 -0.07511652 -0.023761397
0.16640773 0.041086294 0.23569842
-0.0058219046 0.15307601 0.049933884
0.061038844 -0.14453249 -0.11460949
0.0441389 0.15803497 -0.0015354945
-0.0013105476 0.11398577 0.00874635
0.2437294 0.16396561 -0.15672584
-0.09338707 -0.20282876 0.121112645
0.2199694 -0.024293823 -0.2042255
0.03146332 -0.14602208 -0.31761405
0.05092584 -0.09660392 0.20822622
0.010223707 0.008917885 -0.014532578
-0.03997473 -0.12309172 0.0026147598
0.027941074 0.04399064 0.08658229
-0.04297685 -0.11868798 -0.001410153
0.2064894 0.12021676 0.10662401
0.07855198 0.038403865 0.050121076
-0.027214093 0.12044826 -0.027149938
-0.009953667 -0.17029653 0.037255533
0.09781428 -0.14519064 -0.39322826
0.12248647 0.03810019 0.20285101
0.25999922 0.04135514 -0.18360098
-0.029775172 -0.07586728 0.12556706
-0.0047819214 -0.101215884 0.117695875
-0.20059997 0.058319077 0.07863389
0.25045094 0.07954403 -0.0060195965
0.1748831 0.06833894 0.019378433
-0.028943233 0.0963909 0.029691536
-0.08221874 -0.16247484 0.18188918
-0.07933807 0.15546076 0.15024494
0.003227422 -0.068505324 0.2237198
-0.06351735 0.08628492 0.08209379
-0.12794688 0.08915703 -0.04726544
0.04106001 0.07075228 -0.0025437656
-0.105713405 0.13704382 0.09205266
0.024932645 0.1482114 0.06188598
-0.13855915 -0.24751471 0.08684
0.2163858 0.060116775 0.15570304
0.033064667 0.068245925 0.016405107
-0.13043663 -0.11292556 0.07414359
0.25850508 0.13841775 -0.18260063
0.20865344 0.12398655 -0.06376653
0.0048050624 -0.057964686 0.12835015
0.040751092 0.16339146 0.14328088
-0.043242928 0.16284773 -0.03146685
-0.09106469 -0.2611497 -0.10019268
-0.1139642 0.09835449 0.096025355
-0.18264683 0.03662803 0.057625152
-0.093460776 -0.24839278 0.152788
-0.00520252 -0.13368562 -0.19781776
0.037482686 -0.040733192 0.2022769
0.31159845 0.12426778 -0.18890788
0.07810842 -0.048598733 -0.111478925
-0.0369933 -0.1556742 0.0043116948
-0.20518987 0.07286293 0.027806483
-0.09019587 -0.23596792 -0.25484037
0.24382934 0.14878865 0.037857145
0.054083962 -0.04410989 0.25502592
-0.05944497 0.030025939 0.052882418
-0.0209609 0.07543739 0.035810493
-0.062921256 0.099778906 0.04826334
-0.11336795 0.046094093 0.035802685
0.22582896 0.10977206 0.048600566
-0.061914712 -0.19576843 -0.2141363
0.121567294 0.08730772 -0.01760377
-0.09703676 -0.16789351 -0.31399202
0.2619626 0.15785997 0.047966763
-0.030260833 0.038152494 0.066632025
-0.051441625 -0.14052346 0.18120883
0.042310487 -0.10356671 0.112466745
0.0017866642 0.20855483 0.11195098
-0.046113025 -0.118260816 0.25683808
-0.019625928 0.029958239 0.08495877
-0.13569961 -0.07869556 -0.00733474
-0.20273763 -0.07726088 -0.018515639
0.051388968 -0.08037855 -0.30789113
-0.21425247 -0.2612413 -0.07766889
-0.14201924 0.022098606 0.078072
0.042225838 0.022540571 0.08909302
-0.055672802 0.058932513 0.09707959
-0.1262791 0.118311815 0.0025612789
-0.061547846 -0.12388044 0.059415277
0.130418 0.02349124 0.18708287
0.098771006 0.23774278 0.07747325
-0.20866302 -0.028893502 0.060843673
0.15278843 -0.033486605 -0.18149039
-0.114882015 0.023816535 0.12514293
-0.15912767 0.05218014 0.04115956
0.06853962 0.07289815 -0.09307549
0.022911007 0.2235977 0.04717614
0.045865543 0.25791657 -0.14296992
0.1670873 0.06820873 -0.007947333
0.13488393 -0.097041115 -0.24186671
-0.02377205 -0.14640681 0.16073549
0.20043401 0.12647533 0.10393299
0.027913073 0.1906958 -0.09824464
-0.13749214 0.0105143525 0.11237263
0.20231867 0.06662477 0.05725834
-0.021564314 -0.110527605 0.19450086
0.058799006 0.07787884 0.14444041
0.017416162 0.18532711 0.023988297
-0.23587245 -0.047408577 0.020870999
-0.07144832 0.15533204 -0.15656121
0.08465397 -0.04776735 -0.14343877
-0.05628803 0.07039185 0.07761312
0.09997846 0.24360679 -0.10560283
0.07651635 0.18725786 -0.15645437
0.28141668 0.12178939 -0.19973226
-0.20877871 -0.07467877 0.038402323
-0.082105 -0.14759798 0.08235877
-0.0798259 0.15554251 0.015464703
0.098088525 -0.05549198 0.16419123
-0.10959587 -0.23727268 -0.010574284
0.13160118 0.108163126 -0.19662204
0.011285639 0.04280404 0.11074862
-0.032587416 -0.19437853 0.048003584
0.13963723 0.14206883 0.032173913
0.1426169 -0.010388999 -0.18378438
-0.18389527 -0.28950965 0.010797099
0.059536222 0.02404378 0.06857408
-0.18990193 0.05833746 -0.17151122
0.029874166 0.034171324 0.058535922
-0.101380415 -0.27582526 0.037653595
0.21283135 0.09568323 0.049421713
-0.121262014 -0.23063733 0.11884181
-0.13916278 -0.15415843 0.13562745
0.26986974 0.07478744 0.11393051
-0.20273638 -0.24946776 -0.12027913
-0.06725295 -0.06607597 0.18372215
-0.010394609 0.08954628 0.067795075
0.04767812 0.17045908 0.024599398
0.09749949 0.23628357 -0.24042355
-0.25491548 -0.08157596 0.020926176
-0.08995172 0.123464376 0.049505677
-0.19026887 0.07756934 0.047135424
-0.17373645 -0.22978178 0.08058765
0.08120085 0.03284913 0.03527217
-0.15573679 -0.1929734 0.082613066
-0.22147606 -0.09231675 -0.15352114
-0.19605306 0.11077441 -0.14189577
-0.14508441 0.0806353 0.13217746
-0.091712415 -0.16696587 -0.10066655
0.3442512 0.11513919 -0.11068869
0.16718893 0.085349016 0.012632406
0.27295274 0.12654907 -0.08814943
0.12739299 -0.028249448 0.14237544
-0.19899173 0.0019617183 0.018664632
-0.07885013 -0.21257815 0.047848143
-0.19205669 0.009582337 -0.27143708
0.16148934 0.03605217 -0.12187572
0.29926962 0.031024545 -0.1992825
-0.056632698 -0.22546771 0.058264688
0.17260633 -0.024087356 -0.33021086
0.10844701 0.09266129 0.15113121
-0.04716216 -0.19555074 -0.19758941
-0.124180935 -0.28305876 -0.07655476
0.30749685 0.20729502 0.0127824
0.2262859 0.050361957 0.017268725
-0.067907706 -0.20194434 -0.1705742
0.17364804 0.12680264 0.121934004
0.062192958 0.19138084 -0.06919141
-0.16827168 0.045510173 0.038901497
0.039106034 0.10961769 0.005004013
-0.018100783 0.18793926 -0.2504328
-0.11092739 0.09415197 0.018474156
-0.084027685 0.096015394 0.089955814
-0.098277256 0.08131802 0.053610563
-0.124744855 -0.15461577 0.064570926
-0.0011192587 0.15417218 0.082582176
-0.09611272 0.15814713 0.12167323
-0.009285681 -0.114291385 0.20852798
-0.20152453 -0.04536591 0.0124545945
0.03776465 0.12820722 -0.0068235956
0.074817635 0.19281495 0.03916711
0.048493784 -0.03693936 0.14029975
0.26081166 0.1470796 -0.16022168
-0.06811733 -0.14519045 0.20364597
-0.095107935 -0.12646177 0.14329663
0.11975649 0.03629097 -0.114916526
-0.014847405 0.00115714 0.17306253
0.009490775 -0.1495412 -0.24902233
0.072894126 0.221397 -0.22968282
-0.12588708 0.04392892 0.077944346
-0.016812569 -0.09981998 0.06285822
0.002121043 -0.15482216 -0.39995256
0.04192056 -0.10502962 -0.033020783
-0.10049971 -0.26035836 -0.11382455
-0.25584012 -0.08036721 -0.026554538
0.16810018 0.06551697 -0.026416494
-0.07870748 0.1644701 0.06699611
-0.10568722 0.12252596 0.025861818
0.018617092 -0.03300323 0.16087295
0.11833562 0.069885544 0.15888424
0.022746623 0.08455164 0.04084392
0.18730412 0.04686051 0.18156374
0.07214537 -0.061850075 0.24869722
0.03813425 0.23696429 0.08149227
-0.04070366 -0.09236041 0.060406867
0.14186998 0.040350787 0.021558905
-0.1368819 -0.016138585 0.1599676
-0.0031829549 -0.0996483 0.056271292
-0.09077511 -0.24321498 0.17223957
-0.13378267 -0.24516979 -0.12035846
0.06995088 -0.037908357 0.17404957
-0.20111857 0.17002515 0.0044755545
-0.019908767 -0.11440352 -0.008277149
0.07152188 0.021788975 0.25854266
0.0007211103 -0.0026959325 0.1270231
0.22526494 0.055335846 0.18762073
0.23834415 0.031208677 -0.27826923
-0.11889932 -0.20983772 -0.012640713
0.111445524 -0.07256417 -0.39315203
-0.2035914 0.032435045 0.11408671
0.13203315 0.15310639 -0.16178486
0.030952191 0.12084934 0.052640066
-0.15047039 0.041559614 0.0096237715
-0.0051522604 -0.035758827 0.21097447
0.14056578 0.089634195 0.1185926
-0.15038398 -0.2112363 -0.21523301
0.038122546 0.0165112 0.015796179
-0.051927235 0.18577859 0.03025247
-0.2916735 0.016442807 -0.010087779
-0.1803904 -0.21487626 -0.08280656
-0.15018062 0.08799353 0.14067338
-0.24656756 -0.031285156 0.10031465
-0.09537037 -0.18597218 -0.13595182
0.07357048 0.16810839 -0.25155675
-0.08424045 -0.18752638 0.15374756
0.11274115 0.14524952 -0.019306917
0.07922304 0.16714191 -0.21964416
0.035011534 0.15478052 -0.0123321125
0.09564015 -0.08980322 -0.23524523
-0.08725702 0.059814677 0.03005225
-0.017775876 0.19858244 0.09021501
-0.14116551 -0.23514341 -0.2833859
-0.21721289 -0.092834175 -0.055156905
0.30747226 0.10092785 -0.07099811
-0.14434429 0.03008513 0.090722375
0.19669 0.090548865 0.10334089
-0.22830871 -0.02888148 0.11553159
0.11029337 -0.017099151 0.1542793
0.11259294 -0.06923553 -0.4068011
-0.026410302 -0.037746266 0.14154637
-0.055290107 -0.19814654 -0.09799959
-0.050522596 0.15280503 0.092424266
-0.09814797 0.035792857 0.13628761
0.055984728 0.21492052 -0.21164432
0.028861105 0.18139598 0.13587877
0.11931177 0.03128953 0.027446015
-0.0035500452 0.104357384 0.031228596
-0.083173394 -0.07690263 -0.028807804
0.012150265 -0.16379948 0.105362125
0.06429712 0.06476332 -0.10978105
-0.14485645 0.14390011 -0.14742827
0.010755711 -0.07765263 0.2201094
-0.010650639 -0.04800368 0.09167185
-0.091224484 0.034057517 0.08194572
-0.1714709 -0.022047462 -0.3104791
0.0929827 -0.05377838 -0.30900052
0.2725823 0.14899379 -0.2778799
-0.22019714 -0.04577331 0.06080699
-0.1145425 -0.21985283 -0.09151769
0.18672206 0.07256587 0.1736105
-0.109800994 -0.24757326 0.16422012
0.14706762 -0.00996917 -0.35819104
-0.10547695 0.11902851 0.0043639597
-0.0490476 -0.106451385 0.193445
-0.13018921 -0.01622704 0.10039085
0.060262688 -0.069511205 0.1785783
0.101889655 -0.026160108 0.0737602
-0.11827777 -0.15366262 -0.28300118
-0.011193582 -0.0926669 0.08721917
-0.11933925 -0.26976237 -0.19734985
0.103179745 0.04683064 -0.046091184
-0.10410011 0.09312788 0.172482
0.24523193 0.16721581 -0.14651203
-0.10723204 -0.15117897 0.031191392
-0.07358319 -0.20638938 -0.0027099082
0.051976938 -0.06292116 0.122293256
-0.22965313 0.023539636 -0.074162275
0.1577404 0.13859472 0.20603366
0.17483418 -0.03080265 -0.35524166
0.24465676 0.15432036 -0.074567236
0.2546675 0.12048313 0.087784864
-0.10606402 0.14996502 -0.058675647
-0.21703278 -0.22144097 -0.09493879
0.094202995 -0.056251097 -0.012199287
-0.16535528 -0.014970035 0.054164518
-0.09028381 -0.014810159 0.12532324
0.15881601 0.018996887 0.13257778
0.05943004 0.04539559 0.18688956
-0.10549925 0.18469499 -0.15827121
-0.039178193 -0.123584196 0.11720375
0.1942889 -0.020210119 -0.35748577
-0.2287386 0.021041196 0.119639955
-0.0792046 0.13056692 0.10991842
0.10608902 0.007012659 0.19206198
0.2756573 0.1141725 -0.05721331
0.20939925 0.1277126 0.039251
0.12385974 -0.034603626 0.21315224
-0.037750226 0.15119718 0.071052425
-0.09272202 0.055958167 0.038976315
0.020591231 -0.093238145 0.21847762
-0.004268179 0.16573147 -0.07944242
0.117359124 0.058715735 0.001809021
-0.15677191 0.019932274 0.06082509
0.018773517 0.028000962 0.005674812
-0.17107059 -0.33246145 -0.1895934
-0.13161254 -0.18484108 0.033609644
-0.12622854 -0.19730964 0.099234164
-0.13846418 -0.17246845 0.061830398
-0.12795882 -0.0206974 0.019755427
-0.051213264 -0.05975321 0.08996677
-0.051687375 -0.11556017 0.18542069
-0.044387102 0.017302284 0.031663585
0.09840017 -0.014374596 -0.0992564
0.1217927 0.09382052 -0.23823284
0.22418857 0.06447815 -0.29844195
0.08461197 -0.011621376 -0.21941751
-0.015206076 0.11630594 0.15684287
-0.16702132 -0.31502303 -0.14304157
-0.0015528529 0.10519091 0.044640798
-0.24427463 -0.033437308 -0.25033242
-0.11015302 -0.15675244 -0.33159173
0.008749517 -0.07290362 -0.1136441
0.010533607 0.15474427 0.12094853
0.054726508 -0.047499746 0.22978246
-0.026665533 0.01855387 0.06329058
-0.049176205 0.09925324 0.12001672
-0.08739431 -0.18810132 -0.2046022
0.2069047 0.06243277 -0.24711296
0.20636837 0.08541781 0.11845584
-0.19489816 -0.28058884 0.064026006
0.100466244 0.2571556 -0.09496811
-0.011035301 0.03694806 0.05991015
0.010995458 -0.04807795 -0.068789214
-0.109889686 -0.21774447 -0.06729899
0.0022711786 0.017618734 0.116608456
-0.16055419 -0.15330231 0.18141787
0.13688391 -0.07542162 -0.25999454
0.08614747 0.017721342 0.058141932
0.13069046 0.028458111 0.08810769
0.2652795 0.15063865 -0.22817832
-0.12556829 -0.13398628 0.11359804
0.04632423 0.17548943 0.006595171
0.20747505 0.09563624 0.2052807
0.0065804604 0.16057011 0.015894694
0.24211444 0.117620364 0.09100258
0.12596637 0.07904882 -0.013796461
0.015864965 -0.03888716 0.16461661
0.08046407 0.026219403 0.11787876
-0.14619726 -0.036597688 -0.08835858
-0.05656355 -0.012787399 0.12241175
-0.049312133 0.133447 -0.0043580504
-0.21996556 -0.10127683 -0.12446904
-0.008701585 -0.10379804 -0.22480427
0.17248367 0.072549134 0.0966857
-0.15368043 -0.2154348 -0.022549555
-0.028101966 -0.2355405 -0.32676828
-0.040588833 0.035797127 0.113210514
-0.22996727 -0.025634317 -0.2664899
0.013745581 0.01951266 0.07193742
0.023080882 0.14666043 0.07848427
0.0289526 -0.08711331 0.0416268
0.060521998 -0.1159941 0.070158556
-0.20546944 -0.21107116 0.020921173
0.12012611 -0.0054305336 0.16566452
-0.12686257 0.23164766 -0.17385027
0.005216385 0.14519145 0.010119174
0.12606932 -0.042675566 -0.11294092
0.10276895 0.038015615 0.052951243
-0.06442529 -0.16627209 -0.20443651
-0.073442206 -0.075639546 -0.028419668
0.03546038 0.23277919 0.0740785
0.03703209 0.013241503 0.17665519
-0.04582886 -0.06987872 0.16442436
0.045381762 0.0719311 0.023199039
0.008535399 0.008042143 0.07488507
-0.13670439 0.16532612 -0.124548644
0.21151148 0.03917526 -0.10271962
-0.006522394 -0.120267205 -0.21494928
-0.08771505 -0.040662453 0.027532987
0.008314776 -0.15708467 0.10300861
-0.20339072 0.007782997 0.059768472
0.070832565 0.06770405 -0.04170753
-0.04985367 -0.24747942 -0.25205424
-0.009620702 0.03397505 0.1265293
0.17293628 0.077454135 -0.24211143
0.2332804 0.06831985 -0.0973092
-0.26871467 -0.05006907 0.0032829058
-0.15056401 0.03760682 0.09961513
0.24528298 0.12573643 -0.081550896
-0.19585884 0.023547873 0.06440881
-0.18041947 0.005382942 0.118412696
-0.16179474 0.055019572 0.068277
0.10049653 0.17595755 -0.0805526
-0.08983692 -0.19472022 0.15048054
-0.28013122 -0.085615404 0.010683429
0.24464811 0.1221967 0.102301605
0.109310046 -0.01341919 -0.06182211
-0.016353419 0.047307618 0.088596754
0.2155904 0.069619425 0.19482718
0.032103594 0.017627448 0.21938446
0.22521347 0.1276815 0.030929593
-0.02798587 -0.056094583 0.09046089
-0.008669613 0.07546969 0.036531407
-0.09987949 -0.18691282 -0.20867895
-0.20783223 -0.21916689 0.09919921
0.05919582 0.19389191 -0.2215498
-0.03867083 -0.119604446 -0.074707516
0.10079981 0.14292142 -0.22688763
-0.13691604 -0.2999223 -0.18173784
0.11666337 -0.021793855 0.19508778
0.2633198 0.12316454 0.10773768
-0.0015435382 -0.1790422 0.17978652
-0.11380908 -0.080107756 0.1118688
-0.119822204 0.12665625 0.12421947
0.08225991 0.12143011 0.015116906
-0.07678907 0.048071273 0.100450605
-0.15515175 0.07197027 0.18313141
0.08601155 0.10486534 -0.05696603
-0.18445626 -0.20548351 0.07463879
0.092034034 0.08908408 0.0013244454
0.03691344 -0.16277744 -0.19978262
0.217069 0.0780182 0.08928026
-0.07048337 -0.19956578 -0.38228348
0.031800985 -0.019287907 0.1380753
0.08730964 0.011829936 -0.12947923
0.029101698 0.18217467 0.058186833
0.19698158 -0.0040675984 -0.14107132
0.069060154 -0.14210425 -0.3832808
0.3042384 0.19939867 -0.03957223
0.27703074 0.068786636 -0.1406137
-0.24411425 0.05782211 -0.119909465
0.22121578 0.103773795 0.021582901
0.0121998945 -0.12878887 0.21756428
-0.04773724 -0.102007955 0.059816163
0.0481774 -0.041583788 0.08165439
0.20660654 -0.0276373 0.08616274
0.13412061 0.10749816 0.23094621
0.036211055 -0.08795385 0.005386726
-0.21751566 -0.1064553 -0.22516647
0.031429034 0.16036351 0.05136278
0.11516197 0.15431234 0.0139366975
-0.16504739 -0.059989847 0.0010720983
0.024252411 -0.109343186 0.048567638
0.080114365 0.024615038 0.021967424
0.103455454 -0.01614859 0.16311727
-0.12488893 -0.24328743 -0.22839981
-0.17431225 0.039748657 -0.15616569
0.07197992 -0.062422324 -0.0061837393
-0.066893116 0.012693054 0.10189612
0.016683497 0.12948924 0.026379513
-0.09522236 -0.08151752 0.090773486
-0.18564212 -0.24246152 -0.010252434
-0.19629663 0.12180848 0.003945838
-0.01505326 0.012807844 0.08117902
-0.15607937 -0.021008715 -0.024386149
0.124557145 0.06232086 -0.22904861
0.020367295 0.15940276 -0.001197521
-0.13545902 0.044819135 0.17343785
0.06812686 -0.01618782 0.2654968
0.20895422 0.16526084 0.09084688
-0.1129274 -0.28140333 0.1217207
0.15766792 0.03625496 0.015974345
0.01340253 -0.06884606 0.249462
-0.033357553 0.19163084 0.09722418
-0.077112034 0.044149682 0.08848756
-0.10700216 0.16137917 0.12762855
-0.02764459 0.17108327 0.03220437
0.032707777 -0.007922921 0.18768355
0.050739255 0.096135035 -0.015305368
0.2505714 0.20045596 -0.057913758
-0.23683037 0.001378121 0.0713071
0.114544675 0.02608567 0.16270378
-0.048509173 0.029316656 0.07541019
-0.121273585 -0.28608912 0.06686166
-0.12242526 -0.24560827 -0.09316234
-0.14172053 -0.19027978 -0.2290571
0.14499533 0.012259757 -0.23148674
-0.22609875 -0.021123104 0.0032657858
0.07862719 0.09830607 -0.021671932
0.19582562 0.08107235 -0.11536267
0.22442804 0.09689605 0.0102423085
-0.17429622 -0.051371373 -0.110494874
-0.019407233 0.017844437 0.1660906
-0.1324399 -0.18065163 -0.040586233
-0.05955169 -0.005924746 0.0990577
0.11584882 -0.042555064 0.23675336
0.064956255 -0.038848143 0.051577043
0.2654958 0.0875801 0.08229906
-0.056486424 0.14192182 -0.04774897
-0.120312236 -0.21548387 -0.17654829
0.099653475 -0.05834173 -0.37313733
0.04331719 0.054267846 -0.22695333
0.25468186 0.028922485 0.110745855
0.24241023 0.13915661 -0.015024708
0.07417137 -0.079215884 -0.13473037
0.21331975 0.034691665 -0.3267541
-0.040615894 -0.21773621 -0.369824
0.22932403 0.074410535 -0.23280098
-0.18979521 -0.26234055 0.071273364
-0.07666036 0.25051534 -0.058009557
-0.16458023 -0.21516761 -0.025264623
-0.15174913 0.0216385 0.06093078
-0.10264345 -0.15699066 -0.013912948
-0.002386618 -0.16986126 -0.19561934
0.30780283 0.13136517 -0.080472484
0.08451834 0.15463556 -0.07829964
-0.0011894616 0.2212898 0.10373139
-0.13676189 -0.22065802 -0.14130183
0.15886396 -0.04908634 -0.23689625
0.031936362 0.119374454 0.052151527
0.117582306 0.04712057 0.10494458
0.17773622 0.12316244 0.10121514
-0.23168577 -0.2754551 0.0816903
-0.090840064 -0.12556395 0.11250125
-0.1305546 -0.25265682 -0.1507196
-0.19555674 0.0029277985 0.012533753
-0.09308637 -0.0018980374 0.09919303
-0.19331503 -0.29551548 -0.10749137
0.033669483 -0.15524638 -0.27175158
-0.08127071 0.15675083 0.0007854609
-0.24190558 0.14729492 -0.1709145
-0.05980523 0.13540818 0.16838332
0.24955793 0.078328244 -0.106461324
-0.07094049 0.14754833 0.10519781
0.19175567 0.06396256 0.046532054
0.12308121 -0.020078976 0.24633874
0.04676455 -0.058701623 0.14340591
-0.08175076 -0.30440524 -0.23619372
0.018875942 0.16771318 -0.27026513
-0.10344213 -0.2699519 -0.02753523
-0.08451405 0.028693013 0.05711611
0.03609351 -0.113937475 0.029035307
0.013830496 0.19538982 0.08282031
-0.09220822 -0.23400052 -0.16150256
-0.102423884 -0.28559136 -0.31202337
-0.014123221 0.0466907 0.02866052
0.011160507 -0.15911758 -0.33802298
0.017593816 0.001048237 0.15094736
0.10649796 0.02273325 0.21688771
-0.031924468 -0.04378517 0.101525575
-0.045100708 -0.1354633 0.09680353
0.030603535 -0.018087178 0.19528721
-0.3123237 0.000759112 -0.10303943
-0.07234213 0.15643789 0.0139730545
-0.046045806 -0.16236328 0.2209263
-0.14020348 -0.16892155 0.17210414
-0.104956895 0.046289183 0.11840683
0.100400135 0.2238355 -0.052180488
-0.063951984 -0.18818907 -0.13777484
-0.2212148 -0.060493883 -0.058528688
-0.033025037 -0.18750611 0.12489484
0.066406906 -0.025207836 0.14061537
0.11157455 -0.09493458 -0.12907916
-0.023380835 0.17525509 -0.0015089004
0.21545264 0.18736793 -0.074214734
0.23111156 0.088303566 -0.0044254917
-0.0013398142 -0.02887665 0.20180726
0.20568821 0.06402266 -0.21286793
-0.029644525 0.026968472 0.057850502
-0.053201843 -0.011344534 0.083658636
-0.15293042 0.08264438 0.13926394
-0.02029829 0.12600301 0.030690549
-0.09209763 0.10803711 0.04303578
0.024439331 -0.018983565 0.125993
-0.21981184 0.086267225 -0.012216886
-0.09571138 -0.020867886 0.102223456
0.082453504 0.02989429 -0.011734349
