# .PCD v0.7 - Point Cloud Data file format
VERSION 0.7
FIELDS x y z
SIZE 4 4 4
TYPE F F F
COUNT 1 1 1
WIDTH 1000
HEIGHT 1
VIEWPOINT 0 0 0 1 0 0 0
POINTS 1000
DATA ascii
-0.02339638 0.16006151 -0.007593746
-0.0687466 -0.058158565 0.26347557
-0.27628106 -0.14002925 -0.023766395
0.07783646 -0.16411678 0.057285957
-0.03128675 -0.08411937 0.21197706
-0.14546323 0.0009585981 -0.020760505
-0.1937945 -0.15749517 -0.09890327
0.08804049 0.16927688 -0.10233435
-0.06546665 0.06560441 0.011230954
0.14138994 -0.13414578 0.045583963
-0.2177733 -0.07119555 0.025940806
0.0933517 -0.16019103 0.12359783
0.051135078 -0.013469127 0.025012694
0.18485866 -0.07708722 -0.056059282
0.26531017 -0.17619704 0.0034681298
0.016128242 -0.07429277 0.1498179
0.3058785 0.010234878 -0.13829611
-0.11810211 -0.051184572 0.2757779
0.21745999 0.10729844 -0.13178004
-0.26361033 0.07170886 -0.057509985
0.1643359 -0.06938563 -0.041264154
0.008139488 -0.10400052 0.2264964
-0.06656953 0.110394426 0.09544743
-0.062132243 0.058549125 0.19528301
0.051235173 -0.14284301 -0.1417535
0.032731116 0.0673042 0.033892058
-0.27167505 -0.11778471 -0.03821364
0.16849062 0.16580914 -0.14914283
-0.17871566 -0.2008354 -0.08473497
-0.016736653 0.13833636 0.14216161
0.1996016 -0.12113776 -0.006602974
0.29471865 0.034527887 -0.19066985
-0.03605538 -0.09983274 0.22173217
-0.0036834471 -0.14100952 -0.30734116
-0.020459395 -0.013224798 0.18132359
-0.14796548 0.2192724 0.12356212
0.0816749 0.09607677 0.017995298
-0.044738363 0.15922287 0.08864742
0.03381827 0.08264462 0.08163674
0.071082324 0.04087712 0.05292801
-0.21648254 -0.023807747 -0.020831797
-0.23844576 0.09980977 -0.10727654
0.12800325 0.21556039 -0.19145843
-0.13374133 0.2348964 0.13323158
-0.109759375 -0.05115629 0.036120877
0.16477352 0.10876114 -0.11433029
-0.0719294 0.2312063 0.028159728
0.094105795 0.2782183 -0.09055965
0.065949425 -0.16145623 0.13548414
-0.030034794 -0.063123174 0.1020299
0.2266667 0.051492456 -0.13812572
-0.09022929 0.16940069 0.14538391
0.23737773 -0.111726604 -0.07616693
0.0045451056 -0.11036536 0.016282735
-0.029728407 0.018607773 0.24511096
0.039623685 0.17901297 -0.0382958
0.09094585 -0.03024395 0.07220425
0.19622712 -0.073598035 -0.060069192
-0.19636528 0.025689207 -0.045196917
-0.096492596 -0.036660735 0.05992815
0.026123993 0.26187918 -0.041634317
-0.04274524 -0.024239976 0.14252403
0.12326776 -0.16505186 0.026413731
0.11895349 -0.14204484 -0.018434376
-0.10520272 -0.13223493 -0.16609685
-0.19806685 -0.24021347 -0.074347
0.029682469 0.08998922 -0.0019900496
0.10390431 0.22868246 -0.12055361
-0.29839832 -0.025887707 -0.07297431
0.00026701798 0.14234889 0.1811542
-0.039349925 -0.09645712 -0.3157917
-0.06584449 -0.1693438 -0.0547943
0.024541179 0.17821139 0.01334316
-0.038626004 0.276098 -0.014097196
-0.24040864 0.04396304 -0.040674668
-0.041667324 0.11376942 0.19507475
-0.25236294 0.057154287 -0.15384756
0.21428889 0.160902 -0.1608067
-0.06616993 -0.13971275 -0.018137626
-0.19546899 -0.034336556 -0.032013204
-0.039627362 0.08473246 0.051083703
0.23122951 0.009754362 -0.1306866
-0.03974768 -0.1429246 0.22011973
0.01463617 -0.113407046 0.18928775
0.16775988 0.1662875 -0.11262508
-0.011848872 -0.17265634 0.16325387
0.12686875 0.026713219 -0.07914183
-0.10307444 0.07331208 -0.048438136
0.13052452 0.030775124 -0.14960772
-0.0005434101 -0.06924188 0.15541688
-0.05557131 -0.045084186 0.021280048
-0.14730865 -0.026733905 -0.0254576
0.09171104 0.19996339 -0.08315277
0.14948438 0.08681744 -0.0907358
0.08777728 -0.07488621 -0.004447737
-0.07287651 -0.03341824 0.061793037
-0.11236119 -0.09861549 -0.013924163
0.16216293 0.09660485 -0.13790207
0.17730807 -0.03689545 -0.11191444
-0.008080475 -0.0066504274 0.20647195
-0.30794892 -0.04108284 -0.029046519
0.14887145 0.056470398 -0.06783632
0.119808644 0.13507885 -0.03391451
-0.15336083 0.015451335 0.0140830735
-0.052701425 0.10141432 0.045623403
-0.21610965 0.036375925 -0.08195621
0.14557108 0.22477867 -0.0939025
-0.30244005 -0.010434115 -0.06879731
-0.14652522 -0.1108766 -0.08634455
0.006632349 -0.12605102 0.017061627
0.19979876 0.19242568 -0.1873521
0.08940411 0.14536043 -0.06585615
0.22493371 0.12571822 -0.20573942
-0.081489995 0.21575549 0.1738474
0.07934661 0.08310473 0.06267443
0.15937993 0.025275758 -0.10496186
-0.11191466 -0.107106045 0.028776478
0.020161903 0.13226023 0.14860862
0.009110112 0.2828046 0.02788014
-0.27099591 0.1357833 -0.134516
-0.018342942 -0.1556724 0.15751845
-0.026890518 -0.15868334 0.19321446
0.016933579 0.25244424 0.02073551
-0.00053383404 -0.10577075 0.16342947
0.21281484 0.061494913 -0.06797689
0.04883568 -0.052406203 0.10362536
0.19272785 0.077224396 -0.1100854
0.17092046 -0.18835507 0.019084876
0.040883135 0.33458364 -0.036613513
-0.0046127466 -0.018237922 0.18966173
-0.024448674 -0.08079414 0.032175172
0.058175582 0.2156392 0.017987028
0.09282989 0.07124649 -0.027328944
-0.17124115 -0.2988009 -0.11379003
-0.10333471 0.23140039 0.101485066
-0.05892491 0.2934228 0.049259596
0.27914587 0.033187993 -0.19625802
0.122311614 -0.040391527 0.05247964
0.15851882 0.22754699 -0.09865963
0.038166888 -0.090029374 0.24213031
-0.025273472 -0.15503213 -0.070347555
-0.26300696 0.015951497 -0.088821456
-0.07152311 -0.0663914 -0.030455934
0.016782952 0.33003932 0.02250512
-0.23734257 -0.031933654 -0.008436128
0.22002125 0.052779373 -0.18388215
0.10312574 -0.210875 0.13438165
-0.16505253 -0.021505957 -0.03563173
0.08648592 -0.05664406 0.08771746
0.019588977 0.14568493 0.029455334
-0.05647654 -0.026825465 0.020845288
0.112384886 -0.233921 0.06385247
-0.11429294 0.18991014 0.113944106
0.07696535 0.07109848 0.039502457
-0.15475562 -0.06948447 0.045880057
0.12053272 -0.008645468 0.025883356
-0.19600318 -0.1743337 -0.0745962
-0.17912848 -0.088824965 -0.051016886
-0.3268569 -0.06345557 0.0032620314
0.018152118 -0.041284114 0.11627788
0.18270837 0.20786282 -0.14223151
0.15724163 -0.042822145 -0.03159493
-0.003946679 -0.08783694 0.11786635
-0.17024763 -0.1506571 -0.019787816
-0.080914065 -0.0782227 0.061924845
0.10591753 0.28583485 -0.025702825
-0.17436594 -0.19440867 -0.031165367
0.20559797 0.1761692 -0.121388905
-0.037143007 -0.18239215 -0.11575571
-0.17983799 -0.027698819 -0.0725273
0.06776458 0.18361045 -0.07290531
-0.10805467 0.11402634 -0.17026061
0.22073685 -0.03971741 -0.06394732
-0.2201461 0.10033185 -0.15081304
0.17278047 0.18079779 -0.05643115
0.1827717 -0.04510454 0.00079278095
0.1278531 0.15627347 -0.09843359
-0.14354008 -0.25145385 -0.0957571
0.30243686 -0.00472307 -0.1612295
-0.011857637 0.12917744 0.09776476
-0.28966334 -0.14100829 0.025472302
0.0733555 0.17820673 -0.06995474
0.02961717 0.2622411 -0.08366301
-0.24747384 -0.014727987 -0.10746728
-0.21338952 -0.25585434 0.0024715282
0.3068787 -0.19137244 -0.084833026
0.2425732 -0.1805893 -0.017943481
0.10597549 -0.04478322 0.013430677
0.05682478 -0.08263018 0.14771809
-0.071305856 -0.26828462 -0.19700436
-0.20734936 -0.04884552 0.010095424
0.2578944 -0.0029617155 -0.15844281
-0.25392118 -0.06529904 -0.02850105
-0.13901086 -0.1341501 0.006305551
0.0685229 0.118023306 0.05679713
-0.22181684 -0.13620454 0.0028475905
-0.22549038 -0.27635267 -0.05173088
-0.0651341 0.0436667 -0.0098323785
-0.0030183622 0.0435618 0.16637471
0.04119569 0.21913537 -0.036418103
0.07021887 0.012958073 0.0253977
0.24630056 -0.052524094 -0.102337524
0.17334066 -0.060408756 0.023191834
0.01507139 0.043095246 -0.0504216
0.019380083 -0.08621134 0.17163707
-0.018495176 0.28631452 -0.013361492
0.026912449 0.012324182 0.08717314
0.116515994 0.107477196 -0.07833164
-0.049246784 -0.03523913 -0.101087496
0.02011835 0.014430504 0.18452659
-0.03639184 -0.1275076 0.23793411
0.15489812 -0.14856592 -0.021675086
-0.22458965 -0.13599244 -0.034588423
0.022258457 0.25635976 -0.11239304
0.154994 -0.16390195 0.06361997
0.15979259 0.088412225 -0.13733688
-0.024851242 -0.038190965 0.20486088
-0.299826 -0.00396643 -0.0887699
0.102307215 0.007935257 -0.06746788
-0.324578 0.017007582 -0.0651759
0.20401372 0.055879135 -0.12916203
0.052924436 -0.22103868 0.12952442
-0.09786259 0.13915242 0.10981337
-0.04516216 -0.2417059 -0.14543489
0.260502 -0.020327212 -0.21777332
0.050013054 -0.15891142 0.12630576
0.30823496 0.018137518 -0.22838907
-0.04966967 0.14925694 0.12817064
-0.106602274 0.05699578 0.23749419
-0.23319775 0.005990774 -0.04703268
-0.08083307 -0.05149972 0.022663644
-0.102760434 -0.29327857 -0.08843523
0.07170783 0.28409353 -0.11039216
-0.10191426 0.16505152 0.08272172
-0.058232576 -0.08324227 0.21217422
0.1537719 -0.0037429167 -0.036390454
-0.08601542 0.2274567 0.18566297
0.16603133 0.11712486 -0.18607146
-0.024775244 -0.11660951 -0.25382522
0.20332004 -0.018925192 -0.15760271
-0.25832513 0.011052747 -0.0107003115
-0.11153695 -0.10331832 0.008175285
-0.22440852 0.04292448 -0.12071388
0.103140414 0.1287658 -0.072365195
0.253803 0.094880514 -0.1591058
-0.18153775 -0.1327101 -0.059414793
-0.042317 0.045025334 -0.00961505
-0.081660375 0.13968341 0.11499975
-0.046813138 0.29301614 0.028087728
-0.34233126 -0.07500688 -0.07655775
0.10096434 0.19101608 -0.04362228
-0.006363531 -0.0130905 0.1090388
0.019120608 -0.11969979 0.23052117
-0.0025670412 -0.080291286 0.25378788
-0.15242876 -0.07910585 -0.015692955
-0.08294959 0.15443173 0.2411454
0.0668516 -0.12100777 0.07945604
-0.21953675 -0.033637963 -0.11515262
0.12888005 -0.06233186 -0.009698725
-0.04317962 0.07021367 0.07273346
0.07202092 0.20661883 -0.08838065
0.00876897 -0.048819616 0.20639008
-0.25232545 -0.072997354 -0.060892176
0.043081846 0.07236821 -0.040614482
-0.06505752 -0.036574963 0.24607731
-0.1679201 -0.232663 -0.06517245
-0.04150021 -0.12195018 -0.3388466
0.012915605 -0.01922869 0.021161987
-0.061336674 -0.003491281 0.012277121
-0.0510871 -0.18444064 0.1760656
0.17192924 -0.19396628 0.056050222
0.09357236 -0.01835363 0.10733339
0.02985173 0.008408133 0.06970183
0.009454326 0.048639566 0.13306937
-0.0026277443 0.011058695 0.092393175
0.016504636 0.32401234 -0.03875569
-0.13927048 -0.24217758 -0.07165573
-0.12025572 -0.26971605 -0.09012444
0.08556585 0.029699065 -0.06534803
-0.011731075 -0.2468822 -0.26117286
0.028253457 -0.1256514 0.1219646
0.108782254 0.23547828 -0.12019385
-0.1163852 -0.015926035 -0.012968398
0.041621625 0.13318515 -0.03305354
-0.20411354 0.091972455 -0.14595377
0.10459304 0.20413932 -0.062369704
0.1278392 0.19615455 -0.11140494
0.17516227 -0.060997438 -0.0007596675
-0.029962396 0.040322058 0.13580552
0.05357577 0.28682864 -0.01762731
0.20163159 0.03857554 -0.13235854
0.21697068 -0.22644429 0.03086697
-0.03566157 0.22529438 0.05902781
-0.0066199824 -0.13898055 0.17086062
-0.07668063 0.10427061 0.12648673
0.20641027 -0.027437765 -0.1375056
-0.08000546 0.014585571 0.1736325
0.019405376 0.20840289 0.054976292
-0.1949997 -0.19908403 -0.0786589
0.11798143 -0.009699967 -0.0075886943
0.16446981 0.026137715 -0.07575604
0.18953192 -0.08997961 0.0434813
0.080935426 -0.120694205 0.077537335
-0.14796287 -0.22523198 -0.13434191
0.10491051 -0.024336431 0.038061656
0.12938155 -0.21739797 0.17616718
-0.050939206 -0.116080746 -0.068729386
0.034654923 0.10422132 0.11112505
-0.113989435 0.16169962 0.13371049
-0.043608602 0.2249314 0.020731166
0.20495895 0.18038888 -0.1590556
0.14330429 -0.14877538 -0.011650087
0.04525594 -0.092292964 0.15137732
-0.13257527 0.033029795 0.008724314
-0.004158023 0.2145532 0.018449845
0.23853219 -0.07884658 0.0044711367
0.1602819 -0.087033145 0.06062576
-0.123303965 -0.0019122026 0.22107339
-0.08699874 0.049531482 0.088699766
0.20439583 -0.031963613 -0.07144235
0.041251868 0.14068802 -0.07790132
-0.012382693 0.17259957 0.03872591
-0.046289608 -0.109130315 0.0076451884
-0.22386962 -0.17980532 -0.014047621
0.08229582 0.12711585 0.00047399744
0.03221184 -0.17809595 -0.012893974
0.029439015 0.13141894 0.058687635
-0.17900158 -0.13979745 -0.037087344
0.1756229 0.06372242 -0.12878114
0.22791322 0.09447997 -0.1852946
0.06054911 -0.02331617 -0.028946431
0.11393802 0.22165935 -0.10766129
-0.3202716 0.045533434 -0.054736402
-0.04369134 0.19249086 0.09494935
-0.05159608 0.051787883 -0.24718525
-0.2783047 -0.05632434 -0.051532175
-0.049618684 -0.113519624 0.22529677
-0.10774397 -0.006938071 0.24192835
-0.18568414 -0.26235843 -0.12797123
-0.155525 -0.09120285 -0.046009466
-0.24206764 0.0051058605 -0.10380231
-0.020592 0.23723033 0.06515096
0.0473709 -0.11456497 0.1836446
-0.2531273 -0.06764649 0.0070692324
0.083122104 0.3106696 -0.137312
-0.17425379 0.01069212 0.044827793
-0.22000676 -0.100868486 -0.014593693
-0.052411992 0.16694699 0.1276507
-0.2510574 -0.07287935 -0.054911766
-0.090242654 0.02917542 0.20029975
0.21072964 -0.053126168 -0.07680713
-0.28535143 -0.09575368 -0.044027034
-0.013820917 0.008928437 0.07376321
0.13362184 0.12883827 -0.010545089
-0.15318781 -0.1808281 -0.07571573
0.12067743 0.10639617 -0.10152636
-0.046579648 0.20152374 0.062305972
0.088657185 -0.10318435 0.14715186
0.106022626 -0.047496874 0.015620232
0.24541497 0.15697193 -0.19393273
0.16320908 -0.007962831 -0.10082739
-0.29789743 0.03853237 -0.055105127
0.21345785 0.16846725 -0.08846432
-0.27059925 0.028402446 -0.077306874
0.18612689 0.02876465 -0.11174197
0.09882944 0.1267735 -0.0067104506
-0.009603584 0.12442772 -0.007951578
0.009221277 0.1772111 -0.0022219308
0.07905996 -0.104615614 0.10122337
-0.053585608 0.17793211 0.17938186
-0.09799068 0.034983747 0.23433612
0.074325755 -0.10389836 0.10479482
0.007637268 -0.019655274 0.108450264
0.2247618 -0.13658115 -0.074913174
-0.07237011 0.20521216 0.19177096
0.13085565 -0.10424069 -0.01086632
-0.062337637 -0.1539129 -0.1532439
-0.03724035 0.021690194 0.18571877
-0.049308427 0.12979683 0.21545047
-0.044084214 0.22966193 0.093280084
-0.1834444 -0.26761436 -0.08700649
-0.0942106 -0.034023296 -0.025364803
-0.091815285 -0.06779082 0.2743969
0.123663425 0.03386407 0.04490477
-0.018313076 -0.0464941 0.22137831
-0.18839373 -0.06811788 -0.007092505
-0.007898433 0.1975726 0.086924516
-0.019685213 0.13101113 0.028784888
-0.15535432 -0.14605474 -0.052092217
0.27400255 0.07702319 -0.115756795
0.061519373 0.18993606 -0.10258896
0.03205836 0.15004003 -0.018864466
-0.06772385 -0.26081565 -0.22109802
0.20085639 -0.05730549 -0.07615971
0.17692353 -0.10314327 0.009167361
-0.1974789 0.05625885 -0.18091272
-0.26308185 0.075904556 -0.14888783
0.1378496 -0.027023854 0.03459284
-0.20852146 0.005282088 -0.013835082
0.04441167 -0.021379277 0.13890086
0.28246784 0.09302586 -0.14792259
-0.094100825 0.025601303 0.19671063
-0.1026008 0.0154013615 -0.13328789
0.2883601 -0.17321514 -0.037925504
-0.2462352 0.045770958 -0.15201473
-0.07343316 0.17596094 0.08361805
0.009611674 -0.13341959 -0.30567938
-0.12582408 -0.14749315 -0.012561909
-0.019781968 -0.05907458 0.26044095
0.04697962 0.21415026 -0.045861512
0.006446984 -0.044742595 0.09626761
0.079557754 0.18444258 -0.08581552
-0.07518707 0.18083061 0.11467483
0.08645737 -0.049208764 -0.02439406
-0.083653 0.22776619 0.12808113
-0.01964387 -0.18638887 -0.09510992
-0.06687883 0.08044156 0.069933504
0.020685516 -0.10544522 0.21219999
-0.08633474 -0.113311194 0.065841675
-0.17762832 -0.24116223 -0.049574364
-0.22186786 -0.20186728 -0.10260065
0.010399995 0.051180646 0.022145046
0.11687364 0.22120148 -0.09511873
-0.21646382 0.004211054 -0.038523614
-0.26081634 -0.08262213 -0.015596855
0.16982141 0.020171016 -0.1562369
-0.0692064 -0.10713629 -0.07300192
0.05433623 0.18951257 -0.04914017
-0.101496235 -0.24433658 -0.16237836
-0.26652178 -0.116187125 -0.019362004
-0.05820376 0.21079654 0.11655537
0.1910101 0.009931358 -0.12398956
0.28629693 -0.04968788 -0.12622063
0.25638598 -0.00039580834 -0.07256728
0.118107446 -0.036085006 0.0024985694
0.19593516 -0.07706232 -0.023664916
-0.04275387 0.20279899 0.107992396
0.23640393 -0.035917196 -0.039024312
0.16633768 0.1941554 -0.17309852
-0.089179374 0.13492818 0.18053609
0.16133606 -0.13655744 0.0934109
0.009592241 -0.019374495 0.07070102
0.076958716 0.013043565 -0.030027369
-0.017021012 0.11984128 0.09196107
-0.12313211 0.17646335 0.15041019
0.17718215 0.059043918 -0.09675376
-0.27198794 -0.031406205 0.017626423
0.08197148 0.18314742 -0.06603756
0.26615638 -0.05208725 -0.14264542
0.20893258 -0.09306106 -0.08454214
-0.048914336 0.24064134 0.05650722
0.20650733 -0.17439605 -0.0075615286
-0.11812431 0.054220002 0.07556522
-0.15232806 0.050038498 -0.10560909
-0.19268097 -0.18988703 -0.083387874
-0.06456533 -0.014322813 0.1640675
-0.079517044 0.06358778 -0.046023726
-0.1341432 0.032779783 0.03794168
0.10077799 0.01856847 -0.05815946
-0.013598258 0.23470959 -0.025360905
0.22884968 0.10890558 -0.09194716
0.09317045 -0.18417008 0.13915534
-0.10080874 -0.014417661 0.11220512
0.023867514 -0.07131867 0.11241017
0.3193136 -0.055056885 -0.14850785
0.16463389 0.014861968 -0.009393056
0.01790368 -0.08402912 -0.028619286
0.033834696 0.2256787 -0.03835986
-0.046377838 -0.05015849 0.18047012
0.10833057 0.1660379 -0.09997466
0.114344954 -0.20537715 0.12644905
-0.090765655 -0.22750592 -0.19144185
0.01954183 0.28677088 0.03546253
0.22003092 0.17480159 -0.1372873
-0.16929659 0.047621064 -0.11781826
0.14521296 0.18304628 -0.12178251
0.046996433 -0.03985304 0.16060726
0.16331464 -0.097458676 -0.021126632
0.069927566 -0.20023242 0.21374124
0.18542847 0.19348635 -0.1029196
0.18560365 0.102052815 -0.11751781
-0.09901521 -0.12349081 -0.045117702
0.045878943 0.20437174 -0.06447148
-0.076676555 0.19976248 0.13702105
-0.034575377 -0.16107991 -0.18017586
0.12384907 -0.024624756 -0.039609715
0.031485386 -0.20478646 0.18083905
-0.03956568 0.036099102 0.15761533
0.032267038 0.2391086 0.028043542
-0.089117415 -0.2419271 -0.13901898
-0.13704567 -0.20085824 -0.08573909
-0.118127935 -0.037770536 0.0689154
-0.245337 0.09496195 -0.1337056
-0.10405205 -0.011753884 0.20447606
0.09940399 0.13555354 -0.098242275
0.14862545 0.23818481 -0.13984928
0.24436888 -0.04474044 -0.060485814
0.054896638 0.24579938 -0.026317472
-0.018251475 -0.16476266 -0.09598856
0.12853299 -0.032999866 0.0070697577
-0.09927056 -0.12230024 -0.021807415
-0.23739493 -0.14142103 -0.067493685
0.07776216 -0.19125369 0.13605276
-0.22435069 -0.0018521692 -0.039587144
-0.15725568 -0.08488691 -0.0028278464
-0.0876373 -0.03248659 0.21840498
-0.09260347 -0.05296151 0.20994484
-0.0045548077 0.19456959 0.13201651
-0.10353818 -0.097257905 0.056782115
0.15701288 0.062477227 -0.054366246
-0.20770173 -0.20145227 0.014279408
0.17172366 0.12877232 -0.079362035
0.03065857 0.18090484 0.006081579
-0.05834728 0.12671772 0.107632786
0.08996044 -0.05315587 0.012430661
0.077357076 -0.14443325 0.16120529
-0.27965802 0.08598516 -0.120489284
0.0049826275 0.23287497 0.063622676
0.09023793 0.013571215 0.08643925
-0.253094 -0.13281345 -0.100162156
0.11339422 0.18400462 -0.005394611
0.091776274 -0.060441844 0.08907693
-0.13237894 -0.2389545 -0.08970797
-0.037013732 0.16481458 0.13570537
0.06167874 -0.025846938 0.0135043925
-0.02022017 -0.07333672 0.18356955
0.053981457 -0.20643786 0.16436051
0.17207764 -0.08575308 -0.10875772
0.087354444 -0.00697708 0.094211556
0.16865817 0.103023514 -0.077611275
0.038542774 0.01823563 0.17063159
0.13863347 -0.15369734 -0.008855192
-0.18117139 -0.02283746 -0.0663416
-0.19378826 0.009678917 -0.106704324
-0.023235003 0.19551907 -0.017287636
0.15394035 0.17714208 -0.11402006
-0.029368619 0.15874873 0.0641284
0.06422881 0.06221573 0.038428288
0.059242282 -0.15639065 0.14607398
-0.032137465 -0.12897764 -0.2161001
-0.32403213 -0.029556606 -0.08140152
0.075567655 0.15184464 -0.08844324
-0.040567875 0.03206727 0.12338859
0.14112557 0.21749236 -0.084576175
0.19549926 0.09986292 -0.17322655
0.020319927 0.10616358 -0.014306497
0.1323242 0.111711025 -0.0592548
0.006004098 0.09777733 0.1475499
0.01707415 -0.15536456 0.22229515
-0.023784347 -0.013595607 0.17376599
0.22747704 0.1296378 -0.09010071
0.07341907 0.116597764 -0.12232746
-0.20538035 -0.11523319 -0.079210296
-0.22634932 -0.23515311 -0.027201738
-0.095630236 -0.20570226 -0.17878844
-0.06827946 0.3099018 0.054224182
-0.0761257 0.090596035 -0.06598286
-0.17595604 -0.21052423 -0.08085601
0.08701833 0.02567969 0.07305455
-0.1433085 -0.18091851 -0.08315813
0.12739542 -0.12357585 0.046822697
-0.2396124 -0.12506936 -0.07917394
0.06258305 0.22158672 -0.09748694
0.24172893 -0.19517697 -0.028858263
0.07648561 0.19329408 -0.09349286
-0.08663791 0.18270244 0.15751588
0.14163099 0.26961556 -0.20197344
0.074745044 0.26796144 -0.06533781
-0.11678586 0.07477146 0.18091315
-0.032983053 -0.13261987 -0.05540171
0.10397273 0.18599965 -0.061364062
-0.013124965 0.2093872 0.11105324
0.20209485 -0.06260648 -0.075133845
-0.108190306 -0.11641258 0.0044733086
0.08253962 -0.14048225 0.16596419
0.10486318 0.1850512 -0.07756463
-0.1847236 -0.14592758 -0.08123874
0.13060033 -0.0067263097 -0.03425559
0.24037376 -0.06516056 -0.06756398
-0.19718705 0.09767459 -0.17674266
-0.068077065 -0.118648306 0.25571886
0.1289308 -0.06714809 -0.0099654505
-0.0631358 -0.08536915 -0.094569325
0.22901273 -0.15019359 -0.06856523
-0.100923724 -0.07810661 0.032688353
0.093138136 -0.111610554 0.07604954
-0.0034304468 -0.114985645 0.19373989
0.20365037 -0.015088575 -0.094064906
0.21572731 0.12423563 -0.19904728
0.24739277 -0.0823658 -0.12572469
0.0272568 -0.07673009 0.17957768
-0.29358461 0.022498006 -0.01556009
0.1652789 0.13697475 -0.05134638
0.0014619547 0.054887187 0.13911416
-0.03301451 -0.11367939 -0.26029947
-0.023505334 0.28745547 0.028960237
-0.19989175 -0.026172386 -0.0325226
0.262605 -0.060594957 -0.10074951
0.19938813 -0.19908918 -0.037646864
0.23494847 0.045385543 -0.123902716
0.10123258 -0.17141998 0.07486071
0.15257756 0.09021021 -0.056511104
-0.15059991 -0.14416936 -0.051140536
0.117963426 -0.22057395 0.103727475
-0.12489837 -0.019165153 0.019311285
0.07159795 -0.014693801 0.06306897
0.2601058 -0.08929398 -0.10802753
0.23648557 -0.037887562 -0.18812928
0.07216026 0.11606 -0.06919005
0.0415554 -0.030556861 0.06639907
-0.008428744 0.272718 -0.0644672
-0.04200996 -0.10011752 0.008518598
0.11729386 0.12699465 -0.12142239
-0.05090781 -0.061932884 0.25131223
0.012581706 -0.07994614 0.24568583
-0.35724312 0.0019628927 -0.031425774
0.010028452 0.26303184 0.045671206
0.15770957 0.11871881 -0.08687446
-0.16526985 -0.1471281 -0.061181627
0.17624177 -0.106920235 -0.028362004
0.16500176 -0.0118351355 -0.0748877
0.0414646 0.2522051 -0.015074915
-0.17455396 -0.23181073 -0.0061773895
-0.09537216 -0.009178081 0.22585122
-0.1240848 0.21742062 0.15353853
-0.1173313 -0.26022792 -0.19636224
-0.056629073 -0.0323532 0.036797747
-0.05226235 -0.0741389 0.1644315
0.03291729 0.23665456 -0.011088813
-0.21850546 -0.10955592 -0.028404914
-0.014897179 0.29940227 -0.030105548
0.0100209415 -0.081372075 0.19722724
0.21256553 0.04454545 -0.14399874
0.0366512 -0.11049004 0.15315104
-0.09270113 0.17517933 0.13125913
0.17979255 -0.06273209 -0.030400971
-0.025241205 -0.122502275 -0.10799156
0.21937206 -0.08363362 -0.025320891
0.1493452 0.211822 -0.10900996
-0.2819463 0.031830687 -0.07001157
-0.024938794 0.20520441 0.074183196
0.0054038283 -0.118969634 -0.046446443
0.010043298 -0.16642664 0.14359294
0.14515418 -0.0011995661 -0.009132364
0.07116303 -0.15320344 0.1928079
-0.20667934 -0.010940144 -0.0923184
-0.09095052 0.22587012 0.113886535
-0.13725016 -0.07336236 -0.1218254
-0.30481339 -0.03895874 -0.023198424
0.3086672 0.07491081 -0.21460381
0.3081573 -0.1318762 -0.130356
-0.085425526 0.2218004 0.05262111
0.07032727 0.23987749 -0.07348516
-0.085966125 0.12722583 0.16586076
0.013323656 -0.15247276 0.15848638
0.14781812 0.0912529 -0.1192404
0.03229984 0.22701302 0.026861506
-0.17076911 -0.06209279 0.026128981
-0.0854444 -0.09655888 0.059008002
-0.24627559 -0.12166932 -0.08120698
0.0098914 0.26191995 -0.023192821
0.022330744 -0.02565586 0.056655463
-0.23026296 -0.17304556 -0.019426463
0.1705766 0.22388972 -0.09087763
0.16017756 -0.04840833 -0.08195112
0.13157664 0.081735216 -0.06318445
-0.18685794 0.042070393 -0.08535002
0.26156098 0.00552459 -0.11978071
0.12379483 0.16014299 -0.13290182
-0.009008057 0.046956595 0.08780129
0.23261869 -0.1371542 -0.027727881
0.0327984 -0.12907831 0.07329298
0.0826182 0.0012210368 0.021369498
-0.30638862 -0.21336724 0.008057634
-0.06923318 0.07833876 0.21143527
-0.08353096 -0.17628296 -0.10348672
0.027853306 -0.12625448 -0.086194195
-0.133254 0.10370151 0.16252428
0.03028787 0.17710331 -0.01666497
-0.24109952 -0.054498628 -0.053625483
-0.008487662 0.20851174 0.13532582
-0.089900576 0.054467328 0.012003659
0.11441715 0.09975285 -0.12518193
0.11947121 -0.050876215 0.055965256
0.044965077 -0.18671326 0.19468577
-0.10210998 0.09028881 -0.11043598
-0.05538556 -0.123484 -0.21627535
0.033793088 0.15446742 -0.010877502
-0.13071388 0.08056534 0.25087658
-0.16738522 -0.18067198 -0.03765215
-0.23733273 0.10585822 -0.14223875
-0.07163133 0.19661562 0.1355911
0.16021033 -0.008765287 -0.06139297
0.16707815 -0.18931893 0.06119648
0.17356293 0.1420469 -0.030719347
-0.15825553 -0.13000876 0.008615364
0.0068191034 0.13206083 0.059131984
0.069780774 -0.100681625 0.06440728
0.116714194 -0.12807642 0.10340315
-0.20573577 -0.21804854 -0.07606733
-0.20992059 -0.1639766 -0.0359595
0.17592317 0.04963932 -0.13427542
0.13689756 -0.01661049 -0.021332018
0.045983113 0.015782963 0.10183846
-0.07587517 0.10087658 0.26825672
0.01597054 0.1398973 -0.019442627
-0.039250337 0.29931346 0.039004695
0.16272178 -0.11231088 -0.03953203
0.15452015 -0.035745442 -0.12986976
0.12239514 -0.18865803 0.0046772873
0.05717928 0.054215923 0.086300015
0.18343097 -0.11174219 -0.017359154
0.2688325 0.0064426907 -0.19736245
0.12593286 0.13841207 -0.08745211
0.24085896 -0.08150878 -0.09802629
-0.24869633 0.04510757 -0.09323938
0.0507556 -0.033804078 0.0779385
0.19118385 -0.0886036 -0.05823877
-0.1552443 0.12729163 -0.107547484
0.10598655 -0.08170093 0.011036304
-0.30290318 0.006397568 -0.039196957
0.093465276 0.09033092 -0.112863295
-0.0402931 0.16532443 0.17034541
-0.1617961 -0.06686789 -0.03856873
-0.07035532 0.17896958 0.11525526
0.055824038 0.13128112 -0.06694898
0.24429499 0.026137652 -0.20422079
-0.048196465 -0.2561238 -0.11984285
0.15922219 0.028077565 -0.09720603
-0.054289088 0.036891725 0.1863371
0.09692489 -0.12618548 0.12048919
0.1490739 -0.14281234 0.025467014
0.09861449 0.2372151 -0.038719345
-0.21917196 -0.21503899 -0.06825952
0.033003237 0.14969651 0.026348725
0.12462993 -0.10666047 0.012110568
-0.08054024 0.07326496 0.17083941
-0.18844077 -0.23343153 -0.032363925
0.26467532 -0.12539047 -0.10401087
0.26018727 -0.14374293 -0.038800843
0.11506915 0.20651756 -0.1380672
0.24902382 -0.102236114 0.000349858
-0.16582534 -0.104093716 0.045283258
0.1681399 -0.17289048 0.08862496
-0.04078951 -0.07271663 -0.041520853
-0.2570387 0.020773346 -0.012686039
-0.16035376 0.039311953 -0.07791943
-0.16854176 0.045477193 -0.07564881
-0.064769164 -0.22579198 -0.22280207
-0.0032008952 0.08301098 0.21513101
-0.29674444 0.042131215 -0.1147617
-0.19709112 -0.017029546 -0.11304059
0.14393018 -0.08147141 0.08224618
-0.29462698 0.042723615 -0.08564874
-0.011319221 0.17609984 0.12257951
-0.12652463 -0.2702686 -0.11853055
0.1355751 0.119218074 -0.14686511
-0.30472195 -0.056541335 0.0072230757
0.08712653 0.06636243 -0.01909659
0.064696975 0.12906551 -0.057644863
-0.17565407 -0.23407854 -0.088466756
0.09090994 0.19156125 -0.12515819
0.11892446 0.100980766 -0.14977595
-0.024573658 0.12003114 0.12584704
-0.007403818 -0.16158424 0.15265505
0.07108883 0.26176417 -0.011997412
-0.17332256 0.03488983 -0.16298325
-0.08457224 -0.20077589 -0.16833092
0.06257627 0.024459206 -0.022628695
0.2484766 -0.115029104 -0.061570022
-0.021263685 -0.015422725 0.094370246
0.18966088 -0.19036311 -0.04459652
-0.04280739 -0.17153962 -0.19289012
-0.24116684 -0.16406998 -0.039638586
-0.086819105 0.0401961 0.23095644
-0.022945879 0.08822453 0.08229252
0.031695936 0.17775372 -0.07816119
-0.23967984 -0.080192804 -0.0008344858
-0.044553433 -0.07878021 0.16925503
-0.116753355 0.053295113 -0.13388035
-0.076230094 -0.19561568 -0.21188942
-0.11097968 0.1184384 -0.11883058
-0.1421436 -0.14274782 -0.040397495
-0.042620428 -0.057962272 0.21448761
-0.16695294 -0.0019603209 -0.05596427
0.20817666 -0.20936656 -0.0030636531
0.027897455 0.006260568 0.11822199
-0.22532043 -0.0040818374 0.020086229
-0.10111758 -0.033985067 0.029782722
-0.058776695 0.089191556 0.16500092
0.2015325 -0.10272077 0.029023968
0.08081494 0.054447185 -0.05270893
-0.25526002 -0.11510875 -0.05492588
0.015384019 -0.13051787 0.21671356
-0.26317343 0.035209965 -0.09928765
0.15810221 -0.12465638 0.039165735
-0.04355286 -0.1708229 -0.2435968
0.023636214 0.14566839 -0.0027647854
-0.031556133 -0.1640042 -0.06525995
-0.29678297 -0.18167734 0.025008785
0.06365371 -0.16045521 0.22091228
-0.08060171 -0.12509683 0.05470539
-0.08268103 -0.13873689 0.03645893
-0.10996478 -0.008851084 0.20705037
0.08906989 0.26730007 -0.082978316
-0.1716671 -0.15326913 -0.011443406
0.13348864 -0.16845657 0.04082394
-0.035092536 -0.10574009 -0.0016712258
0.2264241 -0.107268244 0.016609112
0.13199647 0.072641514 -0.013504547
0.025442835 0.021910021 -0.017100312
-0.2426779 0.01673161 -0.0399131
0.024859896 0.0012761191 0.12255445
-0.03144536 0.16485113 0.03722462
0.062566265 0.19109397 -0.0045127654
0.011796267 0.15785725 0.08040428
0.06346115 0.2198491 -0.05760489
-0.053017758 -0.052123804 -0.04602805
-0.030279616 -0.11708667 0.19154562
-0.016424494 -0.043464046 0.11214983
0.026048712 -0.09454347 0.23410165
-0.031426232 -0.076643616 0.22216529
0.088903606 0.14073433 -0.048922725
0.056177847 0.13378954 0.077611096
-0.061931945 0.25582507 0.078313075
0.17678045 -0.02659004 -0.02575869
0.1602788 -0.17046317 0.005680572
-0.14996548 -0.018466482 0.06503886
-0.014280512 -0.0793284 0.18439841
0.013174945 0.022241285 0.10414504
0.014092925 -0.049910888 0.1768162
-0.095510945 -0.19090131 -0.12393128
0.06778836 0.014856091 0.028322274
-0.15313523 0.00519526 -0.041276302
0.07251466 -0.15839578 0.1737503
0.08840914 0.061408564 -0.1313361
-0.15624511 0.04404649 -0.12131571
0.10948022 0.18429321 -0.118874125
-0.2710595 0.0039248527 -0.09041856
0.17142317 -0.18593076 -0.021680124
-0.15980174 0.043998454 0.08424912
0.021261903 -0.24067344 0.093504585
0.05663527 -0.13173896 -0.035942227
0.07885438 -0.012727242 0.037731953
-0.091589615 -0.16641031 -0.1299781
-0.0604433 -0.2464396 -0.18150398
-0.020461649 -0.09839698 -0.034823164
-0.1576269 -0.13879468 -0.013179699
0.029313343 -0.19336239 0.15708716
-0.13303852 0.0139920935 -0.01568728
-0.1143716 -0.2541731 -0.1476361
-0.06378549 0.05293635 0.17043489
-0.0090721985 -0.120941214 0.24962628
0.14645258 -0.10945926 -0.02747423
0.15632753 0.12843734 -0.08788723
-0.116389334 -0.04448847 0.024031777
-0.048552796 0.018860519 0.04213487
0.2350572 -0.019397037 -0.17929251
-0.32224816 -0.05189076 -0.081817105
-0.18831441 -0.1284801 -0.060622558
0.13358241 0.07759047 -0.07389646
0.10458402 -0.089536436 0.043569025
-0.2247962 0.0098201865 -0.15400155
-0.07492343 -0.12687841 0.0015499557
-0.24652103 -0.019339856 -0.08248601
-0.050598394 0.19060351 0.109349765
-0.034654286 0.20974162 0.08503277
0.06728376 -0.08135936 0.07754795
-0.067266636 -0.02430271 0.17952979
-0.10866841 -0.03487222 -0.00057459064
0.021455387 -0.18534584 0.13561958
0.053147234 -0.08350136 0.19382875
-0.1249493 0.09510099 -0.29861414
0.13254216 0.0098292595 -0.05130915
0.17423834 0.058571316 -0.099210285
0.27234992 -0.021089803 -0.1794402
0.0070129605 0.041188747 0.07181968
-0.0029433114 -0.08474164 0.17933972
-0.10048282 -0.05120059 0.0023892939
-0.21025209 -0.01843294 -0.067687936
0.20212406 -0.26829025 0.044351082
-0.13977416 -0.05682991 -0.058728717
0.16036843 -0.08807773 -0.06656718
-0.058509726 0.049519707 0.18271357
0.09552201 -0.08655693 0.005951208
-0.079165556 0.29059282 -0.014117383
0.08918624 0.19617155 -0.07170362
0.025816608 0.1524241 0.014089936
0.16528691 0.21151258 -0.17732513
0.08831422 -0.18225905 0.17383789
-0.064583056 0.12869708 0.1118958
0.023217706 0.13582511 0.0053737373
-0.20277582 0.009435661 -0.04909953
0.046069894 -0.0047281315 0.12662743
0.24324332 -0.14056931 0.008834846
-0.17338319 -0.079742044 0.017301172
0.15184993 0.119790494 -0.041562397
-0.35614756 0.025696708 -0.107709505
-0.02184172 -0.003394529 0.17387705
0.20780241 0.02995193 -0.16358419
0.10144781 0.13463151 -0.08579284
0.24074084 0.08902493 -0.2304597
-0.13304912 -0.010178039 0.032234076
0.20286141 -0.18888141 -0.0036262588
0.023361215 -0.1048498 0.16740511
-0.24815321 -0.14749125 -0.06859511
0.03186275 0.19418846 0.0016429463
-0.05496604 -0.100361876 -0.06868155
-0.1758284 0.024755992 -0.078711785
0.1561668 -0.14773278 0.097536385
-0.020731766 0.10550103 0.019114979
-0.23627354 0.058014534 -0.096859045
0.12683764 -0.14197646 0.04529126
-0.15406755 0.0005955917 0.094728485
0.0394246 -0.007275367 0.12102152
-0.17176142 -0.13913783 0.030718278
-0.15876076 0.12170789 -0.24054508
-0.11393998 -0.038216274 0.032824825
-0.23066081 -0.24148375 -0.07156445
-0.13662475 0.20892723 0.14644381
0.0468735 -0.118412 0.22153443
-0.2395751 0.011937067 -0.09700542
-0.011595285 0.12860316 0.17035297
-0.13215168 0.06900528 0.20596015
0.12117276 0.19160068 -0.15466222
-0.26041275 -0.1709078 -0.030289961
0.14371406 -0.12644416 0.0682488
0.10481158 -0.22601025 0.16954447
0.17696267 0.18556559 -0.13966757
0.088684276 0.24594758 -0.026609587
-0.09459009 -0.1480921 -0.08387658
0.010635905 0.046193115 0.07503068
-0.063155085 0.23124419 0.08987395
-0.067370005 0.20716634 0.13286872
-0.021553425 -0.13819063 0.15853108
0.17412636 0.27722096 -0.1603296
0.14490363 -0.18468441 0.1038017
0.1118402 -0.0037843562 0.061738834
-0.10890635 -0.005499076 0.033107903
-0.15572745 0.02635002 -0.11028822
-0.07107628 0.10289488 -0.009470756
-0.20676231 -0.10002574 0.0045059677
0.21210806 0.16356058 -0.12236172
-0.112244286 0.0046823197 -0.1366617
-0.13757706 0.06383342 -0.08871998
-0.1177801 -0.20296855 -0.105113015
-0.22824456 -0.26872468 -0.078058034
0.22611971 0.017801175 -0.19891647
-0.026395876 -0.035036057 0.101819225
-0.015070922 -0.024968132 0.23261467
-0.23813899 -0.1889232 -0.010948377
-0.04779762 -0.30347 -0.18359149
0.2371471 -0.002326282 -0.2028746
-0.01617122 0.14081998 0.09177848
0.16469449 -0.24068843 0.044950552
0.13725491 0.11563264 -0.08138279
-0.18026766 0.040691227 -0.061207224
0.01737393 -0.09990619 0.25106788
0.15117124 0.030542295 -0.12423706
0.19950485 -0.112738684 -0.06565796
-0.10389386 -0.14536637 -0.12372108
0.009858519 -0.021277336 0.17234014
-0.29632914 0.061982878 -0.045470826
-0.08079523 -0.009576273 0.067113854
0.06100441 0.079206236 -0.04833612
-0.1525242 -0.14439008 -0.011009201
0.1317782 0.035054762 -0.0709396
-0.09213787 -0.029980183 0.27165347
-0.027666703 -0.20725864 -0.21269314
0.014388112 0.04296016 -0.00064426794
-0.082080685 0.023094097 0.19230908
-0.086056985 0.2312027 0.123161
-0.13310234 0.10191604 -0.06933244
0.08856955 0.26928318 -0.11956407
-0.114473596 0.03247343 0.071935646
0.20462495 0.20877026 -0.15455703
0.013627599 0.031476304 0.1169642
0.09321944 0.0030158504 -0.015069838
-0.08471682 0.035261136 0.18252419
-0.045481287 -0.062321253 0.28194034
0.23850352 -0.068000525 -0.17647502
-0.013472334 0.039570615 0.16068038
-0.00094633625 0.14613561 0.0030668308
0.18531281 -0.18242282 -0.0045308163
-0.12145833 -0.017413465 0.038726807
-0.2848722 -0.15598816 0.026961708
-0.093536705 -0.25745097 -0.10806843
-0.00017969236 -0.012160734 0.07387427
-0.053953163 -0.09150118 0.14788185
-0.16195749 -0.02812397 0.03557445
0.023227096 0.03326516 0.034220155
-0.12678568 0.10297249 0.20418963
0.16369282 -0.117877856 0.055874597
-0.20104748 -0.12913269 -0.065240726
-0.34184355 0.025823046 -0.12836461
0.05006402 0.19858958 -0.019290732
-0.037113026 -0.01483338 0.14476824
0.061226886 -0.11565991 0.023029348
-0.043228753 0.017103387 0.18818581
0.027375516 0.2623415 -0.03623618
