# .PCD v0.7 - Point Cloud Data file format
VERSION 0.7
FIELDS x y z
SIZE 4 4 4
TYPE F F F
COUNT 1 1 1
WIDTH 1000
HEIGHT 1
VIEWPOINT 0 0 0 1 0 0 0
POINTS 1000
DATA ascii
-0.085776195 -0.13781855 -0.15766743
0.10351802 -0.20734406 0.20065625
0.24671581 0.04811739 0.10935162
-0.1228374 -0.19572498 -0.16085118
-0.10590635 -0.23626451 -0.1783343
0.08614676 0.21841918 0.1757404
-0.12417733 -0.039884105 -0.11142503
0.3258377 0.084590875 -0.27792278
0.0060150903 0.20908041 0.19369243
-0.15630956 0.051489618 0.18954077
0.08635967 -0.060434587 0.15799616
0.031537298 0.036315944 0.14914285
-0.20389521 0.026987951 -0.23510335
-0.31712937 0.14209603 -0.2209685
0.059135333 0.12804952 -0.26884505
-0.11252251 0.26534012 -0.20021586
0.2678469 -0.06777391 -0.24179253
0.14078249 -0.031924974 0.12824395
0.25744334 -0.15151772 -0.2846664
0.17329529 0.011044018 0.11228768
0.082102455 -0.16683973 -0.17853153
-0.04684032 -0.14721557 0.21282066
-0.22227147 -0.04538542 -0.15441604
-0.00977348 -0.07120879 0.15807976
0.0103967255 0.3173015 -0.24047321
-0.04809185 0.1815474 0.19494942
0.08616335 0.084554955 -0.19053133
0.16061187 -0.057987645 0.1902928
-0.017956506 0.13291776 0.036854915
0.06367845 0.04906076 0.10951264
-0.012430954 0.0135793965 0.155462
-0.14969034 0.13377005 0.12797657
0.10560523 0.29773274 -0.21254675
-0.3319993 -0.009361032 -0.22902013
-0.13310608 -0.086123705 -0.026425816
0.10000095 0.06932968 -0.21716067
0.032077104 -0.12640277 0.119148575
-0.17466798 -0.032000136 0.22034994
0.06826831 -0.14512824 -0.20241483
-0.08314981 0.006807156 0.19250716
-0.12270851 0.1329724 0.16894236
-0.042153504 -0.2315737 0.15876955
0.014419454 0.055905487 0.15716058
-0.2862744 0.12974718 -0.16313793
-0.025592929 -0.016587721 0.20427272
-0.3007873 0.0661156 -0.23697552
0.17359315 0.087377645 0.095281206
-0.15341534 -0.22362344 -0.14083734
0.2685058 -0.11266256 -0.282872
0.0976692 -0.17731287 0.12514164
0.092386164 -0.06627532 0.11872085
-0.035160016 0.19045909 0.1669678
-0.12794405 -0.040994246 -0.17594607
-0.053764988 0.14509936 0.160055
-0.00753591 -0.3040837 -0.24659276
-0.1448806 0.09159243 0.13960539
0.045774255 0.17378926 -0.19746234
-0.073359266 0.23385009 -0.22407536
-0.09950491 -0.022647139 -0.042592674
-0.05085306 0.090827756 0.18060929
0.16654985 0.26288816 -0.26516676
0.1261809 0.0038678234 0.121807635
-0.27568656 -0.12243437 -0.12869275
-0.21940716 0.21102436 -0.2464398
-0.20172206 0.23520309 -0.22021452
-0.30065483 -0.14686252 -0.19237506
0.08627535 -0.06843297 0.12149247
0.09923729 0.26080704 0.15310702
0.18729417 -0.03661555 0.13024397
0.19856837 0.09170135 -0.2703616
0.04913479 0.02479114 0.15682624
0.18025154 0.18490501 0.14926411
0.24500509 -0.10562355 0.1345357
-0.16873018 -0.03159496 0.23222223
-0.19157179 0.033726655 -0.21007669
0.022296712 -0.046378493 0.12839304
-0.08550123 -0.14098233 0.1926007
0.19372703 0.05094662 -0.27983198
-0.09690892 0.17207995 0.16339266
0.09252274 0.19654259 -0.20466258
-0.03261523 -0.09747393 0.14714228
-0.053519133 -0.06554136 0.15926474
0.23062795 0.029876823 -0.2885304
0.022684049 -0.22242136 0.16977355
-0.14201121 0.079137795 0.16203599
0.16289814 0.13025913 -0.15799794
-0.06422151 -0.09198573 0.16608307
0.007948545 0.10751827 0.13432105
-0.047150034 0.12677458 0.2077116
0.20735253 0.047514897 0.17306747
0.10448222 -0.21048015 -0.2676127
-0.019264681 0.18779603 0.10845711
-0.1903441 0.0034564612 0.19134207
-0.00053297594 -0.06419368 0.19325578
0.24453844 -0.019187596 -0.24438788
-0.22261107 0.07593732 -0.21447931
0.21612269 0.17118761 0.1613581
0.05773117 0.1420416 0.1980285
-0.022125132 -0.08510416 0.19802287
0.19502865 -0.26357472 -0.21463865
-0.13540033 -0.15054631 -0.1789038
-0.0033100822 -0.06640197 0.1702783
-0.049589127 0.08884137 0.20524958
0.22744992 0.13422036 0.103790395
-0.20589364 0.07397399 0.13140912
-0.10645832 -0.013459215 -0.05929576
0.22294086 -0.07954186 0.11228453
-0.009894389 -0.2598931 0.1502868
-0.17258948 -0.080570966 0.15569499
-0.12685664 -0.15619747 0.21187323
0.033827294 0.080828756 0.182971
0.076599024 -0.15896145 0.18267299
-0.25200388 0.074442126 -0.20094451
-0.016227633 0.14893779 0.10705718
0.015496202 0.18748638 -0.20823121
-0.11648289 -0.17842437 0.17096062
-0.18426777 -0.010309716 0.14919777
-0.20752022 -0.17308643 -0.14349869
0.0057292497 0.124944314 0.19323598
0.18104036 -0.052289598 0.15529904
-0.02256747 0.03356707 0.13444413
-0.13986874 0.0070266793 0.21588567
-0.08391033 0.029563885 0.20304427
0.18184435 0.11071727 0.13134412
0.0014334212 0.24848679 0.18726298
-0.160671 -0.0034267101 -0.12006778
-0.19063915 -0.087628916 -0.21021664
0.25699016 0.010362726 0.15727104
0.18292274 -0.043733247 0.12430839
0.07697328 -0.1994703 0.12759568
0.119510315 0.20783707 -0.27898538
-0.22268398 0.2210415 -0.21199758
0.007846861 -0.10974786 0.20143476
-0.20551479 -0.059466247 -0.1936652
-0.021504045 0.14478447 -0.1514839
0.07617101 0.27438858 0.15190709
-0.15590137 -0.018098276 0.18151876
0.15778287 -0.025719421 0.1188149
0.04246519 0.03487015 0.17090331
0.16455625 0.00990525 0.15005839
0.035822764 0.24872592 -0.24481978
0.07048711 0.08834 -0.18220027
-0.0065619815 -0.2853769 -0.22518976
-0.078745455 0.21317454 0.11827926
0.08831919 0.27363512 -0.2542062
0.10499991 0.1536154 0.089349724
0.11363059 0.04346105 0.19169033
0.09323977 -0.07959537 0.19934143
0.009922572 0.17005025 0.17436898
-0.21412106 0.02760487 0.1425356
0.24248338 0.14374854 0.13424858
-0.02514053 -0.060423877 0.14413282
0.19950794 -0.01742258 0.1674843
0.14371836 -0.065530896 0.17373651
-0.10415062 -0.21854675 0.1893876
-0.046630032 -0.23027748 -0.23847698
0.17427145 0.15897496 -0.2516122
0.09304334 0.27358675 -0.23068915
-0.17634234 -0.032083657 0.2175572
0.107802495 0.07885467 -0.20450278
-0.0821258 0.26706168 -0.23383804
-0.02523845 0.038568605 0.1335597
-0.25330558 -0.08676211 -0.2096233
0.21792604 -0.1371754 -0.28535658
0.025781589 0.10484642 0.16172802
-0.16725904 0.07962775 0.19180195
-0.051096987 -0.11936693 0.16017461
-0.24403074 -0.074945755 -0.22586492
0.2292871 0.04805591 0.18095602
-0.015690435 -0.078845926 0.16286865
0.11895956 -0.094678976 0.19710737
-0.27849078 -0.0077594826 -0.19463721
0.17575473 0.08116954 0.14709485
0.17725396 -0.008186808 -0.18348898
-0.1688625 0.09286108 0.18502833
0.064525336 0.16844839 0.14316641
0.15251803 -0.002918678 0.1080321
0.01786324 0.16634081 -0.2149422
-0.1847726 0.1925408 0.17916909
0.13476376 -0.08047949 0.1282419
-0.041450173 -0.16531818 0.15052466
0.036570664 -0.06942415 0.11556161
0.0051591056 -0.056623504 0.12931333
-0.028700912 0.100517005 0.20229757
0.05224099 0.016906999 0.11303311
-0.20969898 -0.16042908 -0.14517634
-0.1362525 -0.0883052 -0.12006524
-0.23632742 0.13874575 -0.2287113
0.055656705 -0.03556203 0.124978706
0.12768842 0.15848143 -0.147367
0.23328398 0.16066276 0.09121861
0.040331904 -0.19558778 -0.14400646
0.20641083 0.02851883 -0.19828366
-0.16160366 0.061809674 0.16839479
-0.32448256 0.13241382 -0.25919247
-0.33306724 -0.09901884 -0.16450672
0.18438509 0.02506095 0.10769315
-0.17023328 0.061865706 0.1292096
0.09455898 0.094530694 0.11503653
0.049500912 -0.20846744 -0.18000631
0.28937325 -0.05801855 0.11052652
-0.1336642 0.043011323 -0.13339809
-0.112375624 0.086273365 0.13922143
-0.12916051 -0.18277666 -0.19749004
-0.05119092 0.017436208 0.17143346
0.03774093 -0.10384413 0.14550476
-0.09745196 -0.193896 -0.1313996
0.06765823 -0.13406135 0.013006054
-0.25298434 0.15305167 -0.1760104
0.016655417 0.11338995 0.14016789
-0.043325987 -0.19266707 -0.11450884
0.15742332 -0.19241644 -0.20368975
0.09664825 0.18888006 -0.23835795
-0.051084187 -0.24854618 -0.21207216
0.11255072 0.101602904 0.15105212
-0.078711785 -0.22001907 0.14679703
-0.14485417 0.049592342 0.13288751
-0.06406991 -0.12261476 0.009296312
0.0456837 -0.030083597 0.19377542
-0.20053358 0.20485339 -0.16847931
-0.124196924 0.20299025 -0.1992582
0.15546723 0.1534682 -0.24021049
0.038048815 0.27162418 0.09254138
-0.05511312 -0.08285384 0.1755198
-0.18742214 -0.2365274 -0.15527587
0.34082353 0.014803623 -0.22221856
0.017227137 -0.20681323 0.22457297
-0.06514931 0.028865382 0.16132309
0.013274217 0.14867719 -0.18672296
0.16475184 0.050001234 -0.27271792
0.11505665 -0.1569558 0.14948334
-0.27174047 0.067779906 -0.1762858
0.18515845 -0.11246775 -0.19540015
0.10454599 -0.16273405 -0.25401065
-0.12950693 -0.048950784 0.16324997
-0.21819036 -0.018512875 -0.14131863
-0.09595132 0.18267247 -0.03946008
-0.0063732853 -0.2756145 -0.22609638
-0.2156613 0.015704267 0.14152668
-0.24772157 0.02878666 -0.1901936
0.30124107 0.03221587 0.13007246
0.010160977 0.13940358 0.11684094
-0.049193405 -0.088286795 -0.14725724
0.16343567 -0.14026581 -0.22736481
0.09453977 0.11676913 0.17032643
-0.06749017 0.2152437 -0.22534066
0.1207517 -0.1705069 0.19544837
0.26476416 -0.048342753 -0.2027999
0.021053234 -0.29245526 -0.20722024
0.1425221 -0.13274993 0.12233983
0.12950094 0.23896769 0.10433267
0.1585379 -0.21767798 0.09345567
0.09326564 0.0076947045 0.16050355
0.18405217 0.14873095 0.13537139
0.16621175 0.12803236 -0.29314893
-0.17467326 -0.0636567 -0.14658193
0.15537238 0.14332594 0.14403091
-0.11295988 0.011802143 -0.13544859
0.21447404 -0.031174151 0.1637016
-0.13670401 -0.025212402 0.13549867
0.028756758 -0.11887125 0.16419792
-0.027496248 -0.015866349 0.15382358
0.05984748 0.04750571 0.13746083
-0.03288051 0.16270974 0.1580716
0.2015911 0.14187673 0.17142887
0.16926149 -0.14566974 0.12605761
0.098879725 0.20331533 0.117881685
-0.04111158 0.012095686 0.15936908
-0.040776514 0.03493791 0.16796106
-0.09985126 0.04702869 -0.11675057
0.2767471 -0.014153461 -0.23986968
0.19001682 0.08745728 0.13040517
0.09495933 -0.063700706 -0.18990591
-0.11227676 -0.059110936 0.22432666
0.010988633 -0.20121875 -0.19017859
-0.15314619 0.17366587 -0.22122231
-0.028740428 0.08687414 0.09023855
-0.1513757 0.14428031 0.1851354
0.017021196 0.23303711 -0.19292253
-0.21255031 -0.12017816 -0.14437518
0.27892804 -0.05964798 0.13921905
-0.040737092 0.08209953 0.10532303
-0.11349927 0.028973283 0.19145139
-0.0033964582 -0.093454 0.2122152
0.056398373 -0.18979667 0.21160954
0.10264931 -0.11027696 0.18051817
0.06148573 -0.14173116 0.20868695
-0.11085634 -0.10408442 -0.118485235
-0.16505715 0.28269288 -0.22981367
0.13741505 0.18691096 0.14839448
0.08700433 -0.18778433 0.20059586
0.010566267 -0.1628056 0.13642065
0.035800193 -0.056566954 0.20751208
0.08838185 0.3134817 -0.213499
0.027237175 0.04758836 0.081256635
0.16408733 -0.10251778 0.1094035
-0.089763485 0.26966536 -0.26114053
-0.0027176293 0.15750772 -0.27201283
-0.11395796 -0.12015256 -0.117612556
-0.06835081 0.096380934 0.17689887
-0.03394444 -0.1351677 0.20819917
-0.0022509976 -0.20393628 -0.065279886
0.04595238 0.27436918 0.14833924
0.2082593 0.05447199 0.09154385
0.20962287 -0.15249878 -0.264058
-0.04531775 -0.07201178 0.215578
0.008156261 -0.11457413 0.16790098
-0.13849904 -0.14312932 0.15951173
0.17282756 -0.16453652 0.11435303
0.11148579 -0.21939024 -0.21456067
0.269614 0.08222603 -0.29495624
0.20460409 0.10965054 0.18366279
0.06871452 0.01780352 0.13411191
0.20051797 -0.27654254 -0.22299649
-0.012916883 -0.11626536 0.12861463
-0.117148794 -0.16683881 0.16051978
0.08628349 -0.13856353 0.13415335
-0.033410326 -0.15290225 -0.055190474
-0.13498537 0.0014642089 0.18490289
0.15612534 -0.074784376 -0.27640617
0.019473067 0.24032645 -0.19105917
-0.30303574 -0.03696797 -0.15375051
-0.03466463 0.003066195 0.05278531
-0.029028282 -0.20758015 -0.24064472
-0.111491725 0.08453382 -0.13353246
0.03939491 0.2794878 -0.2518368
-0.10859427 -0.025959017 0.14860062
-0.1173696 -0.16785356 0.1856992
0.014543403 0.136865 0.1758603
0.11118047 0.09218799 0.12647137
-0.058582027 0.060578927 0.1950258
0.2419638 -0.19405325 -0.21756099
0.000736781 -0.17156056 -0.14114273
-0.26569435 0.00084427546 -0.15086138
0.19177191 -0.15753032 -0.2636737
0.12025103 -0.14397855 0.14924137
-0.017569324 0.14484766 0.13648242
0.100334026 -0.07736827 0.15855458
0.20986903 -0.08958312 0.16516882
-0.051303003 -0.024795935 0.17427202
-0.025447173 -0.068795115 0.21608095
0.2310478 0.06611824 0.09083542
-0.1763865 0.11091293 0.13606869
0.3044554 -0.12998919 -0.2651159
0.02916537 0.16113536 0.1842476
-0.1911623 0.05112993 0.22088355
0.21693683 -0.009649258 0.16213638
-0.012213929 -0.07910319 0.120773986
0.07246384 -0.0023347603 0.16900699
0.11267511 0.21673986 -0.22074799
-0.14045505 0.10173851 0.18408419
-0.15806942 -0.029822003 0.19975281
0.25515774 0.03180461 -0.2713763
-0.09513587 0.0870453 0.19315258
0.18200848 -0.04504194 0.17133437
-0.09065854 -0.094557874 0.14650472
0.11826338 0.22132905 -0.2261051
0.031636637 -0.013953491 0.11275902
-0.09477038 0.048549924 -0.008147912
0.050339356 0.24396494 -0.25975388
0.13683487 -0.09688823 0.12702116
-0.14812206 0.22345819 -0.26061645
-0.24385491 -0.10002739 -0.22185895
0.17000449 0.008845285 0.17049687
-0.07519099 -0.06043394 0.14901039
-0.19959904 0.21202926 -0.20232725
-0.21764177 -0.018316641 0.19266565
0.012757963 -0.019881306 0.08595917
0.10153068 0.098538935 0.16434184
-0.09743304 -0.15952554 0.19626512
-0.09918445 -0.12504163 0.21120706
-0.0757438 -0.078123346 -0.17667118
0.24512428 0.086591296 0.118830144
-0.06772555 -0.17138976 -0.10417709
-0.041309427 0.112952255 0.11948425
-0.3065337 -0.02958255 -0.22652708
0.09142691 -0.33510214 -0.24130325
-0.08460568 0.107711956 0.20248875
-0.13175169 0.019268407 0.19598311
-0.15021636 0.1145258 0.2086567
-0.22603676 -0.15739371 -0.20175995
0.034026872 0.16057603 0.10648621
0.078207284 0.072667226 0.18867223
-0.09288299 0.12846084 0.17751247
0.07004886 0.023806907 0.12892473
-0.13680519 -0.08433616 -0.13331847
0.13721 0.18721315 -0.23973988
0.08608255 -0.22978057 0.09931483
-0.18482119 -0.1508393 0.19422112
-0.113944456 0.041652247 0.16907048
-0.06378683 -0.18380067 -0.15755501
0.15578063 0.01645448 0.16902946
0.00037617143 0.16652106 0.15758231
-0.0011924545 -0.20566003 -0.22108968
0.0075621004 -0.116813466 0.14764662
-0.12199566 0.10286508 -0.006167413
-0.16952585 0.18135655 -0.18676262
-0.05382481 0.23235288 0.12865052
0.30793667 -0.050635166 -0.20331703
-0.13834688 -0.13946868 0.20509668
0.21364923 -0.22845685 -0.28418025
0.17625049 -0.12573065 0.14909601
0.06301585 0.26134276 0.11191813
0.14084607 -0.26137182 -0.219666
-0.19328785 -0.18057068 -0.22632913
-0.090797715 0.21780287 -0.13698396
-0.0757205 0.054586604 0.1386954
-0.095948406 0.27828372 -0.26494008
0.13750245 0.102048054 -0.27602738
0.0703447 0.112177044 0.15506038
-0.07194361 0.098434314 -0.09636883
0.0153788915 0.13365214 0.18246889
0.17082779 -0.15016614 0.19222198
-0.22822948 -0.08222131 0.15827903
0.13805887 0.08778481 0.1042219
0.1442579 -0.10260285 0.12956643
-0.14260957 0.14095156 -0.17083424
-0.16235557 -0.003332174 0.2213543
-0.057961095 0.25319615 -0.22574776
-0.1715268 0.05157278 0.16539942
0.22522032 -0.102563694 -0.22614536
0.18311282 0.21250631 -0.26552773
0.1452548 0.15612811 0.103483304
-0.0046638157 0.06612964 0.15306744
-0.028498532 -0.12603535 0.20306158
0.2343597 -0.028426582 0.14079389
-0.122447275 0.028304506 -0.10135793
0.12965445 0.11271164 -0.24515559
0.09159879 -0.25553742 0.20735721
0.08063175 0.1875868 -0.14821735
-0.103640795 0.20766117 -0.25596124
-0.04461698 0.019139847 0.20053135
-0.16547953 -0.052494396 0.19686726
0.15431702 0.11902145 0.112876594
0.13895036 0.2170123 0.11900089
0.09260539 -0.16208327 0.022048878
0.058440566 0.22609589 0.14645682
-0.14694232 0.19101852 0.1452511
0.0831474 0.010125772 0.1834006
-0.01924698 -0.040526785 0.14802806
0.2925511 -0.10275425 0.16880059
0.11376616 -0.069854274 -0.1364924
0.0993538 -0.1773304 -0.2567678
0.020374393 -0.24488065 -0.24656844
-0.005686078 -0.20881487 -0.15546668
0.10305559 0.16237935 0.10289573
-0.03377644 0.24518217 0.1579161
0.050523702 0.010136444 0.10266504
0.1677456 -0.0052283714 -0.24895373
0.029828453 0.13617752 0.13781072
0.043676272 -0.21734141 0.16627662
0.14120153 0.007536377 0.12108768
-0.30779067 -0.123687185 -0.15484437
-0.0014647596 -0.12974133 0.13991982
0.024884634 0.23655723 -0.20185548
0.29506725 0.10387266 -0.24171622
-0.20020112 -0.22893976 -0.1494825
0.09918454 -0.13905987 -0.1766241
0.07226007 -0.08694715 0.16574071
0.012277169 0.11161671 0.1387871
-0.0061804685 0.14458011 0.12746081
-0.0359589 -0.26448855 -0.218327
-0.124406695 0.29454094 -0.2134277
0.17370464 -0.23982307 -0.27831513
0.046999566 -0.20854269 -0.21072458
-0.10411196 -0.1513551 -0.14582105
-0.24957515 0.18070363 -0.17974362
-0.17507905 -0.1406588 -0.21522981
0.0067696143 0.2638411 -0.1886869
-0.12712361 -0.14814414 -0.21431264
0.03186654 -0.0033527582 0.018503949
0.09698317 0.07381243 0.1881006
-0.2071164 -0.029695066 0.18106565
0.033180457 -0.0830848 0.18785389
-0.20407136 -0.16180508 -0.1890553
0.26342446 -0.101273954 -0.2850791
0.06942697 -0.14157954 0.16335903
0.08954536 -0.12837069 0.11305692
0.15350762 -0.06642995 0.13937376
0.16630422 0.028100723 -0.2163043
-0.094492346 -0.3004961 -0.18048434
-0.05228372 -0.1380951 -0.17897245
0.10168797 0.10679408 -0.17986007
0.060313098 0.07131573 0.09831513
-0.09008606 -0.12812723 0.15584585
-0.01054261 0.115337044 0.18821253
-0.18995492 -0.03623235 -0.15518576
-0.12304856 0.05533929 -0.110201746
0.062021267 0.009625113 0.19034612
0.16227233 -0.034698803 0.16015434
-0.007958337 -0.33149105 -0.24382871
-0.1258481 0.045946375 0.21593611
-0.0722183 0.011133627 0.21903232
0.13421339 0.094745025 0.143563
-0.25991255 -0.10200148 -0.23273389
-0.11580697 0.20590375 -0.24616645
-0.02466998 0.027163168 0.21522614
-0.02201147 0.28981152 -0.23532507
0.0015085887 0.20566072 0.113833554
-0.17663863 0.21457094 -0.21698777
-0.006011133 0.17116746 -0.2470681
-0.22071546 0.16204122 -0.22367421
0.15817837 -0.008012271 0.19179945
-0.084641956 0.15423529 -0.22266592
-0.10329578 -0.14032544 0.18644144
-0.017364942 0.19968972 0.119172886
-0.13752113 0.09030004 0.1343918
0.026785264 -0.08484451 0.18518025
0.11789967 -0.002851928 0.14233492
0.27548203 -0.015287414 -0.2845819
-0.015945377 0.13969757 -0.23574148
0.22067447 -0.14439587 -0.19358246
-0.15487495 0.13715146 0.11552954
-0.23503281 0.05501196 -0.20076813
0.27609304 0.11285738 -0.21703687
0.12315023 0.00016952305 -0.14853255
0.19868326 -0.09702708 0.097722046
-0.08057595 -0.041281298 0.18586808
-0.1644152 0.20988742 -0.2558974
-0.059360437 0.1108797 0.1110562
-0.023610335 0.20183142 -0.19452399
0.17497799 -0.17672367 0.17510654
0.0139183495 -0.24909486 0.12000627
0.009654512 0.28760353 0.09980026
-0.20990068 0.031259608 -0.17409314
0.04542332 0.0342904 0.19152707
0.058276374 -0.032946724 0.1394613
-0.13707408 -0.12426341 -0.15841226
0.089826524 0.18984582 0.11164936
-0.08974894 0.08600595 0.18251635
0.17595504 -0.060554083 0.18300608
0.13376093 0.20105514 0.14854652
0.10975964 -0.028245015 0.16739582
0.19058764 -0.13424824 0.12161938
0.18953694 0.13784924 0.17442246
0.13360545 -0.23130998 -0.25313333
-0.01607825 0.056588493 0.17426531
-0.04651666 0.17801404 0.17128538
0.22208746 -0.13181263 -0.27072075
0.07608936 0.15299694 -0.22291903
-0.10940232 -0.0379019 -0.13163987
-0.07121892 0.13852432 0.18441257
-0.038896117 0.18872936 0.19211031
-0.114482544 -0.2963289 -0.16914861
0.26142925 0.09353774 0.16169085
0.15263869 0.18812831 0.1423178
-0.22601762 0.0819366 -0.19747831
0.11845262 -0.19584787 -0.25122133
0.1114338 -0.25794178 0.15812568
0.035749644 0.10501584 0.16950597
0.09510328 -0.2299953 0.17021246
0.15854445 0.22914429 0.17326534
-0.074587256 -0.07718366 0.13081758
0.16041934 0.09023059 -0.19998054
0.05798917 0.06663711 0.098435365
-0.06428558 0.20231956 -0.25275752
0.22497147 0.026124265 -0.2190285
0.029271148 -0.1653345 -0.07669694
0.074372835 0.138755 0.108988486
-0.10445784 0.017387733 0.1510182
0.12340975 -0.22011545 0.17262296
-0.06414783 -0.20985804 0.12655047
0.014527515 0.18901427 -0.19858374
0.074670486 -0.2927638 -0.20544496
-0.16283794 -0.12785031 -0.23130749
-0.026315322 0.20286408 -0.22526143
-0.20318186 0.17840041 -0.22219388
-0.15321295 -0.0018289284 0.19080159
-0.16875075 -0.071669586 0.15516767
0.008131318 -0.010284326 0.18890753
-0.26763356 -0.11275551 -0.14993592
-0.16076972 -0.22449774 -0.1852785
0.19418046 0.24328536 -0.24342966
-0.12122975 -0.23984349 -0.16681194
0.24328448 -0.0002640053 -0.27101395
0.1045928 -0.114744894 0.18895625
-0.058073413 -0.16531904 -0.15137447
-0.01777536 -0.15241753 -0.13706054
-0.044606347 -0.11944332 0.22364777
0.27570602 -0.13085826 -0.27214321
-0.09014427 -0.17512028 0.18183851
-0.07156476 0.20549777 0.17931318
-0.09263956 -0.19814856 0.19998384
0.22480987 0.07466499 0.1402326
-0.14637655 -0.011461684 0.21700636
0.08401904 -0.3288887 -0.20859735
0.13501765 -0.12836516 0.13652413
0.19420214 0.19142158 0.14572585
-0.08071429 -0.080479175 0.17058663
0.0740044 0.14374632 0.1724471
0.04729702 0.08055142 0.1709531
-0.16785848 -0.26872647 -0.1519268
0.15951256 -0.28302878 -0.227575
-0.1189018 0.0042933132 0.20981355
-0.11434698 0.19451556 0.1653848
0.114783354 0.012195062 0.12998095
-0.07025923 0.1712353 0.16893187
-0.008883777 0.009713585 0.15427284
-0.06795393 -0.2686964 -0.205956
0.07433121 0.028083276 0.16901104
-0.045654543 -0.27963072 -0.1529146
0.19370498 -0.19121026 0.14459091
0.14700428 0.0238113 0.17658508
0.1397512 0.2680609 -0.2866903
-0.20997669 -0.24087708 -0.23696317
-0.1346669 0.07401543 -0.14956003
0.039457325 -0.20096113 -0.17232302
-0.07373496 -0.24692108 -0.21676938
-0.07625632 0.093270786 0.14588867
-0.049228035 -0.216692 0.13815227
0.030688439 0.012410006 0.11946305
-0.10108513 -0.16983344 0.17444552
-0.14534518 -0.19907162 -0.21037802
-0.11377801 -0.025567494 0.21864496
0.18915652 -0.03883322 0.115432635
-0.1429027 0.25656697 -0.17950244
0.10271562 0.06776135 0.18672109
-0.0621889 -0.24384391 0.17876826
0.09359528 0.12364769 0.13533121
-0.37616095 -0.09196555 -0.2127364
-0.17915095 0.21676835 -0.1781018
-0.023783503 -0.18890296 0.20789042
-0.054581303 0.060626764 0.14434262
0.047816116 -0.17490253 0.17525919
0.12400463 0.10968466 0.10013639
0.13363332 -0.16180557 -0.17892025
0.090067096 0.059928387 0.16402249
0.23726362 -0.023081493 -0.23270883
-0.11359735 0.16891257 0.1847546
0.13056454 -0.19751433 -0.24811698
-0.05283646 -0.104204886 0.20312782
0.2473697 -0.046397522 -0.22645424
0.06709236 -0.13779974 0.16443096
0.20327617 -0.29984808 -0.18414003
0.13103795 0.032236546 0.11056098
0.039959967 0.10845383 0.15441723
-0.21242636 -0.12729755 -0.21645802
0.16451684 0.06647942 -0.25890157
-0.112963215 -0.2664744 -0.23396912
-0.30859256 -0.058335997 -0.19416922
-0.13636303 0.10670519 0.16383033
0.28898758 0.03959498 -0.2315686
0.14409025 0.033649787 -0.21446274
0.2027473 -0.07558023 -0.2140378
-0.06312983 0.0913844 0.17208143
-0.10592109 0.016239366 0.051211
0.016345931 0.2326673 0.112347834
0.06494968 0.24270251 -0.2440731
-0.105954185 0.22539337 -0.2666474
-0.052274995 0.13197364 0.16620572
-0.17129888 -0.043181363 0.19505817
-0.018072521 0.10534137 0.18071663
0.19186708 -0.21988125 -0.18044169
-0.13374303 0.050826736 -0.121197395
-0.24143022 -0.064850934 0.15175633
-0.21306084 0.22349554 -0.17439947
-0.10038637 -0.11774201 -0.16789922
0.13778754 0.22328554 -0.18929808
0.059235133 0.18440287 -0.25727838
0.085760295 -0.33093697 -0.19718097
-0.11541938 -0.17491016 -0.19807872
-0.19256483 0.14087364 -0.2147211
0.19500642 -0.07373452 0.11013891
-0.14525643 -0.06335258 0.15351938
-0.27625063 0.06329258 -0.17188564
0.21259835 0.2148349 -0.29766592
-0.21684724 0.017718272 -0.1725236
0.034552235 0.20899765 0.15719381
-0.30375156 0.07901703 -0.20773788
0.13085847 -0.3063477 -0.17034219
-0.034781937 0.07451545 0.19420645
-0.17761315 0.009998532 0.14698246
-0.012727718 0.11113743 0.16232455
-0.2300151 0.081239484 -0.15559204
0.15295018 -0.20047665 0.18892534
-0.0538444 0.20404166 0.12262334
0.15164907 -0.03570051 0.09707833
0.07234025 -0.112582564 0.13378035
-0.29743704 -0.03747919 -0.21271555
0.13804677 -0.10678268 0.13320827
-0.15365578 0.23967221 -0.17427543
-0.15255742 -0.081446536 0.1750706
-0.12495828 0.20728253 -0.20440748
0.1378536 -0.15644641 0.101771235
0.26714072 0.14693326 0.09351208
0.051591016 -0.09842832 0.16352466
0.21217641 0.25994733 -0.21083583
-0.056249328 0.15844335 0.18078746
-0.21771942 -0.10151745 -0.13646293
0.014839363 0.1692468 0.120461166
-0.048396874 -0.2068751 0.1694797
-0.18606712 -0.09389783 0.17902899
-0.018294003 0.25344363 0.15855363
-0.32872522 0.00506819 -0.14889711
0.14892527 0.09402263 -0.24645445
-0.08116233 0.04822714 -0.18510798
-0.1873771 0.06553145 -0.121469624
-0.2855349 0.047021933 -0.23252457
0.22318578 -0.07614248 0.12800762
0.041778557 -0.0925325 0.13620195
-0.12972648 0.15378469 0.1847957
-0.24497774 0.15147902 -0.16979231
0.06308697 0.3163176 -0.1990015
0.22761014 -0.17229702 0.12761848
-0.064774446 0.241207 0.13055822
0.011107141 -0.1384209 0.21770114
-0.25025496 -0.12101623 -0.21676897
-0.23462056 -0.10653199 0.12983088
-0.19928597 0.19519652 0.18826981
0.18343379 -0.099373594 0.18695545
0.1528126 0.10280804 0.1624402
-0.008679192 0.26603907 0.11283418
-0.020345256 0.096972585 0.16205014
-0.12284136 -0.111451015 0.20384213
-0.048769474 -0.055271916 0.18331493
0.17691131 -0.030574335 -0.2712081
-0.19853142 -0.08330304 0.18592156
-0.20566402 0.13518247 -0.15146358
0.16373284 -0.1192393 0.123781316
-0.08805133 -0.1606562 0.13727811
0.22569466 -0.1628112 -0.20064974
-0.052442554 -0.2443039 -0.186557
0.031312123 -0.0924318 0.17855905
-0.038575724 -0.04661524 0.13604976
-0.09254359 -0.24957222 -0.21812357
0.06642945 0.25717565 0.08781423
-0.12887456 -0.27313992 -0.21468604
0.056215428 -0.10664907 0.14262646
0.008605929 -0.09600215 0.21752645
-0.04768551 0.2280089 0.15786283
0.06648273 -0.18466856 0.1324818
0.077509455 0.15896304 0.17504106
0.20417754 -0.20799905 -0.23740913
0.0058172434 0.21865112 -0.19318835
-0.1090969 -0.30655915 -0.2073914
0.114291795 0.16626756 -0.1725774
0.037647303 -0.2933841 -0.18531571
0.16142754 -0.2502101 -0.18589288
-0.11924596 -0.12709005 0.19792284
-0.093947865 -0.09145197 0.14646564
0.063727714 -0.06686681 0.19370578
-0.13278113 0.22553064 -0.19391815
0.1764962 0.23113906 -0.24839082
-0.16085345 -0.020531582 0.15120214
0.06621541 -0.21389036 0.11638956
-0.084126905 -0.0134066455 -0.06543557
-0.11838766 0.2882371 -0.23063481
0.09813905 0.102382176 -0.24069561
-0.13025403 0.19128886 -0.22457643
-0.007787631 0.1679613 -0.23988496
-0.21432717 -0.08086669 -0.23185727
-0.033373382 0.20052178 0.1687573
0.026450517 0.14135255 0.1778412
0.086915135 -0.1331502 0.14077349
0.12020046 -0.19511855 -0.23074363
-0.095357105 0.16114523 0.17619334
-0.16300619 -0.08624353 -0.061861597
-0.0965042 0.050747585 0.14791717
-0.1159947 0.13686907 0.18868572
0.22298348 0.031891983 -0.20569547
0.13995486 0.20340638 -0.24917816
0.12027209 0.050037537 0.16024575
-0.05922387 0.16507792 -0.0028005752
-0.30066028 -0.066388465 -0.1454653
-0.15882005 0.053683322 -0.16722858
-0.09474065 0.010168654 0.118579336
-0.15898405 -0.028061744 0.1949423
0.14791621 -0.13300179 -0.19329633
-0.049626615 0.20731618 0.118423715
0.12543377 -0.03349631 0.10565646
0.062113535 -0.075862415 0.19609746
0.17704952 -0.17335802 -0.19459942
-0.09228414 0.11942568 -0.15454249
-0.030718852 0.17513087 0.14743114
-0.016454183 0.1341174 0.11147199
0.0016136204 -0.1370745 0.12149671
-0.21111499 -0.049251582 -0.17431046
0.13725913 0.112814404 0.097347334
-0.20303828 0.088941365 -0.15457569
-0.21376123 -0.13620399 -0.18348308
0.20424096 0.0508763 0.1526186
-0.020509046 -0.23900783 -0.15687276
-0.100381054 -0.07501718 0.18861027
-0.021875964 -0.16305678 0.21440756
0.11308673 -0.1700938 0.15905067
0.056623086 0.10011915 0.13329592
0.24486364 -0.11563068 0.159669
0.24738717 0.11013037 -0.2570906
-0.11453985 -0.2985484 -0.13956593
0.12513056 0.10965834 0.115720995
-0.025397245 -0.13984558 -0.14858556
0.11065466 -0.18547429 -0.18289436
0.14554252 0.047105793 0.16573165
0.004976744 -0.13826081 -0.05374229
-0.09395117 -0.21461351 -0.18328954
-0.039046522 -0.05569766 0.17164418
0.12420925 0.10486096 0.1220539
-0.10897386 -0.31216413 -0.1435716
-0.14985278 0.09805135 -0.02598196
0.20959012 0.05821769 0.1266657
-0.17811733 -0.09764145 0.16079678
0.17232189 -0.15933199 0.20106271
0.26206374 0.042130124 -0.20109284
0.04794229 -0.25764295 0.1549438
0.1556344 0.025892863 0.108704954
0.18023351 -0.15144262 0.11233693
0.050125275 0.15384871 0.094784565
-0.041659955 -0.26080927 -0.16565536
0.2659428 0.10322238 0.12096371
0.07498645 -0.04056964 0.1515886
-0.27674162 -0.22763957 -0.18981633
-0.041568216 -0.12091758 0.16573833
0.016744137 -0.1714573 0.118575454
-0.16177379 0.06732087 -0.18255337
0.033317942 -0.030492099 0.17299964
-0.065850645 0.30229995 -0.17355381
-0.011707317 -0.24020629 0.20788383
0.11459366 0.15084632 -0.2143108
-0.06412196 0.17025916 -0.21855868
0.24802719 0.16134214 -0.28410783
0.05547698 -0.1386552 -0.06226041
-0.11758802 -0.2841249 -0.15053988
-0.077332474 0.33236155 -0.20432812
0.07326149 0.24298319 -0.22242524
-0.14270926 -0.11260046 0.22239685
0.30053195 0.010583644 -0.2395863
-0.1937972 0.0033167652 0.18121777
0.045205757 0.1547806 -0.21879207
0.06398205 0.10187548 -0.16345122
-0.16430555 0.032584026 -0.016783437
0.09171942 -0.20538943 -0.21303107
0.16790865 0.012890584 -0.20180944
0.25373313 -0.10079742 -0.23609227
-0.109925665 -0.0684501 -0.004909813
-0.072342105 0.2277196 0.16003597
0.084907375 -0.18875836 0.113368854
-0.002782446 0.23160139 0.14277825
-0.106248625 0.12615529 0.15685551
-0.17444323 0.21415377 -0.23308836
0.08770329 -0.060078863 0.13418286
0.14186671 0.14792712 0.1649402
-0.09929095 0.08199726 0.13389984
0.012764281 -0.17734948 0.14686295
0.2208309 -0.051356334 0.092860654
0.2517008 0.102429956 -0.20583841
-0.014290046 0.02965756 0.12369841
-0.17694974 -0.021644093 0.16893734
0.0693144 0.18468773 -0.21077245
-0.22181176 0.1166242 -0.19302344
0.010275722 0.04970209 0.09586108
0.15156925 0.06705589 0.16792943
-0.13728069 -0.111292675 -0.13820235
0.024218982 0.20680982 0.1447301
0.24443674 -0.06739835 0.14318287
-0.013702294 -0.15449283 -0.24935552
0.13302681 -0.13358018 -0.058746666
0.20141979 0.18961482 0.086821735
-0.13808203 0.060055878 0.16266307
0.063907064 0.24881093 -0.21353695
-0.1225077 0.2046313 0.16473565
0.26986468 0.014433538 -0.25825736
0.08758244 0.12911561 -0.24622826
-0.12386316 -0.13345866 0.21322612
-0.13879289 -0.18064754 -0.17097585
-0.15728867 -0.08451881 -0.10520547
0.17044263 -0.21298899 0.1574784
-0.085722506 -0.23235466 -0.19341442
-0.06333466 0.04207183 0.17470056
-0.018291472 -0.22660735 -0.1540927
-0.13354011 -0.2929474 -0.22561702
-0.15671949 0.04328232 0.17681605
-0.14633965 0.089095846 0.16833535
-0.14637293 -0.27632093 -0.25035578
0.046743874 0.0825934 0.18195106
-0.013046284 -0.17786686 0.21360599
0.31261787 0.060800377 0.08593986
0.1730919 -0.017682245 -0.18437684
0.041382432 0.017850501 0.20088597
0.0028199286 -0.24211526 -0.2292739
0.1891008 0.1393675 0.14182858
-0.16295297 -0.054572005 -0.10890869
0.18856758 0.20755567 -0.2108393
0.24092147 -0.19615465 -0.2200914
-0.17479926 -0.13057691 -0.14276335
-0.31788304 -0.07909452 -0.15267828
0.15519354 -0.19100332 -0.23906356
-0.16323683 0.08387795 -0.008741687
-0.04411716 0.17193612 -0.04102557
-0.16671138 -0.028537717 -0.18086167
0.25975916 -0.10081698 0.13860948
0.17551076 -0.19963396 0.123566546
0.051063746 -0.34200034 -0.2010463
0.07002739 -0.06240951 0.15564013
-0.204925 0.017595738 -0.22460446
-0.034336943 0.24933842 -0.24629135
-0.16743807 0.047766015 -0.17398995
0.054733243 0.14949492 0.13631603
-0.33448935 -0.029999193 -0.15846144
-0.07875288 -0.057831965 0.18820852
-0.080908276 0.047153927 0.17780443
-0.07072772 -0.04984018 0.12554744
-0.14129888 0.080993034 0.11990908
0.14808922 -0.20509942 -0.238227
-0.06320681 -0.022990942 0.13550995
-0.15121526 -0.042403772 0.21794817
0.038330533 0.20071016 0.14611483
-0.24707386 -0.1350074 -0.1758702
0.07778039 0.079414085 0.15828381
-0.07210016 -0.2406172 -0.18943878
-0.047547165 0.03642917 0.16555643
-0.1654903 0.012460591 0.2250804
-0.07456019 0.06569628 -0.11485808
0.11667669 0.16131945 0.11050856
0.041195985 0.16264188 0.10830918
0.11693607 0.19582361 -0.27486238
-0.2295799 -0.00053707295 0.21521088
-0.059037376 0.054179147 0.11644267
-0.06516926 -0.20872483 0.15653634
0.21648695 0.10621735 0.08927157
0.021893661 0.005142894 0.11940818
0.24083403 0.059220325 0.11015641
-0.16758442 0.14364345 -0.23082657
-0.11746388 -0.15300432 -0.1130862
-0.13390703 0.103849955 0.1665929
-0.120919764 0.1790011 -0.26143265
0.1904766 -0.0870717 0.16779312
0.104071386 -0.16762768 0.13979736
0.10584212 0.15938203 0.10074257
0.24063875 -0.17077932 -0.26686037
0.15984586 -0.0957186 0.16616377
0.1470026 0.02785636 0.17203681
-0.24697968 -0.02839713 -0.17115895
-0.14988053 -0.059652466 -0.15788278
0.1663816 -0.21454711 -0.23485108
-0.10512673 -0.09792835 0.1467062
-0.14931914 0.24896576 -0.19092426
0.12335584 0.07148395 -0.26117542
0.31946248 0.1459077 -0.30884778
-0.11386559 0.12600544 0.149821
-0.06768307 -0.2130317 -0.22475131
0.06176303 -0.10636795 0.121931024
0.2041851 -0.09661743 -0.20579846
-0.08921707 0.020043343 0.18983448
-0.06867271 0.18338287 0.16951607
-0.15128843 -0.08673968 0.13274238
-0.16124164 0.17349766 -0.2588478
0.19815654 0.021096168 0.13341148
-0.06095455 0.22349295 -0.22149202
-0.029740341 0.20978674 0.13170037
-0.03175527 0.15922795 0.14956786
-0.0135194035 0.26706535 -0.22954108
0.13239728 0.10576593 0.10317527
0.09738278 0.25913778 -0.22054198
-0.17938642 0.16955656 -0.24869116
-0.3058405 0.09381301 -0.17328537
-0.034759715 0.14194739 0.14578477
-0.1737113 0.095949575 0.12626497
-0.19931838 0.27776614 -0.26578823
-0.10695442 -0.08665285 -0.023626218
-0.05799019 -0.2508786 -0.21977273
0.103126705 -0.21576034 0.1645638
-0.18655285 0.06510174 -0.12485642
0.051170878 0.16476068 0.17473067
0.24757583 0.050076015 0.1375242
-0.057139084 0.13829003 0.0230219
-0.10061151 0.069032304 0.16947982
-0.15160719 -0.28110772 -0.22339024
0.0745096 0.14667436 0.15264301
-0.1315474 0.02752477 0.18001404
0.16903727 0.12362709 0.11781751
0.16442947 -0.20201892 -0.23373133
-0.0052856393 0.22077581 0.16336855
-0.24334547 -0.026395412 -0.18190797
0.17721611 -0.06364778 0.12664497
0.110136755 -0.1739835 -0.26861006
0.1257165 -0.10557713 0.120585866
-0.17541894 -0.026842117 0.15478125
-0.09761501 0.13679537 0.16019188
0.15511438 0.21424201 0.13842225
0.04850439 -0.19360861 -0.20466617
-0.04509369 0.14219032 -0.1694035
-0.14758316 -0.20758243 -0.18162267
0.06465972 -0.24972717 -0.22982177
-0.10691387 -0.10979575 0.1495977
-0.0073165577 0.140394 0.14596155
-0.16442682 -0.055997476 -0.08199862
0.007766154 0.123848386 -0.1385154
0.23534626 0.12874936 -0.2352997
-0.21158934 -0.05494751 -0.1552444
0.1911956 0.06603402 -0.29083547
0.046197854 -0.16857882 -0.02096791
0.18639326 -0.009615606 0.09623556
-0.033523545 -0.32600436 -0.18859215
-0.12172025 0.11890075 -0.10655824
0.058370426 -0.060869318 0.1466985
0.09522294 -0.07616061 0.13814715
-0.03841966 -0.19545023 0.16237473
-0.22340125 -0.08604611 -0.20783027
0.084667 0.086732954 -0.1938368
-0.23530576 0.065545775 -0.21315789
