# .PCD v0.7 - Point Cloud Data file format
VERSION 0.7
FIELDS x y z
SIZE 4 4 4
TYPE F F F
COUNT 1 1 1
WIDTH 1000
HEIGHT 1
VIEWPOINT 0 0 0 1 0 0 0
POINTS 1000
DATA ascii
0.061392408 -0.15819018 -0.073950045
0.06044551 0.12971078 0.19836226
0.10703543 0.11225044 0.08309909
-0.06980177 -0.042065155 0.2063104
-0.14901511 -0.22793724 -0.055025622
0.063341826 -0.08507367 -0.0067871595
0.19039248 -0.123517446 -0.12011558
-0.13525832 0.08411303 -0.3360855
0.029932031 0.08314868 0.14624058
0.07209446 -0.15202898 0.0029994547
0.06292021 0.010298028 0.095317684
0.048689857 -0.06791878 0.24710403
0.07168228 -0.30589443 -0.050277676
-0.15499312 0.093070805 0.10488669
0.11896842 -0.08661414 -0.05166291
0.114312045 0.06564956 0.17933954
-0.034926523 0.18045256 0.07580418
0.077645436 -0.07729394 -0.030213637
-0.11595797 0.27786434 0.0024854175
0.0079553025 -0.2090882 -0.08852057
0.009461418 0.20680118 0.04727716
-0.026633168 0.113173865 0.11759776
-0.12784041 -0.21859264 -0.10318457
-0.15311469 0.13951054 0.010048581
0.0933107 -0.099668 -0.036240198
0.19087908 -0.09157067 -0.047888946
0.16577463 0.17804421 -0.24604346
0.18509576 0.11974054 0.14267728
-0.14669499 -0.15494555 -0.08662465
0.065289505 0.274629 0.041857198
-0.0855585 0.21087734 0.044938363
-0.14219524 0.17059842 0.033338554
-0.19045897 0.0295109 0.13782069
-0.13101292 -0.14658003 -0.13873579
0.06822778 0.1132813 -0.30558404
-0.14904909 -0.07823659 -0.17939009
0.10977857 0.20219961 0.16498515
-0.03281806 -0.0045201695 0.17929012
0.08757563 -0.015514531 -0.011019913
0.012400134 0.09197963 0.1302109
0.18157633 0.08626678 0.19989477
-0.19325751 0.03481913 -0.26379418
-0.14997454 0.00164986 0.09827354
-0.2781109 0.1545042 0.060197923
-0.1746394 -0.0429524 0.2021488
-0.09955665 0.24571738 0.0070437538
-0.018428203 -0.13222688 -0.03283993
0.096422106 -0.03904825 -0.0012848969
-0.26395106 0.047977746 0.08221107
-0.18170382 -0.21088065 -0.06645194
-0.104967706 0.002325219 0.12015663
-0.006177551 -0.038982976 0.21903624
0.064745255 0.08443182 0.22878733
0.08456175 -0.21730453 0.002323124
-0.16441745 0.19549613 0.10429105
-0.028490659 0.1836622 0.02652193
0.09088767 0.1271884 0.17383796
-0.15215784 0.003763995 0.16575816
-0.079150945 0.08581449 0.14285576
0.22142856 0.076625176 -0.17550546
-0.119813316 -0.040115654 0.20486417
0.18989323 -0.19009648 -0.024994908
-0.077847086 -0.1950952 -0.13443469
-0.12885794 0.09622256 0.09644883
0.003011709 -0.25447127 -0.07626197
-0.10968115 -0.22873269 -0.06336086
-0.111439586 0.005341352 -0.01045077
0.024810446 0.019201664 0.15215687
-0.13721995 0.0111845005 -0.26243743
0.024778854 0.15322496 0.16753331
-0.07106089 -0.023771256 0.19346161
-0.052820187 0.10239529 0.06387889
-0.042720288 0.19945645 0.007631595
-0.13239688 0.0023763312 -0.28739792
0.0036800674 -0.30073166 -0.047001358
0.16652703 0.17297523 0.18462157
0.13017894 -0.14720751 -0.10232184
-0.056819648 -0.17011334 -0.13490568
0.17757632 0.025732988 -0.16385806
0.022434901 -0.0040177503 0.24094869
-0.020698007 0.19764459 0.062077034
-0.124522045 -0.14092132 -0.120224215
0.09122759 -0.20085159 -0.028257953
0.033726256 -0.2770642 -0.03525197
0.2757884 0.12647472 -0.15510835
0.06337384 -0.20906277 -0.097740054
-0.16313624 -0.20747845 -0.13465494
-0.15291806 0.20491311 0.056884993
0.008111251 0.019982655 0.20809093
-0.03342665 -0.2324147 -0.08487801
-0.15695384 -0.016127473 0.17871292
-0.09269689 -0.21945205 -0.11717307
-0.053611662 0.21542327 0.05876192
0.021076623 -0.13658397 -0.018248077
0.2005069 -0.12009878 -0.09794847
-0.11964088 -0.0025450308 0.1798063
0.023083432 0.19113193 0.09947826
-0.1422274 -0.024461478 0.19041426
-0.027527006 -0.21066032 -0.13297603
-0.10254285 -0.063369706 0.22867502
0.02910424 0.25071743 0.00960564
0.11559189 -0.20623496 -0.060340438
-0.16423865 0.15192619 0.07133662
-0.113806486 0.13945892 0.08070864
0.048872594 -0.012782146 0.19625273
0.14818291 -0.2758247 0.013301167
0.015003185 -0.04203084 0.22588213
-0.22557469 -0.148974 -0.14418955
-0.16776891 0.08530608 0.16246334
-0.09967147 -0.23175101 -0.12947658
-0.10395379 -0.053218186 0.21882626
0.041365236 0.06406185 0.16120207
0.114698306 -0.16475987 -0.048495974
-0.04227212 -0.26208562 -0.1128091
0.11710744 0.14621569 0.1527904
0.092085734 -0.1103371 -0.06604216
-0.18627009 -0.22850052 -0.14090239
0.08793879 0.12852058 0.16571207
-0.23711172 -0.15756392 -0.14851503
0.2550495 -0.10767491 -0.090695344
-0.18473923 0.047087483 0.15083072
0.13034149 -0.049248874 -0.036613367
-0.018147536 -0.077698804 0.060016703
-0.20681031 0.066902936 0.12523578
0.16705038 -0.09840343 -0.0664305
0.031928398 0.2338465 0.023675311
0.14504142 -0.17184259 -0.066767976
0.19920418 -0.202981 0.0144486595
0.17938592 0.05327897 -0.15410198
-0.16101333 0.2457055 0.08095004
0.030197076 0.27231553 0.046120424
-0.07964371 -0.09311281 0.02736421
-0.18571375 0.2630249 0.018739054
0.19140953 0.118762486 -0.23881225
-0.17096685 -0.20992625 -0.1471521
-0.0062216725 -0.05839609 0.26843733
0.24186312 -0.10377775 -0.05218266
-0.007034756 0.102949455 0.093952425
-0.05282299 0.2922433 0.03398074
0.15591703 -0.07710042 -0.13598561
0.046619684 0.16044715 -0.24681257
-0.10376862 -0.112473704 -0.07222035
0.034091197 0.11411311 0.12767455
0.23329264 -0.04947991 -0.17746904
-0.09807832 0.08586446 -0.3403752
0.060148314 0.24925768 0.041692916
0.0066017727 0.21616685 -0.344031
-0.038499925 -0.094422214 0.078773715
-0.08598783 0.063421674 0.15322825
0.10253274 0.04692938 -0.15647642
-0.10599837 0.21912685 -0.031217
-0.18186837 0.20000012 0.07042731
0.06520678 0.20231247 0.13856168
0.24947786 -0.06394055 -0.12050382
0.0842307 -0.08806013 -0.027978344
0.095141225 0.05248767 0.11525617
0.14246221 0.010165621 0.023586866
-0.07817882 0.019266652 0.13159338
-0.017173752 0.08333565 0.22039106
0.14129145 0.22906855 0.16997333
-0.19738516 -0.14718263 -0.15814182
-0.15082844 0.09045058 0.15677878
-0.10305112 0.10745715 0.11069967
0.049363974 0.17241168 0.13171414
-0.060257927 0.028982496 0.1845359
-0.09216345 -0.017227761 0.17726412
0.067069076 0.018365696 0.16727535
-0.26242945 0.10161319 0.10118057
-0.1503869 0.15236981 0.093482636
-0.122670956 0.1447146 -0.3447042
-0.1486552 0.13365547 0.048679892
0.045985505 0.049765274 0.16876552
-0.06349175 -0.04173057 0.1972198
0.11355304 -0.27777517 0.028368725
0.10549958 0.057762302 0.19717075
0.025079077 0.03412075 0.17582954
0.035519335 -0.060186654 -0.03054296
0.090359434 0.027288828 0.19578275
-0.0016677603 0.058835436 -0.20353225
-0.13601597 -0.10831852 -0.18821464
-0.10583089 -0.06850921 0.15043885
0.23309046 -0.18170601 -0.0052656615
-0.012880592 -0.23387162 -0.048319556
-0.22069623 -0.05396105 -0.22479223
-0.15952097 -0.11470219 -0.16217066
-0.19540104 0.11808544 0.10696436
0.13552418 -0.14042161 -0.076532364
-0.13739407 -0.049004976 0.217469
0.014077506 0.06686716 0.17363027
0.009651524 0.012368461 0.17604078
-0.0743352 -0.0010731659 0.19272785
0.15394254 -0.2220047 -0.038955696
0.14022672 -0.10834248 -0.056480788
-0.011660041 -0.32983187 -0.08247069
-0.020728925 0.14545271 0.13661253
-0.23700653 0.26961845 -0.00549005
-0.13092491 -0.23327743 -0.09041914
-0.15566008 -0.0154335415 0.1459727
-0.10300321 -0.17199785 -0.09665176
0.23345824 -0.1370157 -0.112204626
0.10676549 0.19266713 -0.2565585
-0.0042663543 -0.2818296 -0.031826034
0.048588127 0.12880436 0.14215761
0.13869227 -0.066547 -0.02898452
0.058257047 0.11313899 0.11557289
0.16745657 -0.0021976703 -0.16328175
0.22772682 -0.1198504 -0.07804882
0.101745464 -0.1834803 -0.07058756
0.14926544 -0.18484724 -0.062164076
-0.015111122 0.14950903 0.16463393
0.073745325 0.2263172 0.09764197
0.10873024 0.22664063 0.07480987
-0.14929314 -0.05930565 0.22067262
0.083805025 0.26619798 0.073671564
0.16287489 0.18057555 0.12674434
0.025210408 -0.3202492 -0.052974664
-0.10697925 0.0023749154 0.11697369
0.07415493 -0.2518124 0.028676132
0.24717203 -0.035566643 -0.11395927
0.21667778 0.10723652 -0.23551582
-0.032863144 -0.032747716 0.22090536
-0.20654441 0.03974092 -0.29496378
0.032856997 0.02867274 0.24097258
0.077222124 0.029298883 0.18501851
-0.009816901 0.042202145 0.19520928
0.05904431 -0.2116468 -0.06818472
0.0123542575 0.13328294 0.10293371
-0.04044609 -0.19321083 -0.01433203
-0.027557688 -0.27638006 0.006546551
-0.10459999 -0.053256024 0.13707305
-0.13523388 0.032477427 -0.21802352
0.25734305 0.04206295 -0.110955514
0.13262753 -0.1632328 -0.033105895
-0.106424935 -0.054458432 0.010626161
0.07287679 -0.017803088 0.2133357
0.026969055 -0.066461846 0.04170733
0.19160536 -0.17157352 -0.071572445
-0.19049002 -0.039247304 -0.19992025
0.08238932 -0.029233951 0.25918454
-0.04492473 -0.1630475 -0.05229853
-0.13407414 0.025215982 0.19632703
0.046027232 -0.030457724 0.07186356
0.23746943 -0.098338395 -0.05673757
-0.18393877 -0.054845598 0.12927882
0.028092684 0.15122196 -0.23631977
0.005830071 -0.25519043 -0.025362965
0.031568214 -0.13314947 -0.056771267
0.1783642 0.015164419 -0.18149967
0.08161904 0.17058524 0.15611556
-0.004859911 -0.05084172 0.22576816
0.14948459 -0.1824725 0.005794674
-0.28147754 0.049066864 0.07881535
-0.0842686 0.18609078 -0.2701986
0.05885046 -0.1912141 -0.030743552
0.15043412 -0.08037009 -0.12391383
-0.059850767 -0.066784464 0.17435774
0.19137429 -0.095696345 -0.11059273
-0.00083985174 -0.27442154 -0.086522795
0.012853406 0.2820285 -0.00012351676
-0.20644186 -0.051096063 0.11646347
0.24854085 0.08517659 -0.16177353
0.13247867 0.027564753 0.07238407
-0.22730365 0.028788917 -0.2818936
0.14702626 -0.1978694 -0.046966728
0.022194402 0.16351898 -0.28501102
-0.1336153 -0.00035212666 0.03882979
0.029731771 -0.19659893 -0.011782849
0.16077682 0.16348155 0.18449777
0.05799631 -0.20358703 -0.014620036
0.0653095 0.17058913 0.13625458
-0.016728481 0.08401782 -0.23158717
-0.09265071 -0.08867056 -0.023855848
-0.16343072 -0.22876827 -0.1151928
0.17717005 -0.07302147 -0.029520746
-0.25532803 -0.16359803 -0.15727782
-0.016858622 0.09573653 0.1044311
0.064950265 -0.26778504 -0.05892395
0.04059165 -0.042244237 0.13131268
0.045417637 0.17058048 0.062211502
-0.14627343 0.060252737 -0.03075934
0.116309725 0.14131692 -0.2421826
-0.06830394 -0.15363239 -0.07595937
-0.092299774 0.12357533 0.17473643
0.110134855 -0.21232182 0.0002996719
-0.12354703 -0.15032418 -0.15943408
0.16309793 0.18419947 -0.27401203
-0.05970092 0.11286523 0.17298406
-0.1579498 -0.060928848 0.10729569
0.31868902 0.118914075 -0.18068522
-0.2109199 -0.025407197 0.1764834
0.13350452 -0.05475038 -0.03400085
0.05097977 -0.06406472 -0.0873452
0.06466027 0.11175893 -0.24326943
0.04458832 0.038535994 0.08652091
-0.1830466 0.23635094 0.04199419
0.07069001 -0.06513337 -0.04357248
-0.07345322 -0.30243164 -0.059487198
0.0074736895 -0.16693415 -0.040501468
0.026859257 0.24417739 0.050850876
0.13942082 0.14572215 -0.23888437
0.07097373 -0.032135583 -0.08565595
-0.0783378 0.21450517 0.016718788
-0.014825948 -0.058217783 0.17809126
0.16430272 -0.051869523 -0.1437684
0.09162425 -0.21098182 0.0037439975
-0.07511087 0.18420093 0.046544157
0.08256081 -0.19233538 -0.002276437
0.0020550177 0.15144114 0.09418431
0.16299203 -0.23556255 -0.0042873565
-0.10860794 0.034031052 -0.0042476803
-0.22432554 -0.052495223 -0.25267422
-0.040471558 -0.25389826 -0.02755759
0.024433043 0.083052464 -0.234641
-0.00038670062 -0.25992993 -0.0728594
-0.025648845 -0.2520959 -0.01019829
0.0015986892 -0.006043369 0.030513616
-0.17930906 0.0871705 0.07001794
0.18981913 -0.073295854 -0.12309671
-0.07489302 -0.07077163 -0.17917979
0.05091564 -0.0065101925 -0.014455083
-0.0669562 0.25392273 0.023748213
-0.14257434 -0.05944923 -0.25312024
-0.15955082 -0.090195365 -0.19184364
0.06443324 -0.23729135 -0.045101065
0.019777853 0.23918524 0.12680867
0.30368885 0.013628663 -0.090517014
-0.09302178 0.08562025 0.18858191
0.24195132 -0.009308551 -0.10166964
0.119739555 0.18449715 0.095917694
0.13241087 -0.015745597 0.040142287
0.13056257 0.062194005 0.026987452
-0.21181159 0.041468184 0.06920159
-0.12885444 0.0995979 0.08452003
-0.024541795 -0.23895533 -0.1058687
-0.030882454 0.28980163 -0.022619558
0.104540825 0.30775988 0.07609104
-0.07575314 -0.14377083 -0.13907324
0.061717544 -0.13999219 -1.4301093e-05
0.047080163 -0.21000914 -0.06416717
-0.080409065 0.30229193 -0.02506688
0.2648021 0.04211423 -0.115294226
0.15620852 0.12569283 -0.22772992
0.24725391 -0.11739041 -0.071223706
0.2803133 0.15178926 -0.1661165
0.037685305 0.15573919 0.14316316
-0.21935266 0.094570994 0.15056218
-0.067789376 -0.13028286 -0.02706647
-0.15766902 0.22621039 -0.0041741584
-0.17089857 0.18211657 0.022918727
-0.14923319 0.2547845 -0.006959413
0.15239114 -0.024109289 -0.105057694
0.26597592 -0.0068210056 -0.20691076
0.010902442 -0.258132 -0.045373663
0.17531636 0.12571429 -0.27883342
-0.13607717 0.09843973 0.18697974
-0.14858925 0.109198965 0.05865104
0.008464578 0.2924931 0.045019716
-0.18017295 -0.10128554 -0.15814741
-0.1830181 -0.09905641 -0.1536256
-0.058487177 -0.12532705 -0.068147704
0.13758315 0.11633254 0.18410555
-0.13172266 -0.22508828 -0.08001997
-0.041850913 -0.058151636 0.1474657
-0.09526862 -0.3080603 -0.054829903
0.018943036 -0.19046593 -0.110227816
-0.19424458 0.13128377 -0.009878907
0.23513237 -0.13674937 -0.10566623
0.26954556 0.06389113 -0.21019162
0.11527674 -0.16508158 -0.0056719193
-0.1960689 -0.23501787 -0.15453376
-0.08885452 -0.16945618 -0.14536755
0.04405329 0.04195897 0.1974027
0.11777633 -0.102602676 -0.07377513
0.23999798 -0.11456291 -0.06091217
0.11121071 -0.0028150522 0.24717094
0.19132738 0.06336477 -0.16598059
-0.22569871 -0.16481623 -0.16046636
-0.19014947 0.026105903 0.21210459
-0.24188808 0.18729077 0.0398326
-0.19138595 0.03578806 0.13460964
0.1631881 0.12280043 0.08429029
0.21954456 -0.09087357 -0.044346318
0.036041882 -0.1596291 -0.071882956
0.012822956 0.14095108 -0.20861343
0.004503703 0.024024338 0.18206759
-0.1149491 -0.0019116084 0.17995754
-0.09614924 0.03606328 0.19662908
0.2568142 0.11593611 -0.23143084
-0.14708821 0.15584512 0.13659614
-0.06196965 0.07338582 0.15967475
0.25273192 0.02008491 -0.17194323
0.10474681 0.14592203 0.104734786
-0.049338073 -0.025208144 -0.035298288
-0.17752922 -0.038741287 -0.20992689
-0.10522225 -0.14124204 -0.08605277
-0.046782672 -0.24961403 -0.088889554
-0.19693987 0.10017003 0.07666004
0.2828391 0.041541096 -0.13240722
-0.057416603 0.2326526 0.07459542
0.28428766 -0.10960041 -0.030135125
0.15401538 -0.08206377 -0.08320827
0.2669939 0.14631379 -0.29787335
-0.13701452 0.020342067 -0.06370721
0.020464094 -0.07174239 -0.09360463
-0.1414674 0.18648265 -0.004877835
-0.09882728 0.17875329 0.08317185
-0.04741283 -0.13808359 -0.086013585
0.09697758 0.27624488 0.065853804
-0.19728695 0.16520518 0.065727964
0.103539094 0.030408561 -0.0679772
-0.1416525 0.058162607 0.15392846
-0.15846686 0.20533393 -0.035140656
-0.05913496 -0.17495407 -0.013043558
-0.03730751 -0.12718363 -0.057308465
0.062567644 -0.10159337 -0.06291625
0.062136903 0.21636318 0.056361653
-0.08800995 -0.0390553 0.22261733
0.2587459 -0.16996817 -0.011845516
0.058174327 -0.02056563 0.23804018
-0.043293614 -0.2955531 -0.063580506
0.023078907 0.2852271 0.02518788
-0.028489113 -0.32908833 -0.0010245207
0.090388454 0.24339923 0.07397333
0.17781031 -0.030201243 -0.04319724
0.16582221 -0.18428557 -0.042950433
0.036881782 -0.0043012872 0.21839677
-0.19008356 0.070080616 0.12523115
-0.22216621 0.02538121 0.11725986
0.16885509 -0.05008794 -0.046444345
-0.02053693 0.27421188 0.0675793
-0.15088625 -0.08182656 -0.1618762
-0.22486296 -0.08949351 -0.271387
0.24843316 0.017144356 -0.1267219
0.13438646 0.25994575 0.090254754
0.22038758 -0.122185394 -0.09174137
-0.1319112 0.062263552 0.14713882
0.007858702 0.08087433 0.18365665
-0.19228338 -0.10075032 -0.16342233
-0.076621324 0.15538597 -0.34434462
-0.022723077 0.17065583 0.027214492
0.12492958 -0.21846549 -0.04675807
-0.15485863 0.18592487 0.112501115
0.052113783 0.2717771 0.011328788
0.09797185 0.11557551 0.18505614
-0.00834953 -0.084907964 -0.07418465
0.18245405 0.12854095 0.11270138
0.000884742 -0.27770108 -0.07475409
-0.16000026 -0.14691557 -0.16539381
-0.0797975 0.059818074 0.10750598
0.009424296 -0.20150936 -0.016405333
-0.08415275 -0.22148015 -0.052367583
0.24847813 0.07154591 -0.1600866
-0.20326133 -0.037106518 -0.27621406
-0.21726176 -0.09933496 -0.2427696
-0.0013399557 0.19703597 0.079839945
0.1868433 0.08519783 0.13986763
0.13501847 0.10620344 0.1326386
-0.16925426 0.10542747 -0.2941322
0.036318254 0.015470612 0.24302617
-0.08248373 -0.18580508 -0.1499358
0.015267241 -0.31095636 -0.006714472
0.028614014 0.20186548 0.051512238
-0.07903401 -0.02465749 0.19689302
0.06799818 -0.025545461 0.14915107
0.24421711 -0.14910637 -0.026638646
-0.045477048 0.037585385 0.19077884
-0.11895662 0.07435169 0.1569941
-0.14897227 0.038705923 0.14782561
-0.17948519 -0.2397728 -0.067854
-0.06640436 -0.021011816 0.2403608
0.1104112 0.07267964 0.15800717
0.08746907 0.11080428 0.10398403
0.0872799 0.07081012 0.23419748
0.062863365 0.027417881 0.18978655
-0.1543751 0.21512733 0.017566675
0.1064043 -0.21497865 -0.030805629
0.11470897 0.18667246 -0.26349628
0.32122836 0.01846566 -0.17387502
-0.1243283 -0.030770348 0.17619589
0.049921174 -0.18458381 -0.05085739
0.064673476 -0.27104104 -0.03184127
0.0554564 0.21437334 -0.2443519
0.24758273 -0.09251969 -0.114010245
0.07307223 -0.20268884 -0.03323815
-0.10974475 0.2641373 0.088348195
0.087277554 0.13542148 0.18863134
0.07306221 -0.06753407 0.19600439
0.11547538 -0.2780987 -0.041841827
0.015111834 0.2668043 0.088637814
0.10673286 -0.10102863 0.010919205
-0.048076227 0.20956807 0.061964102
-0.088071756 -0.32506487 -0.009222754
-0.11061189 -0.08304146 -0.15774393
-0.19094892 0.040992513 -0.30662245
-0.0062267515 0.10642952 0.14869575
-0.083513305 0.21610363 0.008311566
-0.03840695 -0.017557677 0.22696312
-0.03525521 0.026231922 0.17895153
0.24819782 -0.09780185 -0.073483795
0.11585902 0.11669869 0.21141034
0.07393171 -0.06733382 0.0530011
0.2278365 -0.16608933 -0.028645888
0.038052164 -0.012522264 0.16122524
-0.14773129 0.23072413 -0.045197915
0.046814423 0.18343769 -0.32404152
0.10132161 0.09701263 0.12596397
0.10279011 -0.1683862 -0.059649743
0.07122845 0.14615451 0.14643827
-0.21965371 -0.18951266 -0.20394337
-0.16659556 -0.24480726 -0.09212626
0.008904342 0.094864324 0.13735048
0.25946465 -0.1983767 -0.0035717085
-0.06547559 0.27811483 0.043842666
0.031285327 0.090499595 0.22274312
-0.19613226 0.17475827 0.010317052
-0.16885653 -0.09025717 -0.22553164
0.1838501 0.060944084 -0.21265417
0.0751699 0.26323962 0.06536407
-0.17101869 -0.024155946 -0.22645822
-0.12846366 0.1558847 0.09659984
-0.12020304 0.0113295065 0.10926017
-0.22377762 0.063385524 0.07148032
-0.23576973 -0.18814759 -0.12732415
0.24453495 0.104878865 -0.1807125
0.027485942 0.072201304 0.18270391
-0.08921965 0.26172212 0.035046995
0.17668906 -0.0031214163 -0.15565553
-0.21216123 0.0936138 0.14978015
-0.026271991 0.13518465 -0.29703382
0.07484289 0.19200058 0.09241379
0.2429675 0.10336974 -0.1784239
0.070371695 0.01609318 0.09636117
-0.15989193 -0.22711407 -0.103026
0.025514062 -0.021928754 0.2030878
-0.17303254 -0.08203816 -0.18574242
-0.02237672 0.13200213 0.122595325
-0.043092787 0.040785506 0.17686526
-0.053270858 0.083185084 0.13700734
0.06865755 -0.26037654 -0.012364643
-0.04348321 0.32697052 -0.016985154
0.05594098 0.24897967 0.0677775
-0.20529775 -0.08741841 -0.186656
0.1717193 0.07729965 -0.006364322
0.16208723 0.16999184 0.15162724
0.27668738 0.06273449 -0.16743368
0.081524685 -0.1763392 -0.028978758
-0.04617346 0.09088189 -0.36627683
0.1342715 0.12881207 0.13008586
0.14183527 0.10385921 0.18512596
0.08641367 -0.27880576 -0.067739606
-0.23505029 -0.20036511 -0.16471066
0.05927877 0.051624745 0.21735653
0.07186574 -0.12859856 -0.06872086
-0.035147727 -0.010829303 0.25768396
0.036916956 -0.14131781 -0.06467208
-0.22875606 -0.0033195552 -0.2967256
0.18805213 -0.048211668 -0.115463614
-0.11795781 0.19498576 0.007784345
-0.14778568 -0.05532295 0.10907733
-0.17398156 -0.016525775 -0.18735701
0.12189148 0.06863229 0.21213399
-0.15480994 0.19175193 0.028920934
0.23016132 9.618154e-05 -0.14099936
-0.17775168 -0.04843322 0.20604886
0.054346096 -0.09476228 0.015734117
0.18341827 -0.18303458 -0.0535794
-0.043345552 -0.0051858854 0.18521258
-0.033673257 0.058448568 0.14562143
0.08907549 -0.08114607 -0.007063033
0.17051561 -0.059276346 -0.07577471
0.08306269 0.121817455 0.23256972
-0.22616193 0.05409338 0.0745208
-0.10504289 -0.02334651 0.13708624
-0.013128271 -0.03814316 0.22896273
0.10685967 0.106687434 0.11854402
0.15780006 0.09453396 0.18765795
-0.27110398 -0.094033316 -0.27229255
-0.08685659 -0.057325438 0.17782007
0.17480479 -0.16789143 -0.06747956
-0.11565161 0.15928823 0.0685226
-0.17794311 0.28459847 0.052263167
-0.2066105 0.041370876 0.14443856
0.1812702 0.06587691 -0.18810172
-0.09808078 -0.02563505 0.2001767
-0.030734133 -0.31399232 -0.0262775
0.12795898 -0.057072815 -0.1247266
-0.07325772 -0.04775531 0.25789136
-0.16334331 -0.24616733 -0.10917428
-0.19894202 0.17825058 0.050699297
0.1959268 -0.24717203 -0.070476055
0.07368765 -0.19375198 -0.046374526
-0.0669788 -0.059166245 0.17784595
0.04317413 0.33838084 -0.029154198
0.22578983 0.15459666 -0.1807341
0.13149273 -0.09034282 -0.00043200253
-0.091086656 0.026789635 0.16227584
-0.11461792 0.2569772 0.00799924
-0.07078818 -0.18748045 -0.08212678
-0.26176316 -0.04266236 -0.2925254
0.28103918 -0.059805565 -0.14548428
0.072094075 -0.15936989 -0.03732202
-0.04330374 0.012487799 0.15623368
-0.17232284 0.062147263 0.15210462
-0.23106393 0.17812464 0.033381768
0.048965108 0.19008683 0.061635632
0.17317644 0.09566233 -0.2752347
0.1923928 -0.17501125 -0.047006052
-0.13068539 0.24546658 0.086784616
-0.24701364 0.034747083 0.14928259
0.074633606 0.2222979 0.096326664
0.06728753 0.045542035 0.19215903
-0.058746047 0.1717846 0.07154651
-0.14783442 -0.12283823 -0.11804015
-0.0024769993 -0.106606096 0.00358596
0.15586704 -0.099288605 -0.10975611
-0.20771113 0.017038563 -0.30531824
0.007802105 -0.21327421 -0.07331762
-0.112875186 0.08761995 -0.27383026
-0.24222873 0.1942859 0.06512684
-0.048590526 -0.29668826 0.0013116611
-0.037517373 -0.04488149 -0.031730186
0.06624826 -0.020511843 -0.033965718
-0.030957758 0.1274195 0.17927076
0.08141382 -0.12759104 -0.07985509
-0.009214907 -0.014736094 0.23000062
0.09503942 -0.053685572 0.0024220047
0.04185912 -0.29400617 -0.03280291
0.009104368 0.0718336 0.1643427
-0.20437282 0.16323242 0.13250318
-0.19614866 0.04063058 0.11537329
0.07938933 -0.09083302 -0.056980573
0.10784161 0.034045335 0.089069605
-0.10202342 -0.17433508 -0.10468011
-0.026444338 0.027388973 0.17755778
-0.08117358 0.10379639 0.20082271
-0.18051703 -0.035675973 0.19488417
0.10933181 -0.10932447 -0.044649024
0.019503413 0.08776842 -0.03592523
0.10899647 0.16910161 0.1167724
-0.065980025 0.2028216 0.071715854
0.020137545 0.004218757 0.20472828
0.27390975 0.121819735 -0.23570429
-0.11619276 -0.1916646 -0.14775679
-0.01729979 0.26323655 0.09278438
-0.10506646 0.09671697 -0.2608587
0.083759 0.3025882 0.06343794
0.04234836 -0.27048844 -0.06413366
-0.22630975 -0.16102265 -0.17262535
-0.09154151 -0.11916895 -0.14686602
0.085370675 0.10084758 0.1635568
-0.118333265 -0.035528205 0.15336251
0.07922831 -0.13544828 -0.05316227
0.032242157 -0.04125693 0.23658282
-0.0690371 0.17499319 0.043940067
0.007640712 -0.110100925 -0.053633377
-0.03784311 -0.14541529 -0.06437721
-0.18419942 0.20283279 0.065380484
-0.07047757 0.17575309 0.060636066
0.25919756 -0.07668932 -0.044483542
-0.07376415 -0.24680756 -0.10113955
0.11790094 -0.2792313 0.0057026963
-0.06500128 -0.23935196 -0.0704493
-0.10345433 0.2340903 -0.023082098
0.20502411 -0.10485156 -0.045826986
0.13120016 0.15354653 0.17141801
0.2699683 0.049882635 -0.19274022
0.041575123 -0.25998154 -0.070202336
0.009188431 -0.20306449 -0.09682274
-0.20556836 -0.012685323 0.16820745
-0.059245255 -0.13181216 -0.061517417
-0.05744641 0.20422241 0.07094907
0.019967971 -0.18349533 -0.011972485
0.23208177 -0.030393427 -0.13554549
-0.2264388 -0.17367359 -0.1896991
0.17704615 0.12170999 -0.21180315
-0.15957052 -0.26967826 -0.13129598
0.07673492 -0.040457763 -0.085288845
-0.24722563 0.088552035 0.074454255
-0.11249527 -0.15636738 -0.049236957
0.042046577 0.053515397 0.22282116
0.14435272 -0.1674338 -0.08170789
-0.06279502 0.20468898 0.022024756
-0.10985106 -0.009854383 0.18811794
0.093124695 -0.22861885 -0.018424643
0.21734558 -0.14526695 -0.029254388
0.030616209 0.24596977 0.02546827
0.27835834 -0.1140273 -0.0009934122
0.0011610836 -0.058278527 0.18899488
-0.069989555 0.036630217 0.21168728
0.05896003 0.22445577 0.036187027
-0.03524572 0.22835724 0.07501981
-0.20915516 0.19447511 -0.023803933
0.0009736248 -0.22723101 -0.10189729
-0.104993254 0.15929359 0.016366446
-0.04164314 -0.28171575 -0.049661033
0.053186048 0.28404298 0.059780374
-0.095026396 0.23221251 -0.017794577
0.08092303 0.23414212 0.073596336
-0.026355376 0.2761443 -0.04528196
0.025819177 -0.005474121 0.06145971
-0.1407586 -0.12126854 -0.109248765
0.21928401 -0.09943268 -0.06811881
-0.0571507 0.27383143 0.041499574
0.13374779 -0.21388948 -0.087556966
0.17412071 -0.20233199 -0.092568114
-0.064561956 0.22947043 0.008948699
0.19301072 -0.21668045 -0.05747626
0.036938738 0.2479938 0.05411878
-0.029612746 -0.10231985 -0.08016156
-0.19822071 -0.030574217 -0.2607098
-0.1872322 0.010564086 -0.22450645
0.031667594 -0.24295251 -0.11054335
0.19153422 -0.042847004 -0.114016205
-0.067611665 -0.065875284 0.17186269
-0.11589053 0.08788609 0.05938404
0.1866114 -0.11356184 -0.035110142
-0.13727093 -0.0068369126 0.20964177
-0.0008084368 0.14782621 -0.34023204
0.22952706 -0.103169866 -0.04268827
-0.019906482 0.18203549 0.03173726
-0.19427037 0.20680252 0.057034563
0.09729788 -0.25593284 -0.04335863
0.099186055 -0.25307247 -0.0050351843
-0.0635079 -0.04983946 0.20252971
0.047951914 0.12682837 0.025212549
-0.113445155 0.033264786 -0.081264466
0.042336594 0.21167305 0.09233407
-0.16276376 0.012146163 0.14343503
0.13040432 0.11522067 0.09164609
-0.14309117 -0.008438677 -0.18462956
0.09253125 -0.25000677 0.009771431
0.12061163 0.014881088 -0.16747311
-0.208742 0.008031061 -0.26107875
-0.24555485 0.11993327 0.10009639
-0.102092 -0.13977838 -0.11674616
-0.13774347 0.2284827 -0.036438122
0.109505326 0.041076414 0.14340988
0.043911092 0.022800563 0.13850057
-0.2045445 0.057460047 0.17431845
0.15675566 -0.16948865 -0.07730758
0.27369097 -0.08083131 -0.039736934
0.22891757 0.009862206 -0.11569246
0.09571483 0.014098986 0.024182986
-0.039922893 0.010984295 0.19654283
0.2079703 0.05405732 -0.16102968
-0.08933422 0.1541574 0.09710635
0.02228366 -0.14761455 -0.08168325
-0.0216881 0.30391866 0.015935754
0.29018632 -0.04607345 -0.09061731
-0.20320892 0.12976085 0.12805875
0.09053132 -0.22943926 -0.06823651
-0.17855239 0.10022786 -0.27528235
0.120021686 -0.25030687 -0.059907876
0.14104347 0.08521672 0.12838304
0.056286525 -0.04187337 0.23675562
0.0022010405 0.079331204 -0.030482223
0.17744306 -0.18774848 0.01923898
0.059890777 -0.19777818 -0.036170475
-0.019221935 -0.25298837 -0.08001707
-0.1689045 0.068101905 0.12036185
-0.08764533 -0.04963639 0.03134147
0.18409441 0.13779825 -0.23872301
0.2516736 0.02791486 -0.06968261
-0.15252614 0.088037744 0.06489666
-0.050434027 -0.26015285 -0.051803716
-0.10738833 6.653247e-05 0.0110220015
0.28865078 0.0002976035 -0.07925388
0.12789224 -0.16641374 -0.06374818
0.21119708 -0.0063547418 -0.06625517
-0.09137914 -0.14357835 -0.1256314
0.067865685 0.1820171 0.13105932
0.24374972 -0.052571226 -0.07151054
0.06742823 0.14546421 0.16647059
-0.11751722 0.06562764 0.19128484
0.037872627 -0.0073128985 0.23582369
0.28802195 -0.1813163 -0.070001066
-0.14682052 0.041400705 0.16723181
-0.19425826 -0.21791106 -0.08689187
-0.19516538 -0.059737615 0.17429946
-0.021183027 0.10814492 0.095426165
0.18600345 -0.020021396 -0.15721485
0.32348412 -0.04037085 -0.058343768
0.10729831 0.18087879 -0.3128057
0.1552227 0.054288927 -0.005434315
0.1023665 0.12523279 0.19246684
0.2622737 -0.07493451 -0.049617242
0.17547931 -0.06517669 -0.10285686
-0.11703179 0.22089079 0.059264857
-0.0028684079 -0.29650488 -0.025413468
-0.055505548 -0.17588624 -0.076960675
-0.16153352 0.16433474 0.041298352
0.004100207 0.15264341 -0.25618148
0.093164474 -0.2484632 -0.06640039
-0.1304645 -0.0045340927 -0.27033165
-0.15661709 0.23246278 0.0089615425
-0.035875253 -0.14915428 -0.027056316
0.057484526 -0.1706499 -0.09895767
0.010093528 0.019011589 0.1859637
-0.117632285 -0.048048012 -0.13864028
-0.09999097 0.05869017 0.21040967
0.1536095 -0.09077464 -0.036284387
-0.17833862 0.059049264 -0.27967936
-0.019500505 -0.023969952 0.018782392
0.23808216 -0.013013808 -0.12921357
-0.2598282 0.17837867 0.026152965
0.113532834 0.21011758 0.14827704
0.0037816586 0.09622774 0.1368348
-0.18687883 -0.122497976 -0.2031041
0.06532012 -0.1153257 0.0037950363
-0.039183967 0.16632839 -0.3003021
0.12056827 0.18973939 0.08431753
0.1977191 -0.033186577 -0.17670801
-0.04300207 0.032127086 0.12929414
-0.03687966 0.11160393 0.10460269
-0.07536117 0.19918199 0.06343745
-0.049368545 -0.17518592 -0.079972416
-0.09881546 -0.093116865 -0.116429396
0.061196532 -0.29958925 -0.028037718
-0.16144691 0.15417536 0.07165205
-0.046683677 0.30307993 0.04488642
0.09983667 -0.2113198 -0.053483296
0.081602335 -0.124047585 -0.015173598
-0.24955648 0.12058289 0.00438973
0.0694007 -0.016087841 0.053380426
-0.1633196 0.093483925 0.0566684
0.08617728 0.025374454 0.22819954
-0.0492387 0.2348076 0.02130647
0.15439619 0.060114793 -0.23311527
-0.12138334 0.01555385 -0.18278305
0.1328063 -0.28910902 -0.02942255
-0.16228741 0.032698415 0.13555206
0.10993827 -0.26652974 -0.059761807
-0.06265417 -0.16452584 -0.122689284
-0.03140328 -0.027319476 0.16752116
-0.096150614 0.08376536 0.13176428
0.23397338 0.04897209 -0.20319912
-0.104804516 -0.20204872 -0.062358327
-0.1181083 -0.14850655 -0.10234181
-0.1657228 -0.2791076 -0.05583934
-0.13300698 -0.24098475 -0.14366859
-0.00045760925 0.0012544661 0.21482101
0.0066280393 0.1706461 0.09950578
0.30144656 -0.009617967 -0.1266508
-0.2344606 0.24995196 0.01418254
0.021497425 -0.25052893 -0.04266199
-0.21098824 0.114960365 0.04078202
-0.10211466 -0.03220639 0.2097508
0.040257704 0.15221617 0.10761429
-0.19278899 0.1727951 -0.010923035
-0.062184155 -0.25558668 -0.018660327
-0.052192427 -0.26643908 -0.053610634
-0.036615733 0.17837799 0.09823773
-0.23166253 0.19429407 0.018967573
-0.0633108 -0.10177778 -0.10822848
0.12816103 -0.06721598 0.02811578
-0.051754333 -0.20579256 -0.13121508
0.14285898 -0.09291034 -0.06854981
-0.08482359 0.28153563 -0.022254495
-0.18203819 0.06581877 -0.31162
-0.22117907 0.0013166605 0.09729563
-0.022686383 0.121471554 0.15527642
0.014175906 0.23682974 0.02404396
-0.100579 -0.1646554 -0.15687804
0.12602825 -0.2470851 -0.05175117
-0.0024420584 -0.2763878 0.012230985
0.16539119 0.031436834 -0.15508151
-0.09251391 0.23317036 0.022044549
0.18993828 0.08125375 0.15338841
-0.14762262 0.13366677 0.08975753
0.09348344 -0.22190127 -0.01561096
-0.2507009 0.18171404 0.09278334
-0.10873891 0.0805932 -0.25216496
0.02578256 -0.036081854 0.046139613
0.014736722 -0.16274044 -0.011190786
0.069740295 -0.21283907 -0.046418566
-0.11789873 -0.09490135 -0.0856048
0.032457884 -0.28591624 -0.01953407
0.23789234 -0.085784055 -0.053325687
0.046948735 -0.031101601 0.034921963
0.07884615 0.12765336 -0.047365416
-0.14246495 -0.29347697 -0.04481128
0.10730941 0.089147404 -0.29448625
-0.08981594 -0.074852936 0.2330917
0.037407413 -0.19866544 -0.050631266
0.19251099 -0.017953215 -0.13914452
-0.26009804 0.0627237 0.097032
0.01622282 0.1906198 0.051670082
-0.071349666 0.22719419 0.047656354
-0.27369556 0.15814933 0.108057484
0.073268555 0.17685571 -0.25066534
0.049483355 0.117667004 0.115854055
0.12090619 0.08463764 0.20485923
-0.252133 0.09351655 0.08898038
0.09882412 0.10113049 -0.25395727
0.11877007 0.17153387 0.16801709
0.09966656 0.056669343 0.13924465
-0.15158056 0.20707957 0.007240749
0.027941028 0.1084506 0.18748936
-0.12162764 -0.043782588 -0.13463375
-0.17469096 -0.01586496 0.15265577
-0.13409762 0.3029513 0.028308738
-0.13016258 0.23658377 -0.013323754
0.14601892 0.14023429 0.15143415
-0.051561404 -0.012594844 0.04128052
-0.04894398 0.19382212 0.13141397
-0.18865353 0.034835484 -0.25775456
0.10240145 0.17637014 0.10529624
-0.14191513 0.14170487 0.062255505
-0.007500113 -0.0946116 0.045333985
0.10234974 -0.052605562 0.024205845
-0.037350886 -0.10019263 0.1719473
0.101567075 -0.21053378 -0.023456542
0.06266114 0.18361971 0.05854475
0.23270778 -0.2238244 -0.031693697
-0.00647722 -0.0057252115 0.03217541
0.0075696344 0.23901597 0.07441943
0.09201541 0.026363578 -0.18271
0.14028418 0.07128195 0.029978687
0.0040001096 0.110198826 -0.31147152
0.047395475 0.17439254 0.10113938
0.14563055 -0.08029536 -0.11647576
0.16490753 0.055101894 -0.04240803
0.06222794 -0.23832768 -0.07300809
0.1269423 -0.14736788 -0.05066026
-0.17617229 0.12345275 0.10405465
-0.12618229 0.0045446 -0.2975674
-0.07793211 0.1813602 0.09507129
-0.12875707 -0.15596008 -0.10765933
-0.1585977 0.23385976 0.022927372
-0.07157811 -0.23120785 -0.096361205
-0.1347314 -0.047877364 0.17266145
-0.099728614 -0.13574107 -0.10491703
-0.27891856 -0.073660105 -0.19229722
-0.118390225 0.17245036 0.041652974
-0.17131709 -0.14654571 -0.16678916
-0.012822497 0.15419777 0.099347815
0.11697497 0.059595015 0.0020748063
-0.084647104 -0.06604051 0.024334878
-0.069162644 -0.08894757 0.06603182
0.12262174 -0.18402518 -0.042989194
0.100011066 0.025914455 0.18610924
-0.10162355 -0.040836383 -0.16727602
0.10756616 0.025953662 0.2357498
0.0650934 0.06239777 0.21706659
-0.061995734 -0.0019076095 0.20916699
-0.18771823 -0.1925269 -0.14975622
0.20019862 -0.14005895 -0.06895517
-0.17323859 -0.1738835 -0.08395215
-0.19881433 8.5630076e-05 -0.2217724
-0.035147008 0.11245044 0.068339854
-0.24048686 0.10115525 0.10054668
0.18301235 -0.19419825 -0.0783859
0.1446741 0.118301 0.18585911
0.011048073 -0.03049814 0.24677074
-0.067763686 0.13491073 0.15608731
0.12923336 -0.24928539 0.014680026
0.09500912 0.049114365 -0.009242374
0.007612019 -0.0044099637 0.16114354
-0.16868457 0.07947226 0.1908502
0.0052117715 -0.2480042 -0.020672787
-0.084908254 0.17332476 0.025257086
-0.05036903 -0.119210884 -0.10585044
0.15479437 -0.19049759 -0.036903366
0.00042037014 -0.20732483 -0.04863058
0.027310764 0.28573778 -0.010480494
0.10534425 -0.027540823 0.0147785675
-0.011981621 -0.07837229 0.075648844
-0.16516034 -0.17686035 -0.06743348
0.061501417 -0.116498396 -0.02231182
0.09421532 0.042913917 0.09652362
0.07434946 -0.062179666 -0.082007386
0.28480643 -0.047770016 -0.097675085
-0.082426116 -0.19471121 -0.09512402
-0.22230287 0.12537806 0.04783792
0.005094595 -0.15220337 -0.050279073
-0.22081508 0.24304865 0.011154322
-0.026789416 -0.24138387 -0.06951509
0.3251365 -0.014672069 -0.08835129
0.25911552 -0.10099943 -0.07252395
-0.19072898 0.108280204 0.15580589
0.04093727 0.23772322 0.022169352
0.05041674 -0.12623718 -0.10209515
0.24323978 -0.07047949 -0.035892103
-0.1928078 -0.15318829 -0.12269741
-0.055175535 0.14365281 0.013325771
-0.060885057 0.15440734 0.06856498
-0.1460133 0.02836796 -0.28370264
0.21659411 -0.108723864 -0.09457477
0.13825417 -0.15540089 -0.05424274
-0.09875705 0.19434789 0.050606962
-0.23370083 0.15956359 0.044250447
0.06102186 -0.00019185302 0.19865179
-0.2185176 0.16260794 0.05557179
-0.034998707 0.19422047 0.020287804
0.08527625 0.037202243 0.07946294
0.01851172 0.33826658 0.044203836
0.006973003 -0.09332684 0.022934016
-0.035259604 0.31114858 0.0040447125
0.08447778 -0.25526124 0.03001822
-0.056198467 -0.06283304 0.1008311
