# .PCD v0.7 - Point Cloud Data file format
VERSION 0.7
FIELDS x y z
SIZE 4 4 4
TYPE F F F
COUNT 1 1 1
WIDTH 1000
HEIGHT 1
VIEWPOINT 0 0 0 1 0 0 0
POINTS 1000
DATA ascii
0.024577452 -0.27385676 0.060581762
-0.17332733 -0.28233358 0.14039244
-0.071861155 0.1771456 -0.01569189
-0.014465299 0.107449085 -0.09221038
-0.05108122 0.12252649 -0.010368
0.1804966 0.20250581 -0.06546807
0.0768654 -0.1592693 0.024620883
-0.009244644 -0.20900287 0.048673023
0.043320376 -0.086735204 0.027977524
-0.007935053 -0.10622227 0.009075061
0.1555147 0.23209062 -0.1127503
0.22371991 0.08071203 -0.086111896
-0.07977308 0.059185836 -0.064552665
0.017972922 0.33693734 -0.051200036
0.21445455 0.23785041 -0.04996823
0.18053955 -0.13713722 0.097901694
-0.019582722 0.21485919 -0.0815929
-0.1299321 -0.31436568 0.097621836
-0.18785885 -0.0077742217 -0.013503303
0.05792017 0.038127482 -0.10093814
-0.061291985 -0.2297738 0.07031233
0.2114535 -0.10829264 -0.039460678
0.23704909 -0.165842 0.044527374
0.010357808 0.24619192 -0.054110903
-0.15875715 0.072143756 -0.0055381027
0.033767335 0.120993584 -0.03308675
-0.30725077 0.08128836 0.064804785
-0.067074426 -0.29741275 0.11293171
0.070657685 0.32512894 -0.070324466
0.17364825 0.017937392 -0.0020447085
0.13140039 0.017621918 0.008204129
0.13585114 0.16733463 -0.032022823
0.11718202 -0.05318328 0.022723265
-0.25638247 0.039986085 0.0978825
-0.22769871 0.05597206 0.00065070845
-0.23543122 0.10372383 0.037888743
-0.18277428 0.2696906 -0.037706383
-0.1701321 0.024636075 0.073531486
-0.15131827 -0.060594216 0.13058417
-0.16839866 0.1158537 -0.0222197
-0.060586475 0.05210528 -0.13247947
-0.12234201 -0.096514195 0.03197445
-0.036467012 0.024646707 0.042868286
0.21066947 0.11828291 -0.04154158
-0.103510335 -0.011586695 0.020087188
-0.0336167 -0.053130265 0.031023473
-0.0018871751 0.28703257 -0.033443313
0.21401685 0.073735416 -0.11355917
-0.13051616 0.091775015 -0.03476647
0.18325154 -0.10618208 0.059301287
-0.0703546 0.14390188 -0.061678227
0.034841187 0.07286739 -0.089856125
0.08502741 -0.05075173 0.02270316
-0.23313445 0.06362937 0.017491521
0.08296018 0.08778952 0.0067742667
-0.19015245 0.22084767 -0.021165539
-0.071746916 0.25814432 -0.081903554
-0.024891417 -0.33063906 0.04243506
0.3080903 0.039684806 -0.07791418
-0.11340344 0.095723085 -0.05197407
0.04354153 0.30063206 -0.036923986
-0.16751392 -0.3104934 0.01338541
0.035928752 0.2539419 -0.04998908
0.09407685 0.25560403 -0.08725199
-0.13226621 -0.17057818 0.011803037
0.16293481 0.07368588 -0.013961766
-0.08178255 0.22113776 -0.00079616584
-0.11729644 0.09348902 -0.02737351
0.24761686 0.18619604 -0.1101757
0.15996423 -0.04647825 0.020071754
0.1852902 0.07389585 -0.031929053
0.051524572 -0.16476572 0.08174577
-0.21998028 -0.07266078 0.049565166
0.26867726 0.18853936 -0.015242902
-0.15139183 0.11600267 0.027165417
0.10233355 0.02807452 -0.17093258
-0.0627829 0.093997456 -0.03372988
0.12841026 -0.123307765 -0.020827128
0.23228464 0.055964764 -0.035590883
0.05343831 -0.19882305 0.037005063
-0.008790108 -0.1263213 0.075811245
0.13896899 0.18303119 -0.10477035
0.19323303 -0.1792207 0.07468072
-0.2598295 0.14601804 0.031603877
-0.16256031 0.0548443 0.021575337
0.09601663 -0.1737426 -0.0062098075
-0.12653023 0.07802129 0.0134024
-0.023596609 -0.32712612 0.08727171
-0.16401446 -0.25503877 0.13351166
0.06137332 0.24725673 -0.09533988
-0.050268132 0.33747232 -0.04699803
0.09993713 0.063418925 -0.13836843
-0.16296968 0.24671924 0.03965606
0.24894942 0.14393662 -0.056332536
-0.07548353 -0.13155533 0.07730577
0.025905034 -0.0726534 0.0051245033
0.21108101 0.23743138 -0.12607613
0.22834262 -0.07522896 -0.0194086
-0.15725784 -0.30483174 0.11049003
-0.13502365 -0.34034976 0.09484064
0.15721506 0.20159133 -0.13065235
0.19482289 0.035013087 -0.06499958
0.109902605 0.05256994 -0.070152715
0.3258296 -0.010645304 -0.06379089
-0.21033125 0.21871874 -0.097250685
-0.10130431 0.30747032 -0.01664405
-0.09753314 0.044610146 -0.099851884
-0.2175258 0.075055435 -0.006113266
-0.11265597 0.074114025 -0.014327234
0.037731133 -0.14704768 -0.008583692
0.033190448 0.24312092 -0.07820681
0.059340723 -0.21152239 0.085953005
-0.027167432 -0.22038218 0.064752266
-0.29137924 0.06769111 0.03963421
0.085160345 -0.20354097 -0.008088885
-0.17238832 0.13345557 -0.024798037
-0.050582264 -0.044550825 0.016700923
0.3067552 0.12917273 -0.063806206
-0.121631496 0.19042544 -0.043033987
-0.18706682 0.1267908 0.00399535
0.13810398 -0.002564499 -0.00850419
-0.23491548 0.19339839 0.00662428
0.26796636 -0.030089723 -0.054555167
0.044323795 0.10278963 -0.13583848
0.24016121 0.18873881 -0.062131174
0.19288173 0.20571113 -0.06396873
-0.08211991 0.08638062 -0.05358771
-0.2416989 -0.1263658 0.06557862
-0.015831187 -0.17958519 0.06759238
0.22398943 -0.17355512 0.10486941
-0.15668106 -0.3948275 0.07073054
-0.03664295 -0.12338891 0.095351465
0.21939567 -0.047283597 0.01947088
0.24133456 0.23710732 -0.054912623
-0.09037889 0.066555195 0.039685745
-0.17331456 0.19666955 0.028085416
0.11506799 0.012477883 -0.20921104
-0.1738254 -0.29384303 0.110428825
0.22994414 -0.10663144 0.0753257
-0.00080127374 0.108262 -0.1356749
0.12146439 0.3231497 -0.036552887
-0.105081454 -0.065535784 0.055570435
0.26761287 -0.013259455 -0.009467315
0.19654332 0.03684587 -0.03716169
0.1951034 0.10580141 -0.056598652
0.27902132 0.24473421 -0.10994002
0.29700422 0.057135303 -0.05560912
0.24579963 -0.018560726 -0.012382865
-0.16111359 0.18120533 0.013138177
0.08390889 -0.20872769 0.031432185
0.16682754 -0.17229709 0.031622704
0.11538104 -0.16805826 0.06116864
-0.00040538094 0.15823229 0.01748921
-0.18266921 0.15269677 -0.05988913
-0.09454296 0.0015140198 -0.024704142
0.058700927 -0.16034858 0.05965005
0.03970256 0.16950904 -0.101875976
0.21599841 0.16624388 -0.029307809
0.23823915 -0.005606391 -0.04976591
0.057545904 0.36831328 -0.07262614
-0.10967495 0.30703935 -0.07928558
0.26562658 -0.07816232 0.037295192
0.077725165 -0.064451754 0.00070334534
0.20860086 0.18295267 -0.06787507
0.21674064 0.029515328 -0.07619907
-0.12483802 -0.20274793 0.081380755
-0.15435156 -0.049936693 0.079803124
0.023291074 -0.045372214 0.054006405
-0.029123748 -0.09776632 0.033826258
-0.20665358 0.26127523 0.009900475
-0.033308603 -0.041476157 0.021209711
0.043195695 -0.071123496 0.0040535973
0.2741301 -0.1648638 0.05141035
-0.020662593 -0.2534785 0.07421435
0.10447475 0.15338159 -0.058895584
-0.21738963 0.07424185 0.067878775
-0.059859622 -0.08016116 0.057436623
0.18007839 0.19382295 -0.08038951
-0.20183493 -0.12924191 0.11208749
0.1287724 0.109797806 -0.009457409
-0.013832004 0.3107432 -0.1119787
-0.057207122 0.07783983 -0.07455682
-0.09040349 -0.3091744 0.08447559
0.17726259 0.036951695 -0.025777368
-0.10952175 -0.4321744 0.04425708
0.1787119 0.33621556 -0.06703866
0.28028956 -0.06660941 0.010049611
0.33888635 0.0247674 0.0056668613
-0.0049261493 -0.05058437 0.06509764
-0.017197981 0.05773506 -0.14041619
-0.0061518415 -0.19341761 -0.0015720098
-0.03442485 0.13404375 -0.110113606
-0.15516284 0.22698103 -0.058342867
-0.20154735 0.10716458 -0.02363168
-0.14645869 -0.16517368 0.06234235
-0.1756274 0.17084457 -0.021917937
-0.09053723 -0.34559655 0.10355376
0.31279916 0.024429098 -0.06141907
0.2188057 0.21711701 -0.13340421
0.14997905 0.16427596 -0.060034435
-0.007080369 -0.1965001 0.07893775
-0.025938235 -0.33015335 0.08584293
-0.11053406 0.23069173 -0.025740845
0.044824734 0.15526646 -0.038435813
-0.29862943 0.07143367 0.03815003
0.18275623 0.095424294 -0.0053851125
0.02234821 0.20920451 -0.08832216
0.15406825 -0.20338382 0.013963814
0.0053190733 -0.28887075 0.04809496
-0.03939288 0.08013522 0.03746511
0.20256078 0.094778456 -0.07761274
-0.046225537 0.00490981 0.0156076
0.19667996 0.26671517 -0.12542787
-0.09092212 -0.25960016 0.1289848
0.02441282 0.04679749 -0.20457344
-0.102807105 -0.2147191 0.0816103
0.18209125 0.24512096 -0.08142382
-0.06690499 0.045875423 -0.10592068
0.2772992 0.048291422 -0.07333428
-0.0441288 -0.23663883 0.11054531
0.09390519 0.039407816 -0.034461156
0.096229516 0.2683395 -0.10947229
0.06971412 0.07182243 -0.046337526
0.31625247 -0.014990023 -0.016742306
-0.065122746 -0.0775339 0.07813781
0.22185813 0.020453833 -0.040458426
-0.05158949 0.17927054 -0.012906096
0.120232135 -0.07038525 -0.0050552464
-0.06413677 -0.033714723 0.059084263
0.084595546 0.04022998 -0.06031908
0.071542576 0.19760285 -0.09108224
-0.26112297 0.07276653 0.005698021
0.09423863 0.116690196 -0.038987424
-0.024974294 -0.30370182 0.110999815
-0.04000794 0.29299387 -0.043223303
-0.20249362 -0.32889903 0.06386097
-0.05712104 -0.33819392 0.11593465
-0.06622659 -0.018442273 0.06816958
0.07985639 -0.08432419 0.011008468
0.08604542 0.14725292 -0.10581715
-0.14746018 -0.25051647 0.07362442
-0.14718007 -0.2675817 0.13519053
-0.1652937 0.14499034 0.008117223
0.21812643 -0.10047113 -0.04700762
-0.0803809 0.31024954 -0.055018708
0.12955111 0.20285535 -0.106686674
-0.20576833 0.16288188 -0.008547455
0.2102398 -0.14592922 0.09524186
0.23329176 0.14783436 -0.063184835
-0.10066463 0.25172815 -0.040360216
0.023628747 0.03328376 -0.14959913
0.005915158 -0.23303919 0.121162996
-0.046800453 0.21030477 0.0190451
-0.022934297 0.1623859 0.0017336591
-0.14415644 -0.03367579 0.045595214
-0.06632264 0.23811173 -0.05967961
0.1296605 0.30684537 -0.0998597
0.28847086 0.1970737 -0.12536363
-0.030132497 -0.12493386 0.091391064
0.032047715 0.083674654 -0.13686651
0.15020496 0.20142844 -0.037411325
-0.05689226 -0.25778568 0.14740987
-0.05714543 0.22560138 -0.050716225
-0.15173292 -0.0033610715 0.029928287
0.09836874 0.15824743 -0.015982583
-0.1061769 0.13220906 -0.003857694
-0.085006185 0.10506941 0.016809551
0.18836583 -0.043388322 0.008980133
0.22708698 -0.04151606 -0.032739267
0.16542271 -0.056623884 0.04361311
-0.22547698 -0.056829643 0.08211583
-0.15128624 -0.030992566 0.042356946
-0.07459396 0.2261446 -0.08408619
0.23243935 -0.17634322 0.055822145
-0.12009453 -0.21851085 0.12212129
0.040564947 -0.07438253 0.015970562
-0.18666586 0.2979162 -0.0438329
0.1793183 0.04855176 0.012074611
0.24900518 0.14775072 -0.051150594
-0.08778847 -0.23738752 0.13201575
-0.18653336 0.008275884 0.07376582
0.13725418 0.09982045 -0.07580104
-0.09974883 -0.3203386 0.014979385
-0.21471521 -0.33784506 0.15189697
-0.055998266 -0.22524394 0.12864861
-0.14367348 0.09671272 0.03514833
-0.08126743 0.07209903 -0.015544056
-0.048411936 0.11229713 -0.020704478
-0.17189842 0.26210803 -0.07940709
-0.23061311 -0.18726797 0.073132046
0.16593261 -0.04744807 -0.023101013
0.12671185 -0.13139197 0.05050598
-0.1475639 -0.35290098 0.093539126
0.109090894 -0.1680782 0.070406094
0.08086472 -0.18025194 0.049631946
-0.28644195 0.09968945 -0.016195435
-0.050443582 -0.11477393 0.08270917
-0.18607697 -0.24407364 0.10088563
0.2658484 -0.056997575 0.014319969
-0.14282185 -0.3309542 0.0914638
0.08905694 0.31308755 -0.031269588
0.11077022 0.030354656 -0.10547262
0.06369715 -0.11085797 -0.0006328245
0.14964652 -0.07510002 -0.037524592
-0.10711052 -0.37278065 0.10195662
0.096185446 0.21931098 -0.10144877
-0.14824308 -0.3314551 0.11015219
0.17957309 0.1452247 -0.05265486
-0.005165389 -0.094307914 0.0068153143
-0.035458162 -0.37665126 0.055126857
0.21360739 -0.02357615 0.018622732
0.04419799 -0.27544767 0.10349024
0.1869271 -0.026018817 -0.060895856
-0.16670257 0.07988408 -0.041992128
0.23763652 0.1891856 -0.078251064
-0.21202056 -0.0075156745 0.024432274
-0.10162275 -0.251053 0.095350154
0.057577707 -0.024927314 -0.094469756
0.008237353 0.17076685 -0.055052318
-0.17725706 0.109553695 0.013016376
0.19049051 -0.053552996 -0.024085268
0.014788659 0.35405317 -0.08656976
0.054860707 -0.20207736 0.09559946
0.14076066 -0.10872993 0.037571367
-0.12047912 0.23371606 -0.06173595
0.15203302 0.031633083 -0.019954495
0.13187227 -0.13842316 0.051463477
-0.12164028 0.11927791 0.010984604
0.14455359 -0.046872538 -0.009083531
0.25632313 0.16907786 -0.084213555
-0.16405955 0.26460946 -0.006295243
-0.1004865 -0.13764046 0.05577511
-0.031846557 -0.10576686 0.02297302
0.07653352 0.3035703 -0.06738948
-0.05332258 -0.106685944 0.013963265
-0.034908723 0.01592076 0.033311855
-0.1686127 0.16926394 -0.03856309
-0.20733361 0.05831536 -0.005843047
-0.1233807 -0.37282166 0.12835364
-0.051390357 -0.31461716 0.038049266
-0.1294662 0.29476216 -0.09298728
-0.1899985 0.24146673 -0.009715678
0.16226114 -0.14968958 0.102300555
-0.1515335 -0.35244194 0.09783922
0.13891463 -0.18776028 0.053711135
-0.16863604 0.10611172 -0.012718373
0.051726732 -0.03653886 -0.04578126
-0.023714013 0.10325968 -0.044121176
0.029683385 -0.09178573 -0.10329711
0.0144555755 -0.15848017 0.092430115
-0.2421689 0.23025504 -0.061926235
-0.21840668 -0.056227084 0.090364724
-0.07871756 -0.1747019 0.069293834
-0.059012342 0.27234843 -0.079564124
-0.23266701 0.09244645 -0.038387116
0.078549884 -0.061603423 -0.027114162
0.20687036 0.21491866 -0.1048421
0.25019208 -0.17622772 0.059758894
0.2535966 0.1825451 -0.011779912
-0.19703005 0.16611609 -0.016237024
0.27806118 -0.023650592 0.01707219
-0.25612155 -0.023599574 0.044176344
0.03723299 0.2877155 -0.061585587
-0.20170088 0.0680746 0.054545633
-0.18955435 -0.35325843 0.096043214
-0.10341438 -0.14233585 0.030428857
0.22839469 -0.079173684 -0.011951443
0.1840593 0.19646713 -0.12002401
0.2624456 0.17157327 -0.059407208
0.3275588 0.0692152 -0.0062349634
0.13708934 -0.20093161 0.118008375
-0.078054756 -0.41091922 0.10944432
0.0033501745 0.1010614 -0.014686534
-0.16319582 -0.28019157 0.14122015
-0.109263785 -7.0237315e-05 0.012555303
-0.114080325 -0.041271072 0.006518713
-0.083361454 -0.23720208 0.1303974
0.21814476 -0.16931577 0.0060380087
0.12007399 -0.09788996 0.034044832
-0.21103454 0.09266575 0.08476058
-0.12389139 -0.14891708 0.1398944
0.017408857 -0.20724833 0.10701972
-0.10364567 -0.32962558 0.116436005
0.08845391 -0.12094354 0.06649465
-0.003594373 -0.07203939 -0.012953487
-0.15337975 0.09121585 0.042269338
0.002405262 0.2831247 -0.041349743
-0.027635269 0.07868862 -0.07405325
0.019326344 0.15001264 -0.06569033
0.0891848 0.24331786 -0.05847593
0.18635875 0.08150203 -0.07952905
0.15477231 -0.1504422 -0.020044526
0.29285866 -0.14851105 0.04772014
0.14009881 0.12979697 -0.07309993
-0.13016479 0.28775182 -0.06376469
-0.14572217 -0.28066546 0.10211119
0.05766262 0.17653623 -0.016644107
0.29954106 0.027799018 -0.03367238
-0.10825424 -0.038144022 0.06481979
-0.12178472 0.02209307 0.036905676
-0.17824025 0.32522184 -0.051934224
-0.019507606 -0.06651638 0.058605816
-0.14144985 -0.041055325 0.011957532
0.07893507 0.180631 -0.08097092
-0.21023375 -0.08012342 0.0576661
-0.20593925 -0.23961486 0.071754396
-0.06103207 0.056842957 -0.019644184
0.22875519 0.012745167 0.009509085
0.27514562 -0.16637185 0.04980444
-0.13981348 0.08788055 0.026556887
-0.103543065 0.17306428 0.027383864
0.1584629 0.110366374 -0.073772766
0.0040576854 -0.2572396 0.05490295
-0.15308881 -0.26087093 0.11940495
0.010454652 -0.14353973 0.0076106717
0.28993008 0.14177226 -0.06336006
0.017171187 -0.16988176 0.036596783
-0.24522614 -0.04584841 0.06257236
-0.16877508 -0.35403854 0.046276297
-0.08339982 -0.34104657 0.1155854
-0.20162594 -0.09032521 0.119283594
0.18004665 0.30148137 -0.06703376
0.04572574 -0.009602644 0.03607917
-0.16670832 -0.35483962 0.1071465
0.13149601 -0.050008737 0.014149181
-0.09169457 0.12702481 -0.011218858
0.22301635 0.028504252 -0.06656668
0.071287915 -0.23332003 0.06922179
0.21245964 -0.06394648 0.027663257
-0.16480577 -0.0894025 0.012273499
0.048741326 -0.29047212 0.12047521
0.21212979 -0.12531598 0.06402652
0.18695286 -0.09912137 0.07608104
0.1867982 -0.13356617 0.017354283
-0.23509876 0.17540243 -0.027510602
0.10012648 -0.031060534 -0.04073253
0.17677803 -0.07638997 -0.0035472778
0.016778266 0.27693 -0.10554762
-0.26060793 0.06902413 0.077084824
-0.11789766 -0.012401264 0.021388328
-0.15411493 -0.23289293 0.020206932
0.03128952 0.10698354 -0.14161809
-0.03910083 -0.21388286 0.08542803
-0.09133422 0.29012725 -0.058118336
-0.18322994 -0.21278955 0.10540109
0.31338516 0.09752525 -0.07885803
-0.020221125 -0.10293092 0.068147354
0.0491901 -0.13760884 0.032495055
0.041755985 -0.27989313 0.036128677
0.2618185 0.05625204 -0.06574034
0.25282165 0.23559007 -0.089106925
-0.03789001 0.0792637 -0.0028749732
-0.17710531 0.15024771 -0.030088842
0.30573282 0.08022687 -0.027557472
-0.17143643 -0.23490414 0.058677346
-0.25531268 -0.31881288 0.1232956
-0.04423391 -0.24686894 0.056416128
-0.044927407 0.22766933 -0.0089127
-0.1654778 -0.056963515 0.10500189
-0.2389495 0.23676284 -0.006674173
0.09925966 0.13839811 -0.027902037
-0.08788155 0.15848356 -0.031368922
0.2151699 -0.12785219 -0.0037263634
0.26721346 0.09137868 -0.06829536
0.12768142 -0.24498664 0.08666096
0.053929012 0.21556242 -0.046120435
-0.09838973 -0.2900352 0.14899518
0.033967093 -0.04752146 -0.15155335
0.11641589 0.11719034 -0.06756316
-0.16387786 -0.16056626 0.047927357
-0.059257764 -0.3192626 0.081195794
-0.028560523 -0.32296738 0.08162377
0.11814671 0.13183276 -0.08612399
-0.0052594887 -0.23408972 0.07622538
0.093397036 -0.040309384 -0.052071232
0.2466177 0.017047288 -0.0097169895
-0.17869693 0.0050457967 -0.013530609
-0.14167783 -0.049017094 0.027199289
0.14204034 -0.07165594 -0.043136485
-0.15400817 -0.027508255 0.054564267
0.18267368 -0.038669202 -0.053142283
0.028349573 0.27341533 -0.10410747
0.099462844 -0.12280725 0.0013967594
-0.1910227 0.09227661 -0.024727901
0.08065522 0.13528956 -0.080702156
-0.1707364 -0.011556988 0.04692668
0.046370577 0.21726808 -0.08573495
0.0513406 0.25069776 -0.1049649
-0.1602641 -0.05113257 0.07897106
0.09204282 -0.12007618 0.05970967
0.25926623 -0.044048816 -0.042176127
-0.18883966 -0.06286577 0.05117545
-0.091288745 -0.15010604 0.09407058
0.06476074 -0.098326564 -0.0144891385
-0.12699987 -0.39032674 0.041753132
0.29224288 0.2128836 -0.058966372
-0.22159328 0.15290049 0.022941593
0.25886807 -0.19996464 0.088161394
-0.17891149 -0.33046874 0.15407729
0.034053948 0.32626888 -0.045155738
0.054209728 -0.19636059 -0.00050661823
0.009719172 0.2209264 -0.093853526
0.24969795 0.029781012 -0.031040452
0.10329176 -0.08157726 0.015554441
0.11703629 0.09136849 0.005846804
0.14148453 0.117720805 -0.08323737
-0.14945796 -0.2202176 0.028999466
-0.05432503 0.29844338 -0.093381144
-0.10478713 0.2625589 -0.03518276
-0.24458951 0.20276822 -0.008981352
-0.15322734 -0.33010647 0.10856003
-0.059071567 0.20129979 -0.087247014
-0.042868905 0.25097725 -0.031738717
0.30354798 0.19114415 -0.06555987
-0.12966967 -0.14394535 0.030024253
0.04874732 -0.2862197 0.12056113
-0.12429602 -0.3532195 0.12245656
-0.016399622 0.088643506 -0.08354941
-0.01739876 0.20154752 -0.007922435
-0.19470936 -0.34629178 0.10538521
0.18147461 -0.20464739 0.048070095
0.081002265 -0.10322965 0.040093984
0.019035459 -0.1096459 0.0016862053
0.10174459 -0.024314579 0.031089934
0.0008036603 -0.24785802 0.04229302
-0.22408596 -0.052708324 0.03504954
-0.18909875 0.018841306 0.08686549
-0.13056554 0.07450461 0.023516081
-0.08120074 -0.21333255 0.1427216
-0.20314072 0.109637484 0.03601582
-0.094449386 0.32925496 -0.017230997
-0.017887805 -0.29750654 0.036945798
0.07797217 -0.13475594 0.042857442
-0.11478859 -0.054213338 0.03487632
-0.047622696 -0.25680584 0.124926634
0.23815729 -0.018874504 0.0049198717
-0.14961985 0.3198842 -0.05114584
0.08881679 0.01756256 -0.055790406
-0.19045122 0.060690846 0.04205289
0.113329075 -0.15878405 0.0088323
0.047241118 0.23285821 -0.041462764
0.26781458 -0.060794003 -0.04192877
0.12001076 -0.09020316 0.023870151
-0.19157526 -0.13758107 0.037795376
0.18994582 -0.058059614 -0.05669168
0.1658806 -0.052255224 -0.072870396
0.04967894 0.3068884 -0.10824642
-0.17874736 -0.4037039 0.029798137
0.003187307 -0.04228007 0.011048019
0.04180241 -0.06035702 -0.17726128
-0.110471204 -0.31837383 0.15194081
0.06451002 0.24639627 -0.09289771
0.12487688 -0.039681498 0.035644524
0.14356583 0.060874894 -0.040837757
-0.21435261 -0.13539988 0.11944638
0.23071392 -0.06180444 -0.044850465
-0.20664853 0.13660917 0.064936765
0.24330361 0.07076229 -0.07915767
-0.123763666 0.11159597 0.005449698
0.11171979 -0.041170385 0.057033714
-0.06718284 0.20933089 -0.0030136136
-0.21912068 -0.37317744 -0.0038430896
-0.0779467 0.15824497 -0.034855645
-0.13307439 0.008016202 0.055336956
0.17388138 0.018292733 -0.036937743
-0.08603261 -0.055777658 0.06917591
-0.13481013 -0.09261687 0.024844756
-0.2706867 -0.060648803 0.13731495
-0.03302834 -0.113277 -0.01187664
-0.11916334 -0.15945065 0.12388759
-0.2567107 0.016819507 0.033425733
0.094094574 -0.017658217 0.008082918
0.12764412 0.20862113 -0.09469526
-0.23906851 -0.022688726 0.014841157
-0.115048364 -0.30370665 0.12382484
-0.21443069 -0.11974884 0.07064664
0.24344674 -0.109394245 -0.023384247
-0.13243262 0.3334346 -0.035976306
-0.2430581 0.042298533 0.05944668
-0.16255781 -0.12623863 0.05525909
-0.22321343 0.10566078 -0.038157806
-0.13518928 -0.3215859 0.07528409
0.14033669 -0.049479753 -0.032025468
-0.19368419 -0.06816816 0.1045098
0.04985272 0.32531074 -0.06834504
-0.22726944 -0.1238769 0.08789451
-0.20480458 -0.3198511 0.04462787
-0.21643828 0.032276742 0.027315203
-0.22496071 -0.10212952 0.064489245
0.27537623 0.010628849 -0.019450858
0.24190408 0.23193416 -0.08222815
0.01780148 -0.013975921 0.057566427
-0.0331122 0.2536199 -0.047380637
-0.124770716 0.14046592 -0.05387245
-0.08037031 0.036704905 -0.03982395
0.08885809 -0.15191706 0.07931417
0.16762182 -0.065858155 0.01753803
-0.061130285 -0.051708817 0.054981563
0.07463796 0.13414764 -0.044095673
-0.27100846 0.011930149 0.06392428
-0.1827314 -0.28169784 0.048617303
-0.23048082 0.18775229 0.027038166
0.095969185 0.30880108 -0.07362965
-0.2187495 0.009953312 0.0123335775
-0.05615269 -0.31185818 0.083298124
0.19211853 0.04518454 -0.04009363
-0.08489456 -0.34723645 0.11338519
0.17392887 -0.07061374 -0.00886333
-0.10656803 0.07355751 0.0055950787
-0.008993871 -0.026600605 -0.020759953
0.21515173 -0.14950983 0.008266607
-0.16519536 0.045722645 0.028466793
-0.115638964 0.092467114 0.005002446
-0.04437197 0.22465852 -0.03330853
0.05492807 0.16264506 -0.06423102
-0.016430564 0.1240763 -0.048851885
-0.12013852 -0.014626653 0.037477434
0.085915245 0.17941198 -0.02695729
-0.16547614 -0.12317144 0.0713501
0.26294434 -0.035577103 -0.030416764
0.03954138 -0.074081466 -0.014980359
0.17828049 0.27884483 -0.025824908
0.15986161 -0.09193992 -0.013832619
-0.032813877 -0.044985343 0.020839809
-0.04499967 -0.34814018 0.023285385
0.105877765 -0.16683955 -0.013633685
0.093885355 0.026589092 -0.1458707
0.12482936 0.007495246 0.027525613
-0.050622474 -0.27710447 0.043654423
-0.26176113 -0.09600924 0.10193234
0.2803541 -0.06642761 0.033438873
0.25397983 0.04152729 -0.0874354
-0.09528011 -0.12097244 0.07979148
0.0667673 -0.04056619 -0.048051585
0.14996721 0.13219614 -0.024830354
0.26106578 0.14900063 -0.032657407
0.05145579 0.2540715 -0.10081387
-0.007473556 -0.23938653 0.08460365
-0.18750483 -0.047989104 0.09851963
0.20112881 0.26140735 -0.08046307
-0.23787548 -0.14856546 0.062442537
-0.061826125 -0.24675481 0.14609496
0.13674347 -0.16661872 0.027222455
0.23480655 0.017033692 -0.013270944
-0.123653196 -0.34505087 0.1506607
-0.044321366 0.2395631 -0.06470457
-0.25591168 0.16957207 -0.03185587
-0.25419846 -0.096469335 0.11728613
0.10313112 -0.06686767 0.048625268
0.08657935 0.008275048 -0.03670085
-0.08528322 -0.20055896 0.14210841
0.16386594 -0.037202977 -0.046369113
-0.08215437 -0.16603048 0.086609945
-0.0586523 -0.36994043 0.053950023
0.2918143 0.04103924 -0.0003527592
-0.025339663 0.12227469 0.0061027836
-0.23235099 -0.021356083 0.09469723
0.17072 0.29807526 -0.07658947
-0.033632457 -0.37257096 0.04612254
-0.04430788 -0.062690064 -0.0026737242
-0.18871991 -0.06729889 0.061436918
-0.16016892 -0.07393946 0.032557197
0.2725724 -0.19920954 0.0013325481
-0.03536719 0.069501966 -0.013881284
0.25090933 0.035861555 -0.06519339
0.24174616 0.05892062 0.0073127416
-0.09939179 0.0774069 -0.022629086
0.19244736 -0.06956887 0.02537795
-0.054896865 0.1921237 0.0062020915
-0.20026833 -0.28967038 0.06296256
0.12924528 -0.10917797 0.018279964
-0.2152543 -0.031972542 0.044505566
-0.17084417 -0.039913587 0.03653617
-0.1501999 -0.21191722 0.07153089
-0.16028476 -0.08327056 0.06198731
0.09164992 0.25174943 -0.05537569
-0.06244629 -0.14217506 0.08647886
0.0008858279 -0.24853966 0.054168608
-0.25171402 -0.13536815 0.12696573
0.113838136 -0.111917965 0.009015643
-0.18604007 0.013150197 0.026128594
0.13255586 -0.063092016 0.025078824
0.2639122 0.005532164 -0.01727411
-0.23641568 0.22496282 0.024097584
-0.22044168 0.26483893 -0.026258375
-0.18483438 0.052436873 0.048197288
0.07297143 0.051133357 -0.11037471
-0.009454816 -0.11761784 -0.0017790088
-0.022397472 -0.1518178 0.026095094
0.23287266 0.06647029 -0.052108318
-0.26407093 0.19506776 0.046464376
-0.19690964 -0.3617923 0.10772563
-0.05960558 0.21795431 -0.019272655
0.17161037 0.24433057 -0.071923174
0.03938226 -0.13686372 0.030838644
0.18446636 0.23938958 -0.09175486
-0.06496921 0.100809425 -0.035685603
-0.100857295 0.28740913 -0.0916467
-0.07994494 0.08549901 -0.007180128
-0.16044009 0.03749555 0.060188882
-0.07757702 -0.13267192 0.066154055
-0.062531605 -0.19548865 0.018567944
0.089508675 0.18126072 -0.043649636
0.05412217 0.1264966 -0.14991882
-0.11860498 0.16894865 -0.010649498
-0.074785255 0.018962072 -0.11628286
-0.21935748 -0.37623638 -0.028636683
0.19585034 0.19295853 -0.09575318
0.08727329 -0.10000044 0.031068638
0.022731632 -0.19759165 0.019089244
0.23765716 0.2506321 -0.1632281
-0.18547752 -0.4140875 0.11984329
-0.1520938 0.06727435 0.03328041
0.05106563 -0.24260975 0.07448032
-0.021284852 0.12312624 -0.025979381
-0.10544092 -0.10002886 -0.098509416
0.14947964 0.296168 -0.08991254
-0.1000402 0.021609314 -0.12456005
0.24200073 -0.09170589 -0.030404797
0.044912215 -0.23602389 0.048015807
0.15169835 0.02808953 -0.012053831
0.27859825 0.17123927 -0.039623626
0.13782038 0.13608322 -0.039862715
-0.054713365 -0.15039474 0.06953996
-0.21682946 0.2564902 -0.045667958
0.012587269 -0.14700022 -0.0009551637
-0.08530002 -0.25466952 0.08771041
-0.12025069 -0.2629191 0.13335553
0.121423334 0.06603796 -0.05421501
-0.052661136 -0.24027558 0.109615505
0.059744872 0.21323831 -0.04787965
-0.055794686 0.24964146 -0.059521016
0.22485264 0.22330222 -0.08047309
-0.052650087 0.33765525 -0.0646758
0.07673798 0.28184915 -0.069663644
0.12718692 0.05204852 -0.03293145
-0.12429006 -0.03926978 0.06739437
0.08633111 -0.08569634 0.047332138
-0.07899326 -0.10885744 0.033999592
0.1412122 0.019502211 -0.058650177
0.19825803 0.06267038 -0.08527081
0.024161696 0.27081493 -0.09606245
0.060422543 0.04364313 0.015886236
-0.23397094 0.093266055 -0.0039128023
0.053706907 -0.14553225 0.07060955
-0.1153331 0.09354128 0.025233379
-0.06036322 0.18410102 -0.09683853
-0.1891627 0.016979657 -0.003990178
0.12371243 0.26621586 -0.14408265
-0.08369366 0.014305501 -0.081502885
0.140452 0.16175812 -0.06375916
0.024948055 0.3285131 -0.12672237
0.3218574 0.05573883 -0.023061316
-0.14321546 0.11742236 -0.028801113
-0.097471364 -0.29911333 0.1225309
0.017535206 -0.04080689 0.042154483
0.0003935402 -0.08137948 0.0055993465
-0.020363942 0.278134 -0.07963605
-0.13525067 -0.29135352 0.104504235
-0.28286064 0.06902657 0.0665797
-0.1897765 -0.039458472 0.0043014637
-0.24864535 0.17838608 0.046558503
0.088157825 0.10529635 -0.052120287
-0.17064108 0.23787281 -0.09238871
0.14669774 0.15649532 -0.08449772
0.20576313 -0.1642095 0.067862116
-0.10932428 -0.3499293 0.10422769
-0.0571107 -0.3499651 0.14657517
-0.12078529 0.16644284 0.036666665
-0.14807762 0.04875437 0.021521006
0.22709846 -0.10544713 0.01948486
0.12271177 0.042328093 -0.022859111
-0.07086372 -0.091257386 0.08444214
-0.20378715 0.27812886 -0.045069106
-0.025493983 -0.13088349 -0.010298178
-0.13791236 -0.06229947 0.023485856
0.06881248 0.047558278 -0.10024269
-0.13344707 -0.10118078 0.0456853
-0.06334813 -0.05338307 0.05058894
0.12553196 -0.086162634 0.017216552
-0.021003244 -0.18482119 0.011059157
0.024345266 0.3067762 -0.09508715
0.0010825866 -0.12166934 -0.1872695
-0.23396656 0.22867079 -0.044730842
0.13460092 -0.15472277 -0.019938892
-0.084755145 0.20711388 -0.057031933
-0.20483062 -0.33334002 0.080522224
-0.020379886 0.2515265 -0.05569161
0.15559605 -0.045527983 -0.011314945
0.30420664 0.11507114 -0.08915786
-0.08484588 0.21736754 -0.07934814
-0.029465567 -0.15620896 0.08059968
0.15841688 0.0041624075 0.023075167
0.023718724 0.17751652 -0.08321171
-0.13093941 0.2716697 -0.07267103
-0.07733446 -0.20301093 0.052671168
-0.14536259 -0.019806938 0.021038935
-0.036747057 -0.2029438 0.086272895
0.13535838 0.09860183 -0.006126753
0.100855 -0.18285474 0.002888945
0.08874754 -0.13809414 0.028366508
0.17932685 -0.23044759 0.04932763
0.013277063 0.180419 -0.08953493
0.1385506 0.08090483 -0.012361837
-0.1670866 -0.39303246 0.034041498
0.26358756 0.009229458 -0.04483169
0.049923893 -0.19415076 0.0437056
0.015969364 0.29928517 -0.09835529
-0.14864033 -0.09468795 0.08241272
0.26613498 -0.10340306 0.037809562
-0.023605147 -0.19651306 0.04775455
-0.084327415 0.013866414 -0.005041328
0.25716147 0.14120214 -0.02576094
0.29554895 -0.10245843 0.027386315
-0.22465794 -0.019775035 0.1245445
-0.07968111 -0.3157793 0.123331286
-0.18567994 -0.050095934 0.07610711
0.15733692 -0.06872311 0.031493038
-0.02612284 0.27247313 -0.08018042
-0.018053502 -0.2836558 -0.012706105
-0.1597416 -0.29252857 0.07190941
-0.17193127 -0.065163836 0.050643567
-0.28344098 -0.09358139 0.05843602
0.117209196 -0.058636084 -0.14664455
0.00462665 -0.009225771 0.046324197
-0.1439663 -0.30329296 0.059581075
-0.18320405 -0.26629686 0.07151495
-0.07538236 0.055537496 0.027257107
-0.10323041 -0.3156381 0.0044252737
0.18074788 0.26886716 -0.11272486
-0.2728532 -0.021653274 0.07642558
0.25799054 -0.1430478 0.03179683
0.20393394 -0.006338595 -0.053266957
0.18637112 -0.005614181 -0.020765148
0.08619038 -0.15727144 0.020272546
0.10831712 0.18981546 -0.086824805
0.14521794 0.036729515 -0.033290062
0.13267475 0.22324708 -0.12922405
-0.020937065 -0.039203424 -0.04510571
-0.21908401 -0.36440822 -0.018978868
0.26153585 0.07789651 -0.04006733
-0.17264934 0.23819698 -0.029016191
-0.032216396 -0.0022282116 0.06287613
0.046758693 0.27515423 -0.11543901
-0.10099437 -0.30271786 0.07848231
0.003806026 -0.13462369 0.08594616
-0.23142746 -0.03918962 0.06478583
-0.10266626 0.098539524 0.01465122
0.013902848 -0.09285927 0.06604451
-0.20613898 0.17301854 -0.03271064
0.06558715 -0.01882142 -0.17752123
0.08762888 0.065559044 -0.10587572
0.06499545 0.18528776 -0.0050220266
0.25368956 0.12731421 -0.06671031
-0.18035837 -0.055092216 0.1317795
-0.049731724 -0.19362526 0.10986633
0.18859668 -0.13297497 0.0543659
0.20540883 0.123784825 -0.0756016
-0.06950715 -0.34562048 0.064121895
0.29943907 0.13199694 -0.06862987
-0.11756993 0.17273596 -0.027984627
0.1131048 0.21092592 -0.040105164
-0.07864915 -0.06666647 0.05821803
-0.053453438 -0.27803004 0.09993123
0.07324754 -0.074382365 0.04712683
-0.1528317 0.29709128 0.0035843102
0.05907485 0.23258787 -0.020732643
-0.25045937 0.10764242 -0.0048803934
-0.14454103 0.21767575 -0.05886747
0.10976708 -0.09693355 0.014190673
-0.05460735 0.0760518 0.030068262
-0.03763149 -0.112971164 0.019006053
-0.14026585 -0.2998486 0.06373267
-0.087696135 0.09003601 0.0107596265
-0.25591213 -0.06198567 0.05115193
-0.09861226 -0.14835794 0.08904806
0.077772975 0.15990537 -0.09744583
-0.24782838 -0.060497873 0.03921214
-0.017619623 0.24664007 -0.09517443
0.119088285 -0.19523825 0.109893136
-0.16879496 -0.32858038 0.14154364
0.008466595 -0.3090295 0.026143983
0.18841876 -0.22370775 -0.0033364356
-0.046540562 -0.0979648 0.08665183
0.049920227 -0.14560784 0.014693842
-0.10794269 0.27727243 -0.017764946
-0.10140823 -0.028415373 -0.014516232
-0.15999603 0.16851524 0.009152868
-0.21377678 0.068089515 0.11817206
0.1324965 -0.1642782 0.007853474
0.25588247 0.14407705 -0.053904306
-0.1667305 0.25234428 -0.007452127
0.025247194 0.2558392 -0.06222349
-0.076974586 0.019838598 -0.014562784
0.29057127 0.12510498 -0.0739343
-0.050557185 0.31142753 -0.0062777437
0.20232159 0.25900295 -0.08944308
-0.23669554 0.04141898 0.06662866
-0.2078749 0.12836246 -0.028631043
0.33962467 -0.0026819909 -0.061391275
-0.029238895 0.08177519 0.027058866
-0.20729709 0.04086127 0.022154607
-0.12765184 0.16255648 -0.054539856
0.053309802 0.23271883 -0.04017394
-0.12573892 -0.15176992 0.030189987
0.034627765 0.21387926 -0.021571783
0.06703514 0.1137005 -0.025466079
-0.28429565 0.18249664 0.013635394
-0.11321919 -0.26104867 0.11004859
-0.16536486 0.0917455 0.009771898
-0.07032947 -0.117239125 0.065297164
0.23789254 -0.15073507 0.042499017
0.14813948 0.049212426 -0.0144087635
-0.017287506 -0.2963302 0.069588654
0.1345125 -0.035760965 -0.02402909
0.092220046 0.114100404 -0.0745857
0.11736774 -0.07776462 0.019874258
-0.094592445 0.30885372 -0.09046548
0.13002189 0.24858733 -0.058506247
-0.020764682 -0.048407488 0.014642599
0.24368465 0.12465686 -0.101508096
0.072017565 0.23463914 -0.053306893
0.14857404 0.075749196 -0.058965493
0.062006738 0.04277175 -0.11587076
0.113311015 0.26094145 -0.08810156
0.20400903 0.012691334 -0.03737475
-0.14310245 0.057709385 -0.033596456
-0.093634434 -0.3421188 0.07437756
0.15185773 0.21509631 -0.0723192
-0.08219508 -0.28261352 0.06629492
0.18334226 0.16738597 -0.06800652
0.05016683 0.3114309 -0.122547254
0.0008853871 0.37409016 -0.018653829
0.28746328 0.07587186 -0.022107823
-0.24864161 0.17156804 0.02388869
-0.24439234 0.02318006 0.002647295
-0.05028479 -0.28722608 0.102567375
-0.21034537 0.0068517574 0.111497894
0.18420735 -0.05234824 -0.00440003
-0.23384681 0.0696848 0.04884813
-0.04558277 0.08732014 -0.14043595
0.012034821 0.22714128 -0.021834107
-0.15647425 0.073231846 0.0018882653
-0.15343107 0.16749291 -0.0019809157
-0.12127729 -0.30400687 0.059487395
0.16552682 0.035756186 -0.026227511
-0.1060733 -0.01909185 0.0030142325
-0.10092786 -0.34235862 0.07943624
-0.16862434 -0.19129135 0.076398075
-0.102078296 -0.3710721 0.16483162
0.31950986 0.030104186 -0.04907776
0.1309561 0.19572464 -0.10940387
-0.025529945 0.10008164 -0.15817797
-0.11936877 0.1080271 0.0011521134
-0.23385797 0.035181306 0.029667735
-0.25866762 0.14595492 0.032447297
-0.13982733 0.10366656 -0.04205828
0.038246147 -0.09404251 0.06650943
0.2605823 -0.03111441 -0.03675364
-0.043661926 -0.2296458 0.116524264
-0.11518102 -0.07141575 0.068034135
-0.044400547 -0.051608182 0.010965381
-0.02289723 -0.25170743 0.08279236
-0.006522532 0.0610709 -0.07731201
0.15432277 0.052936573 0.012856408
-0.11051421 0.21789706 -0.03490952
0.18694273 0.16009584 -0.04224525
0.24453187 0.23758496 -0.11299332
-0.2802236 0.055913065 0.06368181
-0.03485189 0.12565637 -0.19341558
-0.07525412 -0.10228071 0.063958354
-0.23013848 -0.2812843 0.11416516
-0.0025517626 0.23017173 -0.025913851
0.31539592 0.10690409 0.001356394
0.22441685 0.08614748 -0.027760146
0.25375012 0.20543194 -0.045509577
0.048341088 -0.11274874 0.007878243
-0.029023875 0.32917055 -0.10748606
-0.14644058 0.2432103 0.010040777
0.14062089 -0.15199749 -0.023292001
0.009708207 0.3180628 -0.037618935
0.20986253 0.17088673 -0.07155858
-0.10898824 0.20861174 -0.0073915864
-0.20253238 0.1775747 -0.025517393
0.091894485 0.03496936 -0.13889864
0.046067026 -0.2620263 0.051433302
-0.0044224416 -0.22602974 0.066829614
0.0074511254 0.14171545 -0.0060706027
-0.052012056 -0.23325667 0.1285595
-0.076479875 0.13082981 -0.02514069
-0.025434224 0.06525259 0.028118433
-0.0923289 -0.19437663 0.050237026
0.24049349 -0.23188902 0.0563226
-0.0061941827 0.19044323 -0.09291922
-0.15369241 0.26600155 -0.022293203
0.07438557 -0.0005711974 -0.07640567
0.28616133 0.13782771 -0.08446301
-0.17454419 0.24666744 0.029455297
-0.00157624 0.34357837 -0.055084903
0.0044085896 -0.314318 0.06074942
