# .PCD v0.7 - Point Cloud Data file format
VERSION 0.7
FIELDS x y z
SIZE 4 4 4
TYPE F F F
COUNT 1 1 1
WIDTH 1000
HEIGHT 1
VIEWPOINT 0 0 0 1 0 0 0
POINTS 1000
DATA ascii
0.13095723 -0.073483065 -0.1167091
-0.07498934 0.16256692 -0.07198339
0.08477531 0.05194192 0.08120411
-0.084821515 -0.11022808 0.077024214
-0.24865215 -0.15521768 -0.18005562
-0.008105236 -0.03348486 0.2126941
0.27452868 0.017520323 -0.03932474
-0.22554564 -0.04959276 -0.15693511
0.042936623 -0.16767801 0.21377867
0.23845895 -0.06517045 -0.057657305
-0.13876233 0.1981276 -0.16098249
0.06053476 -0.027942207 0.036793392
-0.13162422 -0.08980511 -0.0815754
-0.094096825 -0.049413644 -0.008199072
0.09360434 0.057653904 -0.05695145
0.05209741 0.2672926 0.04819383
-0.2653015 0.084389016 -0.17173928
0.017057583 0.24252814 0.013716862
0.29058245 0.12892859 -0.17229435
0.037784584 0.10484488 -0.004133988
-0.14739119 0.025922382 -0.079839215
0.06309748 -0.010016836 0.20904751
0.24218069 -0.17101662 -0.06926982
-0.107788764 0.08819589 -0.067544065
0.09642415 0.113678746 -0.01027561
-0.09561936 -0.07814061 0.13906239
0.24190947 0.15309545 -0.048140258
0.034736495 0.00013903082 0.21657124
-0.25986108 0.16819751 -0.19738351
0.2526748 0.028276455 -0.08513302
0.2414939 0.11481501 -0.07033452
0.00881733 0.08148278 0.10761049
-0.24371648 -0.19340129 -0.033042468
-0.08906857 0.0116824275 0.024650501
-0.22968304 -0.119275905 -0.034304276
0.023442226 0.056589674 0.18528011
0.14966142 -0.16081683 -0.006275275
0.013161958 0.15839233 0.18704152
-0.0034345826 0.045745336 0.049490333
0.24072683 0.02337671 -0.059951343
0.03452565 0.28775692 0.12730585
-0.27431542 -0.1155693 -0.12651871
0.08302706 -0.20269702 -0.15247253
0.07433938 0.2097474 0.13938999
-0.042319708 0.041429035 0.2018512
-0.23589341 -0.1325571 -0.07052532
-0.20676476 -0.13465086 -0.07013942
-0.15491408 -0.23066653 -0.05599396
-0.20069782 -0.0640174 -0.049028773
-0.25387502 -0.12120216 -0.07878796
0.24529825 0.0019662867 0.01634165
-0.089584135 0.18941183 -0.08489345
0.22424108 -0.089381285 -0.06678185
-0.07714508 -0.12639984 0.09438861
0.042471115 0.2346618 0.12719405
0.017820856 0.09569158 0.2349913
0.3201539 -0.043794077 -0.0529249
0.051442772 -0.1289195 -0.16322531
-0.06519743 0.28253978 0.011956299
0.1622056 0.04724024 0.010248686
0.25440976 -0.24689412 -0.075569406
0.11111442 0.07910208 -0.018129656
0.13312627 -0.22032256 -0.21582831
0.2923133 -0.19960213 -0.0077763717
0.069907635 0.19058086 0.16264558
-0.08428757 -0.12402987 0.025438078
0.022921765 -0.10269697 0.21764478
0.31075373 0.030794213 -0.080225326
0.12863486 0.10469246 -0.07032065
0.21498103 -0.079771675 -0.02239272
-0.013543924 0.022684988 0.16544011
-0.15220658 -0.09171955 -0.080559626
-0.0604056 -0.010417834 0.044886522
0.21306023 -0.01799514 -0.03308655
0.30658874 0.06879786 -0.12769352
-0.0869726 -0.24491109 0.1363483
-0.010964764 0.15727364 0.22750022
-0.09588705 -0.027721038 0.031990808
-0.25332472 -0.1846316 -0.09233343
0.16727415 0.14876838 -0.14057714
-0.1387929 0.052010033 -0.042802233
-0.0020163925 0.15411222 0.19177304
-0.2411161 -0.007539874 -0.15248331
0.18759942 0.09823687 -0.015028058
0.29599518 0.03249607 -0.020784877
-0.12487281 0.058132365 -0.03917458
0.14483552 -0.055724278 -0.06293291
-0.076691434 -0.043244474 0.015020388
0.05746347 -0.056531034 0.073485136
-0.04975658 -0.13033696 0.15798657
-0.048860148 -0.20475543 0.12941845
0.23550007 -0.191731 -0.06068908
-0.23830259 -0.16900946 -0.054434102
0.14337756 -0.14855939 -0.08235404
-0.18018524 0.16046713 -0.14880157
0.08243926 0.05349016 0.13525651
0.14455028 -0.2596353 -0.18698947
0.06764467 0.11679303 -0.039880376
-0.009170305 0.13415065 0.19164692
-0.027769113 -0.13390417 0.19292149
0.25186738 0.03709901 -0.03788705
-0.15643635 -0.17556225 0.061894998
-0.259146 0.13831933 -0.21506621
-0.11570839 0.2709023 -0.048048414
-0.17172009 -0.16407046 -0.026728801
-0.106316335 0.2412491 -0.02308331
0.028982036 0.12447391 0.12887023
-0.118977085 -0.17520352 0.08934412
0.24689172 0.045166202 -0.07395053
-0.27775452 -0.09761749 -0.21833427
-0.13472795 0.16984327 -0.05491696
-0.014637279 -0.14031501 -0.13788514
0.32584816 0.029843451 -0.08228676
0.1427431 -0.2674672 -0.10697694
-0.17619355 0.095332004 -0.12559801
0.03470161 -0.08801304 0.1668593
-0.052801955 -0.15939118 0.1454613
0.09215424 -0.20236014 -0.24172148
0.09255509 -0.13983478 -0.059115097
-0.13041547 0.2757935 -0.026971666
0.07539215 0.16915908 0.15399544
-0.23804598 0.19201969 -0.1634087
-0.22268528 -0.1605305 -0.06683261
0.040232368 0.035916246 0.2453458
-0.19960722 0.10544579 -0.20499729
-0.1637959 0.24264242 -0.20739883
-0.20194912 0.18594489 -0.15528674
0.12284347 0.0196455 0.04881788
0.2754995 0.13853864 -0.12085277
-0.15283944 0.13050693 -0.067062676
-0.10870027 -0.05658501 0.061468568
0.04627671 -0.035180043 0.2590731
0.073887534 -0.18539883 -0.1625112
0.22995323 0.10867224 -0.1807132
-0.14165139 0.016366726 -0.0013016384
0.01785483 0.11294285 0.21550977
-0.06771738 -0.1363011 0.07429299
-0.27145892 -0.06323977 -0.14979857
-0.103607185 0.027479973 0.03394866
0.024974093 0.26203915 0.11496456
-0.09266368 -0.26062107 0.095326245
0.32011196 0.023850841 0.019461302
0.02561508 0.014501173 0.034369852
-0.1938787 -0.20749737 -0.056910634
-0.08085919 -0.05833951 0.106149696
-0.24633239 -0.1014628 -0.22492126
0.16240653 -0.10349321 -0.113903925
-0.040252678 -0.16930363 0.1466934
-0.09664188 -0.034902427 -0.010169067
-0.23065989 -0.15427847 -0.16417964
-0.014643327 0.16027291 0.0564407
-0.114180066 0.020728413 0.020511618
0.11197596 0.10115936 -0.25701177
-0.21361761 0.15282175 -0.11795833
0.14663872 -0.07066511 0.023560992
-0.18980286 0.071889274 -0.15956804
-0.01796498 -0.1253925 0.21121602
-0.065149866 0.31972992 -0.11856832
0.1399046 0.0056298967 -0.013294345
-0.0062537557 0.14045042 0.12461578
-0.266398 0.14493778 -0.17202424
0.038892377 0.13327268 0.24903256
0.22133449 -0.10916864 -0.030820271
0.085912995 0.05696874 0.07800652
-0.25135472 0.22334908 -0.1451851
0.031518478 -0.12751389 -0.113518484
-0.047692265 -0.05347757 0.06390174
-0.12939717 0.085179575 -0.057760354
0.007334253 -0.0044089095 0.22244327
0.0021254665 0.13584656 0.23984395
-0.24482864 -0.22625874 -0.0028781646
0.019788975 0.058341175 0.17506571
0.05243322 0.066810474 -0.077973045
0.030167015 0.20211847 0.21268395
0.17478538 0.050511487 -0.0560367
0.17877795 -0.15772246 -0.09616789
-0.17162588 -0.123737946 -0.042730432
-0.07969878 -0.07819842 0.06431807
0.27478227 0.06819343 -0.05459709
0.12951866 -0.2337929 -0.187175
0.21811886 0.0377588 -0.00793666
0.021748718 -0.099539034 0.24289809
0.01658409 0.067293145 0.12715808
-0.2787769 0.104635365 -0.21472923
0.10026043 0.12639938 0.15371889
-0.15494537 0.15838102 -0.13505438
-0.27544582 0.117559776 -0.2113376
-0.029050713 0.061000604 0.0919539
-0.17119135 -0.22404592 0.046335105
0.10259663 0.06890378 -0.104057364
-0.2220141 -0.21199094 0.010544474
0.05828875 -0.09040925 -0.19961989
-0.10889802 0.1073249 0.030288562
0.20802684 -0.1642192 -0.10805483
0.23519142 -0.21303727 -0.112709425
0.09763984 0.09971161 0.024338748
-0.057830825 0.12932503 0.15758897
0.035766765 0.029900482 0.1533475
0.04179428 0.048684616 0.16653791
0.08851968 0.2793001 0.12984437
-0.08055067 -0.030888848 0.04241681
0.06650099 -0.12148129 -0.17866793
0.010358594 -0.14521591 0.13081557
0.041511845 0.061865922 -0.087565936
0.087587915 -0.0599347 0.26619697
0.041887593 0.17217572 0.14132689
0.14597943 -0.03247373 -0.06233507
-0.01100164 0.24043864 0.05665944
0.07632427 -0.2053143 -0.061703548
-0.1799784 0.013235818 -0.15287183
0.2671319 0.07538765 -0.10823874
0.19799766 0.15464787 -0.16323453
-0.18202639 -0.21206655 0.060117245
-0.10826855 -0.040925846 -0.112409815
-0.16282903 0.06340585 -0.12342378
-0.12209139 -0.04385455 0.08204684
0.07183253 -0.15172318 -0.1315386
0.20726013 -0.23330301 -0.0460755
-0.03043833 0.08369245 0.06745096
0.019977365 -0.19373752 0.20205943
-0.107876584 -0.11243799 -0.0032651778
0.19727205 -0.102562964 -0.07696405
-0.09403473 0.05715672 0.05737275
-0.07520323 -0.17972142 0.0937145
-0.1209438 -0.14344434 0.058511686
0.0018839284 0.19659382 0.09011626
-0.16095491 -0.24412338 0.029212179
0.03267338 -0.1593686 -0.07821005
0.27491194 0.040152468 -0.045579795
0.1502394 0.011761175 -0.11637121
-0.06500485 0.23507445 0.017963465
0.03143883 0.1005889 0.23005638
-0.18866356 0.1348975 -0.047948413
-0.16629489 -0.18532278 -0.004574242
-0.07977049 -0.09698557 0.06653188
-0.14832775 -0.24291363 0.060997307
-0.096738175 -0.15107353 0.1626046
-0.14440317 0.18161131 -0.11647596
0.046904933 0.15507828 -0.119728856
0.098812155 0.06367382 0.0031957582
-0.025425881 -0.06262229 0.10972314
0.2595142 0.0121409 -0.09264837
-0.014722589 0.02006968 0.19946393
0.045170892 0.011938248 0.18772614
-0.25850666 0.09527992 -0.10595433
0.3287259 -0.12797019 0.009680447
-0.0038705422 -0.10575295 -0.03724605
0.030085552 0.23503038 0.12510043
0.17849286 -0.12757896 -0.06450692
0.046681236 -0.079138905 -0.05797602
-0.0024679487 0.13916889 0.076186895
0.02363901 0.07971118 0.15300682
0.18641491 0.048245672 0.008503992
-0.26109186 -0.10614556 -0.11408006
-0.03698729 0.05312714 0.049707722
0.09811421 -0.09613927 -0.009255525
-0.20243889 -0.04794447 -0.06776022
-0.12731253 -0.013909222 0.06337993
0.09146156 -0.1243178 -0.15015338
0.24311748 0.07952866 -0.08679446
0.26736972 -0.11034159 -0.08000149
-0.13705766 -0.20907196 0.08462216
0.27045634 0.04869848 -0.03728909
0.10596396 0.073751636 -0.13365239
0.15389027 -0.21010841 -0.07369332
0.23285043 -0.04177487 -0.06225848
-0.013143507 -0.03458639 0.15397662
-0.29655084 0.1373437 -0.18456106
0.22230336 -0.05375137 -0.029813359
0.00447969 -0.0662175 0.20943516
-0.2308058 -0.04785743 -0.13502789
0.03840088 0.22017862 0.14190644
0.03209595 0.02830863 0.22903709
-0.025308726 0.22516467 0.12509973
0.20649013 -0.2674772 -0.11010044
0.12862916 0.090364516 -0.039939784
-0.19071184 -0.0032540527 -0.15352842
-0.012513438 0.23983572 -0.030095221
-0.026865674 0.24840361 0.07726356
-0.2868666 -0.098217234 -0.18970107
0.23905 0.047975056 -0.038227133
-0.013909822 0.22682749 0.048799243
-0.09723383 -0.029953003 -0.008930126
0.120681755 0.03465473 0.059378367
0.25519952 0.14753012 -0.1075686
0.122163326 0.028886694 0.087882385
0.27854252 -0.16620283 -0.05287145
0.09631421 -0.27069527 -0.1914454
0.24246955 0.06800211 -0.028986195
0.074307315 -0.12954864 0.01632236
-0.16100577 0.0546534 -0.06333588
0.26144558 0.003859588 -0.005033055
-0.037526082 0.09261656 -0.0664268
0.09621818 0.049688686 -0.13002962
-0.09637472 -0.0641198 0.036391884
0.27122936 -0.20793699 -0.010368748
-0.06318283 0.008476614 0.09037637
-0.02013448 0.15419453 0.104003586
-0.18706988 0.18780163 -0.11225532
-0.095234565 -0.19068085 0.15490536
0.23105039 -0.0546043 0.014032365
0.14906774 -0.020186203 0.022024412
-0.20077701 0.19977951 -0.19963665
-0.044040684 0.06478821 0.07787222
-0.22288923 0.04860141 -0.10923623
0.07031223 -0.113137856 -0.16077249
0.15517753 -0.19554776 -0.10316974
-0.22696705 -0.047619373 -0.1370114
-0.20258598 -0.04480701 -0.15241832
0.08385025 0.118228495 0.21787734
-0.21841799 0.03673666 -0.14583758
0.07273229 0.16839069 0.17790672
0.24871813 -0.17137921 -0.038614243
0.013259343 -0.09228423 -0.023553316
-0.10203227 -0.0022506095 0.034489334
-0.19350989 -0.008017196 -0.14916897
0.057456397 0.0015194846 0.038199604
-0.14300494 -0.03757052 0.05766586
-0.21067406 -0.031921856 -0.1883176
0.07646207 0.09499263 -0.13494755
0.27893475 0.08925618 -0.055373475
-0.12322837 -0.25786 0.14303966
-0.04749246 -0.07222239 0.22136389
-0.11234649 -0.16097137 0.07665782
-0.10602115 0.314673 -0.02023819
-0.123984545 0.2575169 -0.113391876
0.06703988 -0.03346698 0.21354073
-0.09862073 0.05519293 0.06975276
-0.08281738 -0.032216802 0.04509702
0.308141 0.0073398533 -0.056400627
-0.22508128 -0.19433795 0.017179685
0.1569952 -0.1280007 -0.062818766
0.101055235 -0.18017226 -0.21539806
-0.106098704 -0.14736177 0.0142047
-0.17215703 0.23757523 -0.11424973
0.25058755 0.15567376 -0.066131525
-0.16011609 0.22022292 -0.15941165
-0.21166979 -0.1820536 0.053604875
-0.097415894 0.15514314 0.058887146
0.09788673 0.04800488 0.2721083
-0.061279893 -0.09201438 0.18833338
0.00068880373 0.12980887 0.020461412
-0.06517764 -0.17799358 0.14820251
0.25269088 0.10684972 -0.08845396
0.11872091 -0.2492558 -0.20096822
-0.23859988 -0.18125422 -0.14033993
0.11803433 -0.02149465 -0.009102358
0.23009245 -0.05550298 -0.068417355
-0.17254975 0.038539343 -0.090679005
-0.03294883 0.06683816 0.18736301
-0.10237841 0.28571913 -0.026247453
0.101910226 -0.1669382 -0.19163345
-0.2577364 0.044905204 -0.22165257
0.053463586 -0.14925532 -0.016754135
0.02948304 0.212671 0.054534458
0.24171288 0.20517027 -0.15189688
-0.014483517 0.10023647 0.13577816
0.1769497 0.010134512 0.050411932
-0.133128 -0.26738754 0.06239431
0.011907533 0.21443146 0.14433794
0.31572798 0.08157759 -0.06704141
-0.14075087 0.31749967 -0.06503535
0.06580172 -0.11032928 0.041768085
0.041600376 -0.05861386 0.036519405
-0.049050618 0.008895697 0.09958119
0.04672288 0.13821709 0.21765926
-0.19848345 -0.18238373 0.036771003
-0.043335978 -0.056039803 0.14109613
-0.051221605 0.17278974 -0.0021516532
-0.0014827778 0.23629904 0.13261712
0.16793889 -0.12492429 -0.093675725
0.07858755 0.07974596 -0.046649653
-0.2056595 -0.10314439 -0.017606106
-0.18027811 -0.036133133 -0.024296982
0.0744359 0.10398381 0.16327465
-0.1935737 0.040110227 -0.05484774
0.30289358 0.09197326 -0.01767099
-0.068388015 -0.26475865 0.06705559
-0.25455183 -0.1698765 -0.19300391
-0.18251005 0.22281262 -0.16293299
0.009617082 -0.02875063 0.20843436
0.14811572 0.15344751 -0.1299027
0.13374776 0.12479003 -0.060963884
0.031980887 0.06946625 0.22030494
-0.107359305 0.054823257 0.0546931
-0.28782985 0.056331724 -0.24609941
0.11943935 -0.009088182 -0.002503825
-0.24136299 0.20817779 -0.21343093
0.089389734 -0.07082779 0.09247474
-0.16479024 0.23373236 -0.08178452
-0.038687065 -0.14148344 0.16619416
0.09998024 -0.023617491 0.021717766
-0.23331189 -0.0710988 -0.1769613
0.009386689 0.17906 0.22787693
-0.16814922 -0.08712385 0.03879689
0.2050572 -0.07544054 -0.02261562
0.22579321 -0.049184814 -0.0058221812
-0.06971009 0.17871182 0.018725121
-0.00019651746 0.05456902 0.2026089
-0.021571532 0.27472648 0.16767016
-0.108958475 0.24129194 -0.092706
0.31905052 0.01981613 -0.06849769
0.17543913 0.19904155 -0.21928263
-0.1919405 0.07771821 -0.21167552
0.255097 0.037270445 -0.09426183
0.014322075 -0.14444326 0.1683884
0.039405383 -0.018700358 0.22717601
-0.015430486 -0.13343881 0.12976742
0.2281752 0.09321973 -0.045376252
0.11183062 0.022452893 0.08701307
-0.1835697 -0.059007924 -0.07150589
-0.022614295 -0.07329221 0.21286668
0.08940053 -0.12800261 -0.013857543
0.056771923 -0.19257613 -0.15978655
-0.04475931 -0.013607126 0.05169814
0.07500273 -0.09166454 0.018280167
-0.056684688 -0.20511828 0.16604646
0.058297917 -0.15001047 -0.08647118
0.07907401 0.079983585 -0.02591656
0.003460223 0.08756015 0.18913254
-0.044255406 -0.15733504 -0.09864306
-0.13840835 -0.014737641 -0.032723296
0.038640574 -0.08271739 0.2542799
0.032686993 -0.022679012 0.187566
0.0019447636 0.08310613 0.024021959
-0.10789136 -0.15796934 0.091735795
0.051882956 0.07194901 0.21804814
-0.094962105 -0.23968716 0.06356487
0.27933255 0.11820344 -0.10890954
0.043949928 0.14004362 0.10922328
-0.11042896 -0.06485104 -0.017049884
-0.12898085 -0.0012471153 0.022413747
-0.07820356 0.095112085 0.040922362
0.19136167 -0.003433118 0.032182414
0.068367146 0.023945162 0.027167596
-0.099800415 -0.06357667 0.11695994
-0.08718984 0.016021766 0.0061845127
-0.2286934 0.15141137 -0.1397101
0.06971291 -0.20824493 -0.2165825
-0.15492103 0.09894394 -0.028418211
0.076149374 0.19414929 0.23357321
-0.29110554 -0.16559447 -0.087405264
-0.048938435 -0.101971306 0.1287844
-0.11875599 0.030142918 0.010691953
-0.19836526 -0.17076494 -0.124020666
-0.13938694 0.23505177 -0.024208266
-0.2313493 0.060538054 -0.21898003
-0.23964894 0.15801764 -0.18787193
0.0469338 0.042252865 0.21931155
0.120341755 -0.10843585 0.002416738
0.20131867 -0.14137174 -0.027794633
0.19836527 -0.20691325 -0.086633325
-0.041257884 -0.05734861 0.07551825
-0.19534956 -0.15852457 0.011971391
-0.1782484 -0.20682035 0.06208379
-0.060021125 -0.15838504 0.16510057
-0.051624484 -0.219081 0.19125669
-0.114101134 0.20916761 -0.0003467769
-0.06352322 -0.048761345 0.025557004
-0.16939019 0.21198997 -0.11873482
-0.06537973 -0.058344588 0.23399574
0.05175356 -0.045341533 0.28242558
-0.19740804 0.1876741 -0.13670272
-0.2738856 -0.060085777 -0.16594484
-0.019707184 0.120826796 0.16312766
0.12356151 -0.09560132 -0.0034624448
0.014683293 0.101914994 0.15978396
0.034347948 -0.053407054 0.22126898
0.15393753 0.09081154 -0.180381
0.011810342 -0.21106954 0.14677244
0.003793689 0.25872758 0.05157724
0.08683098 -0.17891453 -0.06976492
0.081414506 0.024720646 0.2475549
0.04964377 -0.18581223 -0.164201
0.13661586 -0.03906616 0.040331017
0.26796934 0.13150379 -0.06496402
-0.21313965 -0.22863173 0.024511969
-0.0579654 0.3089608 0.053300552
-0.10927975 -0.11039407 0.098550715
0.07246378 -0.02218007 0.08694699
-0.2582994 -0.17217612 -0.07591395
0.13939351 -0.05698434 -0.017828915
-0.018150823 -0.15420456 -0.08543087
0.20133872 0.08662472 -0.12482637
-0.20389292 0.10261032 -0.07900782
0.19599898 -0.16669822 -0.07888923
0.2555376 0.06458329 -0.015092623
0.007663239 0.24940166 -0.008723393
0.054658756 -0.18399084 -0.124458805
-0.024378045 -0.007085553 0.18912451
-0.21334197 -0.08483501 -0.12049546
-0.03348982 -0.014008463 0.20231083
0.16987853 -0.15953101 -0.11146533
-0.14176705 0.1440344 -0.039450563
-0.22336954 -0.05217655 -0.15262133
0.0862847 0.21250947 0.14736062
-0.21804266 0.20673037 -0.22738752
0.26196942 -0.12342983 -0.060971294
-0.11055929 0.26084515 -0.09301651
0.26170266 -0.17465867 -0.007443399
0.2397567 -0.08473892 0.020158159
0.15006682 0.0527515 0.032755807
-0.11627034 -0.17734773 0.1146916
-0.18112983 0.08837146 -0.086057805
0.19248877 -0.023020066 -0.041954204
-0.21215597 0.037307896 -0.13911627
0.15654674 -0.066939734 -0.038751718
-0.009931923 0.2233551 0.06421999
0.04382556 0.045177538 0.21331255
-0.1351151 -0.13575241 0.12099595
0.0070726965 -0.19079724 -0.116587594
-0.09311639 0.040197093 0.014167207
-0.005717653 -0.008154795 -0.07935206
0.17431183 -0.12885322 0.032679357
0.19835912 0.044961855 -0.053408317
-0.04600191 0.09906114 0.08377157
0.030473089 0.10517174 0.19460358
0.26105627 0.030805685 -0.04937269
-0.11249382 0.2281063 -0.026811138
0.06847327 0.20826751 0.10046196
-0.25959048 -0.14743188 -0.12935096
-0.2670093 0.11815557 -0.19243297
-0.18670039 -0.14980313 0.03392116
-0.028311033 0.23691909 -0.032537136
0.019677 -0.07542943 0.25014836
0.010786892 0.01176568 0.20396334
0.3237346 -0.00936958 -0.03639769
0.121579304 0.09380983 -0.04735782
0.19653453 -0.030081512 -0.025946112
-0.03961403 -0.085511476 -0.090025164
0.2397099 -0.0650357 -0.06854536
0.29237956 -0.058600515 -0.040752076
0.21696201 -0.17402852 -0.04815026
0.2154229 0.15535206 -0.18274729
-0.024377974 0.04607722 0.106453024
0.28683987 -0.14755344 -0.08954525
0.16114299 0.08557234 -0.1516575
-0.11077013 -0.10178037 0.072695084
-0.30592474 0.043529995 -0.20110442
-0.19041671 0.1654314 -0.14312664
-0.13797122 -0.104925394 0.045845516
-0.012293773 -0.15842648 0.21171033
0.19533691 0.014849827 0.011447204
0.034058925 -0.035978846 0.26140097
0.26569596 0.08119415 -0.08167941
-0.25092632 0.08835502 -0.21392351
-0.12913528 -0.016447524 -0.016139625
0.14006683 0.104047135 -0.028105272
0.22666164 0.036575656 -0.030014731
-0.09348348 0.0873777 -0.02984016
-0.046587046 -0.20957352 0.15920389
0.027048614 0.024009876 0.2654391
0.22306468 -0.2538826 -0.090890676
-0.07510196 0.14079173 -0.059426807
0.13221274 -0.13136755 -0.10389671
-0.04357178 -0.15172169 0.15338893
-0.15482265 -0.059560508 -0.04620511
-0.027582355 0.1898614 0.19694687
0.039595343 0.2044588 0.1868898
0.18693547 0.13449155 -0.119284995
-0.11389754 -0.1420888 0.15453427
-0.15752262 -0.12528373 0.09245057
-0.05340781 -0.017744603 0.072262354
-0.18500748 -0.17250453 -0.05501026
0.04912977 0.13000667 0.23976752
-0.15496004 -0.20085305 0.04502345
0.07461189 0.07800516 -0.20925926
0.10253302 -0.17615266 -0.2760496
-0.11023172 0.17009857 -0.071903616
0.030766448 0.16345824 0.23523024
-0.03989649 -0.23534133 0.14643168
0.110852264 -0.1368551 -0.04164529
0.08349559 0.09167323 0.22160406
-0.18636072 -0.039979707 -0.018289614
-0.11689811 0.22863841 -0.08741249
0.12642938 -0.15389259 -0.1509894
-0.16592413 -0.24537107 0.06432254
0.016977372 0.2077569 0.18262333
-0.1636002 0.06988984 -0.11869645
-0.13155036 -0.086514175 0.073374234
-0.09310568 0.03194882 0.08463729
-0.007083147 -0.1341629 0.16281462
0.2149966 -0.010184324 -0.03314689
0.040270183 0.13457862 0.21831077
0.21628511 -0.19448058 -0.050312232
0.004991352 -0.041890956 0.15974733
0.035406426 -0.049800802 0.19915822
0.066572115 -0.24326082 -0.20864943
0.037317753 -0.18284045 0.20403779
0.14600994 0.09197876 -0.081754915
0.008469154 0.2863615 0.11165889
-0.11108634 -0.012850775 0.07720738
-0.1529567 0.14805974 -0.19252586
-0.109851174 0.23226571 -0.0019797275
0.073202156 0.065378495 0.2736776
0.029868267 0.0063003357 0.28393638
0.0523098 -0.07903729 0.06990676
-0.14176933 -0.15357845 0.024939114
0.029348329 0.2239511 0.1571466
-0.16278794 -0.08941739 -0.08314957
0.2817762 0.12510663 -0.11432076
-0.05131063 0.107687384 0.020161118
0.27690527 0.0033923576 -0.016267978
-0.03310383 -0.027277255 0.16422646
-0.15359457 -0.1082172 -0.11112049
0.032464713 0.0037220258 0.18995729
-0.14557242 0.08009938 -0.13138902
0.07902389 0.013326964 0.13229944
-0.035814878 -0.042082097 0.040681474
-0.037205316 -0.13764141 0.013970748
-0.21297179 0.09379963 -0.15492111
-0.07461637 0.15143992 -0.09728604
-0.193971 -0.25668144 0.079523146
-0.01292462 0.22179432 0.079017766
-0.20790853 0.037120197 -0.10405103
-0.017971499 0.0779206 0.13102882
-0.19336678 -0.2682487 0.0103249885
-0.080122806 -0.22494209 0.17885411
-0.2614628 0.065379076 -0.18579142
-0.04208058 0.14726543 0.13463259
0.12279511 -0.064787544 0.040975053
-0.15794745 -0.2892895 -0.026234617
-0.16114609 -0.19732514 0.043483403
0.063948356 -0.09189372 0.24109712
-0.1548736 -0.085643634 0.025044395
0.082878776 0.105821416 -0.19799742
0.3254847 0.06792824 -0.0864056
-0.20439188 0.16300078 -0.23347369
0.07323286 0.28239822 0.09621445
-0.19101343 -0.087141894 -0.07687691
0.168854 0.02543783 -0.054631907
-0.16904625 0.18331578 -0.1508681
0.063301764 -0.011805573 0.06389476
0.18101054 -0.20695752 -0.051627252
-0.0054766876 -0.077963755 0.1199843
-0.15121391 -0.11124382 0.022182584
-0.18665011 0.1335685 -0.10058873
0.046442438 -0.17460848 -0.057370782
0.12674023 -0.061717395 0.025869126
0.34000033 0.05949282 -0.06236204
0.06876184 -0.05094759 0.23045465
-0.056987446 -0.10135304 0.1297396
-0.036531728 -0.0029757128 0.11308891
0.20834813 0.029997969 -0.079013266
0.1008844 -0.09367957 -0.05239983
-0.21239263 -0.11417839 -0.1048813
0.17232873 -0.0028206324 -0.05965581
0.04554117 0.16569428 0.15033598
0.25036308 -0.15530996 -0.042194873
-0.27886534 -0.1329385 -0.113534674
-0.12482127 -0.022623857 0.07396246
0.2776416 0.002844596 0.0010691308
-0.09746932 -0.14206061 0.09911501
0.01174515 0.101999365 -0.07318793
0.30699342 -0.07232389 -0.007108771
-0.09074547 -0.19050658 0.13147709
0.049792666 0.10212084 0.035880424
-0.12095361 0.17685819 -0.043178253
0.0010097746 -0.08821762 -0.07614506
-0.25492257 -0.10761966 -0.10427783
0.07547502 -0.118942656 -0.091180086
-0.15988955 0.1803058 -0.06430613
0.2648706 -0.06972141 -0.04304512
-0.22568215 -0.1040372 -0.17567535
0.16731186 0.089806 -0.2509501
-0.16898432 -0.2144291 -0.006160685
-0.081879094 0.1417756 0.06570215
-0.118539646 0.17412746 0.014296787
0.1156308 0.008667622 0.04066401
0.014105412 0.051490933 0.15596874
-0.28261414 -0.23479514 -0.070208006
0.049557406 0.12067494 -0.03425767
-0.09573314 0.019538948 0.06862593
-0.07026289 -0.15707628 0.09887634
0.020655993 -0.058873028 0.05743278
-0.023109037 0.023747457 0.18357894
-0.060486816 0.14908949 -0.005528449
0.19940673 -0.02505339 0.002893683
-0.090336785 0.0672247 -0.039645523
0.01485656 0.023309553 0.16409102
-0.144359 0.11607109 -0.06902407
-0.0094649065 0.017277485 0.042861775
-0.042742644 0.2040916 0.040935017
0.27762914 -0.11144611 -0.03447976
0.32179973 -0.040533524 0.0048500746
0.02678507 -0.05831902 -0.063025035
0.2419664 0.043793432 -0.0044149663
-0.04162422 -0.08656774 0.18292324
0.07979421 -0.14333719 -0.09034229
0.31238922 0.0013394564 -0.04717229
0.2800934 -0.25203097 -0.050170485
-0.13422891 0.20039889 -0.020922983
-0.08526381 0.3140099 -0.052494083
0.2545476 -0.0072326246 -0.042070948
-0.15093184 -0.092388205 -0.04344398
0.0032863307 0.09985039 0.17708582
0.029075861 0.086218685 0.12497404
0.091157444 -0.09019286 0.05234464
0.35554716 -0.064561404 -0.02803046
-0.10962691 -0.049924016 0.0010822592
0.07118758 -0.052226968 0.07573692
0.2034416 0.021451915 -0.09868994
-0.1579467 0.120748736 -0.15647468
-0.026882809 -0.18371874 0.206931
0.109251276 -0.22393098 -0.17512128
-0.17664798 -0.20555836 -0.07244056
-0.1889363 0.06846892 -0.1420306
-0.15938139 0.28478673 -0.13046207
-0.08215603 -0.22686887 0.18326482
-0.11523917 0.08550357 -0.06347399
0.021891795 -0.088101424 0.14821385
0.16910195 0.059683464 -0.03508733
-0.18134813 -0.08469503 -0.09242148
0.25138634 -0.12888657 -0.038109783
-0.24057229 0.20444725 -0.16579261
0.15932107 -0.02673894 -0.016241085
-0.06895234 0.0824306 0.053776786
-0.046306297 -0.07033947 0.20457977
-0.011700976 0.2558171 0.026143497
0.31131142 0.103847116 -0.11476661
-0.27002934 -0.23190497 -0.020844262
-0.102306195 0.1377422 0.06294762
0.041192792 0.037836637 0.27247444
-0.02114176 -0.08611673 0.27674183
-0.03577897 -0.024206998 0.03322004
-0.057347458 -0.18636292 0.15196745
0.052389443 0.10561169 -0.20247863
0.06582116 -0.19679777 -0.17244075
0.2694324 0.12055749 -0.18568279
-0.23237407 0.057722468 -0.15012482
-0.012625438 -0.0224729 0.14792717
-0.10704557 0.19198291 -0.02039152
-0.038545102 0.14406464 0.1427431
0.025420003 -0.074926846 0.27760226
-0.047340006 -0.037266087 0.1070264
0.27963072 0.08414114 -0.032751616
-0.082505174 -0.2804828 0.093382284
0.054656748 0.0017477354 0.06079693
0.3322071 0.1029653 -0.11946127
-0.15399161 -0.15823182 0.05127024
0.049770057 0.21953507 0.12445762
0.06892336 -0.07809151 -0.06844543
-0.060167916 -0.0855814 -0.06591665
-0.15567194 -0.20030718 0.08043913
0.015988365 0.0920881 0.22656362
-0.082179315 -0.19142295 0.058181893
-0.024263935 -0.10276434 -0.0015536348
-0.057813685 0.19292754 0.08352883
0.26741487 -0.0015248468 -0.092933185
0.10787189 -0.012667738 0.0026058108
0.09046032 0.0036148007 0.22452775
0.029594742 0.119507186 0.102793865
-0.09637196 0.15109667 0.010253133
-0.19339788 -0.13862085 -0.022985164
-0.08373492 0.018670231 0.020577848
0.335266 0.14045258 -0.14999573
-0.15286751 0.10192734 -0.06492896
0.21039258 0.18342744 -0.119691715
-0.05315232 -0.15372649 0.22018228
0.13403124 -0.14888728 -0.07305535
-0.23139231 0.053292263 -0.100738905
-0.22271733 -0.14188975 -0.039235078
-0.03482371 0.20685431 0.12086758
0.09584453 -0.0835631 -0.009065997
0.2588143 -0.123038165 -0.01949047
0.023896271 -0.11598187 0.22321452
0.23190117 -0.07746726 -0.043873794
0.15299618 -0.1932682 -0.08764776
0.20996982 0.066449426 -0.08157753
-0.055068903 0.2282643 0.018051222
-0.18939151 -0.060564727 -0.043970548
-0.23269758 -0.0650034 -0.10059061
0.039873224 -0.0766088 -0.04152533
-0.18228845 -0.17668916 -0.062844045
-0.03963714 -0.1529685 0.1790541
-0.024010846 -0.10722689 -0.029544486
-0.1449119 -0.08056367 0.022686677
-0.30875698 -0.110592194 -0.14529127
0.012985628 -0.14307548 0.17794834
0.09911559 -0.1898574 -0.12728335
0.045704458 -0.10300539 0.2677909
-0.1762293 0.08056597 -0.06779349
-0.09388388 0.1801673 -0.009786937
-0.02822477 0.22009984 0.116949745
0.0065597864 -0.13000171 0.013944303
0.05630108 0.055351257 -0.05083682
0.24833365 0.08515992 -0.1565198
-0.2178537 -0.15004458 -0.008379568
0.25559148 -0.21762504 -0.07886965
0.048151772 -0.1408535 -0.062288936
0.0397291 0.18475169 -0.021482954
0.040869646 0.12633243 0.18373236
0.2268068 -0.036209226 -0.04148679
0.042638063 0.019326141 0.21836734
0.026500497 0.016091418 0.09006272
0.23037319 0.12651616 -0.06986117
-0.20999897 -0.0712296 -0.04295629
0.27213028 0.016812809 -0.033760436
0.0063872286 -0.12857923 0.18566228
0.064150155 -0.024730068 0.2851106
-0.00073110696 0.23030089 0.1927657
0.15093753 -0.19115272 -0.076213755
-0.11757717 0.11631738 -0.081313334
-0.13364883 0.014608742 0.035847664
0.07169729 -0.1683588 -0.15157437
0.23972598 -0.13507202 -0.062344562
-0.23321998 -0.15282372 -0.045172736
-0.25391844 0.07435952 -0.19694996
-0.18061008 0.05370311 -0.123582795
-0.10150966 0.21251313 -0.053081643
-0.18330121 -0.059113935 0.013231319
0.2817222 0.04900568 -0.10280667
-0.094879694 0.0025709562 0.074908465
-0.037371404 0.0075427415 0.055119563
0.29501387 0.1316321 -0.08069614
0.2942779 0.11366254 -0.14484385
-0.2774138 0.062118597 -0.19146487
0.02744376 0.08889075 0.10055712
0.27329686 -0.037539165 0.016158747
0.008195608 -0.09210054 0.18688251
0.0651702 -0.009920279 0.23953816
0.25870267 -0.11187992 -0.03863421
0.08147578 0.15432695 0.19566575
-0.07488398 0.027080009 0.06407132
-0.12063076 0.13362454 -0.008713454
-0.08376143 0.20321898 -0.010515844
-0.23141709 0.15661277 -0.123781815
0.067029454 -0.1517011 -0.05224099
-0.08160216 -0.14200032 -0.02101333
-0.11701072 -0.14885144 0.034765616
-0.03761763 -0.26047426 0.13773052
-0.13154846 0.12083211 -0.118918985
0.28081992 -0.045948382 -0.08487162
0.24023876 -0.16866472 -0.06391719
-0.13720256 0.23760404 -0.18735382
-0.14166342 0.18882738 -0.10727721
-0.0018071723 -0.0952658 0.09614716
0.03315048 0.111823894 0.20231698
-0.13855974 0.11034525 -0.09497606
0.04279439 -0.049979303 0.010951891
-0.14936537 -0.11660844 -0.032175817
-0.026690677 -0.050483044 0.19253644
-0.18303084 -0.014084819 -0.09274552
-0.060399536 0.058650993 0.07684637
-0.17064586 0.11484979 -0.105202466
0.1900817 -0.019910812 -0.03948935
-0.24569009 0.11498953 -0.21041271
0.2995781 0.12735249 -0.14649774
-0.007546345 -0.058654387 0.23617312
0.14793989 -0.20118247 -0.14908282
0.082227446 0.18751267 0.21390136
-0.02147005 -0.059144057 0.15920568
0.17882237 -0.052119706 -0.07109045
-0.07970019 0.17883281 -0.022237211
0.13088457 -0.14777623 -0.0673588
-0.0671023 -0.12524785 0.01760263
0.18763834 -0.19538511 -0.12540819
-0.054434303 0.22656013 -0.04220365
-0.15207812 0.17066018 -0.01888781
-0.14258716 -0.19604424 0.066784404
0.105298206 0.052369498 0.2520938
0.031662744 0.15427677 0.20060354
0.29860273 0.119391836 -0.03947979
-0.039971597 0.002498358 0.102660194
-0.14726622 0.10323828 -0.07329342
-0.027374197 0.2794141 0.021806534
0.21157068 -0.09200393 -0.036587972
-0.26098955 0.12388167 -0.16395406
-0.0079666125 -0.11983088 -0.06675544
-0.06417613 -0.17836922 0.16199128
-0.14715339 0.24808964 -0.087024264
0.25531977 -0.1367786 -0.050229143
0.084021725 -0.3030814 -0.16458122
-0.26523772 -0.09072848 -0.1487033
0.0032850876 0.026917586 0.1758619
-0.2192404 -0.0907594 -0.17030495
0.04552747 -0.13347726 -0.051002055
0.06372034 0.12554398 0.14641103
0.07127075 0.076996475 0.26254913
0.056308243 0.16768984 0.12306262
-0.0115957605 0.13078 0.21005432
0.14262284 -0.14061509 -0.033972755
-0.17584424 0.24327713 -0.18269731
0.30064097 0.06078276 -0.076042764
0.25562868 0.07001503 -0.10509336
-0.17845422 -0.20837407 0.023059929
-0.19505617 -0.21751359 -0.013168156
0.23379101 0.094956964 -0.028118337
0.114449784 -0.13157131 -0.07728638
-0.24366899 0.0755427 -0.18289314
-0.038195986 0.123392254 0.06202257
-0.25663462 0.18538284 -0.25433987
-0.15592699 0.17189284 -0.06987918
0.10015959 -0.19338739 -0.30359828
-0.2854613 -0.11242971 -0.13853776
-0.12526739 -0.030006519 -0.032190748
0.04772837 0.19897035 0.17414907
-0.14932597 -0.017848382 0.029246138
-0.11019395 -0.017593663 -0.071442954
0.095680535 -0.07495006 0.020478232
-0.15562989 0.2569116 -0.172644
0.1749519 -0.14460671 -0.012730475
-0.0515607 -0.040063884 0.16485585
0.02066435 -0.18742509 -0.31968
0.04098639 -0.15799658 -0.32579955
0.05736867 0.22403164 0.18851212
0.1337031 -0.13380396 -0.056843784
-0.27504867 0.10849727 -0.18356034
-0.014850943 0.017850919 0.053609725
-0.31497723 -0.043583777 -0.15964651
-0.10604547 -0.03504923 0.061957672
-0.10525971 0.28813565 -0.09888362
-0.13122676 -0.2254707 0.014915739
-0.091278754 0.279709 -0.058039032
0.19405878 -0.02991799 -0.04076601
0.2796127 0.025117042 -0.024137765
0.036029797 0.10741882 0.21546549
-0.15806001 0.1314785 -0.030640258
0.15162298 -0.10457197 -0.08106254
-0.1309861 0.18617262 -0.10364295
0.0028876173 0.16143821 0.11657619
0.118538275 -0.016354108 0.061780054
0.2932759 0.091655605 -0.052803826
0.0315414 -0.10994948 0.20940778
0.10873515 -0.15627968 -0.026937211
-0.26905742 0.047635347 -0.17421293
-0.25568107 -0.21243855 -0.12320907
-0.021900821 -0.032685816 0.20957206
0.034195103 -0.026233962 0.17980725
0.06999765 0.09201517 0.1496433
-0.1146646 0.2439554 -0.0748289
0.24889879 0.11745235 -0.04865011
0.014201973 0.01754392 0.06270098
0.2264127 -0.11831413 -0.0254318
-0.12910827 -0.07582354 -0.06445221
0.20868158 0.11969812 -0.10971689
-0.25096768 0.055312935 -0.213745
-0.22175072 0.20696402 -0.1486475
-0.05790174 0.20238185 0.060557958
-0.047901735 0.08950119 -0.041478228
0.0772719 0.114215046 0.1633914
-0.008844144 0.27659255 0.041422542
0.26153567 -0.023282368 -0.09080559
-0.022215538 0.22182134 0.0499942
-0.2956456 -0.14839402 -0.167565
0.32503802 -0.0031639456 -0.08535548
0.0128843095 -0.12929489 -0.3222287
-0.007799637 0.26220587 0.035192315
-0.034030754 0.28772682 -0.043583322
-0.1308289 0.15612985 -0.11031903
0.2722936 -0.051833745 -0.025199963
0.025510931 0.17968363 0.013774697
-0.18111409 0.033997983 -0.04380927
0.008650189 -0.08605004 0.17018975
0.0046260515 -0.14914331 0.22816117
-0.19787158 -0.19293664 0.0023075952
0.20360516 0.071840785 -0.036095154
-0.028617194 0.20017518 0.06149343
0.2951548 -0.15481229 -0.062397692
0.2296466 0.006500881 -0.021378221
0.09483966 -0.086576976 0.009560808
-0.16317664 0.17946394 -0.10397299
-0.057035003 -0.063483566 0.099990435
0.2110038 -0.10711111 -0.0013796436
-0.2925131 -0.05019531 -0.17962189
0.25930613 -0.039022475 -0.09122791
-0.16114545 0.07554727 -0.15999427
0.28642875 -0.158524 -0.06458563
0.27312058 0.043538764 -0.062022954
-0.1653093 0.25435674 -0.11747151
0.27675867 -0.1395785 -0.0059564146
-0.17784418 -0.22738358 0.017655509
0.33230364 -0.071149126 0.0015458951
0.0027907996 0.14443937 0.15185316
0.10106859 -0.23484083 -0.09973208
-0.07892604 0.0533905 0.063264094
0.017252237 -0.116462685 0.24258885
0.043062925 -0.13272524 -0.22098859
-0.13141866 -0.13490553 0.14147341
-0.13989222 -0.17161821 0.07915686
-0.106895946 -0.19214864 0.03342382
-0.12962142 0.045264043 -0.07565422
-0.090165496 -0.13055068 0.061419386
0.0672559 0.009094346 0.21463479
0.030784642 0.020212132 0.25341436
0.0938225 -0.21247216 -0.29170647
-0.24064142 -0.010552001 -0.096020944
-0.14481466 -0.0895206 -0.008609554
0.24488457 0.1575185 -0.096569724
-0.10439696 0.29990414 0.0015400657
-0.071015075 0.23820694 0.02231351
0.27840132 0.048580214 -0.068523735
0.07922317 -0.053522825 0.08401434
0.11300682 0.028708396 0.051349144
-0.25248298 0.018884392 -0.17622074
-0.073930524 0.0013490219 0.008442851
-0.027269226 0.028087692 0.22100441
-0.07794592 0.23903175 0.07607937
-0.04798931 0.25216356 0.08725637
0.17124176 -0.2557337 -0.0979351
