# .PCD v0.7 - Point Cloud Data file format
VERSION 0.7
FIELDS x y z
SIZE 4 4 4
TYPE F F F
COUNT 1 1 1
WIDTH 1000
HEIGHT 1
VIEWPOINT 0 0 0 1 0 0 0
POINTS 1000
DATA ascii
-0.14652851 0.118684664 -0.018476667
0.15511048 0.12250444 -0.04664875
-0.0993822 0.09004301 -0.04612368
-0.24635024 0.16999099 0.0017626745
0.01967566 -0.1063223 0.045192942
0.19749412 0.09062212 -0.27701348
-0.08985537 0.18897517 -0.081195116
0.18003786 -0.13383834 0.18593067
-0.066595696 0.15599087 -0.16840458
0.010792227 0.15403228 -0.054915555
-0.20346707 0.1934008 -0.082762875
0.18525799 -0.091238625 0.15096039
0.1757831 -0.20206296 0.19420524
0.005855148 -0.0433261 0.07571207
0.26141003 0.06368082 0.040074114
-0.19299138 0.07288734 0.04026261
0.1769471 -0.09977118 0.14191668
-0.051282607 0.1392952 -0.15391785
0.23592313 0.09361719 0.046740506
-0.11066538 0.17086275 -0.1169319
-0.2883431 -0.19140658 -0.16599692
0.059606772 0.0887854 -0.030193148
0.21617356 0.018631322 0.10466089
-0.08494238 -0.08580652 0.07495685
0.29409263 -0.101484224 -0.044401325
0.10700612 -0.09980684 0.18355873
-0.057340715 -0.058855128 0.0074989167
0.17050876 0.11584387 -0.048856076
-0.04377407 0.17938073 -0.109670416
0.21595778 0.08376923 0.10436478
-0.22754171 0.10130444 0.004027504
0.014482896 -0.08541193 0.037196834
0.24011475 -0.084592745 0.049926694
0.1143948 0.2459816 -0.039844237
-0.051881712 0.24380785 -0.15365106
-0.18064381 -0.0728013 -0.08064534
-0.07074692 -0.07292247 -0.055875298
-0.117536746 0.21992448 -0.17271696
-0.10574743 0.09565912 -0.026541473
0.094612725 -0.15440112 0.15021914
-0.15066226 0.15589973 -0.0445619
-0.07408901 -0.11670762 -0.02525041
-0.22130167 -0.10151058 -0.025021905
0.0028609603 -0.17902777 -0.053119272
-0.09732219 0.12696494 -0.26479653
0.18774132 0.15552531 5.763708e-05
0.03886578 -0.051188856 0.13020939
0.0076928707 -0.053005137 0.09084711
0.11139663 -0.15968902 0.1358019
0.12692563 -0.02809807 0.06395623
-0.2102015 0.27428406 -0.2051857
-0.27292022 0.04390813 -0.0030785953
0.12924962 -0.06951292 0.11932825
-0.13647339 0.064728335 0.0015037764
0.11014891 -0.15474193 0.1541788
-0.06665938 -0.17703685 -0.067409694
-0.15151078 -0.019724367 -0.027759094
0.0518725 0.086804815 -0.014189564
0.12812059 -0.054227177 0.076794215
-0.031204725 -0.058590755 0.035472654
-0.047136337 0.28679147 -0.15508814
0.003916556 0.11093189 -0.020582682
0.26427698 0.09290218 0.08734855
0.18011008 -0.1067114 0.18638502
-0.060266502 0.21740465 -0.14960636
-0.23109362 -0.24260496 -0.10811806
0.096368015 -0.18972707 0.10040725
-0.028911771 0.052382793 0.09835004
-0.096124455 -0.23925535 -0.12615809
0.13098209 0.08997691 -0.034627106
0.060794417 0.008563359 0.1070508
0.055058993 -0.14437968 0.07856846
0.023033015 0.00084623543 0.05040949
-0.17124319 -0.21548438 -0.11004083
0.10344296 -0.17894344 0.041738592
0.05482326 -0.08937092 0.15099463
0.027015885 -0.01710593 0.053454973
0.033362992 0.13071129 -0.1240243
0.09130693 0.18144691 -0.052937046
-0.08533126 -0.18620376 -0.0677271
-0.003668287 -0.037088253 0.12770832
0.12639382 -0.0032446918 -0.017129809
0.066532075 0.044331156 0.04559345
-0.13218078 0.16418146 -0.104743056
-0.10971721 0.063594826 0.042690817
0.04713879 -0.059257254 0.14874634
-0.16355339 0.19213288 -0.09279968
-0.20777121 0.11975123 -0.048258293
0.07039833 0.043645803 0.11168986
0.09848341 -0.14676909 0.15837128
-0.11939175 0.18879531 -0.10931782
-0.035111427 0.21128042 -0.11037052
0.09330899 0.25960883 -0.059064977
0.03312785 0.24463479 -0.10945791
0.15359893 -0.13476376 0.24618427
-0.06655015 0.28230718 -0.14516456
0.2518331 0.015321156 0.014933874
-0.25326914 -0.057451718 -0.12514628
0.18240176 -0.20504124 0.27593362
0.16310482 -0.20288391 -0.047684543
-0.043580987 -0.13240136 -0.020375444
0.23994878 -0.08952822 -0.09941954
-0.2264024 0.058382463 -0.0015050418
-0.18376547 0.27126995 -0.16468902
-0.20641771 -0.05958574 -0.038439862
0.16692482 0.21546166 -0.074005745
-0.088763446 -0.070886165 0.049726177
-0.104509845 0.0281324 0.054279793
0.15338229 0.08557309 -7.814777e-05
0.007476031 0.25031787 -0.11021662
-0.18366982 0.28451657 -0.121320754
0.119896695 -0.05404015 0.11897442
0.13152434 0.23070003 -0.082895234
0.16111085 -0.0769369 0.26333535
0.04010193 0.038786102 0.005687651
-0.14616096 0.13996316 -0.002607827
0.13766292 -0.21200393 0.15760896
0.026089804 -0.05691622 0.081993245
-0.009081411 0.18911847 -0.12839352
-0.13111988 0.038136885 -0.00052626466
-0.04569249 -0.1412193 0.05378339
0.14708205 -0.15063079 0.123667
0.028639022 0.050066 0.015510319
-0.18878286 -0.22764698 0.011456402
-0.023798658 0.07382295 0.029191557
0.28723097 -0.16998917 -0.009912877
-0.03460555 -0.21410245 -0.0820685
-0.23408252 -0.025615843 -0.06896544
0.014729726 0.2737157 -0.08161332
-0.242719 -0.17379877 -0.02571099
-0.0804341 0.15455273 -0.20433623
-0.12255277 -0.077627756 -0.007468312
0.19301182 0.0922632 0.16058569
0.21166344 0.027515061 0.16484018
-0.12904124 -0.21313259 -0.087018
-0.21582428 0.0025699784 0.02360595
-0.16751443 0.11391284 -0.09896558
0.063055344 -0.16472949 0.13196923
-0.025845565 0.20705909 -0.10607424
-0.26199812 0.18987018 -0.07560237
0.17626108 -0.08817052 0.20611589
0.18179011 -0.22312142 0.11095966
-0.016648281 0.27692547 -0.10312513
0.14078471 0.15745628 -0.089898154
-0.0879342 0.14630565 -0.120847896
0.064059176 0.21405436 -0.028547611
0.19194749 -0.10690846 0.20496699
0.26078385 -0.20805441 0.04224498
0.08067675 -0.033901088 0.1116189
-0.059459936 0.033819307 0.024821853
-0.15769985 0.06939455 0.06234501
-0.123167165 -0.09740931 -0.068959594
-0.21570086 0.09901619 -0.03940877
0.22223337 0.036514644 0.10009611
-0.08056344 0.06554129 0.052359603
0.015899528 0.23602302 -0.10765985
-0.08286942 -0.20493305 -0.051035542
0.30025387 -0.13802318 -0.13354006
-0.1126344 -0.13359106 -0.07237517
-0.053766433 0.04360872 0.025862776
0.17397837 -0.1100664 0.13288406
0.10363264 0.1390075 -0.009543482
-0.26821727 -0.16318546 -0.0831238
-0.0587444 -0.10667633 0.108078346
-0.051857263 -0.15428118 -0.060726274
-0.19651742 -0.10332949 -0.030877706
0.0573081 0.10368688 -0.10982099
-0.018830597 0.06285759 -0.011390702
0.047767863 0.33981758 -0.08779814
0.020486087 0.2861484 -0.111122675
0.100328706 -0.0131483795 0.11371915
-0.11218424 0.047440216 -0.23274009
-0.2724528 -0.16055909 -0.13492006
0.29173982 -0.15029892 0.0066234483
-0.16748117 0.098164715 -0.0066328067
-0.26030764 0.16636504 -0.14077152
0.19909278 -0.15351738 0.2465687
-0.016463442 -0.08476617 0.1375082
-0.20058846 -0.27228776 -0.008244697
0.14818439 0.2037163 -0.04297939
0.26543847 -0.18362552 -0.01309826
-0.024482995 0.2208528 -0.11857549
0.027076717 0.23592891 -0.073664986
0.087622456 -0.06233384 0.08409457
0.23583937 0.107128724 0.083609186
0.1165985 -0.003992138 0.10296184
0.16178702 -0.117796555 0.12570138
-0.023783801 0.13000163 0.046699896
-0.110310934 -0.09113266 -0.037103046
0.11923458 -0.07369025 0.09338302
-0.00013111558 -0.18764849 -0.060000017
0.28512794 -0.18214492 0.002612623
-0.012012014 -0.07783968 0.14022967
0.21205217 -0.059523184 0.019117443
-0.14075558 -0.18227737 -0.0714293
-0.05658136 0.112748794 -0.052235853
0.16233206 0.097038455 -0.0011598521
0.011475489 -0.23710275 -0.08366963
-0.023686323 0.1494356 -0.13743693
-0.19506669 0.22725712 -0.11296183
-0.0882344 -0.15601858 0.013041357
-0.20681931 0.2016166 -0.063211314
-0.14962466 0.028284706 0.072568186
0.036706273 0.08222676 -0.07307988
-0.10250544 -0.07225298 0.00351787
0.21857916 -0.13020268 -0.07675081
-0.24490447 -0.16006616 -0.08693725
0.23220165 -0.028532047 0.20895828
0.08210473 0.038111236 -0.02333497
-0.12574552 -0.18997885 -0.12841374
-0.15431032 -0.0016084894 -0.048731085
-0.19505338 0.012412636 -0.018457353
0.20929211 -0.22714458 0.123147376
0.2125447 -0.12469856 0.07688927
0.21657933 0.002842325 0.14587492
-0.19045635 0.06243367 -0.04306651
-0.19013962 -0.13072899 -0.06530568
-0.069298655 0.3367848 -0.18124934
0.15478536 0.08333726 0.005252304
0.076631345 0.086265534 -0.0142656
-0.04697522 0.25591472 -0.075730346
-0.16334508 0.038884778 -0.016577164
0.08314663 0.07293382 -0.29028165
-0.17815964 0.18467706 -0.06544965
-0.19442956 0.11096977 0.00551794
0.23264068 0.08513959 -0.2914539
0.18964836 -0.1413093 0.25463504
0.18191004 -0.07777284 0.14767164
-0.08079571 -0.20686048 -0.092678666
-0.16146204 -0.08842423 -0.045761704
-0.16786717 0.26129866 -0.08104299
-0.27493036 0.053129822 -0.022587098
-0.059472688 0.19656283 -0.1507125
-0.20076638 -0.053303674 -0.053619314
0.21523216 -0.17214695 0.17181043
0.11040525 -0.069199376 0.095998414
-0.13940315 0.06794052 -0.3351962
0.2690145 -0.10479593 0.05681123
-0.14562134 0.0060542473 0.018979438
0.27611175 -0.11568202 -0.06171901
-0.19500193 0.13990156 -0.004844034
0.11835381 0.1016948 -0.010080508
0.19828023 -0.2438223 0.29037982
0.032832194 0.29769278 -0.09619042
0.24731955 0.029501485 0.117782705
-0.15319318 0.12941591 -0.07043535
0.26023576 -0.06605618 0.2043967
-0.090951 -0.16970436 -0.028492821
-0.19947349 -0.17290922 -0.044781897
-0.2112466 -0.18291931 -0.022904094
-0.15095891 -0.1675124 -0.029146235
-0.13665675 -0.11922101 -0.07642371
0.19674052 -0.13941441 0.1278855
0.0426633 -0.16715963 -0.110815555
0.008414752 -0.030561099 0.101951376
-0.09665311 -0.037268575 0.09644888
0.21800943 0.06234814 0.06883893
-0.23817682 -0.047828726 -0.11243761
-0.31440434 -0.2371134 -0.12783486
-0.117594995 -0.033830952 0.06240879
0.08528543 -0.008429952 0.14139569
0.13996476 -0.06511039 0.16436164
-0.13958712 -0.14158015 -0.0843025
-0.16775504 0.29436323 -0.14994529
-0.16700307 0.09783089 -0.00014846373
0.13247555 -0.103458546 0.15990528
0.19155186 -0.19839029 0.12018025
-0.07169136 -0.2590246 -0.041004166
0.16635774 -0.010092023 0.12526307
-0.22950391 0.065077856 -0.051736496
-0.027899431 0.037059575 0.12749547
0.19839133 0.0771666 0.05491722
0.17004423 -0.067627124 0.18228836
-0.033490367 0.24432945 -0.1276664
0.1358489 0.10969092 0.023208333
0.045529187 0.08288984 0.040116075
-0.18526918 -0.1644284 -0.10518181
0.18093106 -0.22672492 0.23826687
0.039792407 -0.25590974 0.0044631944
0.18352053 -0.1562701 0.11679628
-0.17341073 0.23531927 -0.08872047
0.17649856 -0.11573214 0.180822
0.13967532 0.019766487 -0.0046515013
0.08403667 0.056549665 0.04105432
-0.06725991 -0.018482562 0.0606467
-0.26010123 0.14678119 -0.054656524
-0.18314976 -0.16854838 -0.033312775
-0.20189635 -0.0727718 -0.08374513
0.0462245 0.18331915 -0.12666523
0.2262345 0.024403114 -0.026158342
0.03803515 -0.20064035 -0.09217005
-0.2872975 0.12121831 -0.012978592
0.275302 0.10545992 -0.030958137
-0.03243807 0.10507903 -0.058725726
-0.25039342 0.20351936 -0.046797335
0.11026583 0.27962402 -0.03456667
0.1939608 -0.17447348 0.1404482
-0.10382361 -0.19923422 -0.103331394
-0.13215475 0.14184164 -0.082232825
0.038833637 0.22015306 -0.0703838
0.033648867 -0.025509581 0.056916542
0.2734566 -0.2626705 0.03486196
0.2264565 -0.27085063 0.13435361
0.19575153 -0.09421894 0.13537145
0.28583282 -0.16765977 -0.02783641
0.16280696 -0.090732925 0.21278869
0.15097336 -0.16759993 0.06945969
0.05152111 0.16126227 -0.05327082
-0.0065892977 -0.19482917 0.008862456
0.1098874 0.28236893 -0.08677243
0.16738047 0.066578 0.07070074
0.051395163 0.0010963746 0.06132916
-0.00883496 -0.09314129 -0.061971463
0.072359435 -0.11597187 0.077691995
-0.14421055 -0.13913451 -0.02295414
-0.19462596 -0.14987326 -0.1106993
-0.11305102 0.16398586 -0.11553271
-0.11738676 0.14725903 -0.0106962705
0.124328226 0.005196756 0.013696352
0.03023408 0.028605528 0.08398977
-0.095303275 0.24078862 -0.095367834
0.104316324 0.0136823505 0.011681871
0.18140422 -0.13447647 0.1906627
-0.1888191 -0.19844413 -0.01763331
0.05240774 0.027569516 0.071085095
-0.07875351 -0.053961117 0.0006671059
0.13203336 -0.19545756 0.16044804
-0.2049097 0.008694674 -0.03323962
0.190828 0.011725597 0.09886972
0.060094375 0.0046832906 0.071273305
-0.1243601 -0.03320789 0.008873339
0.005909688 0.017621187 0.08815033
0.014301163 0.03636657 0.022737322
-0.0039355336 -0.12066331 0.08850568
0.2907741 0.14871332 0.071676075
-0.14639059 -0.03389361 0.05667795
-0.13708198 0.113962054 -0.04571188
0.0089967 0.34255 -0.1421095
-0.13388278 0.12110931 -0.044405676
-0.026571516 0.027931923 0.036277335
-0.12894239 -0.017691672 0.0945076
0.05631027 0.0637694 0.043652646
0.13313936 -0.047002003 0.081865415
-0.014038759 -0.21666028 -0.042870887
0.039835297 0.15900546 -0.15051134
0.060594495 0.22815141 -0.047564875
0.16944504 0.015823433 0.085797176
0.070224494 -0.007772042 0.06929594
0.04893533 -0.081676096 0.06579563
0.15973337 -0.009376245 0.069337465
-0.15079676 -0.21272954 -0.067080624
-0.22740325 -0.0061121024 0.032454476
-0.13863528 -0.09517238 0.0038940257
-0.15972206 -0.100188345 -0.037891172
-0.014194804 0.1135082 0.0499887
0.13388398 0.118680656 -0.17332622
0.1070488 0.0815276 -0.24828231
-0.20992652 -0.12668438 -0.06319777
0.16406095 -0.17737345 0.19289507
-0.14908959 0.11417197 -0.03477976
0.18613344 -0.020481924 0.14922386
0.25767335 -0.14447747 -0.13931783
-0.15260862 -0.014629256 0.06251604
0.104871914 0.06758826 0.037921652
-0.13561709 0.26733932 -0.16196837
-0.1713848 -0.051388208 -0.015204801
0.17766057 -0.03408098 0.2308728
0.09781651 -0.09637542 0.15755305
0.052212626 0.15195668 -0.121260755
-0.2364316 0.13234791 -0.042961914
0.06951271 0.12119752 0.07621319
0.018706735 -0.063649125 0.06884055
-0.057028268 -0.13160749 0.033896483
-0.23607858 -0.19829603 0.02285922
-0.16458428 0.22072898 -0.06544444
0.11348876 0.10490537 -0.054190982
0.16187948 -0.10019444 0.17278981
-0.011196559 -0.12342158 0.050705705
-0.015365912 0.047246754 0.03421064
0.089496635 0.27025825 -0.101917855
0.129262 0.1649999 -0.018797804
-0.06068423 0.19760527 -0.13745192
0.22289744 -0.15035881 0.2543829
0.15027316 0.13813636 -0.23143528
0.13950492 -0.018966796 0.16183005
-0.029444065 -0.025927845 0.12540598
0.0066701774 0.24034894 -0.11824588
-0.18634209 -0.17149153 -0.041513193
0.014532606 0.11105053 -0.27446774
0.19111814 0.18198124 -0.075023405
0.281069 -0.1939485 -0.03523741
0.010595664 -0.12536465 0.12860186
-0.23754779 -0.17357145 -0.09536203
-0.037878796 -0.26266497 -0.08111281
-0.04486579 0.19659904 -0.1422943
-0.025506394 -0.26164728 -0.07519681
0.15781118 -0.07168946 0.21325018
-0.27252105 0.1735698 -0.044403773
-0.21592773 -0.09089545 -0.13012616
0.081243955 0.034003682 0.03895421
-0.054942064 0.16183779 -0.109619744
0.25917277 -0.1958843 -0.18149537
0.22804281 0.021819562 0.005717966
0.2275279 0.05485839 0.02594915
0.02360608 -0.10193017 -0.12344792
0.2342883 0.07883914 0.1180181
-0.21203505 -0.0730375 -0.071794264
-0.19899362 0.12091951 0.0011428146
-0.028566934 -0.01676959 0.070301265
0.15292327 0.08332268 0.0200476
0.24681216 -0.24156313 -0.20298742
-0.13884057 -0.13753141 -0.035818513
0.22786103 -0.02104635 -0.045201194
-0.16806825 0.13161536 -0.017679736
-0.11372314 0.17143743 -0.11515383
-0.19356611 0.14495867 -0.0005463945
-0.15870768 0.14127535 -0.06559369
0.2669698 0.017821178 0.19914691
-0.08117569 -0.036295015 0.08340168
0.15072443 0.03159384 0.060721766
0.17500167 -0.054207724 0.18122889
0.08921422 -0.29012617 -0.03339326
-0.040820327 0.23663159 -0.11574835
0.024596876 0.14843969 -0.11685942
-0.013984368 -0.23009937 -0.08610618
0.10833598 0.10643443 -0.017045451
-0.07014143 -0.02590645 0.014292729
-0.13961877 -0.18345557 -0.040446468
-0.105083704 0.23460267 -0.103561394
0.008229111 -0.09861481 0.11237761
-0.21725868 -0.052444123 -0.107020594
-0.05451701 0.019759504 0.018717948
0.020167936 -0.2500291 -0.08140198
0.22511308 0.0875166 0.050888393
0.26278454 -0.19520354 -0.076457605
-0.1434994 0.040338296 0.012586239
-0.07465824 0.012310412 0.04549299
0.13524494 -0.071996264 0.15329105
-0.24797787 -0.25285316 -0.008532111
-0.010994145 -0.27931666 -0.07084677
0.08819904 0.07613025 0.0015022148
0.03395109 -0.25298175 -0.011286713
0.04837357 0.086883254 0.021785632
-0.07260279 0.21040343 -0.10743331
-0.04723342 -0.18852992 -0.11312922
0.2701028 0.04049635 0.043705378
0.055617105 0.046604883 0.002591722
0.10028356 0.027999682 0.023990411
-0.1801378 -0.101411365 -0.04605467
-0.030481007 -0.22217697 -0.038542096
-0.05616741 0.055509936 0.030523766
-0.0088013355 0.09895545 0.030071488
0.20196477 0.019939857 -0.018577464
-0.07005027 -0.0037329763 0.07611874
-0.09664089 0.033347435 0.053537026
-0.1321312 -0.02178739 0.022487286
-0.2133127 -0.21774971 0.023207484
-0.048284553 0.0037057619 0.081406824
0.08628187 -0.11130025 0.12218029
0.011210775 0.25373802 -0.056541506
-0.17120585 0.2334319 -0.100993656
-0.1617658 -0.05139724 -0.058152523
0.25206918 0.08796101 0.031751174
-0.0037562356 0.25408828 -0.12557842
0.023974556 -0.12335479 0.01846333
-0.09270062 -0.03973273 0.08287744
0.20907672 0.11781594 0.007266103
-0.07591557 0.11674366 -0.10364475
0.17529157 -0.112509064 0.03232083
0.109983966 0.06938898 0.030681292
-0.23202495 -0.28575012 -0.053552162
-0.0565494 0.11105522 -0.2214112
0.12468505 0.117213264 0.028332135
-0.042873338 -0.15316816 -0.045135602
0.14222167 0.097556286 0.04909127
-0.15603127 0.118077315 0.004996483
0.022464538 0.10941761 0.014004413
0.11953395 -0.13801554 0.09965841
-0.09560341 -0.07646988 -0.023250664
-0.07360105 0.07190512 0.05330882
0.1534053 0.06507445 0.029068988
-0.16866687 -0.029961072 -0.05229075
0.20839454 -0.14920457 0.057209376
-0.19738953 0.15038574 -0.018093564
-0.26189125 -0.12833385 -0.11840485
0.20177 0.07760589 0.06429935
-0.10056578 0.060336743 0.024245948
-0.2802245 -0.20126687 -0.06905596
0.26327777 -0.18082692 -0.056314167
0.05020526 -0.06482618 0.10841891
-0.101986736 -0.023620287 -0.05091012
-0.044671252 -0.10694899 0.10380846
-0.19558917 0.14462247 -0.08024086
-0.23644668 0.010400806 -0.050668977
-0.009745828 -0.123022184 -0.002501615
0.29512236 -0.09247003 -0.043140203
-0.23367415 -0.25577092 -0.042199526
-0.25302354 -0.030086549 -0.04050129
-0.10875667 0.20150836 -0.075846635
0.1075105 -0.08304093 0.16220589
0.00028519233 0.036599483 0.106379576
0.055614017 0.10151722 -0.21700735
-0.05904311 0.29775017 -0.17733926
0.1935291 -0.01168065 0.09060186
0.052623007 0.020147594 0.124752924
0.113871835 0.121919684 -0.06678156
0.14438726 0.014609044 0.06833066
-0.1470388 0.1098214 -0.039734073
0.0499476 -0.1290687 0.13856329
-0.011568278 0.08356114 -0.008420243
0.1796872 -0.07680497 0.18403395
0.071798794 0.25567624 -0.041883916
-0.16425377 -0.102556616 0.005905394
0.058225192 0.26005134 -0.16371654
-0.031933524 -0.16019514 -0.08267661
0.1306617 -0.11293202 0.14471811
-0.15872905 -0.010144379 0.019033061
-0.13137782 -0.067975126 0.026514862
0.039479632 0.05692548 0.10807987
0.19415113 -0.2072626 0.10729691
0.14095806 -0.017685235 0.1801124
0.029608645 0.057118155 -0.23005484
-0.11014296 -0.06897874 -0.0053628506
-0.15773614 0.18483743 -0.09763209
-0.04619507 -0.06286585 0.005582347
0.029052867 -0.25795174 -0.008686692
-0.14748186 -0.08001108 0.019478071
-0.12237671 -0.14201777 -0.04312226
-0.107741915 -0.12982912 -0.0017347991
-0.18312877 -0.06188027 -0.15956306
-0.09161092 -0.024493024 0.033078726
-0.02365423 -0.19032606 -0.04717401
-0.25240725 -0.20551315 -0.03299506
-0.17737496 0.056606926 -0.020214543
-0.13857335 0.3019364 -0.11164344
0.24534516 0.058697477 0.08934968
-0.03607082 -0.24289928 -0.06866102
-0.00042504928 -0.004568278 0.08906335
0.14813057 0.08152174 0.010227187
0.11540509 -0.21500742 0.13718887
-0.11810137 -0.036204807 0.055188946
-0.11920373 0.14018777 -0.12689617
0.22652748 -0.18873961 0.21374184
-0.23308276 -0.113517046 -0.109427676
0.06719215 -0.089072056 0.17318758
0.058571286 0.026953548 0.028103648
-0.14870693 0.16321333 0.030057821
-0.16656314 0.13617583 0.026761012
-0.1830158 -0.16979253 -0.07782562
0.07464473 0.10353164 0.07552813
0.16675572 0.20906718 -0.004539816
-0.20142365 0.020832883 -0.0111000575
-0.15218201 0.26917475 -0.15528247
0.120175615 0.20759676 -0.07932754
0.22662055 0.013612993 0.05153141
-0.21962829 0.005565771 -0.062426385
0.13563435 -0.15388131 0.12510544
-0.06855046 0.24566297 -0.059809227
0.014871107 -0.23014589 -0.016802603
0.20309536 -0.05633573 0.07432631
0.14995068 -0.031493146 0.1103609
0.08241007 -0.06628421 0.16352302
-0.04754241 0.27274558 -0.097332254
-0.05965694 0.28754807 -0.060506374
-0.10252134 0.15816416 -0.055002976
-0.22851215 -0.240167 -0.06468628
0.19934595 0.023836182 0.17819229
0.07692313 -0.11463601 0.12233398
-0.119854964 0.115541846 -0.017940817
-0.06956123 0.062399026 0.10428697
0.22862813 0.00019041778 0.084104635
-0.03550601 -0.1565642 0.025151672
0.07228887 0.07295054 -0.014877331
-0.091840155 0.08705282 -0.12869564
0.24829023 0.037444122 0.090373985
0.055522803 -0.29350796 -0.008339791
0.1875726 -0.06922675 0.04148198
-0.10765057 0.02610273 0.069433995
-0.0920469 0.11456904 0.006611872
-0.1297368 -0.21564804 -0.103069305
0.013108913 0.109089404 -0.24030985
0.21103089 0.022797495 0.109156854
-0.24639563 0.25110227 -0.10968165
-0.22497384 -0.24681163 -0.06404385
-0.1272777 -0.007686017 -0.011523465
-0.19320704 0.12243947 -0.063661054
0.15512292 -0.010314031 0.07116996
-0.06286233 -0.1383243 -0.0705555
0.115462445 -0.026112113 0.17281191
0.07167187 -0.13950874 0.10693408
0.18318242 -0.12655976 0.24999093
0.2401208 -0.052448757 0.129809
-0.21929525 -0.22259225 -0.15039398
0.12671226 0.20208797 -0.040330302
0.17824975 -0.15484378 0.09322758
0.17404354 -0.0082382765 0.05492423
-0.079858124 0.2683346 -0.12804683
-0.22217834 -0.13032873 -0.14091223
-0.2311267 -0.084636636 -0.09154745
0.13688411 0.045735847 -0.023780089
0.1910259 -0.13626854 0.22611089
-0.24252783 -0.21149038 -0.014159676
0.1058913 0.093105584 0.035074387
0.10631868 0.1785005 -0.07436183
0.071756534 -0.024694603 0.1422673
0.17908481 0.23006599 -0.05021569
-0.02262383 -0.046259224 0.06509122
-0.22572485 0.16924101 -0.09296895
0.1408869 0.00047350218 -0.0032424857
-0.18764819 0.31902117 -0.089218974
0.12577651 -0.0482185 0.18126063
-0.06456156 0.06365698 0.057618674
-0.06976245 -0.20835195 -0.10244169
0.06596905 0.23725304 -0.12691844
-0.1924029 -0.053785995 -0.02210071
0.09955902 -0.02671655 0.13709465
0.045037106 -0.08332775 0.11555421
0.0625164 0.042834885 0.03626145
-0.011407522 -0.25969428 -0.0032788778
-0.19021557 -0.12639089 -0.010702781
0.009428986 -0.17108846 -0.07785387
0.017360296 0.22169669 -0.005246336
-0.1386994 -0.14809518 0.016450021
0.05265715 -0.112079345 0.124621816
0.052478254 0.11602152 -0.10724995
0.04411242 0.23618275 -0.05233206
-0.11459271 0.2539213 -0.15693793
0.13572808 -0.2072171 0.14248018
-0.2538174 0.026169179 -0.12167361
0.22288057 -0.029307973 -0.012516351
-0.12510717 0.03272863 0.09932042
0.301278 0.0009976627 -0.011063404
-0.25064334 0.047113597 0.003820926
-0.20244871 0.21080315 -0.03049079
-0.23820001 -0.113234974 -0.18284397
-0.13747399 -0.0958183 -0.052291907
-0.09609724 0.18956617 -0.1473429
-0.016083317 0.18968089 -0.14642851
0.13393582 0.0039705145 0.0787858
0.2060012 -0.19875894 0.067510076
0.2002392 -0.16190526 0.034782566
0.103273384 0.22937283 -0.1392648
-0.26562113 -0.2752484 -0.09868002
0.055569466 -0.036857303 0.12255814
-0.10235562 0.31578445 -0.08746902
0.08896032 0.2434718 -0.046713643
-0.10036212 0.12728287 -0.08730713
0.11322057 0.0039455206 0.17099082
-0.049255848 0.14036547 -0.10946656
0.3140788 0.014164656 -0.08900593
-0.02118323 -0.09685543 0.07531701
0.26965743 -0.17408422 -0.06608583
-0.18546084 -0.099528715 -0.12184535
-0.100614965 -0.124540985 -0.055759877
-0.11754827 0.26890412 -0.14560431
0.01911321 0.11970717 -0.024485929
-0.061725743 0.27347794 -0.0860911
0.16490796 -0.22915427 0.11806034
-0.27185422 -0.030298177 -0.022138914
0.03689511 -0.072659545 0.0008561818
0.11705144 -0.15489031 0.20551363
-0.0519744 -0.24364497 -0.057412174
0.01044964 -0.14612375 0.07729482
-0.1475769 0.33421567 -0.17325583
0.028585022 -0.0840065 0.075508304
-0.21965492 -0.03417517 -0.087034546
-0.04165733 -0.031990968 0.1021204
0.04546992 -0.045907978 0.14174831
0.0357595 0.22012486 -0.142155
0.17309663 0.13378681 -0.06548057
0.052448902 0.22655779 -0.060740698
-0.25097954 -0.19785957 -0.15415472
-0.0041488335 -0.09378843 0.07758082
0.031799536 0.16072808 -0.09631158
-0.09743881 0.2339497 -0.09696805
0.17119096 0.01685109 0.012690469
-0.00090246584 -0.014799686 0.08649157
0.20721203 0.09069226 0.101426266
0.13758954 0.07554853 0.012919501
0.09757593 -0.21829373 0.090658344
0.03637453 -0.1620432 -0.02706389
0.030857272 0.12455172 0.059490692
0.04078622 0.21414603 -0.10218148
0.013413982 -0.19388692 -0.049920496
-0.06913308 0.008196716 0.11107764
0.092133045 -0.123952374 0.12258408
0.0603753 0.111499265 -0.13381042
-0.21495612 0.24924654 -0.12235495
-0.2210834 -0.12399904 -0.034064367
-0.22389767 0.21788886 -0.1432661
-0.29373184 -0.19708762 -0.1207656
-0.02763458 0.038862053 0.058162373
-0.24701834 -0.21831052 -0.06526186
-0.044394005 -0.110849425 0.039592024
-0.27324304 0.09821918 -0.042875778
-0.15464833 -0.17152819 -0.11570514
-0.18380436 -0.20730393 -0.00033204426
-0.049919024 -0.032994732 0.046611786
-0.21192189 0.22727846 -0.12694299
-0.15989833 -0.13220245 -0.06695484
0.15094286 -0.013860216 0.15791838
-0.06813998 0.030572869 0.033590265
0.040776685 0.039329696 0.0758423
0.051512178 -0.17404863 -0.013019739
0.204389 -0.17861946 0.18045592
-0.17612486 -0.029756581 -0.105305225
-0.018958088 -0.28064 -0.034196317
0.025302174 0.19476481 -0.09780765
-0.063768856 0.2642601 -0.09803905
0.17789914 -0.11561852 0.14422266
0.12121717 0.048653297 0.06562975
-0.0026668778 -0.12457298 0.052456796
0.05911713 -0.116086744 0.10988696
-0.16087228 -0.1566149 -0.020536525
0.1549175 -0.050150607 0.04830586
0.0246082 -0.22059311 -0.014223824
0.14315951 0.10343822 0.048659902
0.00830952 -0.09895123 -0.0024349983
0.24728717 -0.08382962 -0.12481215
0.12390572 0.19361816 -0.050490152
-0.014824612 0.064478904 0.05770676
0.028544474 -0.1809177 -0.02897952
-0.11947636 -0.10046041 -0.02932231
0.17418371 0.08366168 0.0065458245
0.07616996 0.24300325 -0.115326956
-0.15581633 0.11168311 -0.13464125
-0.16900393 -0.17425959 0.018478818
0.07508273 -0.23077992 -0.068503655
-0.11816987 -0.15992808 -0.07397637
0.03593133 0.07657247 -0.14536113
-0.15260196 -0.2059632 0.005670832
-0.2330768 0.19819546 -0.15933283
-0.20402522 0.20136455 -0.067232944
-0.16283098 -0.12645729 -0.0059220595
0.21431322 0.057539124 0.029293869
-0.2896351 0.14670207 -0.03380068
0.16158974 -0.20284128 0.2232408
0.014780746 0.0893066 0.07988876
0.15068853 -0.00036878887 0.09550449
0.045268424 0.06528633 0.046593953
0.006620689 -0.04822816 0.10050258
-0.21937047 0.2173599 -0.1234779
-0.012463059 0.21625292 -0.064912766
0.08177929 -0.12175114 0.15880893
0.0023370665 0.27854365 -0.1172555
0.14630705 -0.021532372 0.13033557
-0.07102219 0.1093908 -0.097657755
-0.18770961 -0.10987282 -0.006325157
0.034418624 -0.037709698 0.13629949
-0.008846997 -0.021272674 0.08374213
-0.029701993 0.034793466 0.058025938
0.090420984 0.12689738 -0.023116052
0.16406648 -0.034346502 0.07333222
-0.07830694 -0.15199584 -0.067855686
0.19116467 -0.12821326 0.17299023
-0.14780894 0.18300045 -0.0733494
-0.1437296 0.09753008 -0.019332493
0.21868442 -0.09463716 0.26448452
0.21772121 -0.17201464 0.20059125
-0.007004978 0.18808395 -0.14656869
0.02167423 -0.17412274 -0.099369325
-0.050600197 0.24624085 -0.14373107
0.18529783 -0.18130444 0.1307931
-0.043396693 0.008221068 0.04767155
0.21549676 0.04517502 0.10514564
-0.14137724 -0.14800541 -0.025758548
0.11790619 0.1348832 0.027737647
0.2672351 -0.2172829 0.09971254
0.080516726 0.012000507 0.15045926
0.25745836 0.13057563 0.080893405
0.08252504 -0.20481783 0.10176534
-0.0390149 -0.2695427 -0.011986167
0.14206374 -0.12447301 0.17425613
-0.108620815 0.22726393 -0.10006889
0.19728844 0.14087772 -0.08032502
-0.08676551 0.31075954 -0.14961791
-0.12192843 0.3244208 -0.079237156
0.025365554 -0.097690575 0.10654549
0.08359925 -0.06805759 0.18930799
-0.21990712 -0.11813967 -0.09224857
-0.20965129 -0.21462099 -0.07875886
-0.032547057 -0.23164412 -0.092302516
-0.09548976 0.27990463 -0.12366423
0.079228334 0.02828801 0.024408974
-0.20529695 -0.10224575 -0.17935738
0.2143573 0.050008126 0.018008286
0.06379788 0.062279224 -0.0032012488
0.16865408 0.034686074 -0.0070402967
0.13033108 -0.022788582 -0.010832475
-0.18170215 -0.037780114 -0.15935966
-0.016876012 -0.09971902 -0.0007584771
0.09623685 0.27688497 -0.074221216
0.23605213 0.0907423 -0.081114724
0.05017873 -0.027586289 0.0028030104
-0.06276543 0.33628988 -0.15802363
-0.17176038 -0.12516522 -0.08737765
-0.06461743 -0.04054204 0.06310037
-0.1307815 0.2141548 -0.042498674
-0.035291128 -0.24670708 -0.10274863
0.109266296 -0.09100582 0.11285058
-0.09519264 -0.10594029 0.04258216
-0.33454287 -0.21548337 -0.159164
0.06454843 0.2116958 -0.11575444
-0.010195949 -0.18910556 -0.06814753
-0.17199787 0.04195867 0.05833439
-0.12600453 -0.12478208 -0.032016978
-0.030555151 0.054869134 0.011555723
-0.22384699 -0.14511016 -0.16528355
-0.16401513 -0.14923339 -0.005401068
-0.10913664 0.18886413 -0.074017756
0.016693396 -0.026036693 0.08674848
0.22877349 -0.007951541 0.15404962
0.19082771 0.13433753 0.0013233938
0.02316424 0.12444612 -0.060325425
0.12782437 0.055625334 0.028847532
0.09586463 0.12783147 0.007911784
-0.05912543 -0.1148271 0.009416474
-0.2116344 0.14775573 -0.06414523
0.24713254 0.08227518 0.10572507
0.22981632 -0.06627593 0.1868965
0.19774112 -0.2520551 0.013602698
-0.021650216 0.08403529 -0.021766368
-0.11074448 -0.086072996 0.0032289298
0.11770301 -0.10933523 0.13174392
0.21236292 -0.055697713 0.20875424
0.2652617 -0.033814088 0.14870068
-0.010412213 -0.15942118 0.09495495
-0.20776454 -0.117912844 -0.0820824
0.25866014 -0.16265087 -0.13444363
-0.07177232 0.28334343 -0.14327136
-0.33535329 -0.15358117 -0.108423345
0.24130513 -0.22065187 0.16590548
-0.18748832 -0.007987488 0.02850967
-0.10580559 -0.135599 -0.09180281
0.16654815 -0.06172682 0.17375727
0.25624973 0.04874198 0.1406548
-0.109332405 0.09577704 -0.08588962
0.119438514 -0.11118425 0.16716324
0.107572205 -0.1662642 0.15493168
0.22588883 -0.054971255 0.23346454
-0.14604636 -0.21576402 -0.104960516
-0.24032366 -0.18732624 -0.0669258
-0.13387051 -0.23100206 -0.09348007
0.11839309 -0.15513079 0.21786945
-0.16210164 0.012006809 -0.0024608325
-0.0962597 -0.023775857 -0.04053984
-0.2020296 0.09927838 -0.038476314
-0.043752115 0.2171 -0.06872529
0.22616827 0.07084145 0.080875315
0.0607636 -0.050557375 0.07150967
-0.01426416 -0.10488416 0.020612182
0.06001188 -0.0145612825 0.048889823
-0.061468173 -0.12661585 -0.06075243
-0.060903784 -0.05480356 0.10262351
0.049032953 -0.08163077 0.10912997
-0.09396232 -0.07174616 0.033460133
0.053562354 0.14083727 -0.029032007
0.0050106896 0.15665713 -0.103754684
-0.11398904 0.12181023 -0.056767933
-0.028716475 -0.1437733 0.084776275
0.049989037 -0.07895847 0.13895941
-0.026845263 0.27235365 -0.15280992
0.19583191 -0.051948175 0.18944786
0.16418153 -0.08706013 0.24093974
-0.052896272 -0.03812563 0.031889107
0.21627115 -0.12277325 0.2392144
0.024340458 0.03123309 0.01724288
0.1461446 0.07589555 -0.017091578
0.11336139 0.26107123 -0.0859357
-0.08952097 0.13420281 -0.108195655
-0.20861451 -0.04185035 -0.12113116
0.053401258 0.1086231 0.040551987
0.07499043 -0.22054185 -0.0030822942
-0.037539035 -0.17889866 -0.049578752
0.20280227 -0.12386617 0.19344433
-0.28948382 0.14069028 -0.036032706
-0.054083396 0.154974 -0.08475241
0.04478941 -0.06373421 0.09809574
-0.16866615 -0.19719756 -0.08666039
0.1705915 -0.0017614949 0.17778671
-0.18454653 0.22349486 -0.056859102
0.06425842 -0.2779278 0.0006402679
0.24299347 -0.25904784 0.04113911
0.033737835 0.0706915 0.06754658
0.011733299 0.20252629 -0.05787167
0.02720954 -0.25249112 -0.053377934
-0.153065 0.1028016 -0.27304995
-0.16245024 0.2726378 -0.12851012
0.13458548 -0.06039011 0.1500044
-0.23839673 0.07383526 -0.030841425
-0.17147249 0.20601554 -0.10218976
0.1592466 -0.09275422 0.24776746
-0.0408195 0.009661935 0.11689536
0.009559796 0.03675295 0.07013886
-0.21144614 -0.2115877 0.0029087712
0.26118806 -0.27924627 0.08064646
0.17248203 0.15500206 0.07487887
-0.04499786 0.036213838 0.048075598
-0.18502057 -0.030763038 -0.08496434
0.09772091 -0.19111753 -0.058861867
-0.17092974 -0.07628922 0.0004234803
-0.2111006 0.029426983 -0.11169457
-0.04068536 0.09052265 -0.033078603
0.19950746 -0.2201802 0.15457441
0.21073468 -0.013623893 0.22145785
-0.10471537 0.11226704 0.02587642
-0.12998232 0.21661608 -0.0732494
0.2534519 0.09352411 -0.00013115014
0.19031198 0.08980293 0.016497547
0.17010301 -0.04207057 0.18561848
0.02826333 0.055188198 0.0463925
-0.18860927 0.17291847 -0.085256614
-0.040012676 0.2918468 -0.083212554
0.0080405185 0.2852849 -0.11563865
0.06836351 0.06014026 -0.24002938
-0.15341419 0.20673142 -0.13623017
0.20743236 -0.12528262 0.100058846
0.124151856 0.025786025 0.088873476
-0.15568158 0.25049874 -0.09990922
0.22535595 -0.08552372 0.24185367
-0.12131279 -0.25834295 -0.1037292
0.087950416 -0.030949367 0.068374395
0.19285816 0.11225536 0.016669417
-0.028773345 0.08306474 0.02596286
-0.0019059867 -0.060301743 0.06744169
-0.110176556 -0.098805495 -0.09247138
0.028766522 0.1829392 -0.02266023
0.15636954 0.10064026 -0.05034166
0.020334898 0.06393027 0.07832723
0.14238037 -0.19119823 0.050510637
0.00094249606 -0.0015713001 0.039514586
-0.29710552 -0.1363472 -0.17716192
-0.00990692 0.14854535 -0.065768056
0.25621387 -0.16472115 0.06181641
0.18364146 -0.122908026 0.16994901
-0.114845544 0.0782265 -0.060276914
0.03286654 -0.13316499 0.0943721
-0.06993281 0.057896994 0.026766323
-0.23427847 -0.20525847 -0.046210706
-0.016806666 0.031697802 0.076938674
0.15064186 0.042241767 0.041879002
-0.13004345 -0.013574149 0.05129721
-0.08558392 0.26851305 -0.14668831
0.14774251 0.1162874 -0.029383102
-0.11049879 0.17994162 -0.11946225
0.21018231 0.06725767 -0.03363973
0.024647133 -0.20982596 -0.055233907
0.23452193 -0.249656 0.10917276
-0.26960474 0.09766479 -0.018545488
-0.062018875 -0.20749874 -0.09651359
0.0900118 0.0026686792 0.12713933
0.12300345 0.02645343 0.050372154
0.1106352 0.037553933 -0.0007319375
-0.19285071 -0.11556724 -0.048132237
-0.04736289 0.21834254 -0.13880168
-0.050372057 -0.00787227 0.0887059
0.0720458 0.043919038 0.0140168695
-0.15157765 -0.029329078 -0.044664215
-0.0008126556 0.08762304 -0.07542101
-0.08758071 0.062914036 -0.050330937
-0.036865786 0.19514573 -0.07217649
-0.03994773 0.16277151 -0.072597556
0.012622494 -0.16542329 0.08777884
-0.032193933 0.17107798 -0.14268275
0.2695435 -0.16797565 -0.116175935
-0.17402978 -0.10067522 -0.061989736
0.21951573 -0.26964012 0.18507865
0.0017059589 -0.22203308 -0.026008017
0.19021614 -0.22479218 0.027014943
-0.0143527165 0.24465913 -0.11919251
0.11862159 0.009586623 0.025794683
-0.06097022 0.046536475 0.08638112
-0.09889953 0.23828867 -0.15465665
-0.031184975 -0.019712199 0.08298357
-0.18344116 0.025892809 0.05072312
-0.12360749 -0.17461108 -0.01805718
0.018862152 0.2807246 -0.12215149
-0.18558683 -0.15779531 -0.02105919
0.024355408 0.09951815 0.07093691
-0.04252115 -0.012073839 0.083937585
-0.08155821 0.3173171 -0.10480029
0.07736887 0.29891047 -0.042545542
0.11946372 0.14688405 -0.036715917
-0.23406252 0.0806562 0.015506332
-0.1345498 0.036333226 0.026352407
-0.1628018 -0.05757568 -0.023082787
-0.13227604 -0.12898621 -0.0825241
0.14270023 0.15914677 -0.013468756
6.910862e-06 -0.20080541 -0.03759898
-0.1683955 -0.24466619 -0.06994734
-0.11734352 0.24580161 -0.06206155
-0.10800168 -0.1331617 -0.037633117
0.09403202 -0.019384596 0.06780054
0.2638262 -0.15612347 0.19837761
-0.156244 -0.031719554 -0.041852802
0.038226437 -0.18025513 -0.04349267
-0.09765008 -0.06948508 0.10162093
-0.23548408 -0.18252511 -0.15003671
0.22348475 -0.07740512 0.20314185
-0.14102988 0.1535466 -0.005834656
