# .PCD v0.7 - Point Cloud Data file format
VERSION 0.7
FIELDS x y z
SIZE 4 4 4
TYPE F F F
COUNT 1 1 1
WIDTH 1000
HEIGHT 1
VIEWPOINT 0 0 0 1 0 0 0
POINTS 1000
DATA ascii
-0.037669685 -0.09221462 -0.08702783
0.12209881 0.13879609 0.07842146
0.08425894 0.076419964 0.18407077
-0.17733347 -0.06113071 -0.210234
-0.12421509 0.23734002 0.12903024
0.23429686 -0.10788869 -0.116584264
0.23453619 -0.21751472 -0.09456773
-0.10810053 0.13714296 0.12887333
0.08360842 0.07047944 0.18394895
-0.0980129 -0.0035682416 0.06793733
0.15176211 0.10552712 0.070881225
0.23288892 -0.18865283 -0.12909031
-0.18033104 -0.040174216 0.020123646
0.0804708 -0.044337526 0.036951277
-0.04765981 0.07014956 0.15384002
-0.23320368 0.009243793 -0.1839532
0.050340686 0.13573869 0.16426058
0.10398394 -0.20962852 -0.14246131
-0.086694635 -0.0033199196 0.10463158
0.15926577 0.17992999 0.03138907
0.07471395 0.0071996395 0.17046425
0.114777826 -0.19665772 -0.03312954
0.012432239 -0.117278896 0.13531086
-0.026173143 0.17750327 0.11059486
0.12249915 0.17319784 0.15072443
-0.004908625 0.19448261 0.1149136
0.10889416 -0.08422705 0.014561252
0.13570626 0.060379058 0.17630647
0.08772196 -0.14437757 -0.12193007
-0.17234646 -0.018924102 0.01401941
0.080723226 0.10178444 0.1966163
0.0048996937 0.051604368 0.13088582
0.18801188 -0.106101505 -0.13345125
0.17929398 -0.018352611 0.08111265
-0.005308833 0.1921292 0.18923706
0.2741975 -0.21085674 -0.09936906
-0.13062765 -0.10107357 -0.08255555
0.09516898 0.10032059 0.13999738
-0.14673162 0.124445245 0.11468075
0.18066879 0.15924297 0.078353405
0.10034366 -0.072483264 -0.03371176
-0.05719685 -0.048731945 0.15483533
-0.16689546 0.024317775 0.0049030767
-0.0653163 0.02484606 0.06425246
-0.17467101 0.24273048 -0.034284372
0.027491469 0.14489104 0.16788657
-0.1314483 -0.01259095 0.10850649
0.025220077 0.029662266 0.16253679
-0.0671209 0.1236313 0.1541122
0.20409535 0.038007878 0.047503196
-0.12236615 0.12287102 0.116518624
0.09095962 0.028982751 0.055894446
0.10182632 -0.026527919 0.10137558
-0.21294443 0.00616343 -0.0033556207
0.2263874 -0.21372835 -0.15112932
0.1272674 -0.11203117 0.023658577
-0.08645993 0.10011019 0.1611056
-0.19239895 0.18037032 -0.052596323
0.11480199 0.007348294 0.007390908
-0.1438419 -0.091145255 -0.26063854
0.14826249 0.1651024 0.09368481
0.112618044 0.08982348 0.1549483
0.10624345 -0.07220079 0.02647179
0.25008687 -0.15399191 -0.13437538
-0.057521347 -0.055176273 -0.07306479
-0.076122455 -0.11665121 -0.38431075
0.017072873 -0.08125652 0.23490573
-0.012667158 0.15769006 0.2051134
0.25078762 0.025947977 0.008238533
-0.21898533 0.015202473 -0.0869818
-0.015859276 0.11567059 0.1291372
-0.21611619 -0.051143996 -0.06639229
0.28614703 -0.20566888 -0.049995467
0.20871827 0.030062169 -0.025120478
-0.16845989 0.022835128 -0.08987522
-0.10851766 0.18732677 0.07439083
-0.11840718 -0.047097053 -0.02732687
-0.1529817 -0.048591692 -0.4041225
-0.090445645 0.0635625 -0.4308478
0.05822953 -0.05442841 0.14708464
0.062291622 -0.10570776 0.029925328
0.23208436 -0.10980701 -0.18530054
0.012043159 0.01034081 0.11247876
0.036449395 -0.12121152 -0.13848849
-0.056768533 -0.021882126 -0.12179919
0.082392104 0.0065584895 0.115976475
0.17520998 -0.2027253 -0.04303093
0.07466711 -0.19074333 -0.12937042
-0.18600073 -0.10774132 -0.37596884
-0.28090358 -0.16302426 -0.2749767
0.036378976 0.21311125 0.18246454
-0.06011054 0.13557611 0.09752545
-0.13292097 0.1956925 -0.025843972
0.1481307 -0.098150134 0.03490485
0.2068837 -0.16511041 -0.017701585
0.09408294 0.04971929 0.14248112
-0.12191753 -0.10755359 0.050952453
-0.04932542 0.19973858 0.10618604
-0.26800132 -0.02275505 0.044528514
-0.024524136 -0.12805906 0.12316777
-0.12904136 -0.06858787 -0.42368105
-0.009048766 0.08834728 -0.4194476
0.09977195 0.11271928 0.15646565
0.13395934 0.025143683 0.14111975
-0.18644416 -0.059055943 -0.19482654
-0.0790526 0.17116763 0.18531199
0.14429477 0.088530384 0.12535699
-0.17420095 0.12257795 0.0910871
-0.047056925 -0.07673804 -0.4821374
0.12454545 -0.19267812 0.033874847
0.26727998 -0.21920371 -0.13512349
0.19240882 -0.04516135 -0.036822155
-0.09735332 0.0660168 0.1262359
-0.041109722 0.082456455 -0.38606712
-0.27867308 -0.17081448 -0.18302937
-0.0012213703 0.13001075 0.09698359
-0.07139967 -0.14180025 -0.15158777
-0.046502016 -0.06564171 0.16799027
-0.15655124 0.12087805 0.06842122
0.13301642 -0.093463376 -0.04915015
0.1632789 0.08686383 0.09656404
0.026252743 -0.0060603204 0.17445914
-0.077163644 0.054456044 0.15631218
0.08535326 0.050315276 0.10213525
-0.108682476 -0.028766818 -0.01054132
0.032479845 0.13862611 0.12710612
-0.0822136 -0.04513473 -0.1144318
-0.03816636 -0.041744895 0.24451706
0.039026797 0.09389701 0.16672815
-0.27408737 -0.10274543 -0.23907273
0.037417952 -0.005184965 0.10471533
-0.022187179 -0.0060923765 -0.11082968
-0.09215333 -0.020027421 0.069002755
0.14966111 -0.11443771 -0.0054846704
-0.059291728 0.080517195 -0.41994444
-0.25339302 -0.16423626 -0.23793538
0.048876405 0.09202364 0.16253793
0.20521395 -0.027049959 -0.00097512215
0.05945447 0.06600509 0.16092123
0.015457939 -0.052966557 0.109669484
-0.20078196 0.012759383 -0.27325773
0.14250734 0.09381431 0.15420477
-0.0858647 0.083031036 0.12807454
0.09100189 -0.116883546 0.08578669
-0.08257586 -0.11129295 -0.3778794
0.055545397 -0.03321451 0.07614625
0.16349234 -0.16395907 -0.0018769471
-0.18297012 -0.07515411 0.027787423
0.04540594 -0.094418615 0.24548864
0.18344297 -0.08593811 -0.08474543
-0.28031012 -0.068292975 -0.20021704
0.11029407 -0.070518285 0.10117498
-0.0567485 -0.085221775 0.16380388
-0.11112019 0.100225955 -0.38851678
0.12152003 -0.022225952 0.012790648
-0.17408262 0.053801585 -0.006267409
0.11503821 -0.10984551 0.06672809
-0.053774927 0.00030168524 0.15677425
0.15634552 -0.1393048 -0.08284821
0.19993119 -0.2182435 -0.20476685
-0.15950555 -0.049073078 0.014483216
0.1703972 -0.1292146 -0.013389761
-0.048899554 -0.099206425 -0.13392706
-0.0061457544 0.081439674 0.0916102
0.01781731 -0.21154611 -0.20588042
-0.039715596 -0.025000831 0.1613107
-0.08117846 -0.1059954 -0.08553442
0.11352907 0.13595842 0.13853395
-0.18047486 -0.10299945 0.06422903
-0.050318412 0.1904378 0.10556025
0.13191079 0.047963597 0.19061126
0.13772488 -0.115065925 -0.008009931
-0.0014733868 -0.10616892 -0.16531472
-0.03510501 -0.1564775 -0.3114269
0.13278686 0.12325149 0.1133988
0.069148235 -0.0028774864 0.09231289
-0.13519803 -0.10879886 -0.009805148
0.15575057 0.105424926 -0.0051131793
0.047808953 0.17818634 0.14646098
-0.17110556 -0.064585105 -0.3154961
0.16272917 -0.07730377 -0.015356205
0.0049356753 -0.05352777 0.21242282
0.19377477 -0.086412825 -0.058189183
0.057838477 0.078839906 0.17065498
0.17840326 -0.18097307 -0.081141666
0.11776005 0.041776393 0.1372669
0.13593316 -0.15523228 0.010134503
0.12939714 -0.093575135 -0.011030798
0.18657666 -0.16506203 -0.056754842
0.019142805 0.0019092945 0.10542898
0.18023914 0.1125427 0.07021378
-0.02503505 -0.068736285 0.12931196
-0.06111449 -0.047483884 0.074562825
0.120050885 0.0048994375 0.08939157
0.10995387 0.13995981 0.1950514
-0.031455856 -0.02831076 0.13757536
-0.16691743 -0.040905792 0.09478677
-0.0075751594 -0.08252462 0.1847676
0.106794365 -0.024374606 -0.016803542
-0.1666746 -0.15960273 -0.25538877
0.22688502 -0.21777923 -0.09273879
-0.12127255 -0.07997888 0.08037034
-0.060288593 0.00058064 0.07869177
-0.04900705 0.21310517 0.10173608
0.0987475 -0.08212617 0.120984085
0.17117077 0.0750867 0.12491628
0.11567443 0.15968408 0.117347054
0.22398855 0.12637608 0.055144023
0.11704282 0.15854563 0.06835351
-0.2740299 -0.07112217 -0.253115
-0.06103603 0.081016 0.12864469
0.102737434 0.0137407305 0.0071932725
-0.09702327 0.19576997 0.116164915
0.17589991 -0.16981368 -0.121131994
-0.04101062 0.081272356 0.106949404
0.13801654 -0.009878843 0.09136936
0.071692705 0.18537138 0.18139651
-0.11021953 0.07691523 -0.05229792
0.23556615 -0.13508517 -0.13420343
0.14548616 0.11929386 0.13812128
0.20305952 0.15789853 0.08232884
-0.12825108 0.14724883 -0.33538222
0.12867366 -0.12897035 0.01046786
0.015852423 0.114924826 0.214053
0.020809067 -0.17779288 -0.20974715
-0.15998873 0.121323675 -0.23371935
-0.19459367 -0.07015879 -0.20978561
0.093988575 0.08420815 0.12052778
0.022613097 -0.029466713 0.12151395
-0.26822934 -0.026527232 -0.24083273
-0.13083993 0.19290337 0.045346294
-0.05185831 -0.037404846 0.15067288
0.020041402 -0.045875058 0.25422665
-0.1379775 -0.060785905 0.13860579
-0.024960399 -0.12664565 -0.16695155
-0.036140084 -0.14062195 -0.27905557
0.16068883 0.09726657 0.076683134
-0.025825623 -0.06127876 0.201409
-0.21048166 0.0012374118 0.0074589886
0.11161374 0.123286635 0.14984362
0.053174656 0.16665106 0.17994766
-0.19837411 -0.031270273 -0.21609452
0.041437935 0.10745946 0.19740708
-0.12300026 -0.15278043 -0.0974655
0.022417977 0.15437241 0.14528544
0.06297264 -0.129074 0.08581553
-0.027910328 -0.08956991 0.17799991
0.09032463 -0.06526618 0.05412979
0.13890597 -0.14980748 -0.10990165
0.06627356 0.09731748 0.13543987
-0.24553223 -0.06804244 0.009859595
-0.25562847 0.036375746 -0.20305192
0.106885366 -0.04729057 -0.012066151
0.12269812 -0.021299614 -0.018451564
-0.06444898 0.20167057 0.11959524
0.1717861 -0.22421591 -0.06852801
0.088698104 0.0032519852 0.07643689
-0.2531982 -0.022079749 0.0070752003
0.1839097 -0.18854621 -0.032836076
-0.1304014 0.01450374 0.06378453
-0.10170343 -0.119997635 -0.105153814
-0.21349476 -0.041679934 -0.25848606
-0.10006571 0.006777711 0.029561274
-0.0090993 0.0139077185 -0.13039397
-0.08979081 -0.041345425 -0.30089733
0.08593156 -0.14444202 -0.050764248
-0.07055929 0.068453155 0.08861679
-0.11306697 -0.023853824 0.04054523
0.080110155 0.05768985 0.21800861
0.030115893 0.1262251 0.124003224
-0.23351884 0.024025911 -0.06135982
0.0384037 0.23742509 0.11945123
-0.23004872 -0.09888336 -0.04652524
-0.017993193 0.20665634 0.14630675
0.14624773 0.1483312 0.10980877
-0.12931764 0.1471674 -0.256736
-0.16243206 -0.0020772305 -0.045542408
-0.11240254 0.08730922 0.12557797
-0.08280083 -0.009078854 0.11642865
-0.23501676 -0.028070383 -0.26326126
-0.0058997646 -0.08757381 0.24128643
0.026540823 -0.21056227 -0.28346586
-0.16031905 -0.09330472 -0.35911307
0.16790225 -0.12960804 -0.019678608
0.12590969 -0.060650486 -0.0053928127
0.047155816 0.043649822 0.11354684
-0.10175178 0.00022718127 0.12771177
0.19966193 -0.15454724 -0.08937748
0.063191384 -0.13005523 0.047478702
-0.25228056 -0.097570166 -0.28255913
-0.012841626 0.19227098 0.12959938
-0.07800488 0.2029721 -0.089810185
-0.21320964 -0.0602071 -0.2810662
0.0683475 -0.15499596 -0.012198728
0.05089656 0.14567621 0.10878316
0.07407911 0.0063909837 0.07783603
0.11305482 0.043653913 0.12049906
-0.094951116 0.23850508 -0.121375024
0.08221753 -0.09649315 -0.23923379
0.11699159 0.1677247 0.13460389
-0.15762693 0.26449692 0.0099892635
0.082211144 0.094261885 0.11977213
0.08294992 -0.17600355 -0.17107615
0.13651055 -0.03058328 0.12932238
0.068274185 0.07764759 0.09841526
-0.24727897 0.1294518 -0.19862664
-0.022027036 0.11718566 0.11209604
-0.02819374 0.037390783 0.18221273
-0.1125314 -0.0669806 0.024122605
0.28737485 -0.26671752 -0.17804351
0.041438777 0.036893778 0.15171802
0.11376928 0.15491009 0.11954392
0.10669012 0.07784148 0.18857172
-0.03259158 0.145229 -0.162724
-0.1561728 0.07964745 0.107912235
-0.26259556 -0.06885503 -0.26693213
-0.13985552 0.059509307 0.091733225
-0.036037873 -0.13392839 -0.2124217
0.17155968 0.12729825 0.10292903
0.005724249 -0.021745073 0.14122732
-0.08460972 -0.076930426 -0.111465134
-0.020335307 -0.01775797 0.16097075
0.11094461 -0.096877 0.06172979
-0.2662373 0.052883983 -0.24493816
0.027963923 0.20862268 0.12325845
0.22277802 -0.064084 -0.10454908
0.0031235581 0.14648555 0.131687
0.23012884 -0.1487526 -0.16154853
0.06505968 -0.10992591 0.23715007
-0.10537523 -0.0682079 -0.037226446
-0.093525745 0.1260785 0.10396663
0.104098134 0.01464521 0.1356174
0.025837189 0.09016054 0.1575698
-0.06810676 -0.016612338 -0.11206916
8.1652244e-05 -0.05959266 -0.16504462
0.13083698 -0.0911655 0.08707319
-0.047027305 -0.07440661 0.12989156
-0.16677678 -0.09174858 0.025343036
-0.1430208 0.042313654 0.013657081
0.12231948 0.005830725 0.11211868
-0.005536162 0.024979549 -0.48896092
-0.042963587 0.12427254 -0.07018352
-0.17949347 0.06441222 -0.08689816
-0.09964171 -0.15661448 -0.109854236
-0.1277137 -0.09874672 -0.32118824
-0.037031922 0.08106433 0.14508282
0.19426613 0.025470084 0.02520453
-0.24483554 -0.14616136 -0.23862115
0.16217175 -0.047174256 0.08422692
-0.2327869 -0.1565005 -0.2311466
-0.13397923 -0.0505978 -0.27955347
-0.025667109 0.17509004 0.17092726
-0.034087762 0.10534594 -0.3973737
0.16339871 -0.24232933 -0.035323665
0.041985326 -0.03085255 0.13219729
0.05886455 -0.013239428 0.08024403
0.07772543 0.09048426 0.12453049
0.20979376 -0.19166166 -0.096841395
-0.05487774 -0.08766544 -0.13370998
0.025709668 0.093091756 0.18092841
0.16649812 -0.15865894 -0.03971089
-0.14001358 0.014351745 0.03630287
-0.16215213 -0.11182299 -0.28365332
0.20463689 -0.21129063 -0.024329735
0.06970878 0.12071234 0.09716637
0.0014163468 -0.033340205 0.20112798
-0.20649041 0.18537691 0.06037145
-0.021267986 0.09748051 -0.10141605
-0.10235938 0.019877015 -0.34145468
-0.021815639 0.04202115 -0.4657519
0.115492366 0.12623449 -0.13094017
0.023583153 0.16857092 0.12390567
0.004797003 0.014277524 0.13141216
0.15868442 0.046553023 0.14889114
-0.13335127 0.14786792 0.056923766
-0.23183547 -0.06334313 -0.247005
0.22184625 0.080008544 0.11042738
-0.071200304 -0.083572 0.2082369
0.09637611 0.12350644 0.14429604
0.05320827 0.17022869 0.10662833
0.25392783 -0.12633829 -0.13017623
-0.10125292 0.07856378 0.19472691
-0.06898552 -0.04900351 -0.14167038
0.22031526 -0.13611203 -0.09076556
0.042569574 -0.14035067 -0.18213706
0.18522838 0.05108336 0.03563252
-0.03235422 -0.032794558 -0.07914284
-0.0839557 0.034695603 0.12983832
-0.12611867 -0.03523111 0.015435883
-0.06094629 -0.21707791 -0.25220153
0.20385538 -0.062389206 -0.03947338
-0.135046 -0.08697848 -0.02446971
0.009143422 0.026379071 0.1411961
0.18398577 0.09918087 0.13871333
-0.24455626 -0.14245276 -0.22559552
0.14928444 -0.033994213 0.01757424
0.07927163 -0.03196373 0.025754448
0.054277256 -0.1584098 -0.22586365
0.0023848058 -0.022459583 0.22837535
-0.018650418 -0.07856206 0.06440401
0.11100078 -0.22659247 -0.15505311
-0.0377869 0.07620654 0.17523818
0.095274985 0.09437214 0.21195474
0.16199529 0.101822205 0.031051047
-0.230687 -0.12122397 -0.25759283
0.17341709 0.07580313 0.02592631
0.038174447 -0.045497466 0.070672326
-0.13373767 0.16010822 -0.06544314
0.0121958135 0.11749071 0.19982089
-0.0540204 0.16884738 0.14687291
-0.13511749 0.06879431 -0.0017651285
-0.2476837 -0.15961337 -0.23521788
0.0040281718 -0.16350524 -0.22103412
-0.03102957 0.076352075 0.16767551
0.028100798 -0.056443103 0.21953505
0.15687749 0.03195922 -0.09943578
0.057086557 -0.08195999 0.08574169
0.18293169 -0.10344808 -0.07676181
-0.08594516 -0.12415773 -0.4250569
0.14668724 -0.02567293 -0.03077537
-0.23910375 -0.09448876 -0.21340086
-0.039228756 0.1501709 0.17873181
-0.16035765 -0.09382746 0.16095278
-0.2128348 0.21663322 -0.23992772
0.018659528 0.12406401 0.09779418
0.1291698 0.13347216 0.14009018
0.16839382 0.108223245 0.060461402
-0.11255284 0.14269516 0.022581594
-0.16375932 0.10019759 0.044481553
0.0688788 -0.096088424 0.1331762
-0.14284725 0.17247418 0.03824337
0.10211363 -0.052290384 0.05471398
0.009591201 -0.024922935 0.21190228
0.12646583 0.09647911 0.1040302
0.03851284 -0.115228586 0.16082539
0.043701332 -0.17654124 -0.21659514
0.070240244 0.05758785 0.17908214
-0.23925415 -0.08958581 -0.27051532
-0.037756294 -0.06730855 -0.18501325
-0.16145766 0.07628296 -0.30506462
-0.2581624 -0.050215714 0.016116746
0.062227547 -0.06910615 0.1288906
0.09456468 0.022215666 0.17467073
0.064246535 -0.17177363 -0.17870857
0.27950078 -0.18244368 -0.018412417
0.0052183657 -0.06973805 0.16869998
0.0744025 -0.015668478 0.04478947
-0.06657117 0.11112659 0.15679412
0.15393937 -0.019519169 0.03436412
0.18370591 0.08428722 0.035801098
-0.21344088 0.06529432 0.06080257
-0.06535783 -0.12280563 -0.09820894
-0.03845228 -0.14592165 -0.17572299
-0.039761256 -0.0712583 -0.3071087
-0.04588185 -0.038006324 0.19449893
0.26955262 -0.13452439 -0.18333815
-0.15426886 0.007918685 0.040297598
0.085254386 0.18989818 0.14927205
-0.013253899 0.08706253 -0.41228533
-0.07012285 -0.0525763 0.12307531
-0.21862137 0.15614572 -0.16990124
-0.13754022 0.14901747 0.0718824
-0.091014735 -0.01203793 -0.32060236
0.008741538 0.04256397 0.14040223
-0.20203513 -0.029835438 -0.25510073
0.010772962 0.055206858 0.13926019
0.07025842 -0.1448992 -0.01420697
-0.0873959 -0.054863367 -0.39464518
0.0047451267 -0.055685937 -0.17838557
0.16477178 -0.18230233 -0.13231222
0.22817741 -0.14460486 -0.069985196
-0.20686734 -0.1592187 -0.2931149
0.116606526 -0.0898921 0.010260719
0.17222407 0.042119663 0.119776495
0.06360788 0.08542392 0.20956074
0.18360579 -0.16652186 -0.059885573
0.27101988 -0.17277913 -0.10255946
-0.13570878 0.07140169 -0.1469308
-0.21249294 -0.1277945 -0.18625732
0.16512999 0.07201399 0.05135017
0.14295202 0.12212696 0.07028367
0.17483298 -0.081458144 -0.008526929
-0.115276046 0.12889072 0.07635738
-0.14176324 -0.075886644 -0.024501462
-0.22439364 -0.063623935 -0.26249927
0.1568398 0.09042332 0.12932006
0.021360386 -0.012818073 0.09247224
0.2579648 0.11153291 -0.05649829
0.13938433 -0.14427748 -0.0014527559
-0.040328275 0.18585071 0.10463369
-0.15013552 -0.01590913 -0.3093339
-0.05383641 -0.08166183 -0.4314127
0.01658779 0.045640152 0.13037035
-0.18030259 -0.14595155 -0.28604642
-0.14288913 -0.04706559 0.00047022192
0.17235316 -0.025934061 0.026828779
0.09551443 0.12392058 0.13634473
-0.1168452 -0.05750429 0.17414899
-0.23585406 -0.06367581 0.02617199
0.19425514 0.04994131 0.01040446
0.07273818 0.12818092 0.16196102
-0.16908708 -0.024944695 0.06103073
0.16587383 0.1286486 0.09247958
-0.19621284 -0.14150806 -0.24865867
0.061279412 -0.23969157 -0.23974334
-0.09975594 0.02775345 -0.033677686
-0.2105588 0.16155057 -0.17443557
0.063522145 -0.008735184 0.08680529
-0.005410097 0.026240746 0.10523328
-0.04428793 -0.07594261 -0.12076784
-0.17882727 0.05513717 -0.2249976
0.17103936 0.019651745 0.06292146
0.061091922 0.03531812 0.11570907
-0.0048225084 0.12583154 0.15072538
0.07824237 -0.0159265 0.016285764
-0.04484431 0.17627276 -0.17033286
0.0075903465 0.097626105 0.12488287
0.09943617 0.02606896 0.098954536
0.10241195 0.15010749 0.18087643
0.103576094 -0.038331993 0.12052908
-0.03223051 0.13078888 0.1621531
-0.093987085 0.04662688 0.10496068
0.10636513 0.033660453 0.19666387
0.114806704 0.081450924 0.08662045
0.20201044 -0.1932472 -0.085300714
0.1340424 0.17642558 0.13879241
0.13584091 0.15117931 0.114816055
0.1518095 -0.16225447 -0.016122738
-0.08268689 0.07459513 0.08437716
-0.030556038 0.116956584 0.22194397
-0.10591789 0.022194374 0.12683204
0.17710632 -0.106341936 -0.07608955
0.0012413339 0.033839107 -0.12087169
0.12324932 -0.052689638 -0.01409224
-0.05230608 -0.050859287 -0.11006096
0.22402605 -0.24528572 -0.09976627
0.09561569 0.054302085 0.15854724
-0.11581818 0.035919882 0.06110863
0.19461022 0.08773209 0.10330575
0.12536897 -0.06065648 0.08321913
-0.05790237 0.122867644 0.119853936
-0.07269704 0.10785605 0.1892741
0.07156405 0.10077772 0.11532153
-0.06121721 0.10313447 0.10566761
-0.22867599 0.078023784 -0.011451171
-0.067850515 0.034626212 0.1377258
-0.10535916 0.16775076 -0.28744665
0.02875395 -0.08085963 0.24739239
-0.1589718 -0.11551258 -0.2639108
-0.13088742 0.116962716 0.035013534
-0.0015130932 -0.048775766 -0.07618547
0.2158228 -0.14973707 -0.15507135
0.20146896 0.050122645 -0.09223584
-0.022296062 0.18584198 0.1706292
-0.108056486 0.21313846 0.14333774
0.18791375 0.024200263 0.09171586
-0.0016123004 0.03634603 0.14626874
-0.07485589 0.104676455 0.12654094
0.004016726 0.09464217 0.11054018
-0.16335282 0.1542316 0.024563976
0.07050499 -0.1910835 -0.2018724
-0.022655904 0.11635609 0.106440514
-0.11587504 0.09158026 -0.31988582
-0.06576662 0.12359145 0.11180696
0.007092595 0.020147143 -0.17693038
-0.28726733 -0.13903382 -0.20879947
-0.0033036836 0.0023394946 0.1709495
0.14317802 -0.15623079 -0.02549677
-0.0026474395 -0.058351204 0.1124688
0.019551825 -0.045460746 0.15236853
0.20813134 -0.19321221 -0.061206415
0.08653776 -0.0445435 0.07653997
-0.011006773 0.03682279 -0.47797316
0.024778627 -0.18265457 -0.24084096
0.19055004 0.058322646 0.09533283
0.23242293 0.010847587 0.0025534052
-0.028488828 0.11709863 -0.1375516
-0.069961816 0.07323911 0.12439132
0.050737213 0.17666632 0.16331013
-0.095384724 0.24348982 0.10752781
0.03503635 0.17501006 0.13418563
0.22346911 -0.20050153 -0.1691431
-0.06702699 0.120376974 0.19783424
-0.15332064 -0.028420614 -0.24736793
0.09263425 0.09510589 0.1521627
0.056538776 0.0031690418 0.118806794
0.27059615 -0.20515037 -0.007867076
-0.052926507 -0.0024396998 -0.07483681
0.106091574 -0.085692205 -0.2435517
-0.0339913 -0.1221128 -0.17858243
-0.07455118 0.17729868 -0.28490403
0.1915657 -0.16297255 -0.11060533
0.14307502 0.017456967 0.11513069
-0.017900495 0.094980605 0.19599107
-0.029691521 0.05903259 0.1519533
0.22922169 0.107952476 -0.052246694
-0.2064263 -0.14630936 -0.19698934
0.17917527 0.14024112 0.08502184
-0.054238383 0.16715737 0.03710776
-0.12987453 -0.15589915 -0.32472345
-0.026371498 -0.092403464 0.17822142
-0.074158855 -0.028320676 0.1479843
-0.0064848983 0.13344137 0.18899632
0.11491946 0.041546274 0.07759454
0.0013895241 0.14477317 0.09850956
0.14417054 -0.046343107 0.02463769
0.15359442 -0.011237328 -0.03620303
0.01720246 -0.05835564 0.22212918
0.001386435 -0.009712934 0.2260005
-0.10713166 0.07532536 -0.20414037
0.20571415 -0.13438712 -0.018222943
0.20140846 -0.106199354 -0.061556675
-0.2182736 -0.1730341 -0.21976423
0.07241749 -0.088966206 0.11671331
-0.029462611 -0.15371145 -0.31074268
-0.061274495 0.16571958 0.09178828
0.21969081 -0.13981776 -0.10147015
0.0744595 -0.06859687 0.07964531
0.1467293 0.07672715 0.09671486
-0.05985291 0.13210137 0.11309019
-0.26182857 0.107160866 -0.17409782
-0.003234079 -0.16569866 0.067877434
-0.20344114 -0.04138849 -0.1759732
-0.033841472 0.1809144 0.16519742
-0.22018489 -0.14605492 -0.21017797
0.1918339 0.08146709 0.053628806
-0.09814948 0.22687882 0.12506068
0.19607194 -0.101367526 0.0077286176
0.051144715 0.16456765 0.17941034
0.11717613 -0.14632636 -0.14580438
0.18592553 -0.10654713 -0.20011126
-0.2106292 0.18888922 -0.031118378
0.17425331 0.10843185 0.0966107
-0.016076114 -0.03318362 0.16075675
0.027341573 0.004544386 0.1007945
0.045387495 -0.10727261 0.10938592
0.17790718 -0.06235327 0.043529134
-0.26163226 0.058402613 -0.1780114
-0.19372971 0.11401253 0.069740474
0.13518341 0.118196756 0.052077748
0.09772226 0.08386345 0.15429893
-0.13698678 0.03683192 -0.26749793
0.05394752 0.124705546 0.1450583
-0.0036688605 -0.05029221 -0.14458291
-0.012432398 0.081499375 -0.4838805
0.17928752 -0.2700911 -0.11318891
0.110694356 0.10989902 0.18471467
0.15504187 0.037290078 0.11504576
0.086803146 0.11602716 0.20396642
-0.05187931 0.19477764 0.110607654
0.24608248 -0.13242795 -0.1145704
-0.04507943 0.041102473 0.11132417
0.19154738 0.12185748 0.063900135
-0.136436 -0.063924916 0.0035686204
0.023490148 -0.02863686 0.26556093
0.06609841 0.1341343 0.12873676
0.13207804 -0.07857375 0.021855678
0.112901054 0.07852242 0.1513066
0.0196983 0.11131756 0.21738242
-0.24140063 -0.030299425 -0.18027455
-0.03203684 0.08530229 0.13771003
0.1106588 -0.13362105 0.020604242
-0.10700511 -0.068520084 -0.05798964
-0.12044675 -0.08295536 0.01895475
-0.18447134 -0.047091767 0.015435035
-0.02031155 -0.07075491 0.1230998
0.13101695 -0.059125524 -0.02383567
0.1446556 -0.057410765 0.04444882
0.010578655 -0.15600495 -0.21473408
-0.2165308 0.16186439 -0.22067557
-0.108736284 -0.08999694 0.11631974
-0.030336574 0.11162273 -0.3069507
-0.11257665 0.051777925 0.08757095
-0.2838037 -0.08431912 -0.23531856
0.12675045 0.00080105744 0.02341061
0.14421915 0.064023845 0.06485628
0.106731854 0.0008571644 0.08465879
0.22891083 -0.096241444 -0.1397197
0.23010206 -0.15255482 -0.07829761
0.052370552 0.01930803 0.05087584
0.2334791 -0.11214702 -0.12918755
-0.03722243 0.09672247 0.092236035
-0.06903093 0.05068042 0.13534556
0.17760077 0.018617403 0.0941066
-0.15531316 0.0052296594 0.031427957
-0.15426864 0.065576375 0.027559422
0.19506182 -0.19324012 -0.019195464
0.01345826 0.061113123 0.07801129
-0.14625545 -0.007088616 0.07677003
-0.13757142 0.20312884 0.10242301
0.058783073 0.12405167 0.14789197
0.097907074 -0.11594551 -0.032708827
0.05466289 0.02778103 0.102300756
0.13617797 -0.09810566 -0.014067955
0.25592247 -0.07356079 -0.1826747
0.11389767 -0.005715494 0.19064389
0.055617794 -0.08904255 0.06360718
0.12425742 -0.0162108 0.072727025
0.12673916 0.17719486 0.115389705
0.01383795 -0.059005443 0.08143554
-0.19118837 0.1805191 -0.117492765
0.13461187 0.0141426 0.09392499
-0.20671268 0.10342413 -0.10074918
-0.16455379 0.089245796 -0.18232453
-0.18719448 -0.21173823 -0.28004774
0.13004158 0.11946193 -0.18640855
0.20892657 0.06308 0.02834435
-0.007006175 -0.113041244 0.19101389
0.026396682 -0.22656122 -0.31385505
0.05016959 0.11553913 -0.1257624
-0.0016669561 -0.07124687 0.11232131
-0.06798299 0.17100798 0.116717115
-0.19339128 -0.036664825 -0.28783926
-0.20946893 -0.10393972 -0.2034776
-0.2308994 -0.0027631938 -0.20547426
0.06496024 -0.0716856 0.22107732
-0.032201335 -0.07886983 -0.17350377
-0.07977504 -0.022919113 0.1313336
0.050400622 -0.018317755 0.032038458
-0.08022825 -0.06892823 -0.3720205
0.22082965 -0.19646402 -0.10973412
-0.17870724 -0.038454063 0.03611234
-0.13938424 -0.10145419 -0.3092885
0.2346083 -0.22116669 -0.114035524
0.14887556 -0.20996627 0.017630994
-0.09139462 -0.08521021 -0.39014795
0.14053139 -0.0335954 -0.06396699
0.054237228 -0.024795875 0.2625761
-0.060306415 -0.06735772 -0.06900194
-0.19799754 -0.032740142 0.011006189
0.084429204 -0.034945033 0.05362211
-0.111250915 0.027181035 0.0090349605
0.035407 -0.15134251 -0.21432908
0.10639586 -0.24136727 -0.16604203
-0.06603711 0.09193355 0.117685944
0.24299 -0.21940482 -0.016463054
0.06702201 -0.0978857 0.10718748
0.18045293 0.040349673 0.11454234
0.05287195 -0.055998642 0.09964905
-0.24540253 -0.19663982 -0.27419844
0.0041334005 0.14721267 0.12204771
0.20611408 -0.16024612 -0.15419817
0.03731985 -0.09764021 0.07546567
0.0027155252 0.06055706 0.15475307
-0.28340596 -0.0038326415 -0.24923222
-0.13490534 0.12950481 0.12055195
0.052581888 0.13527957 0.108961985
0.21888362 -0.1658597 -0.08964209
-0.1609155 0.1492093 -0.2674819
-0.16341701 -0.12390291 -0.08986492
-0.016318126 0.14462636 0.17961572
-0.06841595 -0.03180708 -0.09750948
-0.029815873 -0.22004867 -0.25473642
-0.25041494 0.13968614 -0.1784626
-0.05242369 -0.086712226 -0.20044015
-0.18251751 -0.03592374 0.027110027
-0.24021809 -0.02872371 0.036629047
-0.24081762 0.17221895 -0.1782227
-0.13539366 0.025115635 -0.03718138
0.12935081 -0.16545975 0.010975449
0.0020796645 -0.06138523 0.16513969
0.16521329 -0.13724774 0.004311936
0.032170337 -0.023058655 0.054366175
0.16054812 0.024341885 0.12693882
-0.17306565 -0.042309836 0.033887133
0.16727869 -0.1730441 -0.013347089
0.15217352 0.09047834 0.16221866
-0.14920208 0.034299448 -0.17314279
-0.21567339 -0.030796677 0.023137838
0.11986866 -0.04219549 0.045125976
0.052385975 0.07544461 0.16736476
-0.18269534 0.20374225 0.049536478
0.12218939 -0.03100671 0.013305935
-0.117597416 0.0056315945 -0.04638435
-0.1924829 0.1138565 0.0228064
-0.033709157 0.18930921 0.10868233
-0.0767264 -0.031282987 -0.1261911
-0.19973376 0.093918145 -0.0021357317
0.051900852 -0.114003696 0.08424143
-0.27790725 0.0071309423 -0.21070151
-0.16327779 0.15463024 0.06452073
-0.13421212 -0.09029212 0.079921275
-0.05201183 0.11036115 0.09771971
-0.2504031 0.050909095 -0.15726449
0.021418778 0.038219877 0.15106124
-0.12974946 0.25628456 -0.05219695
0.07869285 -0.05045225 0.098264664
0.24395758 -0.1686455 -0.03360352
0.25948665 0.10447365 -0.023070812
0.13861372 0.09171701 0.14467879
-0.00881891 0.14770558 0.10609524
-0.08527151 -0.041609604 0.06274402
0.12208347 -0.12338446 0.07125544
-0.21132445 -0.0035706384 -0.21992381
0.10377813 0.045500033 0.17824154
0.041478235 -0.14851364 -0.19590953
0.00413717 -0.14056975 0.068015195
-0.14581722 -0.0668118 0.083037466
-0.15075153 0.20703617 0.052158218
0.25520974 -0.18134141 -0.109334126
0.1138744 -0.17791523 0.012794963
0.17732245 -0.06886921 -0.09118384
0.08341826 -0.016514545 0.12589467
-0.028506123 -0.072167985 0.13224776
0.012753067 -0.12137379 0.12974402
-0.18368997 0.09851579 -0.21948703
0.081348896 0.059803464 0.15144615
-0.17617938 0.1269174 0.061607208
0.047160987 0.11312439 0.13250646
-0.28800148 0.029530525 -0.2674221
0.08866499 -0.107325785 0.08800901
0.020777693 -0.023436666 0.06181603
0.045924738 0.0880812 0.15922484
-0.2199316 0.12617767 -0.13061334
-0.004936767 0.15492775 0.16163601
0.21287028 -0.21422574 -0.16947928
0.06250229 0.19630614 0.17043467
0.037822895 -0.12403035 0.12989385
0.2858971 -0.12816976 -0.11323393
0.053925205 0.10640656 -0.11843319
-0.07497574 -0.028148662 -0.13021892
-0.1290793 -0.0767239 0.048374295
-0.19923224 -0.010985485 -0.034227975
0.062338766 0.11247506 0.13947059
-0.19603942 -0.043665107 -0.21730469
-0.22178124 -0.14477311 -0.22373055
-0.115081556 0.24264103 0.0009571584
-0.061970647 -0.1291714 -0.20418034
-0.26791105 -0.110263854 -0.23267859
-0.06505411 0.042627234 0.08141072
0.24464248 -0.226815 -0.039738957
0.10116086 0.02153214 0.15064359
0.29355752 -0.14381877 -0.14852516
0.028588112 -0.11288137 0.1427685
0.2876966 -0.22612843 -0.07194439
0.090335704 0.08507386 0.16169447
-0.20339718 0.01370833 0.015519173
0.10317353 0.10567217 0.20913705
-0.01665107 -0.014934824 0.11674714
0.05332895 -0.052350253 0.22863919
-0.17273493 -0.0005143938 -0.21940185
-0.061301865 0.04638638 0.11506243
0.10548206 -0.07995065 -0.03206465
0.11839269 -0.17170337 -0.0017486628
-0.105991036 0.11291771 0.15194431
-0.085825294 0.13422117 0.14412916
0.19267187 -0.16570307 -0.01152651
0.12586394 -0.13616878 -0.023557719
-0.0072336975 0.22928086 0.113958344
-0.12967099 0.24169633 0.08017124
-0.031345643 -0.07242955 -0.26902264
0.07546244 0.09513752 0.14010115
-0.049165417 0.011942814 0.11979845
-0.057383727 0.082798645 0.1420947
0.16366494 -0.07007779 -0.052218802
-0.0076113176 0.15112263 0.16570398
-0.24083969 -0.016471133 0.012338545
0.08857747 0.011021187 0.17639625
-0.07059608 -0.0034294869 -0.2764595
-0.14861184 0.25819683 0.0077808406
0.09985106 0.12228741 0.1395165
-0.05558425 0.14075933 0.1271837
-0.006796817 0.1157467 0.18780348
-0.061263293 0.04900815 0.058389414
-0.07031773 -0.07282258 0.17623964
-0.08038374 0.099041946 0.14276354
0.098891616 0.054299172 0.08807746
0.13552703 0.05361584 0.16763669
0.2113277 -0.22753015 -0.03178598
0.31179821 -0.17701736 -0.13543333
-0.25069252 -0.115669705 -0.18078656
-0.021966472 -0.09275906 -0.19031018
0.094901115 -0.037662473 0.050029818
-0.13349801 0.077206455 0.08887325
-0.007869577 0.003869324 0.06446315
0.080666654 -0.15964109 -0.012193509
-0.2145238 -0.19091794 -0.25504798
0.1454868 0.11046538 -0.025206193
0.10402138 0.09992932 0.17598954
0.015487492 0.10302592 0.15270694
-0.07539211 0.03883388 0.10401994
-0.12676191 0.16248387 0.03217318
-0.19738176 0.003320545 -0.0021343387
0.018235087 -0.009460253 0.15858787
-0.15848447 0.08081165 -0.21744297
0.031010708 -0.15658954 -0.19775587
-0.120569296 0.10592391 0.14940198
-0.23989837 -0.00568265 -0.20585401
-0.13974917 -0.06647546 -0.04393932
0.1369877 0.11890528 0.071725555
-0.04422986 -0.05652239 0.119084224
-0.16420725 0.14657842 0.048649866
-0.03558202 0.12503201 0.19819261
-0.11957924 -0.04134538 -0.037105963
0.10590278 0.1428773 0.14747764
-0.24224965 -0.084108494 -0.24114989
-0.076960765 0.16641344 -0.3733314
-0.16743596 -0.10969452 -0.323835
-0.20886742 -0.14555603 -0.2443346
-0.07812007 -0.04342873 0.08568579
-0.26704076 0.017935736 -0.011072592
0.2414163 0.02384319 -0.03479771
-0.15550967 0.21586932 0.0915371
-0.18500541 0.07529347 -0.06260853
0.113935836 -0.124133945 -0.1343113
-0.20941202 -0.050519884 -0.26380694
0.032891255 0.046333827 0.21856819
-0.1300979 0.12745072 0.17337357
-0.08001572 0.1924111 0.065865576
0.21140319 -0.02256184 -0.07198445
-0.19267204 -0.053523213 0.0075596482
-0.005410718 -0.11260047 0.21597116
-0.035736367 0.06917822 0.13767081
-0.23043215 0.0061640334 -0.25035888
-0.13621369 -0.08579691 -0.28590822
-0.05184259 -0.07897798 0.18493107
-0.11114731 0.17068808 0.06920977
0.015097969 0.14839682 0.11781562
0.09542916 -0.10200884 -0.005947657
0.19825144 -0.020372018 -0.06670095
0.036626153 -0.016526496 0.12579565
0.028811002 0.18225582 0.0966137
-0.027129745 0.17202148 0.16167171
-0.11805945 0.064081624 0.09896801
-0.15857475 0.012835827 -0.11770379
0.015016683 -0.012722464 0.066379964
0.04142063 -0.119453 0.20633893
0.043585308 -0.047634713 -0.15499721
-0.20736156 0.02626616 -0.21801184
-0.173063 0.14242108 -0.015031378
-0.08525802 0.100467056 0.1513813
-0.042108 -0.027708624 -0.10604976
-0.11877223 -0.07352576 0.095062315
0.09720136 -0.08190315 0.122254945
-0.083379924 0.036265206 -0.09541284
0.028305858 -0.092523575 0.2393974
0.16391563 -0.2002037 -0.058293264
-0.21467979 -0.024852835 -0.2121878
-0.047850884 0.0828337 -0.32233933
0.13950537 -0.11947742 0.054265536
-0.016899409 0.101007745 0.16926143
0.17678474 0.05799416 0.080348656
0.030143794 -0.14104886 0.10172797
0.09433732 0.03499252 0.17124642
0.18659918 -0.18857034 -0.04811078
-0.2585997 -0.14380983 -0.19054954
0.10327579 -0.122523345 0.0803182
-0.16063392 0.14999884 0.112010226
-0.07137626 -0.21092235 -0.25419673
-0.011116648 0.0703324 0.20136072
0.15536161 -0.11694719 -0.05918382
-0.16630368 -0.15670674 -0.28696367
0.036276795 -0.058551498 0.080516316
0.000986672 -0.021281628 0.118154965
0.054744445 -0.019991174 0.07357565
0.14499478 0.05296094 0.15959997
-0.18714383 -0.06309555 -0.043643028
0.2321089 -0.2645297 -0.08117975
-0.023267511 0.16067913 -0.06607031
-0.19344108 -0.10317971 -0.22848624
0.010217536 -0.063019365 0.19746724
0.082696445 0.16350411 0.12889361
0.21081266 0.07479635 0.055257842
-0.06940786 0.102437876 0.10719876
0.08776489 -0.028114973 0.07459445
-0.07791618 -0.081379145 0.1092803
0.032116156 -0.03404678 0.13429129
-0.19115338 0.0013454683 -0.012990768
-0.009018544 -0.06835952 -0.22689745
0.17080824 -0.05328545 -0.119813226
-0.17228504 -0.09772668 -0.063719094
0.013924383 -0.061157517 -0.1334332
-0.17022996 -0.08247299 0.05176567
0.023828821 0.010565815 0.1372156
-0.0015023 0.10454581 0.14338206
-0.22233647 -0.0054702945 -0.23297179
-0.1851086 -0.18372281 -0.29237473
0.088061176 0.10451834 0.18176003
-0.0060366057 -0.025309328 0.09648124
-0.15980564 0.2517802 -0.011857044
-0.11127891 0.15678032 -0.2743021
0.20685841 0.00039376484 0.027602542
-0.034809012 0.11300346 0.16298607
0.064319804 0.08125638 0.16269147
0.045160007 0.18723828 0.1896191
0.1630099 -0.11084367 0.0070990943
-0.07926977 0.092026226 0.17350568
0.039270222 0.14874406 0.14550401
-0.0448156 -0.031294465 -0.10619241
0.08828137 -0.018072072 0.150335
0.12947574 -0.17729974 0.019439885
0.09672634 -0.10802983 -0.18301599
0.033805348 -0.007259725 0.06756849
0.20805223 -0.12587056 -0.05343576
-0.16798013 -0.0825788 0.05584117
-0.05886901 0.13987662 0.18033327
-0.02484541 0.17638926 0.109179534
-0.2169019 0.006051179 -0.23090318
-0.2527827 -0.07102499 -0.20147404
-0.11700214 0.091616794 0.06925762
