# .PCD v0.7 - Point Cloud Data file format
VERSION 0.7
FIELDS x y z
SIZE 4 4 4
TYPE F F F
COUNT 1 1 1
WIDTH 1000
HEIGHT 1
VIEWPOINT 0 0 0 1 0 0 0
POINTS 1000
DATA ascii
-0.26237455 0.06452996 -0.021226611
-0.20892057 -0.026139272 0.062063277
0.3056993 -0.042431094 0.033021547
0.13076475 0.10845884 0.043773822
-0.21908534 0.2437685 0.061168946
0.22746047 -0.012224104 0.059941668
0.2974352 -0.1884184 -0.042730942
-0.2737935 -0.06950744 0.09867156
-0.3216834 0.04955531 0.014947795
0.1112357 0.07614017 0.044990834
0.301203 -0.0058646128 -0.23662059
-0.0044915215 0.15774469 -0.01186851
-0.04242064 0.051838346 0.0022197731
0.14145659 0.22548357 0.11477873
-0.14375855 0.10790406 0.05875462
0.25022987 0.015622774 0.018452486
-0.24532512 -0.20913406 -0.18599206
0.25460148 0.053743433 -0.028022492
-0.022328492 -0.0055697775 -0.029788615
0.1410042 0.0029396366 0.01514101
0.25905594 -0.1897945 0.07791188
-0.03485414 0.23385595 0.110123135
-0.14123015 0.24059065 0.10382812
-0.25418654 -0.053249504 0.019224932
-0.11018439 0.072147675 -0.0110915555
0.042577542 -0.15475789 -0.02275418
0.274315 -0.0840037 0.07459129
-0.13654794 0.021098418 -0.07573242
-0.08873208 -0.049193997 0.05566415
-0.15696694 0.05098453 0.02285026
0.06875044 0.006658504 0.08139796
0.24381249 -0.1191915 0.06743819
0.28136295 -0.14384952 0.049153097
0.17542768 -0.19990197 -0.023227548
0.20365107 -0.15854026 -0.010178125
0.22943568 -0.18264261 0.005802827
0.32599023 -0.2441225 0.050168127
-0.08110786 -0.1606565 -0.15044081
0.087984174 0.02211103 0.016902706
0.01993432 -0.008131567 0.05008615
0.26938972 -0.25079796 0.040334318
-0.2276286 0.19587734 -0.16462722
-0.18817209 -0.23327436 -0.17317002
-0.25576246 0.25849554 -0.19335969
0.0059657814 -0.031249551 -0.008674306
-0.23094958 -0.2976123 -0.20146745
-0.17868707 -0.09803082 -0.09125816
-0.071811676 0.16196121 0.081224896
0.28855586 -0.27504826 0.010236488
-0.030059852 -0.006398122 0.017288107
-0.19843386 0.0990397 0.04089993
0.27126858 -0.14815354 0.0700578
-0.13363852 -0.0981317 -0.020572979
-0.019749567 0.21768534 0.051307116
-0.16290812 -0.23879862 -0.19121605
-0.23131253 0.19022928 0.051754516
-0.25448534 -0.1228101 -0.12843317
-0.16341141 -0.15320721 -0.109727226
-0.20908707 0.16581297 0.085008666
-0.27832863 -0.050017703 0.08789353
-0.08562089 -0.14560083 -0.09355769
-0.17061198 0.22516276 0.09673117
-0.1712673 0.19994508 0.07771153
0.24747266 -0.2883765 -0.10824984
0.3160173 -0.019990461 0.0959766
-0.22820455 -0.09882214 -0.26976943
-0.0012808174 -0.030168703 0.069930725
0.0862654 0.04047638 0.10536069
-0.06062561 0.00371173 -0.015779786
0.26289737 -0.17005809 0.013545132
0.17941315 -0.022368858 0.009410901
-0.09127006 -0.086958714 0.06314215
-0.24105068 -0.10358791 -0.059512455
0.05065793 -0.1251246 -0.22523504
0.28186995 -0.19690537 0.10186193
-0.2799871 -0.21130231 -0.19507435
0.098921165 0.20082182 0.06687301
-0.15739115 0.2527185 0.13297312
-0.30781862 0.19532442 -0.055799257
-0.09774606 0.2692349 0.01901093
-0.15528505 -0.017918397 0.03450878
0.007724605 0.1665621 0.08595755
-0.28366402 -0.051528987 -0.03618677
-0.038147744 0.21667059 0.10114325
0.22150666 0.052446768 0.11249779
-0.0066942247 -0.024351764 -0.031011961
-0.033052985 0.13050757 0.030697899
-0.26142856 -0.23590975 -0.23328505
0.29027244 0.0056763366 0.11609045
0.11739439 0.100146465 0.0341493
-0.17513396 -0.020572577 0.064544015
0.073700175 -0.120064884 0.042732187
0.018094447 -0.17284861 0.020028224
0.08274776 -0.17119652 -0.023889398
-0.011911001 -0.014262791 0.006301576
0.061686877 -0.19586004 0.03881776
0.075349346 0.07557394 0.061340302
-0.05433507 -0.0043818057 -0.0018898979
-0.11778726 0.31481567 0.07843097
0.07958199 0.069010906 0.06810162
-0.09208456 -0.13251705 -0.1645911
-0.17944247 0.023860196 0.12225796
-0.30459106 -0.0064902497 0.07239713
-0.018383425 0.13270392 0.089218915
0.0004909118 0.2538986 0.14239576
0.2625652 0.1285419 -0.015819948
-0.09834459 0.031941924 0.010945304
-0.22704895 0.14728595 0.046006918
-0.21994725 -0.22759974 -0.18867332
-0.07868185 0.13641723 -0.014955645
-0.040730856 -0.025269605 0.061483458
0.016200524 -0.036849413 0.03479791
0.31033558 0.09680915 -0.050827567
-0.13531084 0.21427916 0.08927049
0.2673026 -0.17459743 0.020603161
0.08809508 0.2316993 0.10928123
-0.18214355 0.030828202 0.038868316
0.12657297 -0.03894952 0.009559725
0.19023472 -0.18623304 0.03366402
0.14421184 -0.21045676 -0.0031370004
-0.09720941 -0.10070666 0.022320017
0.029982617 0.04497772 0.06892553
0.26530778 -0.23266442 -0.08378349
-0.07456273 0.1641762 0.0053726556
-0.26210538 0.09747931 0.085118994
-0.040153638 -0.1004706 0.043347396
-0.118382156 -0.039610248 0.05388346
-0.22908586 0.035492495 0.027488044
0.31909454 0.027942473 -0.27670768
0.09678795 0.20388283 -0.18376341
-0.16446686 0.17806256 0.046620257
0.23619452 -0.28327426 -0.12176661
-0.059640687 0.25959635 0.076004215
0.11668622 0.029393822 0.02802305
-0.22524032 -0.1389608 -0.09612308
0.23977011 -0.24984129 0.040364176
-0.2645609 0.102878444 0.095295586
-0.011203333 0.21591403 0.08676889
-0.2434843 -0.044551633 -0.18916053
-0.028280484 0.05072961 -0.03276118
0.08283837 0.050029363 0.09625457
0.2423914 -0.11523481 -0.021991037
0.06867856 -0.15944228 0.009378842
-0.047918763 0.03274882 0.041741185
-0.15316339 -0.20297702 -0.16158803
-0.15148409 0.022843448 -0.0023383922
-0.22755723 0.19227886 0.06541466
0.2691456 -0.13993496 -0.026352052
0.03884508 0.064174235 0.051729623
0.11274673 -0.049473274 -0.035244346
0.15951562 -0.26667136 -0.06422946
-0.03522845 0.072860695 -0.002208513
-0.23161912 -0.18890305 -0.26429105
-0.013874052 0.18723617 0.111729145
0.2809606 -0.016758349 -0.15773103
0.02763209 -0.045455985 0.016092416
-0.13757877 -0.23047008 -0.13629718
-0.17940679 -0.19386105 -0.14360021
-0.04346683 0.17026559 0.052095152
0.002830938 0.01961556 0.047057316
0.050923184 0.28101522 0.09422811
0.10131158 0.23704882 -0.2027821
-0.076897874 -0.17470145 0.04735968
0.1532444 -0.11235379 0.06439538
-0.1410798 -0.27707937 -0.23252647
0.15225957 -0.08314927 -0.050530892
0.32732567 -0.08759002 0.06361845
0.12976255 0.2053028 0.114724375
0.0511963 0.1259522 0.07510544
-0.040292956 -0.17430246 -0.15884988
0.16728573 0.1982807 -0.19065806
-0.23665637 -0.120759524 -0.18919265
-0.27591476 0.27232113 0.042907123
-0.09169789 0.28820714 0.064148225
-0.2181828 -0.053278003 -0.09972661
-0.10415371 0.08671616 -0.066905685
-0.16864215 -0.15770012 -0.05274457
0.22105262 -0.07193553 -0.022658704
-0.27337894 0.09714256 -0.21564911
0.28629696 -0.22824198 -0.017249059
-0.26261473 0.0020707727 -0.21122465
-0.09503726 0.03150651 0.023780365
0.2657068 -0.101704866 -0.045054078
0.26619682 -0.034378894 -0.13209566
0.017565101 0.25811982 0.08428568
-0.3151172 -0.19580147 -0.30609238
-0.23910668 -0.044877328 0.034821633
0.3059498 0.022490896 -0.39460516
-0.047159605 0.260169 0.049371757
0.090019345 -0.21148434 -0.22913262
0.01321955 -0.1560809 0.049671017
-0.24492578 -0.11890609 0.052793343
0.27965066 0.008282475 0.0094693545
-0.091997035 -0.299145 -0.19641228
-0.25350967 0.25113457 -0.15788554
-0.046792828 -0.020538902 0.018216426
0.15084329 -0.25826126 -0.032009613
-0.2387417 0.21014854 0.12583591
0.22387384 0.047748268 -0.029777091
-0.20094043 -0.124458365 0.0039121713
0.059076138 0.06052441 0.10404258
-0.0019276125 0.04843337 0.056553073
0.09555646 -0.11038132 0.025669934
-0.007866255 0.025578747 -0.02865435
0.3117322 -0.26929176 -0.0021464427
-0.21050678 0.03334551 0.08143517
-0.14409676 -0.17449616 -0.09337788
-0.057799313 0.020577205 -0.039587807
-0.10048297 0.20398508 0.08658353
-0.20500083 0.21933058 0.10645609
-0.009693429 0.27390677 0.1195926
-0.25620297 0.13357693 0.08410242
-0.11785759 0.016975896 0.035730205
-0.048490122 -0.16281828 -0.04845986
-0.0010805649 -0.22065511 -0.2679392
-0.056376524 -0.004314252 -0.064007
0.0031318008 0.009533777 0.029930683
0.24843758 -0.26395142 -0.13467698
0.14945993 0.05515897 0.02002989
-0.2455824 0.077892885 0.10545625
-0.23173043 0.13638286 0.08648973
0.25562292 0.04001882 0.00084654504
-0.05152427 -0.013211416 0.039034437
-0.18801863 0.14628007 -0.17661552
-0.2695098 0.022698604 -0.16907614
-0.12752028 0.24859734 0.056507297
-0.017744316 0.22505637 0.07621585
0.10672709 0.07236991 0.04962535
0.08217905 -0.14068495 -0.0034320562
-0.008377927 0.29768384 0.063896
-0.25045967 -0.0448587 -0.23618618
-0.13154262 -0.115840554 0.056164328
-0.20164002 -0.0259 0.103378005
-0.2633129 -0.041756447 0.074923776
0.0493191 0.1242787 0.09764525
0.18116891 0.036203414 -0.023458945
-0.263966 0.10597677 0.12571187
-0.03416263 0.21170487 0.077917926
-0.13840193 0.3388401 -0.0018151153
0.07933348 -0.2043888 -0.2834159
-0.2324375 -0.2593499 -0.168796
0.1396031 0.22217256 0.10623987
0.11732038 0.124103986 0.12663199
0.19906059 -0.2139468 -0.014789871
0.11640493 0.05625913 0.09166876
-0.17265387 -0.15424919 0.005943687
0.33188188 0.071795106 -0.03069025
0.24369928 0.08062636 -0.30430797
-0.29164106 0.02579866 0.09590444
-0.084852375 -0.05228798 0.003677255
-0.00563929 0.040804416 -0.079316676
0.2851552 -0.28378132 -0.06312635
-0.138039 0.08366125 -0.13513617
-0.16472399 -0.08334523 0.05861282
-0.19354436 -0.16521497 -0.11903986
-0.16710353 0.16994512 0.061074264
0.08704476 0.003338897 0.093257725
-0.1504131 -0.19973205 -0.11190876
0.16498753 -0.061836157 -0.01007406
0.28444764 0.05545113 0.03723269
0.23988026 0.10545948 -0.018566998
0.3404845 -0.25494322 -0.11351847
-0.00895862 0.30003387 0.124875195
0.04480588 0.039799064 0.06259191
-0.20752761 0.09930401 0.1184935
0.1016695 0.18413742 0.040132068
0.06457022 0.062196214 0.03612897
0.27175924 0.0051860074 0.076073095
-0.10780642 -0.17106394 0.088970944
-0.22757256 0.26672426 -0.1428518
-0.16190098 0.022424165 0.044762813
0.05160248 0.094882816 0.041049458
-0.1477687 0.24572584 0.11703679
0.27828953 -0.14597799 -0.00825577
0.25764647 -0.27517083 0.038605798
0.26979297 -0.18571836 0.028053755
0.2598839 -0.25719425 0.06805683
0.18704307 0.09768947 0.028991466
-0.14404784 -0.076007746 0.079963386
0.08145503 0.20795119 -0.15297206
0.33346325 -0.16679212 0.028432947
0.2789311 -0.13364726 0.10136846
0.21144578 -0.18636604 0.036393855
-0.1038222 -0.15937449 -0.050509896
0.11201674 0.038286455 0.012055184
0.1286285 0.10196192 0.12320377
-0.28484046 0.11653732 0.07940779
-0.13195036 0.28010398 -0.18287428
0.28343412 -0.07333865 0.0015198557
-0.2744242 -0.080795996 -0.26225966
0.16194762 -0.09321309 -0.03944358
0.1365835 0.04255207 0.0460311
-0.13294545 0.15343155 0.06632355
0.008412346 0.07997476 -0.04602018
-0.13533218 0.14302814 0.01616304
-0.10220132 0.21003848 0.06013232
0.16993754 0.0041132174 -0.022000737
-0.10468578 0.16546524 0.05542574
-0.26789764 0.08524276 0.1147214
-0.28903332 0.001478601 0.11460821
0.2817422 -0.27345428 0.05833851
0.064506285 -0.26568505 -0.045001715
0.1794548 0.044989504 -0.036372162
0.052063305 0.010900596 0.074054785
0.026721418 0.15099062 0.07151748
-0.096104674 -0.109766416 0.027146857
-0.2786765 0.21308737 -0.034510106
0.14802024 0.08834288 -0.05654768
0.22613408 -0.20296697 0.018713903
0.24416263 0.067446604 0.03815408
-0.01024488 -0.028597048 -0.26226473
0.018925486 -0.024183705 0.02461971
-0.12836486 -0.1413362 -0.14582661
0.28830567 0.12446169 0.100967586
-0.23859243 0.075495735 0.0754237
-0.21934548 0.12093858 0.050341714
0.2488852 -0.08963388 -0.039757635
-0.0965492 0.20130563 0.09141566
-0.28363547 0.14945345 0.06308473
-0.23022516 -0.008577859 0.0643012
-0.34667075 -0.22099148 -0.2293978
0.30001655 -0.113592006 0.040060833
-0.18155082 0.069585405 -0.17492032
-0.050421212 -0.13632579 0.04673494
-0.14126569 -0.2400219 -0.103251256
0.27486172 -0.016180933 -0.17951675
-0.25370556 -0.1578781 -0.21098652
-0.30383223 -0.18687318 -0.16997652
-0.01899189 0.2543516 0.012021994
-0.19508879 -0.18032768 -0.14719708
-0.15976696 -0.16792002 -0.11863314
0.27456334 -0.044458143 -0.06998408
0.004801001 0.0057069077 -0.035076976
0.09103399 -0.1507709 0.07248093
-0.25787088 0.21852717 0.046422906
0.21591887 0.15500128 0.07460098
-0.16991338 0.05455454 0.0013206291
0.11348437 0.0059128753 0.019869072
0.14379694 -0.029615985 0.017098153
-0.15111412 -0.10238713 0.022257918
0.09608572 -0.042818543 -0.044645295
-0.1652549 -0.27372378 -0.19251715
0.2586418 0.08133277 -0.016168239
0.0627005 -0.18801205 -0.01921655
-0.06757165 -0.12579142 0.08145708
0.12219934 -0.21106143 -0.1975366
-0.32737258 0.24317238 -0.13215157
0.22934742 0.016443599 0.09100093
0.3436239 -0.1583739 0.112284005
-0.07586024 0.24966642 0.09586975
-0.19732514 0.01363184 0.04947838
-0.08800488 -0.060411986 0.043730102
0.29987127 0.07226761 -0.0548836
0.15260175 0.18923835 -0.06722184
0.1486571 0.14313099 -0.004639134
0.30798385 -0.2352523 -0.09714009
0.0067385193 0.03966151 0.019324439
0.25637522 0.004324696 0.07315129
0.29974052 -0.18911514 -0.022127831
0.22532071 0.009573632 0.10839782
0.11258902 -0.23371544 0.036211696
-0.20951207 -0.09765279 0.018910704
0.19351514 0.053418387 0.08159007
0.179473 -0.03124469 -0.012597846
-0.04583536 0.22006898 0.07971417
0.0232924 0.25287306 0.108628616
-0.04415264 -0.19330196 -0.039017476
0.05684632 -0.06190164 0.04839945
-0.2476159 -0.03367824 -0.021354316
0.31182957 0.13712552 0.050601695
0.15382533 0.122643456 0.09220828
0.19179451 0.08563682 0.01719534
-0.09225336 -0.058570977 0.075554565
-0.25721812 0.0823024 -0.03575192
-0.13143064 -0.28746712 -0.14364645
-0.067169175 0.2542035 0.096397534
-0.19969502 -0.28895226 -0.20532332
0.0006620563 -0.13185531 0.070894234
0.34406042 -0.30614674 -0.05533356
-0.2344718 -0.06673004 0.008483029
0.0084053045 0.17615852 0.046533685
0.14619914 -0.096968435 -0.021414593
0.29231462 -0.21751346 -0.19295566
-0.010182341 -0.111015156 0.051578254
-0.19056529 -0.16428813 -0.09438808
0.10503944 -0.1169159 0.0016857939
0.1371544 -0.19867714 0.039011087
0.28431764 -0.07655616 -0.00986942
0.05678451 0.11935968 0.044148482
-0.1044214 -0.011904172 -0.0071610194
0.13032037 0.21483392 0.05975382
-0.076460086 0.2002351 0.026354367
-0.23238923 -0.039675426 0.10032644
-0.28891334 0.13623849 -0.027429312
0.20227522 0.09194417 0.057178378
-0.030889452 -0.14869994 0.025244543
0.30164215 -0.17219034 -0.10139825
-0.12591463 0.19702512 0.087413624
0.29322365 0.00038964176 0.07993946
0.23453803 0.10418754 0.03402634
-0.21024926 0.22167073 -0.03484126
-0.17237715 -0.22512871 -0.20439586
0.037979808 -0.099185325 0.017020345
-0.009046588 0.29436824 0.06825049
0.022420445 0.012476564 -0.03686539
0.17170088 0.12042971 0.045016043
-0.21651028 0.23407619 0.05651608
-0.22389035 0.11701693 0.044976007
0.11645629 0.25681138 -0.14759703
-0.1408061 0.23441915 0.08854392
-0.10840738 0.11345576 -0.10500946
-0.08565174 0.24766381 0.08871262
-0.084303446 0.18982705 0.09472043
0.017009804 0.22956593 0.08590725
0.027188962 -0.24402207 -0.2617882
0.053097636 -0.1736192 -0.0015243868
0.31668973 -0.20786653 -0.035855524
-0.005314659 0.109217204 0.0986852
-0.042256266 0.030238735 -0.04160012
0.1957445 -0.034178488 -0.00072082394
-0.034969766 -0.20086686 0.0069272676
-0.15805045 -0.11992619 0.023373319
-0.19521053 0.04185345 0.11507224
0.3572968 -0.29021114 0.07163224
-0.2891535 -0.16155198 -0.25801915
-0.113997966 0.24806644 0.1265864
0.20592526 -0.10176242 0.007231618
-0.10492829 -0.17458755 -0.08270625
0.03801514 -0.14041741 0.03483082
0.034583364 0.20614098 0.054945067
0.31644228 -0.3433747 -0.027288115
-0.13575417 0.1913544 0.089232065
0.14615795 -0.18449123 0.0142384255
-0.29333124 -0.041254222 0.075820364
-0.09742347 0.23222598 0.13836087
-0.0047320453 0.31975004 0.03172636
-0.06102344 -0.13509695 -0.08354575
-0.13956743 -0.27139205 -0.16944489
0.2857791 0.046063587 0.0497623
0.11781953 0.14855362 0.05703621
-0.100830995 -0.03677386 0.037155397
-0.26925758 0.1888651 0.0016678888
0.2528862 -0.018226268 0.07412166
-0.13366048 -0.17895265 -0.10094064
-0.06954935 -0.02574091 0.027761556
-0.27326676 -0.159662 -0.18453906
0.23762648 0.080314465 -0.020715712
0.19460724 0.080304354 0.0064854706
-0.25580564 0.18139525 0.09731429
-0.26881465 0.10453241 0.09519212
-0.2228488 -0.3240649 -0.14346467
0.20154676 -0.1692226 0.065334305
-0.10516466 -0.26711905 -0.16556427
-0.10366942 0.21599601 0.11923085
0.12099698 -0.045292877 0.09918443
-0.21902886 0.0917775 0.034243833
0.31791064 -0.14106832 0.10536176
-0.054150596 0.25646147 0.08465638
0.036952227 -0.076907605 0.037172955
-0.20753632 0.053531244 0.067677766
-0.20078908 -0.09131013 -0.088337965
-0.010474656 0.3006781 -0.04434007
0.25871572 -0.16904475 -0.02709582
-0.12479326 0.15316151 -0.10617495
-0.2077369 -0.123144045 0.046199553
-0.3111488 0.07072016 0.029802604
0.18586558 0.11850725 0.062859975
-0.17733409 -0.14913012 -0.21500295
-0.070235245 0.19168133 0.06462406
-0.17673956 -0.24718468 -0.1821593
-0.08765972 -0.042948686 0.06875848
0.070918 -0.019208644 0.0074202376
0.06666674 0.07231192 0.018583175
0.07254988 0.18114513 0.13191487
-0.10647147 -0.07758641 0.083375126
-0.122902706 0.27418458 0.032832604
0.11677315 -0.12831812 -0.013159583
0.19295862 -0.008789553 0.02332037
-0.19760418 -0.31245825 -0.21612118
0.02471095 -0.020763481 0.06639452
0.24127455 -0.08798022 -0.044480894
-0.023812091 0.019645061 0.055959515
-0.18446027 0.19765952 0.14422102
0.21913293 -0.18030158 0.032111917
-0.04591532 0.21280952 0.1389074
-0.020948853 -0.011604277 -0.021173166
-0.007513991 0.2408281 0.072009854
0.12850557 -0.071171686 0.090753905
-0.0015782316 -0.12363215 -0.00442266
0.10314616 0.17134218 0.06803034
-0.089847274 0.18378757 0.0030891928
0.090511575 -0.03807635 0.07988342
0.30394712 0.09642792 -0.019949257
0.27544627 -0.3314844 -0.037570305
-0.1374168 -0.26604366 -0.1752607
0.25154823 -0.2331895 -0.002364252
0.13981068 -0.13839316 -0.016951226
-0.13731697 -0.24281576 -0.21912876
-0.15976706 -0.13092221 -0.13010922
-0.30963638 0.054832228 0.027427085
0.058431074 -0.13168648 -0.032230437
0.08295513 0.009880723 0.090333626
0.029023713 -0.1330289 0.035035323
-0.12004646 -0.15504694 -0.11008862
-0.15015358 0.25711182 0.07598291
0.25429848 -0.020750005 -0.036485493
0.110897034 -0.16493657 -0.015300163
-0.11047531 0.25969863 0.10090044
0.00846444 -0.13370769 -0.001824982
-0.18883452 -0.01278328 0.051261656
-0.17596968 0.18885583 0.124542445
-0.08430653 -0.16285288 0.0670219
0.26725978 0.075014696 0.025551636
0.0738007 0.2681132 0.1447735
0.17490146 0.19910628 -0.027439516
-0.22209896 0.19916125 -0.010092061
-0.17416912 0.19753154 -0.12873936
-0.3026892 -0.0012297333 -0.03568829
0.25702503 0.04502847 0.086536266
-0.12937328 0.20465812 0.10403066
0.035739843 0.21095087 0.0974461
-0.21133533 0.27682516 0.06939487
-0.26041642 0.07677058 0.05372112
0.22664459 0.0022655625 0.004751881
-0.14412734 0.11214321 0.11470477
-0.114872254 -0.14567736 -0.17032175
0.097258516 0.18214925 -0.03356458
-0.07650074 0.23494746 0.080829635
0.11106702 0.039233595 0.09200606
-0.19605611 0.2926978 0.13951065
0.08986496 -0.09490423 0.094175056
-0.09956118 0.2773958 0.027905388
-0.001504663 -0.052698612 0.050931584
-0.110615015 0.18461798 0.072003536
0.062295727 -0.06426005 0.017094921
-0.04718023 0.29866874 0.032297082
-0.06212385 -0.0945757 0.055659037
-0.2647089 0.024767915 -0.2613282
-0.14987814 0.33570364 0.056492254
0.023422632 0.0728132 -0.034276012
-0.120890275 0.27386904 0.06833667
-0.20785686 0.19905508 -0.0042492114
-0.22167864 0.025202038 0.071544245
0.006060505 -0.08896659 0.0050709886
0.11886148 0.18635456 -0.2169904
-0.17402469 0.26578817 0.117960945
0.041599672 -0.18514046 -0.023223395
0.31981876 -0.027466837 -0.028774755
0.14889847 0.03958185 -0.056523256
0.18867698 -0.25029713 -0.007597615
0.0648581 -0.13647589 0.04523096
-0.0555588 0.1311768 -0.087409385
-0.0961574 0.213815 0.14238487
-0.22198282 -0.102638535 0.08062288
0.15312836 -0.08171001 0.020853559
0.122190535 -0.06753773 0.046505924
-0.09854953 0.27300218 0.010436649
-0.25098085 -0.0486948 -0.24752912
-0.019971425 -0.09008614 0.07595857
0.009030235 0.12926021 0.030226247
0.25631398 -0.053807482 0.045529198
-0.22111611 0.18890594 0.12179289
0.12992777 -0.10341786 -0.012008093
0.02144337 0.2641125 0.01112138
-0.05761471 -0.1611218 -0.13969588
0.13795586 0.05085787 0.043692343
0.039221104 -0.046028536 0.025883935
-0.33403403 0.13403997 0.009338485
0.062404618 0.2558027 0.015158884
-0.00707952 0.24455483 0.06670623
-0.2582554 -0.05001059 0.057979852
0.038399816 0.23898554 0.06714602
-0.25355273 -0.036433447 0.057533376
-0.15286477 -0.11184789 -0.09487207
-0.25230038 0.19669716 0.08299163
0.04673592 0.19992061 0.08965722
-0.0890338 -0.19583921 -0.19627604
-0.24275567 -0.043797925 0.056443777
0.078330025 0.18087646 0.055116687
-0.1326446 0.13690148 -0.02567401
0.32812026 0.030205125 0.07529202
-0.2602686 0.02328043 0.013541636
0.045259427 -0.17370804 0.03461224
0.3152056 -0.21704233 -0.15579748
0.15967427 0.08880645 0.009110322
0.08825563 -0.034570396 0.060504813
-0.19356836 0.122908466 0.047041968
0.35173833 -0.3374069 0.03466377
-0.10761596 0.13181475 0.015347272
0.3497579 -0.16658053 -0.25617287
0.25535524 -0.13884163 0.06370725
-0.0038763804 0.25097498 0.13910984
0.17787586 -0.2131186 -0.06893563
0.07769519 0.24223962 0.004870257
0.005102729 0.0139760645 0.06641678
0.22582692 -0.14690402 0.045618653
0.0814106 0.17432195 0.12291222
0.04461526 0.037644245 0.017932579
-0.15035816 0.035120536 0.05872429
-0.1760898 -0.11685178 -0.18515289
-0.046191026 0.29139954 -0.041628584
0.087075904 0.10671387 0.09351993
0.13839701 -0.0717825 -0.005170041
-0.26956782 0.10381297 0.101735
-0.10297908 -0.19187072 -0.13173512
-0.22827633 -0.07507932 0.06848862
0.14228022 0.08662834 0.054889943
0.05332711 -0.054946434 0.02099437
-0.15982638 -0.10539866 0.07139252
0.07763604 0.14356624 0.12868898
0.26260927 -0.26629478 0.07115817
0.28928342 -0.09105762 0.06089342
-0.020689609 -0.23469254 -0.034305617
-0.17141597 -0.0005372055 0.08982368
0.3373718 0.0011971042 -0.010297568
-0.1758438 0.084458314 -0.1553186
-0.22702685 -0.21078977 -0.13680561
-0.033759177 0.096504964 -0.007589059
0.10628494 0.2746876 0.019462876
0.20862235 -0.10640905 -0.014240325
0.26186162 -0.29363447 -0.0040845643
-0.16256294 -0.14940718 -7.9982136e-05
-0.1878567 0.064746924 0.048327222
-0.10779152 0.19877233 0.09995801
-0.038226146 -0.16202974 -0.23853704
0.27821028 0.039617173 -0.22283803
-0.15052097 -0.15390652 -0.12312894
-0.21991654 0.16783938 -0.14065154
-0.22049178 0.06808516 -0.2515574
0.06692873 0.04309724 0.0437837
-0.20562366 -0.22619213 -0.20602441
0.018696606 0.01847566 0.04802732
-0.049520697 0.21647498 0.05536516
0.027591683 0.22575434 0.06368081
-0.2973155 -0.0021312577 0.109823324
0.121195674 0.013153162 -0.0579504
0.2497009 -0.13362078 0.04502723
0.22371015 0.099378124 -0.024517037
0.19952755 -0.086437315 0.045182228
-0.085317865 0.3180203 -0.0647413
-0.11570233 0.25111142 0.08024036
-0.089341074 -0.014001373 0.02446416
-0.1405373 0.1220163 0.07147628
-0.10795881 0.22124287 0.13322857
0.2659258 -0.01289364 0.034008667
0.01564646 0.21713457 0.14409795
0.03078551 0.067448035 -0.011022807
0.06938208 -0.2078181 -0.017427027
0.22443718 0.028446278 0.036419418
0.053521782 0.050200865 0.040415
-0.033193767 0.16324916 0.11576054
-0.035083774 0.07495124 -0.014824716
0.28394777 0.001172783 -0.20944238
-0.15360104 -0.08955733 -0.0017003032
-0.10406169 -0.22796021 -0.17174585
-0.27428737 0.27518237 -0.008474051
-0.23343994 0.22815499 -0.07410994
-0.004007739 0.187898 0.123374216
-0.113556184 -0.2777582 -0.2017036
-0.12093149 -0.09331168 0.013187856
-0.21713749 -0.08846615 -0.10347406
-0.0861531 -0.06618021 0.06613068
-0.046754487 -0.07823149 0.044058796
0.012012209 0.2824613 -0.06512662
-0.18029897 -0.248873 -0.14138828
0.30828983 0.10913056 0.10681807
-0.16696711 0.17861775 0.05400368
-0.0015618717 0.22523911 0.05296543
-0.18466465 0.21660665 -0.17171842
0.17958204 -0.16270271 -0.020777274
-0.28217784 -0.22514953 -0.27340752
0.022823062 0.04588048 -0.03302854
-0.11113066 -0.109165385 0.076738864
0.14008409 -0.046774056 0.024594622
-0.07822151 0.24396984 0.10490193
-0.2423877 0.13163373 0.054990362
-0.22511213 -0.27395663 -0.12949777
0.30599424 -0.25308383 0.027627058
0.12334713 -0.045582965 -0.03558876
-0.273034 -0.09239126 -0.22240141
-0.27344546 0.03535336 0.022175731
-0.105737254 0.117994174 0.0661382
0.20483318 0.046687894 0.017929997
-0.11295716 0.20152701 0.030354524
-0.10286238 -0.21125019 -0.17953533
0.34353387 -0.21018042 0.0076134847
0.13300614 -0.16577661 -0.015933719
0.045572788 -0.18632208 -0.23931779
-0.082926445 0.25909612 0.06461162
-0.034437176 0.14005157 0.022136278
-0.20154826 0.02700124 0.102221236
-0.22984518 0.04374037 0.023797117
0.29915106 0.0904274 0.049798377
-0.24466106 0.037129723 -0.18128523
0.34011984 -0.023593267 0.041141666
0.2934908 -0.03182492 0.10606438
0.28028685 0.007755395 -0.04522834
0.20915537 -0.05121765 0.038726892
0.20684701 -0.24901357 -0.06926899
0.27877867 -0.20862353 -0.023235502
0.12056884 -0.20487447 -0.2048517
-0.18391861 0.18284857 0.04754628
-0.20654212 -0.0005606703 0.10327891
-0.046321243 -0.2412281 0.006243155
0.07749405 0.16315247 0.071128994
-0.18397906 -0.0028168885 -0.065240346
-0.18826604 -0.19358315 -0.17076327
0.04386279 0.031180551 0.017648851
-0.01346724 -0.22372964 -0.072839454
0.19836524 0.053158674 0.03780852
-0.11813838 -0.15414818 -0.18327746
-0.26870853 -0.18329243 -0.1865639
-0.032105293 0.26132026 0.101095706
0.13374378 0.09828288 0.05484422
-0.26821908 0.09323166 0.1038255
0.2536092 -0.09421845 0.013109611
0.14579423 -0.16488418 -0.0325753
-0.27025038 -0.16258222 -0.24253404
0.05882611 0.074655935 -0.0051254053
0.10289774 0.12905483 0.032005414
-0.08861724 0.20676583 0.092929944
-0.16878425 0.1866108 0.067302614
-0.13255562 -0.06252512 0.09286265
-0.32145604 0.038879495 0.10801672
0.04093974 -0.17837536 0.06052991
-0.13528022 0.010959619 0.040768895
-0.28922936 -0.04637256 0.05818346
0.2541495 -0.35278472 -0.011931985
-0.09420131 -0.0029854728 0.0428328
0.006313615 0.29921958 0.1026752
0.1621173 0.06948697 0.024426097
-0.16576366 0.2252584 0.052452132
0.13350493 -0.16585805 0.04634013
0.12958728 0.014739267 -0.00525941
0.1271738 0.23697409 -0.0026095482
-0.04416002 0.12376381 0.020248791
-0.18961509 -0.17820746 -0.0009296963
-0.29613248 0.12226903 0.03062323
0.2553503 0.07063861 0.11137797
-0.24741568 0.016012741 -0.0058767954
0.10840309 -0.15809213 -0.0074708415
-0.055197127 0.25458074 0.057840697
-0.28350478 0.104011506 0.12322923
0.15216084 -0.06765017 0.04415392
0.29948205 -0.027897866 0.074411176
-0.19187024 0.2119041 0.1000469
0.28877258 0.00886659 0.041902043
-0.2615604 -2.5606605e-05 0.096689545
0.027331322 -0.10280916 0.024712933
0.12133687 0.06706158 0.070824005
-0.10505739 -0.096392445 -0.1366166
-0.23154488 0.29160643 -0.044409428
0.1815013 -0.12147355 0.057406537
-0.2619189 0.03729201 0.0743726
-0.29656667 0.21409863 -0.05200698
-0.11869688 -0.10777106 0.09691749
-0.08482579 -0.050531037 0.09455623
-0.024140608 -0.1179831 0.01642023
-0.32789752 0.091177024 -0.011264826
0.05334419 -0.15751074 0.070957884
0.04833132 0.09990732 0.091072015
-0.0064862636 -0.036026534 0.07334543
-0.33083463 0.07602853 0.041291755
0.24420153 -0.09062514 0.00397473
0.026600877 0.30731308 0.12565236
-0.28694636 -0.026725566 0.09201202
0.032097004 0.3208229 0.01614607
-0.07064889 0.23430191 -0.18494435
0.16594572 -0.17232427 -0.0020813337
0.36357772 -0.2732995 0.015940538
0.0794929 -0.14332281 0.048548862
0.100236855 -0.24322847 -0.22047895
0.15119506 0.089615226 0.0612285
0.11452053 -0.070030786 -0.047425505
-0.25198868 0.019302791 -0.088900164
0.09737413 0.04971969 0.07115288
0.23288421 0.06613362 0.037796862
-0.116426766 -0.1727701 -0.12402338
-0.23041712 0.021052742 0.08882253
0.16003889 0.01783649 -0.001866934
0.30885047 -0.006748666 0.031484067
0.026890218 0.010618901 0.09566995
-0.0433371 0.19284785 0.06976683
0.054672595 -0.16886696 0.037323315
0.17451155 -0.00406432 -0.032306086
0.24937262 0.032864515 0.10189869
0.19734883 -0.1327829 0.0067695095
0.10277095 0.059422176 0.08766271
0.0059512993 -0.18503743 -0.19062217
0.2412295 0.13947801 0.0047565848
0.04380135 0.009590527 0.050713725
0.05762724 -0.041623995 0.07512755
-0.32309803 -0.25340292 -0.28594667
-0.07177636 0.20551795 0.12846418
0.24689507 0.15660532 0.008168402
-0.1208762 0.20479672 0.049569346
0.22596367 0.13276947 0.032822456
-0.21625629 -0.13293093 -0.11821798
0.02401473 0.009415766 0.059886694
0.06437517 -0.0064834203 0.0026138877
0.033791758 0.039400414 0.017016336
0.15852658 -0.06138698 -0.025645323
0.033435438 -0.21193488 -0.07234485
-0.18445843 0.25677526 0.062432494
0.10103472 0.14188056 0.12011237
0.16314013 0.02625932 -0.00045753733
0.13782534 -0.21954522 -0.09780151
0.33590728 -0.2332904 -0.03688061
-0.07746825 0.048762657 -0.08508067
0.20320399 0.031961173 -0.0173736
0.110729024 0.19532484 0.04491825
0.31480286 0.027731018 0.11348522
0.086453274 -0.23892944 -0.05151597
0.14168121 0.21505909 0.028379204
0.10920748 0.07485746 0.1039145
0.27084827 -0.00090986595 0.06744584
0.31792775 -0.14715278 -0.24148265
-0.046858337 0.23555483 0.13585228
0.2853817 -0.32597867 -0.030132135
0.03755859 0.14954868 0.099511206
-0.13019818 -0.012969506 -0.0049269027
-0.18265294 0.19651262 0.08480512
0.27504992 -0.19540529 0.06646226
0.22375269 0.11348149 -0.027234653
-0.18865901 -0.05475639 0.03408584
-0.18525234 0.17988555 0.086823344
0.21633342 -0.12054088 -0.012858057
0.24465826 -0.20861618 0.012176389
-0.06060094 -0.099470116 0.067426674
0.1092302 -0.21076833 -0.06103835
-0.24293105 0.03192915 0.024699386
-0.1351965 -0.08066913 0.03268882
0.06408321 -0.037306793 0.02482123
-0.26246908 -0.0090539 0.04440532
-0.27621564 0.1802819 -0.23371491
0.32565895 -0.30619773 0.048664376
0.28354543 -0.1807241 0.034636144
0.05139223 0.061815407 0.08593758
-0.11625573 0.1210034 -0.016494079
-0.091887936 -0.2342943 -0.17622328
-0.0842368 0.3082223 0.10099007
-0.20957007 0.20114763 0.057349022
0.307127 -0.32692385 -0.024498496
-0.026429787 0.33630094 0.078888215
-0.05788559 -0.122168936 -0.13131987
-0.28649604 -0.072327934 0.04901652
0.03620407 -0.18195997 0.0012527204
-0.103498474 -0.124399275 0.08690241
0.031356316 0.2720821 0.017600976
-0.13605136 -0.0548204 0.01824983
-0.15805629 -0.11151243 0.04373491
-0.13832048 0.23041841 0.048860032
0.096299045 -0.1719172 -0.23875488
-0.06298649 -0.15361652 -0.054373406
0.15427226 -0.11525076 -0.041201647
0.08889072 -0.032750785 0.029242367
-0.21470696 -0.20083602 -0.24779457
0.12764412 0.17821243 0.01777615
-0.24353264 -0.18223307 -0.2069915
0.29316333 -0.31839153 -0.005781369
-0.2213112 -0.1536017 -0.056948356
0.21767998 0.046040308 0.052334685
-0.06973154 0.22856878 0.11623184
-0.071316935 -0.22062892 0.0033526146
-0.20329067 0.2994318 -0.02449859
0.27582628 -0.21275781 -0.1220603
0.058533546 0.07160586 0.06705251
0.2770445 -0.09299993 0.035380594
-0.009303779 0.082754225 -0.014762885
0.07359972 -0.15976928 -0.001485821
-0.26575056 0.109377414 0.056914628
0.0737011 0.21550995 0.07119687
-0.1067519 -0.20774648 -0.2053691
-0.025686245 -0.08443108 -0.0030993875
-0.093825385 0.043073673 -0.05159533
-0.21507367 -0.1200625 -0.2504174
0.020812346 -0.16082262 0.0360621
0.31176254 0.1352833 0.039188635
0.017006986 0.19557539 0.051100407
0.12777603 0.08710049 0.029052043
-0.043350436 -0.10404914 0.0018277495
-0.21477382 -0.11232328 -0.23324062
-0.2366866 -0.0025238527 0.04502666
-0.16461445 0.15871254 0.057692043
-0.28340995 0.07040747 0.05366936
0.04576884 -0.15149723 -0.0430897
-0.010337047 0.29601622 0.119023256
-0.19680785 0.23663476 0.008140071
0.19799808 0.053109374 0.032290462
-0.30290636 0.030102933 0.029646058
0.09847027 0.090871446 0.046518285
0.12170677 -0.02877817 0.08978853
-0.25864175 -0.031494495 -0.1620184
-0.29593918 0.18370557 0.11404058
-0.11539172 0.31708452 0.0066126636
-0.19506076 -0.029407993 0.09355554
0.26833138 -0.09899138 0.022282615
-0.2807594 0.07691311 -0.022161273
-0.19569172 -0.105976254 -0.22013146
0.15488487 0.09199974 0.04480461
-0.21535061 -0.0024644637 0.08978823
-0.21558696 0.27845675 -0.1613091
-0.1583747 0.17179616 0.0712455
-0.23640798 0.11671912 0.06564027
0.22110021 0.11793489 0.103221394
0.24998763 0.004695053 -0.0023837662
0.08048835 0.20806302 0.09333996
0.18428817 0.09833279 0.10998893
0.038815103 -0.13078937 0.03367546
0.25281945 0.04425004 -0.19527581
-0.063021556 -0.20369396 -0.21430491
0.1628704 -0.2536112 -0.0258413
-0.051268727 -0.18131675 0.0037444108
0.15432706 -0.22908847 -0.10988444
0.030454054 0.15426424 0.12138627
0.07031626 -0.16603112 -0.060327128
-0.16946602 -0.058411304 0.036059547
-0.29089153 0.0001723625 0.0052210474
-0.07986365 0.20937033 0.10601039
0.31102115 0.109466664 -0.056370027
-0.25008127 -0.16416049 -0.17482136
0.23763141 -0.087589994 0.06051797
-0.24626145 -0.1682145 -0.2613869
0.26312095 -0.18370777 0.09271319
0.09560561 -0.25068858 0.04189403
-0.059190936 -0.015067475 0.07566811
0.18623537 -0.026693048 0.005721309
0.023351742 -0.086072505 0.0022673209
0.10328179 0.2183042 0.05572398
0.26785192 -0.00826252 0.013769829
0.26988414 -0.18376273 -0.022121182
0.17419073 -0.028779326 -0.054080468
0.21091783 0.04420058 0.08830139
0.0014707174 0.17517391 0.1017318
-0.18039083 0.17297265 0.08986649
-0.03847454 -0.083247185 0.06635769
-0.21675333 -0.20479959 -0.19110651
-0.10653633 -0.11006978 0.093199804
0.2853835 -0.19605927 0.06490214
-0.025818834 0.104882866 0.01602011
-0.024094606 0.24443081 0.12481053
-0.16477926 -0.223281 -0.13220917
-0.14092498 0.26721752 -0.17926107
0.117304474 -0.10372799 -0.03865842
0.29252258 -0.1453115 0.08991411
-0.048636504 -0.19198346 0.010115813
0.17703775 -0.18269862 0.06447117
0.35509324 -0.30493507 -0.06028561
0.22371797 0.13486363 0.030578878
0.29047856 0.0052758614 -0.15457663
0.006410509 0.17671978 0.05970408
0.06413218 -0.12236234 -0.013854235
-0.016409 0.14318496 0.029889895
-0.21113035 0.08224417 0.05221525
-0.036729667 -0.121514834 0.0009888449
-0.22789638 0.23507921 0.085859224
0.16479978 -0.21346782 -0.0071942173
0.16632073 -0.17601827 0.038380813
0.2620894 -0.0143578565 0.00576897
0.03753141 -0.09614475 0.074428014
-0.07541646 0.06194526 -0.11114879
-0.13702036 -0.0025524772 0.022817152
-0.06717437 0.1876282 0.005277033
0.22983898 -0.15019336 -0.013543445
0.295989 -0.14826179 -0.07883552
-0.10819343 0.017734295 -0.058131352
0.076263115 0.21818806 -0.13548015
0.1453508 0.045519475 -0.0118745705
-0.10130603 0.28273013 0.048743125
0.27550173 -0.10778859 0.073531106
0.16242264 0.0019683898 0.021934088
0.15136863 -0.25397834 0.009269181
-0.17546083 -0.050298266 -0.18792896
0.27587235 -0.23669322 -0.057954792
0.3360165 -0.23513973 -0.09417438
0.1649427 0.12048706 0.11696133
-0.16786453 0.22887407 0.11527969
-0.046893857 -0.18198912 0.018957743
0.10516121 0.06033039 0.07534254
0.22519602 -0.15877576 -0.027287304
0.22876464 0.052567188 0.043461442
0.2521808 -0.25065178 0.039531346
-0.005169524 -0.07859703 0.046645865
0.04313846 -0.26516977 -0.26335728
-0.08289128 -0.019587805 -0.010668695
-0.028530195 0.33373347 -0.029121695
-0.0021741185 0.21227573 0.08265283
0.19185917 -0.16670679 0.021860212
0.030166976 -0.0845802 0.046234287
-0.12727949 0.14153458 0.13533242
0.21859893 -0.007959692 0.014179077
0.028793486 -0.10632485 0.06354245
0.22435233 -0.20549856 0.02378451
0.005489751 0.12775947 0.037621364
0.15661502 -0.23229557 0.0071921097
-0.21508382 -0.14621384 -0.20713162
-0.185853 0.15180434 0.13452175
-0.19804975 -0.22737542 -0.20916668
0.29804105 -0.26872054 0.06467602
0.07072273 -0.09837255 -0.02294684
