# .PCD v0.7 - Point Cloud Data file format
VERSION 0.7
FIELDS x y z
SIZE 4 4 4
TYPE F F F
COUNT 1 1 1
WIDTH 1000
HEIGHT 1
VIEWPOINT 0 0 0 1 0 0 0
POINTS 1000
DATA ascii
0.24584535 0.14169112 0.080592185
0.17331384 -0.10336029 -0.18404435
-0.060652055 -0.03236392 0.0020505285
0.20560826 0.21095006 0.102991365
-0.12830907 0.14546211 -0.15099597
-0.16604903 0.026712561 -0.22469354
0.12433798 0.018110795 -0.13783686
-0.0072482065 0.26694185 0.09381246
-0.038499266 -0.09596247 0.08635205
0.04626411 -0.10146359 0.105256625
0.019495668 -0.19294457 -0.011229449
-0.17421815 -0.008556609 0.0006556179
-0.069132894 0.033824604 0.073573336
0.010237067 0.18105233 0.038379468
-0.19849743 0.25224847 -0.1625371
0.018586785 0.014980856 0.024346722
-0.21514685 0.22718413 -0.14326507
-0.13771987 0.3139535 -0.15405747
-0.19110444 -0.22704497 0.041407406
0.18633659 -0.17556475 0.008539351
0.008724955 0.25835344 0.057629913
-0.10217421 -0.11544147 0.013616213
-0.07540197 0.18698485 -0.09812876
0.12251902 -0.07091691 0.056955032
-0.1526685 0.12024454 -0.0075851674
0.20284128 0.20612179 0.056894664
-0.12191079 0.2461984 -0.11727142
-0.070599064 0.024137093 0.016030852
-0.04064093 0.019324563 0.084552966
-0.17554143 -0.20717554 0.07471226
0.02021912 -0.13128974 0.07814946
-0.12554626 -0.26169106 0.035177644
0.25266865 0.019031428 0.05291789
-0.053582553 -0.19479464 0.03781717
-0.07758312 0.06713189 0.07256846
0.05095927 -0.018389037 0.03937927
0.18571764 -0.05227029 -0.036295444
0.31661293 0.20253174 -0.09061092
-0.2687585 -0.20150372 0.016986566
0.27584627 0.060228787 0.046824265
0.36266142 -0.010593836 -0.06828335
-0.113449655 -0.14052431 -0.015532747
0.09123562 0.24369155 0.069010414
-0.07930313 0.07421434 0.046793923
0.24261773 0.16386896 0.021386296
-0.23366688 -0.09649507 -0.049776666
-0.14845626 0.097275555 -0.08237014
0.03311647 -0.07761406 0.018512601
-0.058874078 0.14269266 0.026360428
-0.09595867 -0.21913734 -0.009415998
-0.0891217 0.27384973 -0.2018036
0.22055024 0.053108707 -0.019391838
-0.22603169 -0.23627141 -0.0902888
-0.11176501 0.07527602 0.017477907
0.24815428 0.07845065 -0.23279016
-0.0037201182 -0.15951672 -0.034460384
-0.06969572 0.0526037 0.050264247
0.098023094 0.21023498 0.0294716
-0.24976413 -0.12221388 0.030169519
-0.05403166 -0.10915085 -0.0077954344
-0.014455808 0.15316741 0.063741535
-0.20954269 -0.09440361 -0.070540845
0.1715838 0.07684055 0.048931427
0.30773243 -0.08963825 -0.043257136
0.18860586 -0.12852968 0.044522915
-0.22874841 -0.22254007 0.039668854
-0.09645479 0.14009708 -0.048850667
-0.17675059 -0.25869578 -0.1151964
0.1978102 0.20869084 0.039041203
-0.21210374 0.027815158 0.042504884
-6.812515e-05 -0.13407262 -0.013503279
-0.150262 -0.15622854 0.018095665
0.11815557 0.22320049 0.06374406
0.06273389 -0.0023984683 0.024886373
-0.26020834 0.20650852 -0.1374269
-0.051381115 -0.2984498 -0.087676615
0.07349439 0.20422272 0.010323766
0.29110342 0.1863404 -0.023297632
0.28115082 -0.07364917 0.045590658
-0.088301755 0.2802648 -0.17719822
-0.01988809 0.040311255 0.032015882
0.023991913 0.05675078 -0.0048474506
-0.11078811 0.007817465 0.0674703
0.18590125 0.077882454 0.0101040155
-0.00883224 -0.056115698 0.04643036
-0.13460132 -0.066357784 0.03434612
-0.1529348 0.23876104 -0.07640195
-0.17050743 -0.17055912 0.037308548
0.05816938 -0.24528714 0.021947747
-0.2457543 -0.21260667 0.12452149
-0.20533542 -0.110122025 0.005055872
0.069604814 -0.1305662 0.08717862
-0.04889239 0.16878156 -0.05260606
-0.19913897 -0.16517715 0.08548704
-0.119487494 0.019571617 0.030921668
0.18891436 0.3045003 0.050390013
-0.10275192 0.21415566 -0.056947853
-0.15471366 -0.2622921 0.07180002
0.2454555 0.14537235 -0.18620063
0.16638884 -0.14163482 0.099207714
0.13553205 -0.014614433 0.02084744
0.25708562 0.23061727 -0.23009734
0.026718143 -0.03316794 0.08983906
0.25994396 0.086740024 -0.0046305885
0.018612208 0.13257284 0.02676115
0.20506538 0.18729573 0.029744234
-0.16420177 -0.28158218 -0.113900855
0.009826179 -0.23760384 -0.044042442
-0.13605237 0.14202462 -0.11412406
-0.06573824 -0.14887638 -0.056239553
-0.099996306 0.24474183 -0.23270713
-0.039333295 -0.0012034314 0.051928952
-0.19957805 -0.06581129 0.038919445
-0.1672083 -0.07310471 0.045867454
-0.0763624 0.2683422 -0.12074387
0.06864802 -0.15279406 -0.041133706
0.110195465 0.2894789 0.044561543
-0.19269772 -0.2082098 0.10328795
-0.11281134 0.11187663 -0.15989971
0.22669421 0.04423724 0.045264684
-0.100187495 -0.025291989 0.08347602
-0.27185968 -0.24582078 -0.054228574
-0.08435797 0.09680911 0.033207174
0.22604218 0.2834243 -0.05214065
0.007221663 -0.1761776 -0.020361729
0.17174652 0.26375824 0.05509993
-0.09056302 0.2918239 -0.18907817
-0.026344506 -0.14458749 -0.039666317
0.19426452 0.2020015 0.095238015
-0.08833027 -0.08671588 -0.030516988
0.06476971 0.141167 0.022010578
-0.14561628 0.10366019 0.022349792
0.21935901 0.13466108 0.050798014
-0.20837794 -0.14776088 0.09754887
0.18934838 -0.0027985512 0.015413054
-0.29862767 -0.1540471 -0.020515934
0.21998878 0.13235834 0.05056154
-0.009802171 -0.072703786 0.056706063
-0.15509643 0.28221077 -0.17147134
0.1352062 -0.18966289 0.04768741
-0.03613306 -0.2937797 -0.3417246
0.068789355 -0.15602362 0.07740547
0.14403424 -0.09223156 0.025810102
-0.10684554 0.21963754 -0.10396179
-0.06314227 -0.25742406 0.10680856
0.04282447 -0.2980411 0.08099686
0.046916395 0.15313828 0.0937795
-0.13761966 0.10409341 -0.24700522
0.21490963 0.2237596 0.010347085
0.14282227 0.14821623 0.011754796
-0.072602674 0.28820205 -0.2343501
0.27448946 -0.07988366 0.065833
-0.18417914 -0.29463884 0.09722985
0.12782672 -0.08988734 0.015658746
0.04869935 0.100608796 0.0359787
-0.18835597 0.06718719 0.06781604
-0.016469369 -0.2390285 -0.27287254
0.18642615 -0.025849191 0.013629478
0.14001274 0.21841407 0.043981366
-0.11435249 0.33734432 -0.15541473
-0.025489928 -0.27883026 0.065945946
0.19037136 0.018468553 -0.17207174
0.09976893 0.11198035 -0.14334954
-0.31749183 -0.16882403 0.07173277
-0.050212603 0.01864847 0.094841965
-0.18269059 0.33001757 -0.24282616
-0.01817096 -0.26484597 0.028006112
0.137602 0.02297553 0.046811923
0.06313654 0.1229526 -0.013322209
0.09413009 -0.050743356 -0.03536809
0.11669473 -0.09120479 -0.02608598
0.2420682 -0.096565336 -0.02001399
0.0349297 0.0061003147 -0.059351142
-0.11780828 0.03563955 0.07592773
-0.056299064 0.117114745 0.087590486
0.27200866 0.023120377 0.046204746
-0.10348497 0.0915223 -0.11871994
0.29538378 0.08171652 0.04190835
0.11000099 0.13526517 0.034945574
-0.151467 -0.072324656 0.006138048
0.059235837 -0.16243991 0.01799244
0.004131227 -0.19395278 0.07658195
-0.32303634 -0.24655846 0.094463766
-0.15852602 -0.024541315 0.09234914
-0.17686282 -0.2902725 0.09599585
0.01730326 -0.0015860611 -0.021085314
0.08967826 -0.006362354 -0.023624863
-0.034933608 0.29038537 -0.1830207
-0.21511306 0.19819559 -0.10717726
-0.19610164 -0.108079895 -0.21912724
-0.12904829 -0.16866797 -0.028964251
0.24457885 0.1522801 0.023164831
0.18992916 0.23324221 0.0029392438
-0.10040381 -0.19670506 -0.020504389
-0.0009979295 -0.017381828 0.08553632
0.11646097 0.1287295 -0.036630686
0.16590725 0.021754159 -0.002138317
-0.06739251 0.039577834 0.01563864
-0.07819942 -0.09392209 0.038208786
0.08875175 0.099232316 0.0141798025
-0.00421648 -0.25763395 0.027219597
-0.04048852 0.074510336 0.02162316
-0.12222604 -0.2107972 0.020418396
0.26771197 -0.04958388 0.087551184
0.24827918 0.13536407 0.07669486
-0.111455224 -0.29999986 0.050305616
-0.31767428 -0.19064552 0.06652677
-0.0042048334 -0.23652676 -0.026211405
0.20800227 0.11293626 0.042732954
0.25225756 0.095712714 0.07834175
-0.09164819 -0.040639438 0.010066274
-0.11882489 0.11958721 0.053202733
0.36285123 0.053894658 0.02532998
-0.07411898 -0.25504908 -0.29236
0.15164982 -0.13208668 0.021492958
0.14113995 -0.009379727 0.035273932
-0.08144462 0.15462138 0.037350845
-0.0020746917 0.22343075 -0.26573002
0.13448706 0.030590668 0.011593912
-0.04311109 0.038895596 0.010648839
-0.14392193 0.20887576 -0.14222896
0.12801857 -0.1699509 0.06463924
-0.16090062 0.15881059 -0.14495626
-0.21943438 -0.24099804 0.038248744
0.18965282 0.07898778 -0.012017118
-0.032638237 0.3149904 -0.2047569
-0.1928322 -0.0036192522 0.0193285
0.008677661 0.040849123 0.07655756
-0.068052724 0.14220555 0.056380067
-0.12708284 -0.15444183 0.065774284
0.24738643 -0.042740844 0.054279845
0.3147013 0.14198336 -0.042381313
-0.06321152 -0.16857977 -0.0026496942
-0.011727462 0.28741318 -0.020123167
0.2262776 0.17212899 0.08257615
0.33351216 0.2047713 0.057692766
0.18566369 0.051291022 0.0014169879
0.19087058 -0.042668276 0.09694425
-0.05368665 -0.21159896 0.11976669
0.04178591 0.14590557 0.070136994
0.14526834 0.21954417 0.059141487
-0.027913911 -0.16308627 -0.0013605349
-0.19098954 -0.18621075 0.016833873
-0.16178173 -0.1925985 0.09762318
0.08669954 -0.06592146 0.014114581
0.05180689 0.2292645 0.08956157
-0.10195082 -0.18390612 0.027660925
-0.09200255 -0.25324577 0.032516435
0.10708047 -0.154268 -0.20805277
-0.17334275 0.24801816 -0.08378348
-0.16376002 -0.034483053 0.044677112
-0.08602632 -0.026912052 0.065257624
-0.19721624 -0.002349254 -0.22312582
0.1965514 0.18984959 0.03349753
-0.12381834 -0.29237622 0.04594738
0.14044142 0.21270809 0.099393494
0.012271464 -0.058983717 0.04172807
-0.013015447 0.089850545 0.033456456
0.30834273 0.15272963 0.011263449
-0.07324925 0.17703472 -0.06030788
-0.06496919 -0.06564447 0.033687837
-0.015454399 -0.2303137 -0.18738179
-0.21995124 -0.045035087 -0.020716755
-0.17209901 0.15743986 -0.11611098
0.29934445 0.12511437 -0.21425784
0.106432535 0.19006321 0.029590584
-0.19142553 -0.17623688 0.0040688384
-0.04660161 -0.23158473 -0.041946523
-0.016969165 0.09812889 0.032790467
0.153975 0.21742101 0.06376651
-0.13503067 0.015754147 0.07361295
0.30761668 0.14685778 0.04009901
0.009232033 0.039380834 -0.03237544
-0.09546503 -0.025574917 0.08979746
0.22273266 0.14934985 -0.00158499
-0.21610855 -0.07813507 0.09080403
0.20865181 0.19612214 0.046832323
0.10163728 -0.14539811 0.10695991
-0.1988846 0.13053775 -0.12020959
0.2045347 0.26941285 -0.011665465
-0.309111 -0.22734879 -0.05311476
-0.119412236 -0.22693504 0.0096669635
-0.12170868 -0.17883529 0.004622763
-0.05787139 -0.008134149 0.02230887
-0.092070326 -0.045844384 0.06848103
0.2615042 0.16903074 0.000981817
0.24746335 -0.090890914 0.023707848
0.1707367 0.06253607 -0.0538074
-0.043578632 -0.24016784 0.098183975
0.13911037 -0.08888744 0.06391696
0.054607198 -0.15376548 -0.031311125
0.2291322 0.08115172 0.014047975
0.22950344 -0.11429023 0.015028907
0.26148906 0.012161543 0.012153117
0.07536866 0.18120827 0.08525568
0.2169035 0.19212858 0.09873103
-0.29712972 -0.17861316 0.12054827
0.31397566 0.06759068 0.01692104
-0.076459065 0.17916462 -0.11769682
0.0697947 -0.09869741 -0.021162972
0.06432912 -0.21751383 0.0036659627
0.206659 0.13777103 0.08217661
0.26526853 0.012606039 0.0905211
-0.13353278 -0.23639344 0.07178163
0.03725261 -0.2360236 0.044961285
-0.0013400078 -0.28250208 0.09797629
-0.27432308 -0.24894439 0.044926845
0.30054197 0.00019699564 0.06014808
-0.15235391 0.0061353506 0.018978028
0.07662311 0.151019 0.05584395
0.04674405 0.25403944 -0.24187772
0.13841218 0.28290594 0.0360781
-0.0122943 0.06349718 0.07596731
-0.16641372 0.3395331 -0.21323611
0.10783876 0.16976975 0.04873546
0.114730075 0.22714855 0.076488435
-0.26250553 -0.04087812 -0.17177323
-0.04776589 0.016027195 0.043438338
-0.11718433 -0.2589984 0.049705878
0.062404554 0.24094203 -0.16598602
-0.13237084 0.21655118 -0.08082244
-0.048256557 0.12773891 0.08033165
-0.17485273 -0.25338957 0.028816352
0.064594604 0.20954365 0.011416571
-0.19934094 -0.24339132 0.07951213
-0.20676214 0.19049174 -0.20055023
0.20122449 0.17707467 0.10132486
0.27283895 0.012182816 0.10654564
-0.07749953 0.26196814 -0.1514935
0.21004501 0.05396144 0.029203722
-0.13853051 -0.0677441 0.03481939
0.18398213 0.14611354 -0.23616931
-0.197077 -0.02063435 0.033717148
0.20800075 0.046273638 0.05353693
0.019964423 0.0049947766 -0.032911807
0.06206808 0.11395605 -0.06250608
0.045751285 0.094423555 -0.015200822
-0.004961424 -0.14007322 0.037105758
0.3035243 0.18847601 -0.17465214
-0.21089448 -0.25738373 0.055302456
0.0009822942 -0.23042236 0.03452472
-0.014630677 -0.24927294 -0.12741396
0.031508073 -0.03040445 -0.22928122
-0.09348995 -0.035522904 0.04573244
-0.11189315 0.21253552 -0.07053798
0.07863594 0.19730231 0.06891788
0.0014318218 0.17226028 0.024995746
0.114513755 0.008420868 0.052066535
-0.1303717 0.16239026 -0.16393116
0.2719595 0.1405181 0.09625314
0.3259378 -0.09138796 -0.03333327
-0.23084798 -0.26301125 0.039371293
0.23347011 0.21247269 0.026290283
0.26810974 0.12863837 -0.22084053
-0.08960923 -0.07364835 0.09186659
-0.04799428 0.2608136 -0.14019917
-0.24460497 -0.29911575 -0.19390044
-0.27705246 -0.22333539 0.019028671
-0.16229688 0.26091757 -0.20760258
-0.17909345 0.17992254 -0.079815574
-0.17838734 0.038360998 0.076708324
-0.22316097 -0.22062697 0.09399043
0.27468646 -0.0010987748 0.09465379
0.20802382 -0.08602055 0.08040225
-0.14587945 -0.037150804 0.08889076
0.0035118076 0.0070805945 0.10493721
-0.105944805 0.09136405 -0.068283364
0.19877371 0.027336713 0.057389397
-0.3270864 -0.180381 0.11707427
0.27368963 0.03245456 0.023235234
0.2475699 0.18351269 0.082184605
0.057827026 -0.09634893 0.009795772
-0.12388231 -0.07535935 0.05013145
-0.28076124 -0.24823889 0.1166228
0.046653457 -0.09186311 0.0954962
-0.24291539 -0.18665527 0.09028612
0.03066713 0.2713247 0.076159745
-0.09345977 -0.2030761 0.007886636
0.2504645 -0.008208953 0.032933664
0.11418478 -0.1628085 0.10545003
-0.13050848 0.05458577 -0.022786893
-0.14064558 0.13930835 -0.22131683
-0.261911 -0.20338552 0.06252362
-0.16029848 -0.2567357 0.017957058
-0.01749347 -0.094072446 0.026982332
-0.16412507 0.26921967 -0.15598743
-0.18188637 -0.16019349 0.038266744
-0.13981143 -0.2790495 0.105785176
-0.28771192 -0.23349717 -0.007974371
-0.0003907004 0.14898355 -0.01607204
-0.06447034 -0.18174364 0.095268585
-0.1132846 0.21712394 -0.17417234
0.1642946 0.1488709 0.05017124
-0.21082924 0.01446673 0.043558102
-0.14443412 0.1014917 -0.07291072
0.19489233 0.17713961 0.05852483
-0.21067633 -0.21270223 0.054385327
0.046345882 0.0019895663 -0.071730465
-0.27674934 -0.16157646 0.058205783
-0.010551754 -0.0012216911 0.042422734
0.21664 -0.06499103 0.008438469
0.077740505 0.20092133 0.03143024
-0.20226772 -0.11151282 0.075295955
-0.08375824 0.20873533 -0.1028092
0.16703816 -0.16243654 -0.058899283
-0.16255814 -0.19264837 0.016484288
0.06338585 0.31134012 -0.08816192
-0.27694267 -0.25430128 0.032523904
0.2696018 0.17973398 0.031958975
-0.18367411 0.29215792 -0.15229021
-0.040444054 -0.097316496 0.036988094
0.31897667 -0.012466559 0.016803354
-0.16503587 0.32809293 -0.18339011
0.23290242 -0.06243923 0.054048818
0.25291464 -0.100631475 0.095031455
-0.29364607 -0.21814889 0.055475514
0.19662641 0.05247662 -0.02064477
0.15787472 0.097110294 -0.2202815
-0.23204874 -0.19471596 0.06746882
-0.16960783 0.041340116 0.06162246
-0.065765336 0.22367114 -0.072112426
-0.25804406 -0.16433609 0.04075375
0.11421374 0.0032510187 0.0032723013
-0.064869545 -0.111278564 -0.027260417
0.032636046 -0.32559893 -0.0015870953
0.34769547 0.08171864 0.08246369
0.055231363 0.007211994 0.006697296
0.14059928 -0.13056928 -0.07484839
0.3458805 0.053900257 -0.017677186
-0.24092874 -0.1813948 0.04127377
0.13846394 0.18300757 0.047576103
0.0111237895 0.120605096 0.062179632
0.13349792 -0.10152659 -0.00839775
0.05219778 -0.082961224 0.08159603
0.06626244 0.2244678 -0.05783871
-0.11100466 -0.19733557 0.018419221
-0.010446876 0.13306239 0.07384041
0.13742308 0.053101953 -0.09370775
-0.2956938 -0.20571585 0.091014355
-0.107657574 -0.23211432 0.04150864
-0.27849123 -0.10805698 0.03832652
-0.14615683 0.29382727 -0.16863348
0.19268614 -0.1409618 0.1047146
-0.12619898 -0.12516354 0.044623625
0.2990392 -0.025032073 0.06965169
0.03919879 -0.072120056 0.069045775
0.086283706 -0.10496807 0.00863782
-0.13594611 -0.053342182 -0.17749223
-0.060037505 0.098023094 0.022282286
-0.18527927 0.20288958 -0.08248307
-0.07362065 0.2474796 -0.18286544
-0.15097646 -0.020494036 0.0141798565
0.1674892 0.2130246 0.09576039
-0.050473727 -0.16694184 0.043203086
0.2067843 0.10492058 0.011286877
-0.117219746 0.034678824 0.08997853
-0.2286919 -0.18999249 0.08707661
-0.19231208 0.2774755 -0.12326715
-0.17036286 0.22624563 -0.12047692
0.0521853 -0.11804751 0.012126959
0.21236928 0.16385145 0.070527285
0.0034716756 -0.0070145805 0.037754744
0.03125999 0.07628708 -0.0011563696
-0.16936214 -0.23940903 0.04594599
0.05684387 -0.12898932 0.105399534
0.09843945 -0.10098788 0.04742461
0.25609612 0.04711227 0.010321269
0.040505838 0.019280698 0.033779055
-0.18266916 0.23520236 -0.15938212
-0.16175528 -0.08435287 0.033390403
0.1444188 -0.0527041 -0.004203967
-0.20644107 -0.27184272 -0.08787087
0.21384853 0.1677241 0.03243456
0.06527319 -0.21206218 0.01177026
0.13947043 -0.062967725 0.06935839
0.026552632 -0.24215516 0.02504504
0.15559104 0.1896993 0.074861616
0.1686683 -0.09115218 -0.004891909
-0.030297635 -0.06717815 0.06932248
0.032810763 -0.02045983 0.066358924
0.3679278 0.05834587 0.025172273
-0.09026194 0.1268008 -0.12065771
-0.0850653 -0.24893713 0.0053189094
-0.039001774 0.13439882 -0.050344124
0.22383845 -0.14421408 0.015543228
-0.25872627 -0.23106831 0.114176735
-0.09268818 0.22697917 -0.16114147
0.06052654 0.1864075 -0.013177466
0.16611837 0.18601273 0.030576143
-0.11908479 0.31276083 -0.14534356
-0.16622086 0.28114972 -0.17254765
-0.17055532 -0.039636035 0.04182935
-0.1604394 0.18007116 -0.12708783
-0.0043590516 0.26708484 -0.22554371
-0.032951478 -0.19740225 -0.031239381
-0.04453085 -0.1931559 0.09044913
-0.15532382 0.17974436 -0.1079323
0.23253155 -0.08565548 -0.013588422
-0.061814107 0.2292859 0.08215439
0.19787154 0.025056098 0.06810084
-0.36936006 -0.2063037 0.018886967
0.23302451 -0.045592435 0.06988287
0.06047434 0.30467018 0.04951058
0.239155 -0.10252881 0.07494877
-0.21313816 0.15983406 -0.10644378
0.29296023 0.043831516 0.05208105
0.07640168 -0.06391147 -0.09997403
-0.06870653 0.25625587 -0.25828922
-0.02790388 0.014617482 0.049481716
0.044370715 -0.0561786 0.05618523
-0.15406469 -0.039821554 0.07647447
-0.16667806 -0.015465506 -0.1691731
0.16592062 0.08529996 -0.038456324
0.29729104 0.038440462 0.05878716
-0.14908199 0.16381685 -0.07751702
0.21619733 0.11718889 0.019592185
0.23265706 -0.060964465 0.07539315
-0.09497294 -0.21706985 -0.052199285
-0.2022895 -0.14296316 0.08963441
-0.10626801 0.23274218 -0.17103055
-0.17181657 -0.07323984 0.019711964
0.024473319 0.25499517 -0.0072849663
0.12427936 -0.029990256 0.036021996
-0.15130147 -0.012451462 -0.010258763
-0.15718327 0.14868015 -0.15951131
-0.057325013 -0.26365116 0.030118069
-0.2724487 -0.17813025 -0.08158393
-0.326572 -0.24032837 0.030638915
-0.021082735 -0.0021455 0.08348072
-0.3703154 -0.1897835 0.06495637
-0.14868778 0.21264046 -0.15176728
-0.16867532 0.031243918 0.02038111
0.07661349 0.09693221 -0.0035498093
-0.10499217 -0.2374511 0.02366796
0.22098418 0.04980003 0.028816307
-0.15907308 -0.24167116 -0.06319828
-0.07395662 0.10204969 0.018516362
0.032518275 0.033418123 0.032476846
-0.215009 0.2614937 -0.20414913
-0.09636624 0.23371132 -0.064175785
-0.16764267 -0.2113467 0.1270447
-0.08975269 0.25345087 -0.09754412
0.1996063 0.046787582 -0.026725661
0.07614508 0.1679305 0.014584198
0.25867045 -0.0811161 -0.01477143
0.11199527 0.23670797 0.01906043
0.06386081 0.27208215 0.07960165
-0.07994699 -0.17515808 -0.04312245
-0.17151214 -0.041270368 0.04396752
0.1161726 0.18166022 0.004346021
0.2299271 0.09455862 0.05333234
0.16909823 0.19814858 0.04530908
-0.08217431 0.17170341 -0.043436404
-0.067922935 0.15199083 0.053465642
0.043550797 0.023318386 -0.025678229
-0.22818905 -0.2827559 -0.15372813
0.23288022 0.15233119 0.031233994
0.1276056 -0.07099014 0.02196545
0.14010327 0.10339524 -0.0041097617
-0.10182117 0.23747335 0.023085143
-0.014885817 -0.24396071 0.05987341
0.24374902 0.08816897 0.05190473
-0.079115406 0.12404601 0.07569118
-0.13490275 0.06011625 0.055870578
0.17471786 -0.13352731 0.04449568
0.0013559152 -0.29813638 0.074797355
-0.17167749 -0.029072257 0.07676235
0.014978881 0.08926751 0.06102446
-0.116031736 0.29210413 -0.20102975
-0.19878934 0.22001907 -0.14136736
-0.07181131 -0.11025599 -0.020745704
-0.11028807 -0.16115244 -0.01676977
-0.20714301 0.14939663 -0.13162652
-0.07433305 0.114062555 0.08965429
0.2866747 0.16881418 -0.19417661
0.176151 -0.068051726 -0.02859088
-0.1644724 -0.13052101 0.053630482
-0.18734844 0.027770296 -0.18140715
0.08232504 0.2859486 -0.044477064
0.29274747 0.021443157 0.024631534
0.28557676 0.0022654238 0.012620655
0.14954221 -0.029960115 -0.12561968
-0.09757834 0.3330584 -0.20735213
0.013815428 0.13630082 0.03285108
-0.12012054 -0.10209335 0.041352656
-0.23057058 -0.18482226 -0.043641906
-0.18372832 -0.014652153 0.07887659
-0.13903208 -0.04046374 0.045048896
0.020193579 0.041960202 0.0337459
0.005643959 -0.27074516 0.065930605
0.07748686 0.26393798 -0.025818065
-0.08352166 -0.0929118 0.052756626
0.2672464 0.123988956 0.08466945
0.17571063 -0.115310304 0.06509897
0.07401786 0.16613778 0.03235341
0.029992212 -0.03789372 0.06344592
0.08261309 -0.1405533 0.024989622
0.3422313 0.13576034 0.02145592
-0.23352183 -0.14683948 0.07243251
0.18371597 0.061539322 -0.022743395
-0.114049956 -0.16981974 0.11543004
-0.17854927 0.10287714 -0.16155823
0.18081635 0.26987207 0.051139195
0.17078844 0.23889424 -0.023231434
-0.058129027 -0.3212128 -0.09496106
0.29129982 -0.021715945 0.0068138214
-0.036638826 0.15246506 0.048740476
-0.095956065 0.18485714 0.075828165
0.3268492 0.019378064 0.021131726
-0.13003077 0.17239204 -0.061420344
0.109932765 -0.104625344 0.024190478
0.014271227 0.24766956 0.08449756
0.15341488 0.20937042 0.07374617
0.27278084 -0.045796156 0.016159207
0.032760646 0.030400187 0.010465102
-0.27357906 0.25775 -0.14003877
0.2238179 -0.12609725 -0.06621789
-0.021631408 0.1258486 0.05013545
0.2454991 0.27629772 0.08303278
-0.16627604 -0.18695568 0.13045752
0.1073183 0.12813622 -0.06536564
0.022550726 0.10858542 -0.0667904
0.1373083 -0.12124836 0.09261113
0.2864868 0.20003763 0.100747615
-0.19656602 0.25477478 -0.14833698
0.10979566 -0.021969384 -0.025970232
0.03347291 0.23549771 -0.19914052
0.3027614 0.121118344 0.06110113
0.19294037 0.15824464 0.047564235
0.23244658 0.07367774 0.048822645
0.17224751 0.06799444 -0.02475293
-0.114186406 -0.082375325 0.046766263
0.0015298836 -0.2067679 0.11266906
-0.17621058 0.160544 -0.14468907
-0.21598732 -0.24110614 -0.25605208
0.20445894 -0.051218074 -0.20229132
-0.08773836 0.083840266 0.09770075
-0.10804342 0.16431086 0.030185005
-0.15335949 0.21386151 -0.16102162
0.12382718 -0.08439821 -0.015061241
0.30731937 0.01909806 -0.028543718
0.16931139 -0.010675281 0.043302625
0.012853713 0.26286185 -0.008922762
0.2674906 0.18734893 0.10381556
-0.12547614 0.29459834 -0.23282158
0.3427565 0.035679568 -0.017940573
-0.21644932 -0.013624308 -0.062376514
-0.19891843 -0.08436886 0.046039246
0.05616424 -0.13873836 0.036627993
-0.23331079 -0.14379233 -0.014991771
-0.23733614 -0.23719367 -0.08395408
-0.1437884 -0.054378897 0.051111784
-0.18638945 -0.019624254 -0.1936927
-0.1033103 -0.04279356 0.012178053
0.13187762 0.26724896 0.08608902
-0.18084106 -0.13674262 0.014153163
-0.3949387 -0.2539814 0.018371798
0.1685775 0.17650346 0.08555437
-0.047631994 -0.24734874 -0.031915933
-0.090176 0.051091023 0.0979464
-0.22553225 -0.27244383 0.053143628
-0.026025183 -0.1718712 0.019110661
0.032727737 0.08176624 -0.039788786
0.22145654 0.10593129 0.06654118
-0.37925366 -0.19217424 0.045278132
0.15537925 -0.12883542 0.012335845
0.11067667 -0.114228934 0.09500089
-0.010473716 -0.2769545 0.025234232
0.1903898 0.028812904 0.019884566
-0.15814102 0.17108048 -0.16718383
-0.099531144 -0.29086015 0.0469998
-0.10859931 -0.16930164 0.06536321
-0.14575583 0.26033387 -0.18341994
-0.12794292 -0.12329679 0.066789046
0.123326845 0.26014575 0.03828429
-0.15644124 -0.019710703 0.048137493
0.0007007838 -0.11803168 0.06943613
-0.15081072 -0.009682262 0.058055118
0.036136523 0.2489592 -0.120269895
0.2324554 0.07517545 0.054453496
0.18752326 -0.16322629 0.08281505
-0.059829928 0.29751536 -0.20897017
0.112604484 0.0072992686 0.005786779
-0.027975244 0.11683462 0.07723533
-0.14932688 0.03667279 0.020388901
-0.18744281 -0.07291264 -0.0030354878
-0.07894291 0.25288633 0.026646934
0.031119479 -0.04968647 0.013091596
0.017909938 -0.044836055 -0.13986464
-0.099776946 0.28135556 -0.2722909
0.26558018 -0.11184213 0.04676906
-0.056605082 -0.24844152 0.04291503
0.040422913 -0.24271524 -0.0322028
0.036067374 -0.005032784 0.0485071
-0.14153957 -0.008023853 0.07837049
-0.058090862 -0.12697752 0.063621484
-0.27265537 -0.26474708 -0.06945545
0.041904915 -0.2555816 0.009272674
0.06290242 -0.19393261 0.042130034
0.22766107 0.25662315 -0.17662877
0.23290221 -0.08549755 0.025150605
0.1781474 0.07877575 0.020767875
0.09359753 0.30568275 -0.031026943
0.13556816 0.19120942 0.054899924
0.2766625 -0.09911481 -0.09200805
0.030193735 -0.12697434 0.014661227
0.05934932 -0.17478125 -0.012952923
-0.24439792 -0.22229607 -0.06432706
-0.25025842 -0.20406264 0.036854614
0.2108241 0.15794957 0.06678659
-0.11265444 -0.30542523 0.08579722
-0.25354597 -0.25288144 0.0709238
0.26783264 0.022314139 0.07262777
0.08763709 -0.017732615 -0.12226735
-3.318623e-05 -0.15500237 0.09352243
0.08368985 0.28899983 -0.024996117
0.17039622 -0.022922592 0.10276878
-0.0200367 -0.0442475 0.07517351
-0.19422631 -0.014572843 0.03908188
0.087245755 -0.09853722 0.016791431
-0.030119788 0.18831243 0.07439677
-0.2956693 -0.22826001 0.038810033
-0.1901291 -0.18262173 0.043589696
0.056208104 0.21707256 -0.069885164
0.06497853 -0.19160992 -0.033325836
0.25706306 0.09145572 0.056889694
0.19505264 0.084137365 0.012226945
0.14471556 0.16091195 -0.2807024
0.12878154 -0.14158434 0.089969695
-0.115651794 -0.23608038 0.022785122
0.013047759 -0.2985962 0.07903976
0.01927079 -0.015196806 0.05575908
0.03590838 -0.017163854 0.040954307
-0.02474363 0.22035508 0.059732318
-0.13082989 0.0565233 -0.18836637
0.10981223 0.30506775 0.082652465
-0.019358763 -0.22879148 0.02007097
-0.20608637 0.06959122 0.0087277135
0.23899074 0.21347392 0.04680218
0.06587106 -0.0974897 0.024872826
-0.09615189 -0.08326927 0.007780549
-0.009399917 -0.14266151 0.0021508536
0.13895963 -0.013320464 -0.011395591
-0.0018076772 -0.23700249 0.082102194
-0.24697629 -0.095689476 0.010786614
0.19642246 -0.16740578 -0.097530976
-0.16672836 -0.28866652 -0.15254736
-0.26668644 -0.13671245 -0.05867301
0.028834935 0.098872416 0.0462933
0.024512807 -0.31962305 0.04811463
0.03285275 -0.3146462 0.069020964
-0.26811138 -0.18508157 -0.006531714
-0.21803693 0.041781962 -0.005200151
0.019092066 -0.07896258 0.0766574
0.09892559 0.098278895 -0.067201324
-0.079679765 -0.14614792 -0.01935538
-0.03437267 -0.114671044 0.041585892
0.21170647 0.01437918 0.002329315
0.19041894 -0.042721614 0.0077425935
-0.20977443 0.03176389 0.048490252
-0.28558427 0.012621982 -0.18385157
0.032276433 -0.030111438 0.047325063
-0.1399458 -0.13964477 0.052865356
-0.11549329 0.15395603 0.0784761
0.09161366 -0.047407184 0.004512067
-0.018339096 -0.21006534 0.04419402
-0.2846487 -0.25208682 0.075553566
0.13717048 -0.12367097 -0.24826755
0.25339428 0.13125482 0.047348805
-0.07626607 0.23190063 -0.12427739
0.060461126 -0.059459914 0.051735945
0.060368218 -0.09880716 0.02967133
0.028233407 -0.11370768 0.066046506
-0.07294551 -0.28568542 0.05646938
0.065377496 0.12611642 0.043442182
-0.1924472 -0.13270497 0.10011399
-0.030719869 0.0916494 0.09069547
0.07744224 0.09558954 0.012360239
0.042223994 -0.23922731 -0.08678439
0.23317431 -0.054913905 0.08231468
-0.043206852 0.047574136 0.07403042
-0.2007671 -0.28015924 0.08400257
0.20417336 0.068713196 0.07025052
-0.1472707 0.1932023 -0.109221004
-0.15978211 -0.2657155 0.05756602
0.16698885 0.15978003 0.015089449
-0.05848688 -0.25903198 0.04092813
-0.0723417 -0.18529113 -0.0035625496
-0.033961453 -0.13262707 0.061628945
0.066212945 -0.19788778 -0.035072442
-0.12059418 -0.24291639 0.10344451
-0.08315526 0.22196122 -0.16868606
-0.19185178 -0.14113224 0.07997047
-0.23726542 -0.18508622 0.07646231
-0.13001694 -0.010928607 0.028453533
-0.13245158 0.093303815 0.011903708
-0.06591312 -0.11698783 0.00080244825
0.035539705 -0.02966726 0.023125133
-0.11504016 0.30821773 -0.23817623
0.06823743 -0.102675684 0.03516231
0.033328213 0.22499028 -0.010585036
0.018620685 0.23744006 0.07519984
0.08205221 0.201591 0.05009554
0.128394 0.12004046 0.03394265
0.1001016 -0.02350154 0.009725262
-0.001838276 0.016731204 0.006449417
0.33009022 -0.040870383 0.10570671
-0.1803196 0.014448937 0.010088888
0.29894778 -0.00936482 0.07084
-0.24887799 0.22965342 -0.13846357
-0.10811693 0.21413523 0.008816569
0.019733416 -0.2193254 -0.001961503
-0.102843456 0.13796455 -0.13823144
0.23820384 -0.1738498 -0.14266321
-0.05432014 -0.20832123 -0.011788411
0.030271826 -0.02830369 0.03135045
-0.061989248 0.020033285 0.0749757
-0.06490717 -0.3226282 0.1048859
0.31067434 0.15617017 -0.059785772
-0.14547287 -0.03797241 0.005516934
-0.02869837 -0.21745016 -0.019066738
-0.108352974 -0.049978737 0.025092598
0.027828416 -0.10452703 0.04455596
-0.28144372 -0.2352773 -0.014603968
0.30130547 0.20990297 -0.22687027
0.0027434935 -0.01184745 0.106974766
-0.2712466 -0.13419208 0.0031076046
-0.25688496 -0.2752413 0.010493033
-0.19846362 -0.12820375 0.08833339
-0.02125348 -0.17519452 -0.015024002
-0.26724538 -0.2112227 -0.057440292
-0.26081818 -0.24569553 0.11802152
-0.20161732 0.044576008 -0.14881757
0.2549879 0.18180521 0.011097908
-0.20286396 -0.25923744 0.075144924
-0.15454519 -0.23214333 0.016666235
-0.11002346 0.16229977 -0.11592811
-0.029855706 0.1062073 0.03477693
0.08259219 0.01592289 0.014193464
-0.10877549 -0.15053561 -0.009189244
0.012175485 0.2023954 0.04869904
-0.103859946 -0.050643783 0.07523953
-0.11043006 0.08158578 -0.061594415
-0.2523885 -0.27917543 0.060700934
-0.08536802 0.0060459115 0.06753934
-0.014081421 0.27599466 -0.062417377
-0.28826836 -0.23346531 0.06285596
-0.07607799 0.17676674 0.028230887
0.22996418 0.16131133 -0.19753146
-0.055095103 -0.26241714 0.039658718
-0.10691663 -0.2587692 0.037262946
0.33106154 -0.015507178 0.08330598
0.15601589 0.09446416 0.08962418
0.19674648 0.28092444 0.107405506
0.2348537 0.0061081056 0.049192753
-0.03920774 0.06810994 0.0019416603
-0.091398485 -0.06912234 0.036802385
0.28324077 -0.009828342 0.07475194
0.1528706 0.084133714 -0.13670991
-0.14070672 -0.18523541 0.08053216
-0.2066335 -0.0789093 0.044705793
0.30734086 0.06720921 0.029983338
-0.23530057 -0.26735482 0.085912466
-0.30634347 -0.21622993 0.055269837
0.29604095 0.025808003 0.070367314
0.35162532 0.05287782 0.013328993
-0.00528178 -0.3059133 0.0627831
0.022578994 -0.20273426 -0.034057766
0.14548212 0.096211046 0.042445663
-0.10491589 -0.15544017 0.030055238
0.30334583 0.07398028 0.101056986
0.22938754 -0.009810969 0.061851818
-0.14070424 -0.30157173 0.06490089
-0.29028428 -0.2950217 0.08495892
0.057583597 0.025427548 -0.03046077
0.14409856 -0.085497245 0.073096745
0.13093524 -0.021989938 0.07302494
-0.20247938 -0.1217293 -0.009569754
-0.08938323 0.01813817 0.017485745
0.2764849 -0.11797602 0.0411399
-0.11985017 -0.0037714592 -0.086283565
0.049814932 0.035750136 0.022940172
0.27447307 0.051792573 0.054045983
0.21909685 0.24125311 0.010959433
-0.2255013 -0.28400856 -0.055004552
0.22198711 0.2375827 0.07549165
-0.21502517 0.24498825 -0.1381027
-0.09885421 0.26468256 -0.22046225
0.22655012 -0.06798589 0.10301572
-0.15864724 -0.23303652 0.1356469
-0.11544941 -0.17221722 0.041940056
-0.16617894 -0.154067 0.005957372
0.055681 -0.2807729 0.0058373176
-0.17498675 -0.3104741 -0.23389062
0.16146684 -0.08663069 0.08823387
-0.11934015 0.07541904 -0.0038459373
0.030243779 0.14437987 0.09932781
-0.2504787 -0.19090982 0.06906724
0.25388533 0.0640605 0.09250118
-0.07770824 -0.1137254 0.021860182
0.25903785 0.08989227 0.015299621
0.1943492 -0.061730467 0.020748565
-0.15204518 -0.18916756 0.114508525
-0.24132523 -0.24739951 -0.058890432
0.18346263 0.22780925 -0.03645964
0.3395631 0.057713334 -0.0072783493
-0.16765265 -0.08667417 0.0101839565
0.24289577 -0.021421194 0.02526294
-0.12605889 0.25067765 -0.22028318
-0.079001024 -0.069257975 0.0659123
-0.17063238 0.07082332 -0.0724594
0.13543455 0.1836455 0.023567691
-0.102146305 0.14102189 -0.094277665
-0.13935111 0.2698243 -0.19215232
-0.16060454 0.10922001 -0.20792705
-0.17238669 -0.019702872 0.034799926
0.026312308 -0.033417787 0.08794282
-0.111210175 -0.05559542 -0.14080352
0.22763357 0.09089462 0.034940854
0.022299921 -0.21061233 -0.018700715
0.2068287 -0.0037853753 0.046549726
-0.1991905 -0.29744223 -0.18644717
-0.010273282 0.098547064 0.050358523
-0.059215892 0.29906523 -0.23331474
-0.06620026 -0.051166557 0.06888995
0.07684014 -0.012750785 0.011680787
0.08153274 -0.19380163 -0.025166988
-0.082425155 0.12589261 0.022597082
-0.16862327 0.059910666 -0.15233096
0.21260698 0.2177696 -0.15308107
0.23948812 0.035068937 0.096386954
-0.056640156 0.18393113 -0.061527684
0.07084348 0.0072056637 0.026731793
0.342917 0.0443495 0.026624357
0.15616071 0.116252966 0.016544735
-0.033722542 -0.1914769 -0.0295054
-0.22627085 0.018234445 -0.012153016
-0.15063356 0.32073948 -0.1943181
-0.34961605 -0.17801562 -0.115797125
-0.15017065 0.047342826 0.0059106434
-0.079437464 -0.13828093 0.08163027
-0.15742774 0.13756153 -0.033556987
-0.17719056 0.1788104 -0.1349733
0.34902465 -0.011220386 -0.07302812
-0.20149983 -0.13761456 0.061684612
0.112243794 0.16923648 0.010399889
-0.22254612 -0.26543108 -0.121145904
0.17113326 -0.057581127 0.025094414
-0.12766995 -0.29803517 0.04808993
0.1141457 -0.027689414 -0.048501123
-0.18179628 -0.16619395 0.04970595
0.35068274 0.0775241 0.02561083
-0.22721006 0.26992902 -0.10356168
0.15682115 0.22730182 -0.008598302
-0.0707962 0.2032102 -0.07861498
0.254056 0.10251631 0.071551494
-0.11606614 -0.08906124 -0.005035905
0.0634318 0.12566575 -0.10587529
0.09770874 -0.062417276 0.07671658
0.01671294 0.1941123 -0.21451561
-0.16085845 -0.022068817 0.047950257
0.2805403 0.16352408 0.029685182
0.027122404 -0.1363227 0.022777978
0.21381897 0.23453422 0.08105253
0.0613807 -0.06102025 0.055462994
-0.33368048 -0.2661593 0.09457223
-0.0825689 -0.17539059 0.0183685
-0.18845926 -0.025541801 -0.2187888
0.031054838 -0.026721908 0.013040608
0.08020452 -0.05950659 0.07983785
0.24859756 0.06905283 0.10095733
0.05135035 0.23586775 0.00080576225
0.06250598 0.21812189 0.008035226
0.18734382 0.17584749 0.10684453
-0.008997916 -0.26259914 0.0430513
-0.14127997 -0.25554723 0.08873072
-0.03870182 -0.30546513 -0.0984062
-0.07928572 -0.064290605 -0.009880223
-0.001654885 -0.28511706 0.052715216
0.27844003 0.18897654 0.03989509
0.2451459 -0.017798 0.06600527
-0.115994565 -0.23934653 0.057672612
-0.0249813 0.041188 0.016474957
0.0686706 -0.04245851 -0.0059720087
-0.014048812 -0.11727662 0.09018744
-0.2562487 -0.13454008 -0.051300757
-0.07746517 -0.085148215 -0.007774992
-0.1409008 0.09509029 -0.10007972
-0.010341952 -0.0014589911 0.056143336
-0.0995044 0.030825298 0.09028243
0.12488221 0.20701863 0.06519334
-0.02337444 0.09198669 0.10003465
-0.061537523 -0.27289242 0.050858773
-0.19063345 -0.15542673 0.09379269
-0.2631541 -0.23464778 -0.020336088
-0.072332464 0.07784006 -0.1282409
0.113540746 0.13682497 0.052160334
0.095373966 0.2288758 -0.041443296
0.23635544 -0.19230603 -0.23128787
0.23714286 -0.07072883 0.07595624
