# .PCD v0.7 - Point Cloud Data file format
VERSION 0.7
FIELDS x y z
SIZE 4 4 4
TYPE F F F
COUNT 1 1 1
WIDTH 1000
HEIGHT 1
VIEWPOINT 0 0 0 1 0 0 0
POINTS 1000
DATA ascii
0.24663602 -0.05861904 -0.030805603
0.018979274 -0.2912139 0.053824082
-0.008146033 -0.17118289 0.17846844
0.15364352 0.060797963 0.040012673
-0.04820671 -0.13722895 0.15041123
0.1731554 -0.01250348 0.036409337
0.09471495 -0.012433379 0.1140521
-0.008102068 0.31807554 -0.12613536
-0.24962668 0.0314792 -0.14634839
0.02096998 0.0094357105 0.0002513966
-0.075053565 -0.19270472 0.11683377
-0.12179655 -0.1448506 0.09884766
-0.049863502 -0.16036381 0.0153921
-0.081544034 0.18447009 0.019801144
0.028765632 0.12167928 -0.18387689
-0.13612783 0.0032092186 -0.060617257
-0.025018256 0.10821719 0.020130798
0.08707338 0.07440765 -0.15848772
-0.009821029 -0.15989158 0.070218116
0.050192006 0.34300148 -0.11030418
-0.03967372 -0.15922262 0.06414639
0.21074195 0.049697872 0.010202899
-0.10690218 0.15780202 -0.06281804
-0.110808745 -0.020657022 -0.02212726
0.24919474 0.06822188 -0.043603092
0.07186685 -0.0720659 -0.069567576
-0.030787343 -0.15229931 0.20085052
0.20221709 -0.0051573063 0.03745981
0.1405125 0.023878565 -0.03309866
-0.052093927 -0.0159611 -0.03796893
0.022022571 -0.25357231 0.07894225
-0.059608277 -0.25326744 0.0051806825
0.1632085 0.07704926 -0.0067666043
0.015354509 -0.3284426 0.0966215
0.05086516 0.13148625 -0.16432281
-0.058285687 0.12014971 0.079639725
-0.078442186 -0.16215008 0.08989117
0.034309097 -0.123015545 -0.040405013
0.22394048 0.118588455 -0.069047555
-0.18009494 0.20456527 0.0008096831
-0.06706564 0.20307235 -0.16684951
0.033725895 -0.14387983 -0.018610595
-0.029341403 0.28475916 -0.11619155
0.029915845 -0.00062210736 0.02888582
0.069322206 -0.14012231 0.029097127
-0.049529623 0.19759583 -0.14580779
-0.12876603 -0.0433867 0.091452956
-0.13798814 0.0070988857 -0.030229766
0.07541542 0.10122633 -0.112640664
-0.06758202 -0.046466816 0.16894859
-0.0026304838 -0.22043031 0.15657926
-0.06926218 -0.17352183 0.123247914
-0.119343735 -0.017998412 0.0039948616
-0.13585368 -0.301333 0.063800044
-0.061508138 -0.17925428 0.17988214
-0.0128746405 0.059265666 0.022346541
-0.13676438 -0.27890605 -0.009218938
-0.013382044 -0.060817495 -0.0073605743
0.16886549 0.06279422 -0.108576685
0.07570379 -0.09187714 -0.090780735
-0.19219841 -0.108589776 -0.04012623
-0.094425425 0.027693467 0.22687478
-0.19826984 0.045948002 -0.23197609
0.012959275 -0.011130851 -0.014702398
0.111301266 -0.16089463 0.08508107
0.2226276 -0.00089264504 0.0035734896
-0.18460299 0.01838515 -0.031114122
0.124154426 0.019864907 -0.10035947
0.122659646 0.11796197 -0.01852968
-0.08505677 -0.1312801 0.14968064
-0.012555217 -0.23958796 0.087929085
0.18396649 0.019784356 0.027549991
-0.16574778 0.24272975 -0.14375463
0.01497216 -0.30152845 0.050698962
-0.091976956 -0.012739754 0.22290778
-0.0059319516 -0.19211282 -0.03072127
0.16168915 -0.03328193 -0.04650994
0.14878194 -0.026459875 0.00943376
-0.12932204 -0.018189996 0.06481983
-0.08561404 0.226882 -0.03183418
0.19977756 0.07461229 -0.07958804
0.012592241 -0.22991142 0.07662534
0.17564404 0.09059078 -0.09799583
0.047716055 -0.08040915 0.09989958
0.1773017 -0.03672575 -0.2152426
0.016455477 -0.23770398 0.01628247
0.15572344 0.0022237871 -0.055846207
-0.19253938 0.05205356 -0.071212724
-0.13049713 -0.12908417 -0.019617006
0.080901556 0.10647887 -0.13916686
-0.047804825 0.17817071 0.056327928
-0.11344003 -0.3145046 -0.007038284
0.15494482 0.14551747 -0.16503476
-0.17318355 0.0033077155 0.17607865
0.11554901 -0.0033284393 0.045947563
0.013634433 -0.12080045 0.051912904
0.089996554 -0.04448383 0.13781437
0.06952247 0.10414759 -0.06317354
0.12428982 -0.019237151 0.026154328
-0.05517595 -0.06027429 0.15330568
0.18872312 0.051246602 0.022868996
-0.07269401 -0.12750185 0.22316149
0.055845067 0.25888348 -0.100262634
-0.07183937 -0.23916894 0.0036537144
-0.15375708 -0.15990256 -0.042627215
-0.07991697 -0.00331048 0.23044004
0.26187024 -0.04020889 -0.025754584
-0.2707905 -0.041356854 -0.03079963
0.05408497 0.18223803 -0.10255204
0.13242926 0.17106375 -0.21845296
-0.065017566 0.12678571 -0.11491848
-0.043080304 -0.2674182 0.09938135
0.11045921 -0.079764165 -0.063304275
-0.09399638 -0.035506785 0.17338322
0.18363763 0.2120141 -0.080426194
0.12431598 -0.08914484 6.923958e-05
-0.14028478 -0.21610954 -0.017412411
-0.14634202 -0.0743397 0.09781676
0.25172612 -0.09184469 0.017008625
-0.02387298 -0.11812161 0.064639285
-0.19912907 -0.1675935 0.014700686
-0.082668595 -0.030338746 -0.034593306
-0.0376122 -0.18762925 0.027796708
-0.13467516 0.21797296 -0.006482327
-0.22276019 0.113119446 -0.074727744
0.00048274366 0.07769969 -0.10252044
-0.15457878 -0.012884751 -0.016517634
-0.019877126 -0.18442254 0.056977697
-0.02532267 0.03545568 -0.040750276
-0.014702668 -0.17256677 0.12397909
-0.05478858 -0.29838955 0.14007227
-0.0558626 0.08820868 4.7786238e-05
-0.08695696 0.20480536 -0.00077871664
-0.010726686 -0.18945251 0.20905402
0.033036526 0.14768484 -0.14336407
-0.07955322 -0.03029126 0.016683936
-0.15246789 -0.06443752 0.09135252
-0.022298109 -0.23100089 0.006406498
0.05067703 0.13731648 -0.20334747
-0.09372215 -0.062275056 0.20236598
-0.03822165 0.2560906 -0.09742168
-0.0848691 -0.00020014045 -0.033153806
-0.09034392 0.21849172 -0.21387734
-0.1179078 0.18060398 -0.039993357
-0.12474179 0.09986586 -0.1611808
0.18056902 0.009046981 -0.026392048
-0.23486158 -0.15606187 -0.071086355
0.006081439 0.21620531 -0.11234282
0.015585717 0.033467986 0.094463535
0.12535834 -0.1360323 0.13473268
0.025659053 -0.36612454 0.08065842
-0.050810236 0.114851385 0.08144465
0.08697947 0.015005272 0.044752758
0.06090984 -0.1525312 0.052380823
0.09762168 -0.043122612 0.11017614
-0.05524681 -0.1031934 0.15836224
0.03472997 0.24149221 -0.15001772
-0.24229057 0.009920187 -0.03558516
-0.20706917 0.11409452 -0.05197187
0.12302006 -0.009063987 -0.06208246
0.056687225 0.08706759 -0.13821954
-0.029984498 -0.15510987 0.12261019
0.060694404 -0.032554343 0.107190564
0.1966785 -0.035624895 0.051786322
-0.02586283 0.05146004 -0.059119362
0.30721256 0.05223813 -0.047722388
-0.10472107 0.13109884 -0.08234634
-0.032097287 0.044922143 -0.0060090832
0.04816936 0.046614513 -0.06687811
-0.25287402 -0.19405422 -0.07802186
-0.047518246 0.20848852 -0.022018006
-0.10137987 -0.090191305 0.23393151
-0.0039957175 -0.025290616 -0.011267269
0.086716376 0.15746784 -0.22040242
-0.25034264 -0.05946748 -0.06428237
-0.0984129 -0.023587095 0.1952183
-0.20594238 -0.13085459 0.011975359
0.03088725 0.12212099 -0.1833126
0.10695725 -0.15813453 0.056900296
-0.059649963 -0.15128548 0.20463406
0.22745317 -0.015195418 0.0010475672
-0.036271017 -0.28296515 0.011098047
0.07954011 -0.11531163 0.15055504
-0.06140624 0.032021996 -0.080957994
-0.11457173 -0.027734905 0.20947334
-0.13494308 -0.09292448 0.17634274
0.11331393 0.110090084 -0.13015074
0.11032408 -0.14470042 0.137189
-0.080165744 -0.14927407 0.161095
-0.18442722 0.09494385 -0.076130204
0.120889135 0.102391094 -0.02896701
-0.21498547 -0.12316426 -0.095269054
0.114017464 0.048613746 -0.15604828
-0.15281706 0.010132483 0.14756487
0.16746397 -0.014053927 0.06732405
-0.09594797 0.004618649 -0.08461743
-0.08512691 0.21729742 -0.007328502
-0.0027601616 0.013602323 0.017722173
0.33999714 0.016859733 0.0073855235
-0.023907121 -0.063589126 0.240485
0.063856654 0.158779 -0.1850163
0.04032642 0.06587993 -0.0789812
0.15938564 0.07598372 -0.043517914
0.09201692 0.008151307 0.06752039
-0.13695623 0.15798534 0.06287803
-0.048613586 0.11690791 0.056325145
-0.04726989 0.22736837 0.015317887
-0.02356426 -0.33007738 0.04382263
-0.043930158 -0.16073808 0.10880563
-0.09426475 0.007089163 0.0055990466
-0.15739624 0.009213002 -0.009823083
-0.1344884 -0.18590172 -0.06169071
0.067805 0.25002557 -0.06738592
-0.08041948 0.11815377 0.017872037
-0.049862616 -0.071605146 -0.011533648
0.026843777 0.32351556 -0.08736324
-0.17421329 -0.1899615 -0.029517056
0.11997178 0.15071294 -0.20389193
0.1632678 -0.008229754 0.07670741
0.041376263 0.16755955 -0.12546067
-0.13446982 -0.15025592 0.040311053
-0.072208844 0.09395964 -0.03270799
-0.026205892 -0.13596918 0.17315203
-0.15058824 0.1599071 0.038400523
-0.10524465 0.07412523 -0.05673599
0.10368143 -0.11128722 -0.060880233
0.045546018 -0.05970004 0.026672773
-0.038833097 -0.0982161 0.16610599
0.11062986 -0.059002325 0.0444671
-0.20449029 -0.057388965 -0.030608745
-0.24064057 0.052607816 -0.13711196
-0.05568866 -0.36744127 0.010678408
-0.19982342 -0.0027825874 -0.032953218
0.07370607 -0.17373529 0.016815005
0.09238476 0.23675336 -0.12518871
-0.17539549 -0.019254917 -0.015076124
0.17682204 -0.08509652 0.15887915
-0.035103463 0.25642908 -0.13522644
-0.059616387 0.0797055 -0.027967578
-0.03399442 0.048035577 -0.13592044
-0.075409204 0.21508747 -0.18648082
0.07121028 0.0141723035 -0.09280186
-0.11829493 0.047963087 0.056147013
-0.0833533 -0.23252472 -0.0021999497
0.00890539 -0.18899272 -0.0018667128
-0.06598566 -0.2934331 0.0858222
0.31779385 0.10710747 -0.05110238
-0.053930823 -0.08801487 0.24306415
-0.026803404 0.18608816 0.036429193
-0.18174109 0.12110545 -0.17583035
-0.2437681 -0.10913272 0.097500116
0.13454592 -0.13759664 -0.10477053
-0.28841534 -0.08302568 -0.012627438
-0.19971883 -0.05947336 0.11936864
0.10011465 0.15825386 -0.10787611
0.14503312 0.032403372 0.017697364
0.28229874 -0.007981785 0.011656357
-0.0735807 0.11314037 -0.23666234
0.19694716 -0.0011254267 -0.030253993
-0.036173895 0.10694178 0.0751217
-0.12616025 -0.1681273 0.029148137
0.23253988 0.100917295 0.022551488
0.09343083 0.101827934 -0.13957788
-0.14846966 0.15844946 0.01000753
-0.04134776 0.00033758796 -0.008675103
-0.11060277 -0.005345671 -0.014849628
0.02194474 0.03789773 -0.034765836
-0.076018974 -0.054918613 0.21848086
0.13763905 -0.03402286 0.0870382
-0.16434635 0.1665995 -0.12036459
-0.22016695 0.0716141 -0.062408697
0.07642871 0.017394112 -0.11871898
0.117715135 0.0230617 0.07321187
-0.011572528 -0.023416096 -0.021815399
-0.12545848 0.13759595 -0.055291962
0.025528189 0.22991909 -0.08451213
0.07557114 -0.12639993 0.14498065
-0.07296898 0.28823832 -0.21104825
-0.17342602 -0.15206777 0.10621615
-0.06528319 -0.13610005 0.08745854
0.057363283 0.32495263 -0.1451429
0.07858496 0.17239219 -0.03253704
0.03477607 -0.089169316 -0.064039506
-0.07569133 0.22892456 -0.12683819
-0.07714324 0.2430183 -0.0065606143
-0.015945757 0.22298795 -0.11652908
-0.13945915 -0.18440801 0.12301798
-0.2022477 -0.15477547 0.007172427
0.24810673 -0.06783301 -0.11165711
-0.11720646 -0.063216366 0.107897416
-0.16173957 -0.29504982 0.021118212
-0.082755424 -0.00069088786 0.007876653
0.037881777 0.0612326 0.06428554
0.14079525 -0.015721641 -0.071302384
-0.09794032 -0.15180364 0.18949369
0.044441342 -0.017314706 0.04245067
-0.09136376 0.09450349 0.036701694
-0.16622922 -0.04668345 0.059939187
-0.16687031 -0.039321117 -0.06390664
-0.116389886 0.13582695 0.05224939
0.11091979 0.08205879 -0.15273081
-0.003013624 -0.3084284 0.11087118
0.046081074 -0.10966183 -0.034391217
0.093000405 0.015411102 -0.067683496
-0.15336019 -0.10764808 0.17605998
-0.03192265 -0.19590954 0.08054308
0.090205826 -0.076049834 0.10408951
0.1981719 0.018982697 -0.025844023
0.10802631 -0.09657027 0.08762108
-0.22049102 0.12879768 -0.14967124
-0.11491391 -0.044448346 0.16868222
-0.22076485 -0.04503399 0.042615686
0.05888043 -0.078712724 0.06174525
-0.17495818 0.18986341 -0.24274714
-0.045522504 0.2757603 -0.09532704
0.0406126 -0.2157368 0.079135075
0.10861172 0.06816752 -0.07848212
-4.867112e-05 0.26662916 -0.08277303
-0.04735302 -0.34061754 0.06693852
0.124161795 -0.025830904 0.08325406
0.096105255 0.22748616 -0.017781155
-0.10963777 0.15123592 -0.029780224
-0.14105101 -0.06035189 0.02232247
0.0074363058 -0.21428522 0.12700082
0.14639345 0.08026581 -0.046580218
0.25208518 -0.0773658 0.025882151
-0.08088106 -0.19772452 0.20805992
0.2343009 -0.056581177 -0.029330177
0.19890611 0.010977062 -0.015723879
-0.08570074 -0.08163717 -0.018338801
0.17263442 -0.029801581 0.045297917
-0.0055115684 -0.084357314 0.022420354
0.10287722 0.07173522 -0.112555966
-0.15552463 -0.057221033 0.047856487
0.034457225 -0.101219505 0.06283722
-0.0048343246 -0.19047813 0.106305294
-0.035794627 -0.26173973 0.0066012777
0.08901821 -0.043336593 0.10704296
0.06830503 -0.11140927 0.011604993
0.03359947 0.008260821 0.06573849
1.3415341e-05 0.21245433 -0.044033166
0.31762993 -0.04255361 -0.044046722
0.22934 -0.025457136 0.06014039
0.020774644 0.08770723 0.06649291
-0.03724166 0.1364121 -0.2015009
-0.04858793 0.101472035 0.035849106
0.14804351 0.14214343 -0.21394011
-0.068607345 0.1909034 -0.14843681
0.12290404 -0.038100358 -0.06144222
-0.043430865 -0.00065651344 0.18162099
-0.18351807 -0.13028039 0.11858945
0.1183862 -0.04331372 -0.040299635
0.30775508 0.018176671 -0.06688886
0.20848177 0.029107908 -0.030385226
-0.13050078 0.14363348 0.066815235
0.12776011 0.18316959 -0.03999806
0.014266369 -0.069316976 0.06771306
-0.013946083 0.105381444 0.0883581
-0.05945333 -0.22928685 0.017113391
-0.143919 -0.026765624 0.19693927
0.010453545 0.26496652 -0.065134935
-0.15901154 -0.00671482 -0.054371767
-0.06708821 0.24346249 -0.030585835
0.33082417 0.10627383 -0.083300866
0.03539977 -0.06231702 0.09913087
-0.16170119 -0.11149181 0.0676262
-0.11096738 0.01827327 -0.05894151
0.02667802 0.23952802 -0.06307625
0.22401313 0.11741833 -0.039873477
-0.1904789 0.056369323 -0.114062615
-0.067081876 0.077480964 0.05741258
-0.0050942064 -0.18585722 0.1383563
0.23982657 0.049306467 -0.07010071
0.13450445 -0.10595824 -0.038543243
0.1935858 -0.060177088 0.08748255
-0.015834909 0.034869023 -0.08629202
-0.10947189 -0.105645046 -0.041218802
0.07142423 0.32502398 -0.14305863
-0.20498711 -0.1325851 -0.04794564
0.025638126 0.034740735 -0.02806472
0.055912178 -0.10367763 0.0006124438
0.14704525 -0.16915984 0.05842625
0.1379978 -0.039726984 0.11003766
-0.1588008 0.031791743 -0.057858724
-0.09040179 0.2463897 -0.03880084
-0.056190915 0.1809093 -0.050716493
-0.1301077 -0.110448405 0.046455488
-0.05941349 -0.08309221 0.19242956
-0.08718678 -0.25650394 0.0041472153
0.094467096 0.12374587 -0.1657646
-0.055863097 0.199049 -0.17019515
-0.088210896 -0.16620876 0.12152508
0.14209464 -0.031284615 -0.003110376
-0.037588697 -0.07916828 0.22242644
0.26010925 0.00082662335 -0.034475837
-0.004319875 -0.12789963 0.066301465
0.2611726 0.032221515 0.054220017
-0.05445906 0.12656148 0.05425417
-0.06723222 -0.1210058 0.21699072
-0.0756292 -0.19807889 -0.004203278
0.0629632 -0.13857359 -0.08473345
0.13762157 0.1493908 -0.22322431
-0.087161355 -0.13519733 0.18533465
-0.15513755 -0.17734005 0.03923407
0.01694905 0.08876368 -0.06479199
0.3097424 -0.057652008 0.03891598
0.018854303 0.32876012 -0.115879804
-0.034102075 0.116212554 -0.008442816
-0.06203514 -0.23352191 0.109004505
-0.048430864 -0.08649222 -0.025616383
-0.08506347 -0.07399432 0.12962557
-0.053693533 -0.08625883 -0.032743502
0.010324148 -0.024315841 0.013415177
0.094149664 0.13907069 -0.23355955
0.06850844 0.06117785 -0.0077733793
-0.066692196 0.03633647 -0.09061095
-0.008778226 0.30230162 -0.12290389
-0.08064282 -0.11681434 0.18792394
-0.042738706 -0.057295777 0.17638415
0.075683564 -0.11394161 -0.0011102278
-0.08166916 -0.07414553 0.05735232
0.18228051 0.13496707 -0.009518266
-0.03979458 -0.019370833 -0.056665175
0.08801396 0.18407139 -0.23188284
-0.11396261 -0.15419933 -0.013781352
0.26974863 0.076274715 -0.06714513
-0.11017403 -0.16913012 0.02087573
0.00015999717 0.29475468 -0.10038024
-0.12139013 0.22432125 -0.07706437
-0.106245644 -0.15565123 0.12317297
-0.19003344 -0.0031301999 -0.0759396
-0.03219092 0.067633584 0.030138286
0.04133272 0.07438227 -0.11961652
-0.040263392 0.13576698 0.011550475
0.040992755 0.12256118 -0.06296062
-0.07263235 0.20571782 0.010309944
-0.028103227 -0.014742747 -0.011115165
0.09615579 0.044929232 -0.13411935
0.0047338856 -0.1147456 0.07115836
0.33645958 -0.062838614 0.01003691
0.018583667 0.11751263 -0.14412731
0.24265501 0.12667277 -0.026052095
0.2491482 -0.036958136 -0.042213414
0.12420647 -0.09221159 -0.065842055
-0.059172314 0.21252732 -0.012165345
-0.12573496 -0.048648242 -0.010603435
-0.124239996 0.1928522 0.061239403
0.16294356 0.044919197 0.0094741
0.048351705 -0.09613348 0.12375595
-0.09015143 -0.30337986 0.012245974
-0.05284759 -0.10072235 0.15403764
0.026721532 0.06621399 0.09651803
-0.11485458 -0.04378975 0.24158017
-0.10755606 -0.22162744 0.09744941
0.087135464 0.21807466 -0.08703905
-0.14686368 -0.14326876 0.02001752
0.2142801 0.08844018 0.043916155
0.12191856 -0.13373117 0.13770601
0.09444865 -0.08581065 0.10467976
-0.011292043 -0.23776394 0.11953651
-0.04532936 -0.16198578 0.14405039
-0.065098695 0.007023234 0.19265643
0.16350166 0.14625888 -0.07971294
-0.07953669 -0.17071736 0.11892706
-0.119884916 0.12731335 -0.012551959
-0.08343468 -0.3158579 -0.043855134
-0.0880599 -0.045345604 0.23545831
0.22590232 -0.05908849 0.0069048437
-0.29322502 -0.12849087 -0.0135234
-0.04236676 0.10678151 0.027431436
-0.1879616 -0.096574835 0.045875713
-0.07252447 0.09250352 0.04754171
-0.07426103 -0.107635744 0.21849081
0.07998464 0.1924792 -0.21951886
-0.1686122 -0.14803348 -0.09951729
-0.00974448 -0.32295778 0.017357213
-0.007318411 0.0743759 0.025298994
-0.10456546 0.27094424 -0.03859417
-0.12544997 -0.15152991 0.005545247
-0.1136356 -0.008974925 -0.07600256
0.013618169 -0.042270083 -0.003963612
0.123899296 0.036664493 0.0015484772
0.28951722 -0.06754962 0.039605245
-0.114143305 -0.032191664 0.2758094
-0.08950074 -0.11234119 0.03581044
-0.22488202 0.1167875 -0.0683365
0.17784685 -0.021106824 -0.008925552
0.18694459 0.025671294 0.0002946532
0.0025030507 -0.0141793685 0.023686202
-0.057926387 -0.18588503 0.14399216
-0.14463453 -0.16693287 0.09392321
-0.10952814 -0.033926528 0.17060779
0.09675888 0.31242508 -0.09363337
-0.10854628 -0.009421523 0.17132847
0.16110939 -0.098825864 0.11460191
0.21024017 0.017427709 0.051658593
0.047185592 0.11033271 0.018650003
-0.12956136 -0.23298933 0.0056781094
-0.14628193 -0.09675101 0.18131915
-0.19554639 0.04683694 -0.11303928
0.049258146 -0.13123526 0.14488408
-0.18134272 0.101439215 0.066556916
0.20427096 0.13392442 -0.035051722
0.12688017 0.210331 -0.095308624
0.096789494 0.20334597 -0.22836344
0.21946283 0.034757867 -0.013396476
0.000371012 0.2657259 -0.09871056
-0.0664452 0.0053418875 -0.0374218
-0.14093931 -0.05641581 0.078081265
-0.21338823 -0.027280103 -0.025146592
-0.20804685 -0.105029 -0.0011726435
-0.0627034 -0.18053143 0.12663837
0.18412408 0.0010642414 -0.026468838
0.007058665 0.14426297 -0.23728867
0.25915745 0.020041872 -0.04642768
0.2874613 0.064163536 -0.06286506
0.21107353 -0.04017401 -0.03295608
-0.04608381 -0.04008451 0.0046173153
0.025983464 0.08713788 -0.014650115
-0.079726994 -0.024008399 0.20814665
0.32683495 -0.028088018 0.0040199934
0.24236688 0.013268809 -0.016893227
0.020968009 -0.17391068 0.07667701
0.09468909 -0.08320456 -0.026285322
0.058938336 0.31120348 -0.088284954
0.01783376 -0.18352586 0.10773222
-0.15124133 -0.019655742 -0.07376907
0.1840543 -0.043885503 0.070703305
-0.050026886 -0.06956297 0.2023938
-0.15783884 -0.111411 0.076467715
0.21961689 0.053947933 -0.05680076
-0.051444106 0.06855664 0.06223958
-0.06838318 0.18913889 0.031406406
-0.21231622 -0.163734 -0.07228064
-0.028591067 -0.0683175 0.018890284
0.008031232 0.120871596 -0.10752535
0.05108555 0.28213227 -0.085924804
-0.06842142 -0.07022569 0.14737466
-0.07189553 -0.16009006 0.19415951
0.11827929 4.8119233e-05 0.01577319
0.058224306 0.119487055 -0.22501251
-0.04922684 0.078632675 0.025496066
-0.11332797 -0.14136277 0.08076901
-0.097773634 -0.02232031 0.16933143
-0.027340421 -0.017560417 0.015179466
-0.06983836 -0.22926976 -0.0031049964
-0.13596536 -0.026286075 0.13098814
0.042585302 0.066228166 -0.046452664
-0.13893133 -0.011085527 -0.088740855
-0.04457247 -0.29099032 0.07806354
0.0028863978 0.18829733 -0.16368425
0.26122135 -0.02948039 -0.001994181
0.28331465 -0.013418787 0.012563741
-0.040371552 0.117739744 0.06092082
0.07270812 0.13161306 -0.101352945
-0.010820146 -0.020700082 -0.00412211
-0.08789313 -0.3006626 0.02445
-0.10707637 -0.058317818 0.22150497
-0.17470032 0.06437662 0.0031292462
-0.004848166 -0.20188743 0.1846322
-0.10776425 -0.2160713 0.12230508
0.04562394 0.22699884 -0.10721707
0.04847873 0.23966716 -0.068871185
0.1684183 0.13961257 -0.14475523
-0.022240281 0.049143054 -0.0061165495
0.10969543 0.103448525 -0.095388904
-0.0645718 0.010937681 0.14974663
-0.15281287 0.08799714 -0.1302738
-0.033979665 -0.34327036 0.06956812
-0.05405945 -0.1398546 0.042820185
-0.12062733 -0.17417371 -0.033032946
0.10257048 -0.10487248 0.12027502
-0.15119363 -0.060280368 0.116540745
0.15287973 0.010302995 0.06625294
0.13344093 -0.13484992 0.054321524
-0.085590355 0.06987166 -0.020969389
0.0042124344 -0.06704269 0.021908788
-0.21675086 -0.033585954 0.025897669
-0.062149514 -0.30839425 0.13010195
0.21263161 0.072009884 -0.006186962
-0.09021376 -0.019834753 0.19383638
-0.11925051 0.12907337 -0.069245584
-0.07736706 -0.3028463 0.07294447
0.013828543 -0.2526742 0.0916879
0.07642196 0.08992248 -0.07631879
-0.054311495 -0.24562792 0.10999184
-0.015099092 -0.24004339 0.11396889
0.1926704 -0.049874358 -0.009368708
-0.09940203 0.13102084 0.020803295
-0.16062777 -0.027763475 -0.037746117
0.14542815 0.18354404 -0.077541605
-0.018641988 -0.17656265 0.050788987
0.12959078 0.09827915 -0.08291246
-0.043168467 0.1659183 0.040341247
-0.1732651 0.14244772 -0.00350258
-0.05980922 -0.014481693 0.028513938
0.010170434 0.05436156 0.018641451
0.18661 0.028291825 0.03058868
-0.2501485 -0.09908123 -0.060818397
-0.23155862 -0.15728842 -0.07980617
-0.16483222 -0.050572827 -0.07910099
0.1132405 0.11328605 -0.21775983
-0.20845675 -0.23957206 -0.024744548
0.28013116 -0.05786082 0.031535517
0.12943888 0.012780223 -0.24043736
-0.15569101 0.002502045 0.19710022
-0.030544775 0.19203591 -0.15621465
0.09912527 0.1611309 -0.08220637
0.089640126 0.14772865 -0.10302881
-0.02047306 0.030484214 0.07901184
0.030737352 0.2858642 -0.13970606
-0.06302153 0.29586494 -0.06458324
-0.10567786 -0.21716855 0.043438837
-0.014764345 -0.14330137 0.13959932
-0.15786207 0.09928939 -0.057463553
-0.09596853 0.1573831 -0.024299582
-0.105690844 0.14520872 0.03320784
0.17901829 -0.03638811 -0.002669627
0.33158335 0.08288543 -0.021780325
0.2254631 0.062536046 -0.0098610185
0.19182907 0.08848265 0.008073892
-0.0052695726 -0.16285989 0.012204273
-0.09786731 0.0050851763 -0.07289236
-0.12010683 -0.015610542 0.021139765
0.30303776 -0.022997672 0.055157125
0.07103057 -0.024971753 -0.08457358
0.048123155 0.020887587 0.118239224
0.102872565 0.058870543 -0.06089109
0.09373067 -0.09346818 0.07683057
-0.10946915 -0.07846619 0.21824583
-0.16270961 -0.03283207 -0.04259947
-0.083781324 -0.20142008 0.032398805
-0.053708363 0.18339603 0.016176196
0.059851512 0.025295824 0.054734416
-0.03970743 -0.2501145 0.04115008
-0.07777839 -0.030660095 -0.07174464
0.28646448 0.063409954 -0.060682293
0.06476563 0.13770677 -0.12424373
-0.16252123 -0.008029104 0.14323027
-0.0782591 -0.20551492 0.13039972
0.051497694 -0.14039026 -0.030429253
0.094871424 0.19323453 -0.10395274
-0.03572029 -0.050400022 0.2518007
-0.02924445 -0.038206853 -0.037289698
-0.060224693 0.18533775 -0.13098592
-0.055757385 -0.323634 0.09289495
0.10290187 -0.023744147 -0.049389422
0.19060992 -0.031048257 -0.003280403
-0.023848249 -0.22034265 -0.022919903
0.003032037 0.11608742 -0.08617751
0.15763962 0.16055153 -0.037149023
0.049572777 -0.0018118754 0.07026624
0.07256724 -0.14619389 0.15300165
-0.06141686 0.10461196 0.021185845
-0.0636417 0.11457192 -0.13586332
-0.094962716 -0.14154473 0.14494279
-0.012516319 0.10058819 0.024787756
0.007287978 -0.18985164 -0.022824053
-0.05478962 -0.35586008 0.01799136
-0.19851011 0.0842812 -0.16721588
-0.024549175 0.023699194 0.009580868
-0.05400411 0.035552952 0.033656687
-0.053726196 -0.1813795 0.1061875
-0.046631943 -0.12643181 0.18549626
0.048991844 -0.17668404 -0.011485258
0.030982433 -0.17145887 0.032251127
0.11403196 0.24279258 -0.028129414
-0.03551464 -0.116344616 0.03201389
-0.023397807 0.24340151 -0.11888906
-0.11007571 -0.14889073 0.18365727
-0.052185044 0.24256095 -0.06582253
0.033149138 -0.09134925 0.12741043
0.23335196 -0.03496815 -0.017434156
-0.0467018 -0.0098954765 -0.015300606
0.16803043 0.08023798 -0.09529863
0.042175885 0.06395983 0.03902906
-0.12812588 -0.16128996 0.11246789
0.21802439 0.04053424 -0.03311739
-0.04620276 0.04458098 0.02452634
0.114462234 0.17351384 -0.14620861
0.17784108 0.0896735 -0.13809603
0.039315805 0.21498375 -0.08072281
0.007095167 -0.271907 0.041057464
0.06752423 -0.028940437 0.041177448
-0.048679434 0.22522746 -0.1947082
0.0062260726 0.13357168 -0.16545293
0.07554113 0.21973018 -0.21988137
-0.10466208 0.073418 0.048061028
0.21699803 0.12960549 -0.012435817
0.25009602 -0.03891768 0.0077781775
0.11793681 0.11233346 -0.04325688
-0.048999704 -0.124418505 0.18185714
-0.21602724 -0.088490844 0.07051694
-0.20737103 -0.115423225 -0.008733009
-0.03196698 0.075913265 0.06932523
-0.018378006 -0.23578605 0.058486268
0.12643309 0.18264861 -0.22276497
0.09622141 -0.095357135 0.06323364
-0.07704256 -0.023654038 0.0016840186
-0.16620085 0.14604835 0.009818313
0.15204999 0.091467276 -0.06134157
0.030810801 -0.07968236 0.07434678
-0.08141922 -0.09985987 -0.033625074
-0.07694273 -0.07549498 -0.029234884
0.14335045 -0.1313204 0.15586238
-0.11666668 -0.17059201 0.09163365
0.065556474 0.18660346 -0.0335176
0.18645877 0.0010127819 -0.032074694
-0.06395828 0.15261544 0.023897924
-0.05130502 -0.10829635 0.017281933
0.16851476 0.20756026 -0.038665917
0.06012536 0.12496704 -0.07949917
-0.06635454 -0.10446271 0.19103165
0.27133128 -0.0065978435 -0.045884322
-0.11622 -0.06041553 0.22940221
-0.089759365 -0.105144076 0.043860495
-0.17681012 -0.017901994 0.04046394
-0.08942235 -0.02023357 -0.060396038
-0.1429151 -0.14886066 0.029003285
0.125119 -0.053786788 0.04265322
0.013234033 -0.092465706 0.0598609
-0.13137874 -0.05056516 0.16262662
-0.22764932 -0.047973726 -0.046538945
0.079753414 0.20739669 -0.06770977
-0.061834484 -0.0045601777 0.0051427544
0.10257318 0.26101357 -0.03861555
-0.08794284 0.19977637 0.04200824
0.02617505 0.2647472 -0.07441034
0.053567037 0.078674965 -0.1057785
0.009268481 -0.075338766 0.005526948
-0.06383089 -0.17524341 0.12434386
-0.046768893 -0.07621851 -0.019742966
-0.15395164 -0.19774877 0.077419706
-0.24001291 -0.095922545 0.0027085321
-0.18814343 0.03799753 -0.050026864
-0.09536827 0.059601497 -0.050908543
-0.026811916 -0.18338087 0.19549389
0.017972238 0.082607254 -0.15652457
-0.04373175 -0.19426012 -0.0143460585
0.14052464 0.11383668 -0.09423931
0.1685415 0.12218199 -0.14237998
-0.22655194 0.10929236 -0.113461345
0.089550845 0.05286104 -0.115949556
-0.0015446168 0.25032553 -0.13055742
0.07930909 -0.054888874 0.122096054
-0.19198677 -0.16095595 -0.0073372778
-0.044629484 -0.29015705 0.041511837
0.03027702 0.12928109 -0.1811249
-0.09075564 0.0066990852 0.20330545
0.17457397 0.15521628 -0.09117559
0.055869333 0.13155945 -0.1506513
-0.02193305 0.16614261 -0.12713888
0.11950663 -0.06689844 0.099954806
-0.07097826 -0.18109576 0.11690167
-0.15366265 -0.29001686 0.03201475
0.10637191 0.24359895 -0.19154912
-0.06528361 0.024886811 0.15538801
-0.010106056 0.104945265 0.074621886
0.029545063 0.08846183 -0.07458353
-0.025083948 -0.2542349 0.08715767
-0.09057084 0.00638638 -0.08944286
-0.106062174 0.18710361 0.021082569
-0.108290315 -0.02197934 0.19989473
0.0012212622 -0.23073778 0.17859279
0.06418601 -0.13329433 0.01097743
-0.056479357 0.05605628 0.041057218
-0.21757628 -0.07875366 -0.027573314
0.2765128 0.09387673 -0.010134482
0.18166147 0.059856888 -0.023638975
-0.16446145 0.004557044 -0.12106057
-0.16332951 0.19068226 -0.16813742
0.08673354 0.10501463 -0.1462721
0.11444642 -0.052139394 0.0893364
0.019065307 0.03448213 0.08991699
-0.15295427 0.23913461 0.063128345
0.085017584 0.06890438 -0.08079505
-0.03732427 -0.17090955 0.13303044
-0.051502988 0.010762832 0.24219996
0.074238785 0.075994544 -0.10708411
-0.22989964 -0.121473156 -0.04142307
-0.12702271 -0.10411444 0.06506343
-0.004512967 0.2617693 -0.09424928
0.16525318 -0.0018445558 -0.008811841
-0.09376977 -0.18215287 0.15806608
-0.23517795 0.097616255 -0.06910156
-0.12814343 0.06169389 0.038531054
-0.18170619 0.042716157 -0.07003818
0.03165176 0.046803433 -0.1417419
0.058475144 0.20742211 -0.07547561
0.032673106 0.18290037 -0.11456056
0.19853663 -0.00088864 0.040584285
-0.090340756 -0.2630231 0.040762812
0.18348055 -0.008113924 -0.15421884
-0.001039393 0.018140988 0.050707772
0.095989734 -0.09539523 0.064475164
0.07264072 0.014147554 -0.03907454
-0.17585146 0.19281399 -0.186974
0.1770312 0.016754786 -0.1138453
-0.17843832 -0.13189301 0.023020005
-0.046642166 -0.05763695 0.014474988
-0.040942423 -0.01756022 -0.020707963
-0.053768042 -0.23144215 0.17574735
-0.13559105 0.021680148 0.24432528
0.039444376 -0.23168044 0.054644
-0.0459588 0.20231044 -0.09289673
0.20409682 0.144525 -0.04161946
-0.11246507 0.11419289 0.06777236
0.25557908 0.07912325 0.022144757
0.076900475 -0.14372042 -0.062377352
-0.19740766 0.019291634 -0.0916953
0.009036304 0.02834364 0.08964695
0.089410655 0.14931262 -0.05526626
0.044667244 0.3207276 -0.12081957
-0.05152903 -0.2502741 0.05871915
-0.05957964 -0.027582236 0.0213833
-0.24534597 -0.17638218 0.005175251
-0.15520285 -0.08338014 0.114692666
0.10578788 0.21732181 -0.026360543
-0.02287724 0.0068447315 -0.003556801
0.054744862 -0.20281704 -0.017484484
0.31939825 0.004514956 -0.023540597
-0.005799828 -0.2822835 0.13654017
0.024051439 -0.057529178 -0.035506185
-0.07242424 -0.37419987 0.02378222
-0.079192765 -0.141998 0.100366525
0.024454486 0.2813287 -0.22542728
-0.039074715 0.2687663 -0.12038924
-0.03576713 -0.20117672 0.04357863
-0.09934168 0.009289325 0.25960556
-0.16866995 -0.02472824 0.05182281
-0.0795983 0.23440433 -0.0066021993
-0.053272836 -0.37962428 0.00024239348
0.009178593 0.21521036 -0.1089637
-0.119271986 -0.28004247 0.08449981
0.07717681 -0.08110037 -0.12825687
-0.0029554672 0.030679012 0.060118876
0.10461652 -0.034092546 -0.037311282
-0.014374356 -0.09776884 0.18252474
-0.060362097 -0.08135829 0.17294557
-0.119285926 0.11987705 -0.06719802
-0.11013796 -0.10256418 -0.008244341
-0.07700523 -0.06419623 -0.054070428
-0.14609554 0.17819077 0.017963024
0.34179243 0.04368503 0.010497243
-0.028244765 -0.3074065 0.050856564
-0.15435448 -0.029080367 -0.06534693
-0.09670717 0.15358387 0.04435052
-0.069562286 0.12398586 -0.15836982
-0.11805624 0.13496806 -0.09202343
0.13790165 0.090549976 -0.04353898
0.13892347 0.109565295 -0.08046361
-0.18131278 0.057970844 -0.050322197
0.05154911 0.1951369 -0.11678149
0.2947358 0.03557567 -0.007845732
-0.08710893 0.13871308 -0.13550372
-0.088166356 -0.011385325 -0.07766585
-0.15373024 0.038484655 -0.012943723
-0.08266748 0.040025666 0.23160768
0.15959294 0.0074313837 -0.104398295
0.25241563 -0.046491794 -0.01928001
0.071187265 0.05359006 0.050824776
0.24506299 0.04849347 -0.053322356
0.08323366 0.06924579 -0.1130455
0.07199252 0.029438576 -0.018785914
-0.09004901 0.17890462 -0.0024662323
0.0532184 0.18250965 -0.0664418
0.2580522 -0.01988626 0.018912401
-0.17361294 -0.05163356 -0.029838698
-0.14860603 0.021281393 -0.026576804
0.1396671 0.0814044 -0.11479376
0.04725691 0.054351438 0.094149604
-0.15106909 -0.19236764 0.043280758
0.29590863 0.0430132 0.03129715
-0.0029391747 -0.22389564 0.11016774
-0.17601018 0.015474261 0.015422371
-0.0023848647 -0.080537714 -0.028792415
-0.100054145 0.24806565 -0.17729557
0.006524705 0.1572534 -0.16130835
0.13085581 -0.15072457 -0.015370683
-0.07445821 -0.29289755 0.066342436
0.27281657 0.052479174 -0.02239043
0.070296295 -0.015918886 0.08172344
-0.12218376 -0.082675755 0.025021898
-0.08335998 -0.2774364 0.11071738
0.15777232 0.022473458 0.05952945
-0.2389705 -0.0682553 -0.0066169132
-0.017213248 0.28553927 -0.06387871
0.014320543 0.062514246 0.06314631
0.1538853 0.04382452 -0.14752819
-0.17531262 0.23592253 -0.15326893
-0.08958854 -0.27961564 0.055602968
-0.06514961 -0.017359072 -0.043509547
0.080411606 0.08744821 -0.1544799
-0.15324366 -0.19665109 0.019813458
-0.18010767 -0.08297031 0.04307376
-0.1238206 0.18725517 -0.14728473
0.2246013 0.0054222327 0.02581977
0.12561807 0.14452605 -0.06444885
0.035684675 -0.13776857 0.037861932
0.04226268 0.27961037 -0.15841474
-0.07504047 0.19352055 -0.0756327
0.1800613 0.0022383195 0.014515631
0.10146823 0.20832665 -0.06776173
-0.120178156 0.025936717 0.0018617426
-0.052429885 0.087327324 -0.23814632
0.09741074 0.0453227 -0.0119594885
-0.20313123 -0.042570237 -0.0018916694
0.14236599 0.052434463 -0.18248148
-0.052964013 -0.20450537 0.17843686
-0.04180837 0.17100826 0.021449437
0.08523918 -0.10690541 -0.007965745
0.03184979 -0.18659118 -0.0468301
-0.09264847 -0.06804326 -0.036313076
0.10509774 -0.020188315 -0.062286224
-0.09054493 0.25427294 -0.16890135
-0.010682204 -0.24420017 0.12430017
-0.052169614 0.19070402 -0.038586337
0.122873776 -0.04577052 0.122953475
-0.13588989 0.16896637 0.015990522
0.031575628 0.2674829 -0.09342816
-0.26166853 0.08178166 -0.14962532
0.1925812 -0.026241604 0.019374
0.045871604 0.26380107 -0.07561203
-0.047074623 -0.09622501 0.1202409
-0.20348799 0.089741684 -0.046595115
0.07227656 0.035977695 -0.08604348
-0.14959303 -0.17915162 0.07273834
0.24845652 0.099861 -0.026736183
-0.17135826 0.04525859 -0.027233524
-0.12319339 0.10824862 -0.007152547
-0.07308528 -0.111045144 0.077144824
-0.014981028 0.29854617 -0.022030614
0.15291452 0.048076533 -0.023532933
-0.17398989 0.17132063 0.065705806
0.19381133 -0.06414953 -0.0066234996
-0.19040348 0.13773794 -0.14448908
-0.04238718 -0.19184572 0.120359175
0.030749543 0.063182 -0.13549066
-0.02694091 -0.16256373 0.16861817
-0.09072853 -0.15343294 0.12033228
0.003663185 0.25902182 -0.20016381
-0.008456188 0.24530733 -0.1124503
-0.15559453 -0.2615382 -0.007139369
0.22714762 0.089517854 -0.036419284
-0.0028540832 0.05283482 0.061791204
-0.0655648 0.19553432 -0.03801634
0.029257827 0.23530674 -0.09059113
0.3041725 0.002582864 0.017198956
-0.046659734 0.10898346 -0.112151906
0.14064777 0.134159 -0.09241851
0.111125074 -0.010353159 0.02657682
-0.05525872 -0.071386054 0.26872745
-0.055833686 -0.24120104 0.095070824
0.12245782 0.011977631 -0.10236292
0.04275859 0.24165113 -0.06980046
0.0044981055 -0.21726015 0.003911957
0.107634224 0.17141213 -0.11073598
0.10454465 0.12028917 -0.1267791
-0.013065652 0.30452105 -0.095909506
0.11512054 0.16301298 -0.03221305
-0.007542568 -0.18830772 0.009372212
0.14104624 -0.07208578 0.12645948
0.1544961 0.20395823 -0.02557866
0.033452533 0.23167284 -0.081408106
0.014120221 0.03811428 0.074003145
0.11083783 -0.08416778 0.09246246
-0.20387095 -0.01632163 -0.011814151
-0.091600515 -0.29351616 0.06675298
0.079230905 0.17445286 -0.01748334
0.15313645 -0.023782406 -0.0069355387
0.19266963 0.14519584 -0.010313526
-0.13981183 0.09153791 -0.03686508
0.14314498 0.09827555 -0.12843673
0.24660698 0.097669944 -0.020205813
-0.16061488 -0.15749918 0.14167313
0.0658863 -0.17807513 -0.00725157
-0.10233062 -0.04318491 0.10984565
0.046593554 -0.07991233 0.14688918
0.048043497 -0.13258788 -0.08332258
0.025770444 -0.010812332 0.11412851
0.26965025 0.034332495 0.003171591
0.09582651 0.07446346 -0.10685592
0.2247705 0.05007079 0.050672628
-0.13402337 0.1354189 -0.11048871
-0.13931383 0.07031297 -0.12069135
-0.22304066 -0.18945684 -0.067699775
0.033865783 0.3198568 -0.1639815
-0.108296484 0.14662966 -0.021833323
-0.03373785 0.17527385 -0.13752313
0.1708632 0.22022638 -0.12729889
-0.057961404 -0.23414566 0.020470176
0.27856004 -0.012491229 -0.016095083
0.11615064 -0.15864062 -0.029769212
0.21566254 0.114365324 -0.039417848
-0.15493737 0.14724663 0.057296675
-0.0003625165 -0.044888083 -0.05760321
-0.028738463 -0.21990126 0.13037114
0.12407066 -0.09110288 -0.016462034
-0.05570056 -0.25700444 0.052625094
-0.03699843 0.16600393 -0.0971955
