# .PCD v0.7 - Point Cloud Data file format
VERSION 0.7
FIELDS x y z
SIZE 4 4 4
TYPE F F F
COUNT 1 1 1
WIDTH 1000
HEIGHT 1
VIEWPOINT 0 0 0 1 0 0 0
POINTS 1000
DATA ascii
0.14674158 0.19863358 0.07854297
0.154567 0.022110246 0.18838228
-0.043362975 -0.10275982 0.07550097
0.2288437 -0.07023166 0.053082746
0.16393949 0.020650992 -0.009808902
-0.18510766 -0.1268699 0.10059149
0.24986015 -0.09734059 0.027479537
0.05147755 -0.01374289 -0.059400387
-0.016936133 -0.10111458 0.15200916
-0.2609296 -0.023851171 -0.061265107
0.0783845 0.16485 -0.10507325
-0.062194984 0.25484017 -0.014781519
0.17090529 -0.122090876 0.04284943
-0.16220036 0.038714368 -0.02753349
-0.100735724 0.1985442 0.0010870664
-0.21124654 0.002321384 -0.06720449
0.07628145 -0.17100951 -0.05343872
0.06984883 -0.042309325 0.022668885
0.0032401842 -0.113408655 -0.04502811
0.16382532 0.028550861 -0.0035530643
-0.14413981 0.217463 0.01695474
0.3275734 0.047971617 -0.131382
0.04337578 0.043205038 0.024264144
0.108024724 0.13924931 0.01088579
0.20878614 -0.0051301895 -0.03778608
-0.14254162 -0.0010012041 -0.08996254
0.2250496 -0.095879376 0.11515345
-0.017284276 -0.050556637 0.089103386
0.096394055 0.18864405 0.046604693
-0.0487187 0.1710707 -0.010345866
0.30513957 0.01034251 0.07202643
0.074269466 0.022476178 0.024980182
-0.16385749 0.09217165 -0.11991046
-0.18257552 0.2627612 -0.09686732
-0.21262045 -0.06942334 -0.038856275
0.15024522 0.20688039 0.040596284
-0.08895801 -0.099284925 0.08116145
0.36548594 0.08987238 -0.13016368
-0.24222763 0.04043993 0.018229283
0.18955831 -0.045176644 0.10588323
-0.06573013 0.2815691 -0.008829615
0.06973342 -0.03243479 -0.0056833043
-0.06176066 0.18711393 -0.03438082
-0.18830779 -0.11374725 0.04654413
0.42279208 0.11452419 -0.14468855
-0.027832203 0.22172461 -0.030699868
0.065758266 0.033694685 -0.014055352
-0.14180543 -0.12134063 0.08867051
0.21006495 -0.2090369 -0.07860291
-0.039761227 -0.1447538 0.13036017
0.17851567 -0.1015126 0.12364065
-0.20114326 0.015762549 0.061385263
-0.17386729 -0.22383432 -0.028343191
0.085839815 0.0051335893 -0.07025882
0.17391612 0.08807636 -0.091417335
-0.09595468 0.102891736 -0.04589744
0.14127076 -0.10468972 0.109123304
0.08736481 0.11068172 0.09630811
0.063266896 0.14511356 0.07080224
0.18321165 -0.028480224 0.21578667
-0.044224843 0.1353971 0.00768352
-0.1939259 -0.021926358 -0.12968439
0.27938813 0.08826431 -0.097338475
-0.19438404 -0.03762251 -0.04747446
-0.23349036 0.06050979 0.02952954
0.2358966 0.0054921648 0.15130682
-0.15772782 -0.11789699 0.057685155
0.37151024 0.13164759 -0.09229175
-0.04087053 -0.100874156 0.043799248
0.30760932 -0.119453 -0.06673711
-0.15567525 0.062222887 -0.016482683
-0.11925226 -0.23317571 -0.054225314
0.30231237 0.08248164 -0.020685835
0.0037535245 -0.17349193 0.102190964
0.21291241 -0.036773276 0.06685817
-0.15339148 0.26372057 -0.0023231169
0.035727207 0.17718548 0.028976843
0.031139277 0.04548679 0.0063797757
-0.06725284 0.1617932 -0.021175858
-0.16027482 -0.10308154 -0.025638638
0.040399402 0.2384894 0.06872063
-0.096668616 -0.10851782 0.07237511
0.059223097 0.14942716 0.030283082
0.10796087 0.14039181 -0.0982873
0.061578702 0.013795547 -0.060585227
0.24020353 0.020662427 0.1688928
0.039792392 -0.018281039 0.112004705
0.2015352 -0.027051762 -0.0011499786
-0.15262918 0.09383484 -0.09744501
-0.047510073 0.0066152555 -0.030946912
-0.15205377 0.057499003 -0.025870275
-0.045976125 0.075044446 -0.062662065
-0.15375787 -0.12984838 0.011623714
-0.013343408 -0.024064822 0.06436388
-0.1206221 -0.080060706 0.084220394
-0.04864797 0.22360626 -0.0015556236
-0.021361876 0.15732199 -0.055391908
-0.09132888 -0.10044099 0.0038039805
0.2524764 -0.0049249665 -0.007135548
0.17761976 -0.016436435 0.0446265
0.03359674 0.0718763 0.05097597
-0.16780585 0.09314295 -0.05249797
0.32052156 0.016508967 -0.012177006
0.25476256 -0.08032313 -0.08819192
-0.13929237 -0.0007038227 -0.049622986
-0.0902528 -0.2275995 -0.12960789
0.07400344 -0.017283076 -0.052056946
0.19436216 0.060082305 0.14481263
-0.2657002 0.016304534 -0.034105618
-0.11381111 -0.12569512 -0.030420298
-0.08452917 -0.059927028 -0.035947666
-0.09446062 0.23620859 0.016761204
-0.074305475 -0.22946869 0.0055486555
-0.18599753 -0.050417993 0.088349134
0.024750441 -0.23270288 -0.0010443047
0.17830549 -0.1493666 0.033486214
-0.088074006 -0.1544757 0.077375025
-0.17003098 0.011429663 -0.035715964
0.10738614 0.17198813 0.09401955
0.23304099 0.00014350987 0.0975452
0.19052988 0.060502928 0.13557486
-0.21676144 -0.22248954 -0.062194873
0.077900074 0.0025113367 -0.04824805
0.110409595 0.13443321 0.101344414
-0.14545915 0.109630115 0.0027224873
0.1458722 -0.028341806 0.0019050402
-0.023266666 -0.06315533 0.07549093
-0.054795086 0.25412852 -0.026019668
0.18364456 -0.12411955 0.030197354
0.13642131 -0.060706403 0.1770092
-0.16571242 -0.18383065 -0.024128007
-0.21251714 -0.20209311 -0.112031795
0.02319492 0.07393703 0.05681506
-0.23581386 0.0036997884 0.0013707437
-0.11405708 0.12021509 -0.075731404
0.3051364 0.04761412 -0.0829584
-0.23502621 0.0040956694 -0.12869012
-0.23789097 -0.14847253 -0.14609438
0.22481073 -0.10793781 0.068722725
-0.116783604 0.28123885 0.003313129
0.04224645 -0.12919173 -0.0115966005
0.09845032 -0.21571821 -0.104346424
0.22579151 -0.0139546385 0.0109792845
-0.08961806 0.0919952 -0.039743386
-0.23548378 -0.124463364 -0.113135636
0.18025123 0.15391903 0.061326846
0.075583756 0.099442646 0.05453411
-0.19879118 -0.107517004 0.08581685
0.012867826 0.17959401 0.034534793
-0.111699015 0.025842221 -0.046778608
0.017518884 0.17993279 -0.04850134
0.04540059 0.18160336 0.004466798
-0.06694194 0.2260931 -0.04795512
0.31543815 0.054867595 0.0151157435
-0.15583818 0.022627637 -0.1233422
0.21391279 -0.16682109 0.04169097
0.30769202 0.07747136 -0.038351055
-0.23322567 -0.07033209 -0.00055620325
-0.16642082 -0.17497554 -0.05318216
-0.060576953 -0.14857404 0.056866415
-0.117467605 -0.14322093 0.091434844
-0.12668341 0.17339858 -0.09271605
0.037672754 0.06396634 -0.07245933
0.105940126 -0.0486557 -0.03956991
-0.22554407 -0.08955176 0.07808057
-0.26391748 -0.011012863 -0.0009429226
0.14352447 -0.1127897 0.01725513
0.01429035 0.25377285 -0.052539393
-0.21364336 0.032403372 0.010930115
-0.03467982 0.010148748 0.0936359
-0.14906286 -0.20647226 -0.1785897
-0.06505763 0.057019148 -0.06323915
0.31966358 0.008098332 0.059419792
-0.046609636 -0.023162413 0.061554693
-0.209259 0.047729608 -0.00688049
-0.16362959 -0.094258375 -0.13397133
0.12456791 0.15043353 0.06067062
0.0032638023 -0.1619039 0.17475253
0.0042282515 0.28624773 -0.03263473
-0.010491211 -0.13518052 0.10381036
0.05536773 0.056999702 0.032764792
-0.037035875 -0.10809756 -0.015009119
0.17245539 0.016846694 -0.0048770304
-0.25946072 -0.047420725 0.016984623
-0.014752747 0.24128263 -0.065220356
0.013648353 -0.10661274 0.082590744
-0.2148516 0.02434589 -0.07849372
-0.040339433 -0.14095919 0.16689768
0.052909583 0.23725641 0.024617344
-0.056363106 0.07414544 -0.059236225
-0.05123687 -0.18699828 -0.03050265
-0.13251357 0.14458658 -0.05123812
0.07945227 0.08688549 -0.044533726
-0.029055266 0.16172388 0.0432032
0.00830549 0.19520035 -0.032055818
0.17053819 0.09444057 -0.03984038
0.09288389 0.12970974 0.074081555
0.2244645 0.05199887 0.061537996
0.04183532 -0.15648068 -0.038244985
0.22841331 -0.08319776 0.03450034
0.02160459 -0.014579851 -0.0012669746
0.21097274 0.012952073 -0.029528724
0.3155268 0.058216937 0.11322637
-0.17609204 -0.15704466 -0.026692556
-0.044274658 -0.075749405 0.11955303
0.19770111 -0.07962873 0.041750357
0.08988656 -0.11017485 -0.018414218
0.09317113 -0.041477945 -0.035536315
-0.19102709 -0.1042503 -0.032578096
0.0061836382 0.13463603 -0.0446948
0.07952218 -0.13300547 -0.012627552
0.14586522 0.25143257 0.060895182
-0.23330936 -0.010720949 -0.13012725
-0.1965751 0.22118104 -0.07920852
-0.030159507 0.06862367 -0.03798743
-0.055430662 -0.055434432 0.13391688
-0.19236515 -0.21507274 -0.06289294
-0.0410816 0.24181922 0.026986158
-0.061490383 -0.21036018 -0.035913333
-0.049976606 -0.16751164 0.108789995
-0.102617286 0.27911985 0.021750698
-0.083799385 0.16196202 -0.044979215
-0.15018265 -0.112595424 0.063467726
0.14878163 0.1087547 -0.0566278
-0.13500959 0.22790384 0.018365093
0.04055137 -0.13767278 -0.057647727
-0.09018338 -0.29270688 -0.08575928
0.19799435 0.004563559 0.0057025496
0.010610946 0.26971 -0.07572345
-0.10554336 -0.06438403 -0.109149635
0.19568406 0.07540212 -0.013340964
0.041121148 0.15822291 0.005644925
0.051902246 0.08256358 -0.039592564
0.24566203 -0.05114952 0.1269489
-0.14020663 -0.07824835 -0.20639232
0.021388981 0.09009998 -0.03956299
-0.05475858 -0.18200454 -0.057448003
-0.1489551 -0.25691637 -0.04186066
-0.08076066 0.027764292 -0.089658484
0.30764166 0.114515975 -0.05593528
-0.1558124 0.024580222 0.022219406
0.2960965 -0.035260692 -0.068615735
-0.2002142 0.03353878 -0.10919113
-0.05291677 -0.24381293 -0.1514106
0.18413273 0.05592253 0.004095613
0.20974234 -0.02759445 0.08903041
-0.14610182 0.3053954 -0.024408443
0.18224321 -0.19899398 -0.013873029
0.33511135 -0.08074013 -0.13028075
-0.1378974 0.0037501901 -0.015267025
-0.0021671061 0.18236859 -0.02769433
-0.20633273 -0.15113688 -0.04842059
0.0020242054 0.33607262 -0.005903228
0.32462868 0.107446425 -0.12901795
0.031018006 0.31881735 -0.059458494
-0.040253542 0.23092294 -0.056858744
-0.15810084 -0.14379798 -0.045507867
-0.31959298 -0.13753746 -0.09761133
-0.25140613 0.074550204 0.025521232
0.12725486 0.11628921 -0.08430941
-0.25830653 -0.09120556 0.041619334
0.39799923 0.11141071 -0.12079966
-0.063086316 0.17012396 -0.051143426
-0.01108166 0.004061008 -0.12792796
0.004877594 0.27937463 -0.011709031
0.19534795 -0.015058686 0.13435449
0.043018248 -0.064776205 0.01817558
0.113285966 0.071234085 -0.07280429
0.047395546 -0.22125238 0.1254264
-0.023251822 0.18949543 0.011959282
-0.14956534 0.11659216 -0.20360118
0.03186063 -0.15813689 0.14011648
0.24074079 -0.18627247 -0.122587144
0.12727833 0.15621378 0.022752943
-0.0013033164 0.027170707 0.0930256
-0.008328543 -0.0010025264 0.081346005
-0.13533367 0.102967404 -0.0804214
-0.10789325 0.2014697 -0.026469002
0.1877583 -0.20303343 -0.09766858
0.20543629 0.14897726 -0.06852541
0.10317138 0.08893496 0.00064952724
-0.041224267 0.19041407 -0.04875298
0.246923 -0.056223042 0.049698144
-0.34875473 0.0018931511 -0.03131587
-0.029189909 -0.16453989 -0.040921938
0.18541801 -0.07618592 0.15028371
-0.05105954 0.07460482 -0.08569857
0.27557486 0.030377774 0.13186638
-0.13142952 0.24744645 -0.017938098
-0.01825396 0.022730041 -0.026031777
-0.08062811 -0.17038405 0.04329761
-0.049562376 -0.1702988 0.11143435
-0.2138918 0.102969095 -0.16827467
0.014048053 0.013084905 0.057790153
-0.115088195 0.085590236 -0.084982604
-0.28578013 -0.04052442 0.032226596
-0.27232423 -0.060803395 -0.22878142
0.15767287 -0.06446004 0.053345483
0.20808922 0.07152531 -0.051114507
-0.17757133 -0.08233999 0.03285262
-0.13878566 0.12961061 -0.016601482
0.13345006 -0.10570573 0.16387007
0.1767817 0.0136890765 0.1576535
0.018452888 -0.025034567 -0.07029328
0.029494794 0.08717059 0.07224599
0.36352897 0.043456625 0.057947747
0.22618382 -0.006954833 0.16598581
-0.25139028 -0.04907882 0.019515147
-0.29118901 0.027428264 -0.035960022
-0.11123549 0.10750025 -0.08479136
-0.15468788 -0.03342633 -0.0074924035
-0.012884379 -0.21799484 -0.03812722
-0.018036509 -0.08386589 0.009478443
-0.15518326 0.07176231 -0.0891545
-0.28124294 -0.18279363 -0.14431454
-0.14432992 -0.14282314 0.08605194
0.10885704 -0.10934945 -0.041220594
0.10287369 -0.10240574 -0.038558718
-0.12217471 0.03601254 -0.08050618
0.26623657 0.012539176 -0.0033277688
-0.11809968 0.024479654 -0.05520572
0.06528012 0.05870423 0.043954078
-0.10428281 -0.14012763 -0.056320615
-0.22092056 -0.15884012 -0.05264745
0.21691483 0.008511326 0.12884073
0.06328638 -0.03875553 0.011576215
-0.118640244 0.16317445 -0.11989698
0.13437226 -0.1373168 -0.01723111
0.2066963 -0.0018435005 -0.0014332662
0.21338107 0.081136726 0.16118726
0.041675113 0.109115444 -0.07682316
0.11554868 -0.05872985 0.11764281
0.013688891 0.20430806 0.043114085
-0.18180801 0.0015655035 -0.03903355
0.070490986 0.031024026 -0.017304773
0.33771068 0.13871652 -0.02787286
0.04708123 0.08097572 0.05910768
-0.32651576 -0.073907755 -0.0018968688
-0.1174093 0.096733175 -0.018795108
0.27088284 0.08224822 0.16966496
0.011847978 0.006573462 -0.012921696
-0.23116466 -0.15453292 0.0753169
0.14364214 0.0791772 -0.090634204
-0.05152417 -0.035513934 -0.07547008
0.04880567 0.18236741 0.012841722
0.046839856 0.073345855 0.096689336
-0.008492621 0.23505573 -0.03756051
-0.0507606 -0.20513071 0.015503438
-0.10757167 -0.054705683 0.048144486
0.07066829 0.047749907 -0.009527177
-0.01380453 -0.24879247 0.0033334296
-0.04237578 0.116083905 -0.03850163
-0.20619506 -0.26063007 -0.042460512
0.09961208 -0.11301562 -0.0027921502
-0.18791328 0.062256083 0.016245995
-0.15541433 0.23450154 -0.0052055917
-0.1459135 -0.26033694 -0.05986328
-0.19401573 -0.04155657 0.05309297
-0.15624347 0.09954523 -0.10998741
0.28652197 0.03621531 -0.07391342
-0.18417312 -0.081686944 0.07726846
-0.05443999 0.15865014 -0.08505947
0.09242229 -0.16646895 -0.057715986
-0.088320404 0.22097312 0.01112175
-0.27950567 -0.032484032 0.011197857
-0.006217679 -0.2592624 -0.07113326
-0.0023397603 -0.06378184 -0.03588816
0.26291552 -0.121926814 -0.11571559
0.021069376 -0.13334279 -0.03464822
-0.20039645 0.032828458 -0.12071757
-0.15078421 -0.26238185 0.01866444
-0.27031288 -0.032361 0.051887564
0.13313998 -0.0037181 0.16184866
0.22274697 -0.14901176 0.029128537
0.0062248157 0.21595165 0.004650842
0.2992824 0.1225944 -0.005020921
0.110180475 -0.18676728 -0.0078210225
-0.25009856 -0.08692831 -0.026445655
0.2019313 0.021421902 0.09378737
-0.19424257 0.03346449 -0.07251258
0.12276367 0.11486253 0.09381713
-0.11405157 -0.24536043 0.008165022
0.2623522 -0.037357695 -0.03453122
-0.1704563 -0.065384 -0.05379339
0.27416262 0.011324244 0.06065049
0.12012422 -0.1356553 0.040112425
-0.061915856 0.12526244 -0.06232831
0.19285823 0.07795522 -0.017026741
0.0795206 -0.13168289 -0.026270187
0.30532667 0.056629315 0.11788709
-0.013712033 9.013741e-05 0.043633495
-0.0990798 0.25571752 -0.03140765
-0.068744205 -0.2734031 -0.05355589
-0.25771856 -0.08016545 -0.12741704
-0.044355758 -0.04000824 0.04124882
-0.07949446 0.28665584 -0.085568964
-0.07874986 -0.13028994 0.03379989
0.0039901137 0.07343355 0.0075349957
0.106818624 -0.17297722 -0.060358465
-0.104110286 -0.06137494 0.03944387
0.25235736 -0.033002157 0.100452036
-0.09775997 -0.0013217019 -0.11450524
-0.06808099 -0.16302219 0.14790075
0.0660009 -0.07456595 0.012509153
-0.21504764 -0.27135256 -0.07129069
0.005495748 -0.08401128 -0.046789408
-0.22429731 0.06370206 -0.12469597
0.0631752 0.13870083 -0.019578153
0.011316698 0.07994855 0.10027587
-0.10465709 0.20665766 0.03309599
-0.17886499 0.15002336 0.017006984
0.3972842 0.11824092 -0.09558758
0.18332371 -0.09862803 0.0355841
0.34560513 -0.031889882 -0.15879409
-0.28739482 -0.10361109 -0.031089528
-0.10217872 0.1378381 0.0129068885
-0.20062245 -0.20768477 -0.025780682
0.26280358 0.04310237 0.029531954
-0.052182257 0.24939956 0.0087287435
-0.21172884 -0.1042117 0.009764111
-0.10667475 0.06101116 -0.04627958
0.3254548 -0.0496326 0.043025427
-0.13457255 -0.16792125 0.044923365
0.10484225 -0.1764521 -0.030607136
0.2770946 0.01396909 0.07737389
0.109501995 -0.25442514 -0.096289076
0.07696607 0.0700444 0.00040498993
-0.19478257 -0.107528195 -0.030656144
0.040203217 0.025983412 0.10019554
0.12220677 0.14183912 0.035306104
0.16633017 0.07499923 0.038527034
0.1874322 -0.0366443 0.19327112
-0.20910843 0.0064926436 -0.096363045
0.2867762 -0.01025933 0.04026122
0.18368976 -0.16168498 0.041453663
-0.03944119 -0.14664873 0.16203006
-0.19302244 -0.09559373 0.116234966
0.13575155 -0.03257012 0.13457866
-0.03401202 -0.12752582 0.0069860914
0.098300576 0.10911315 0.0163029
-0.061440963 -0.037580278 0.07990826
-0.16845337 -0.041729204 -0.04031481
-0.040286545 0.22262645 -0.0042443303
-0.07455817 0.14475629 -0.08262879
0.12829855 -0.20225015 -0.06191937
-0.11269191 0.30443466 -0.046886016
0.2908842 -0.07427185 -0.085536264
-0.18395773 -0.12238009 0.0080341045
-0.004378333 0.031910207 -0.029303664
-0.16803369 -0.13833702 -0.039855678
-0.15463239 -0.06504547 0.06511711
-0.19728635 -0.1649827 -0.07082597
-0.061456084 0.26190588 0.013077693
-0.1714919 0.15303451 -0.026800368
0.13067652 0.11547427 -0.075349875
0.23139645 0.0022549578 0.14682205
0.1795939 -0.02551755 -0.059876416
-0.040977154 0.057189405 -0.08555476
-0.032783706 0.009294335 -0.018578198
0.36440513 0.11092412 -0.049496558
0.14073543 0.010494 0.07395286
-0.088127315 0.28263265 -0.017537463
-0.18442844 -0.16652197 0.017482203
0.17675214 -0.12194961 0.00743884
0.26473707 0.10414781 0.023669867
-0.081159756 0.123342335 -0.117144786
-0.31567034 -0.12217859 0.034925237
-0.10154627 -0.1324493 -0.07299312
0.0068123275 0.11964686 0.0021525368
-0.058934435 0.28107828 0.011203307
0.059983555 -0.22400472 -0.076333135
0.044888888 -0.20565793 -0.040070027
-0.09946812 -0.18693247 0.13098945
0.29231036 -0.112548836 -0.016932262
-0.26723987 -0.061537255 0.033519022
0.05376915 0.051186256 0.032712042
-0.11210892 -0.12481613 -0.010840705
0.12899588 0.0076420833 -0.08282125
0.098662734 0.1925905 0.04025458
0.015024117 0.03692916 0.10034559
-0.15994728 -0.13562697 -0.0550429
0.13130604 -0.13867736 0.029526811
0.24178328 0.06273487 0.1392883
0.025890166 -0.017228004 -0.026589144
0.023011712 -0.121795535 0.1100654
0.20007029 0.029312702 0.14523551
0.01707087 0.09746773 0.024317296
0.24501598 -0.16272046 0.01888001
-0.037396487 -0.2514961 -0.06968943
-0.06825389 0.17505594 -0.09037386
-0.057613563 -0.13213825 0.07707013
0.25647295 0.034692585 0.13644026
0.05083918 0.0326365 -0.048146486
-0.20973344 0.0027180484 0.06273612
-0.046220053 -0.088649325 0.14576545
-0.31642458 -0.07601356 0.010725813
-0.05242731 0.14638276 -0.057744086
-0.06238945 0.19359612 -0.027817985
0.16556048 0.1438793 -0.056337073
-0.18426424 -0.049730215 -0.112819724
-0.23373203 0.009569567 -0.15995298
0.054147 0.15709624 0.08382944
-0.16963278 -0.0059776944 -0.08002203
-0.11368042 0.025673706 -0.103067905
-0.21588889 -0.1208438 0.06568071
0.008395531 -0.10149683 0.15056764
-0.04929497 -0.044356905 0.08878901
0.030275429 0.11657341 0.010748547
0.015013016 0.0027955396 -0.097059496
-0.009412338 0.18915066 -0.053147253
-0.14452913 -0.0024296953 -0.08504059
-0.06840016 0.17854337 -0.003510276
-0.10754652 0.16639398 -0.11905201
-0.20211798 -0.21445556 -0.05091975
-0.008020254 -0.026649052 0.053625863
0.030241499 0.18615125 0.054111134
0.20771995 -0.011495312 0.22350664
0.1928075 -0.032141063 0.010360891
0.013208663 0.039921843 -0.061826337
-0.016999252 -0.083339274 0.06254246
0.04952637 -0.22273552 0.031435996
0.022747329 0.13884224 0.06693158
0.17012805 -0.08344897 0.22886035
0.11755521 0.14840963 0.041143898
-0.16755675 -0.1259718 -0.076250605
-0.042836208 0.007432928 -0.06355305
-0.23947626 -0.072375536 0.08888662
-0.17304114 0.05159631 -0.043724425
-0.32015017 -0.085351884 -0.016632535
-0.0056978473 -0.0619228 0.042745877
-0.11144449 -0.11632737 0.072505064
-0.017935174 0.027390726 -0.025948979
0.09657541 -0.023138922 -0.030804409
0.15585889 -0.14207026 0.017826673
-0.0057307137 -0.20160764 -0.06474635
0.046522018 -0.21293007 -0.020261552
0.03490031 -0.17747843 -0.0022781382
-0.013836554 0.15135701 -0.014941174
-0.3296716 -0.040424276 0.025181878
-0.092464514 -0.1344493 0.14625378
0.090397425 -0.05096481 -0.047326487
-0.12785254 0.0936839 -0.07562975
0.043090697 -0.057023697 0.11681644
0.29256386 -0.042369753 -0.1360611
-0.1534897 0.04392334 -0.10903507
-0.36192945 -0.069378085 0.03982046
0.28963163 0.13197145 -0.028530033
0.20481518 -0.13303931 0.061906755
0.090981804 -0.07078481 -0.028249258
-0.18817428 0.21503748 -0.050008368
0.0138048595 0.07964051 -0.115371436
-0.069739714 -0.21674322 0.016763218
-0.17580388 0.14663328 -0.030746456
0.08760849 0.06966059 0.00078084826
0.1094045 0.040582135 0.0068909903
-0.15765217 0.17562006 -0.06432151
0.048235737 -0.17221773 0.010739869
-0.03890963 0.2689627 -0.056317907
-0.2789734 -0.058634732 0.004185604
-0.17070293 0.035158735 -0.0058217403
-0.16865803 0.17149027 0.013460959
-0.08941039 0.08012229 -0.07227343
-0.082337014 -0.09114097 0.09905379
-0.19887859 -0.10809318 0.04571557
0.2815043 -0.06749754 -0.18035385
-0.06496606 -0.19944245 0.087231494
0.11194527 0.20515782 0.060279567
0.07545028 -0.11747013 -0.019803992
-0.20061257 -0.06431705 0.015064322
-0.15482242 -0.093159586 0.044140145
-0.13901524 0.09453713 -0.006819349
-0.019889848 -0.21778823 -0.022092711
0.004070065 0.12468815 -0.04288039
-0.057425138 0.12287709 -0.047523443
-0.010764523 -0.09218268 0.12979938
0.26892212 0.05821569 -0.072524324
-0.030056072 -0.0014102664 -0.082753815
-0.13538653 0.1707516 -0.029435521
-0.066018805 -0.107462406 0.0061641303
0.07554384 -0.078707166 -0.033196654
-0.07911502 -0.28172514 -0.031178078
-0.09248741 0.14012077 -0.0011166825
0.042383187 0.12052131 -0.10330331
-0.050866783 0.3038201 0.012466191
-0.002990971 -0.22272865 -0.05911116
-0.12626514 0.16460946 -0.005912713
-0.2597356 -0.010826043 -0.018770847
0.19756658 -0.04588935 0.05674803
-0.10807867 0.005816232 -0.07989314
0.03709404 0.08413927 0.026888475
-0.09441382 -0.106722586 0.10397113
-0.19189477 -0.079920135 0.054884497
-0.028707542 0.16804093 0.034381825
-0.12708145 -0.20907538 -0.00095620623
0.17374393 0.021119999 -0.035717744
0.10090871 -0.13801387 0.026220683
-0.102029584 -0.085820705 0.07535614
-0.01877924 -0.10268797 0.11912994
0.06115987 -0.08782693 0.03122011
-0.023492986 0.21002974 0.014851189
0.2367148 0.04279497 0.10553885
0.09749635 -0.0030212428 -0.01254798
-0.095159814 0.031725265 -0.025488162
0.0328082 -0.1821643 0.09208891
-0.16507219 -0.10720178 0.09176505
0.031736717 0.009135833 0.04076869
-0.07353758 0.11398421 -0.10173286
-0.061964087 0.26705307 -0.025240622
0.18075849 0.03552948 0.0031582308
-0.023812689 0.037876815 0.03949424
-0.13822043 -0.11038521 0.1008805
0.31072065 0.05991765 0.011935309
-0.2708587 -0.060705572 -0.0051818485
0.19363686 -0.008232298 0.10147766
-0.21627368 -0.0109746875 -0.015796697
0.07151379 -0.037712667 -0.0029632135
-0.13717222 -0.11204241 0.06435414
0.122123376 -0.1386177 0.040592108
-0.13024358 0.28046876 -0.040312115
-0.09894077 0.17782293 0.018053204
0.16806933 -0.21682468 -0.032221776
0.28792536 0.0533323 0.0865677
0.15115564 -0.034820054 0.18080035
0.28556892 0.0063406737 -0.120126724
-0.2049921 -0.1078972 0.021088207
-0.14486383 0.2421713 0.011785746
-0.0879238 0.18862277 -0.038167916
-0.11315614 0.033565383 -0.09017156
0.13932404 0.06040024 0.03338979
-0.013283565 0.13539578 -0.08647001
0.22604403 -0.1268673 -0.02160119
-0.1446908 -0.09091855 -0.018558538
0.10241913 -0.020160446 0.17945525
-0.05236445 -0.086284116 0.04619063
-0.0691518 -0.16732068 0.10964679
-0.08833154 0.10740705 -0.09333797
0.1205179 -0.13045597 -0.013868107
-0.022768281 -0.19043522 0.07926694
-0.10798728 -0.17473698 -0.036379248
0.009898254 -0.033238344 0.067260504
0.021683615 -0.20828187 -0.031074733
-0.19569704 -0.14703746 -0.016147586
0.23428331 0.040002402 0.080505416
0.32368788 -0.05173643 -0.09179266
-0.003670095 0.025912846 -0.08158572
0.1738942 -0.15082249 0.03725184
0.06666087 0.08043469 -0.06345387
0.37504512 0.08192121 -0.08755141
-0.103893384 0.24543303 -0.040078055
0.036865883 0.2205066 -0.009028019
-0.16200034 -0.20012453 -0.06091594
-0.22130829 -0.07972988 -0.100177765
0.08583413 0.118948564 0.026394283
0.200323 -0.20993523 0.013363362
-0.07683341 -0.011268607 -0.14872165
0.090448715 -0.06878882 -0.020394871
-0.09175257 0.32234028 -0.040871654
0.2548662 0.028714038 0.051944427
-0.11084533 -0.27381605 -0.07353767
-0.12059268 0.2805189 -0.05492733
0.012770698 -0.052603237 -0.027715567
0.17454082 -0.069861405 0.08253468
-0.062961295 -0.06841474 0.032120507
-0.11704649 -0.16228284 0.09870498
-0.10072118 -0.112507775 -0.059544306
0.10679788 0.0043147323 -0.03232414
0.07331375 0.14547631 0.029398078
0.04137404 -0.12698792 0.08236687
-0.080032 -0.09942509 0.109062105
-0.06220335 0.013924955 -0.016743587
-0.24992266 -0.018037833 0.021501964
-0.03361175 0.2923688 -0.053147137
-0.24000132 -0.15915553 -0.08419631
-0.038423013 -0.2364584 -0.03127379
0.017321365 0.07351593 -0.059444804
-0.19749154 0.0019254935 -0.013489309
-0.1589727 -0.14781012 0.111656815
0.13918966 -0.029250477 0.15395065
0.009478555 0.12873657 -0.009145786
-0.025262823 -0.11830314 0.10422862
-0.045965318 0.1792227 0.010426843
0.3047299 0.11662545 0.043203603
0.21619987 0.04815425 0.22578709
-0.114131115 -0.10383895 0.054335244
-0.047822826 0.21946299 0.0052619125
0.082313314 -0.17679119 -0.022536563
-0.15711315 -0.07962635 -0.15741815
-0.028138977 -0.122819655 0.13104808
0.018437834 0.05081302 -0.091991074
-0.17500095 0.25032204 -0.012845103
-0.15385747 0.2302642 0.029074488
0.092878185 -0.079658605 -0.045364037
-0.15378323 -0.23021178 -0.08266624
-0.15415028 0.04285105 0.02887513
0.2479113 0.054867133 -0.004448265
-0.2173106 0.17652366 0.04294672
0.2534067 0.069546334 0.03284814
0.20518672 -0.073362425 0.11520848
-0.27038065 0.03429447 -0.09298924
-0.20258796 -0.13757755 0.108937204
-0.1945869 -0.1373781 0.044830192
0.045832373 0.016869612 0.070420764
-0.18668532 0.05661527 0.031077085
-0.03949523 -0.1344089 -0.0077021057
0.14914235 -0.013801518 0.19829908
-0.044601936 0.062976815 -0.08598995
0.0053470875 0.040047716 0.035002816
-0.2533723 -0.041835707 0.032518342
0.031025201 0.080211654 -0.09151806
0.04421726 0.09984797 -0.03732732
0.03395748 0.053778227 0.07880982
0.22404383 -0.033181548 0.021546852
-0.062463485 -0.16323711 0.091531254
-0.044409867 -0.023675002 0.0827971
0.16343793 -0.06297405 0.03216821
0.1290824 -0.20255339 -0.060903415
-0.11279084 0.27298665 -0.075800955
0.23530409 0.055909276 -0.03386604
-0.010119901 0.22684912 -0.0021336416
-0.013666337 0.22250083 0.011163109
-0.23218825 0.06880265 -0.06749396
0.02870416 0.09894385 0.016118428
-0.12023891 0.29239136 -0.0607731
-0.24029133 -0.053364825 0.048665214
0.24200429 -0.16344231 -0.08558702
-0.12360385 0.024256201 -0.07531795
-0.15932761 -0.073513016 0.033804487
0.025987567 -0.15052597 0.015147938
0.19621894 0.067015514 -0.09856653
0.18132062 -0.1146899 0.09377178
0.19140773 -0.18383984 0.060480084
-0.18095744 0.12490487 -0.11462044
0.043778617 0.21159075 0.037732124
-0.18921226 -0.13942967 -0.049638137
-0.0045206067 0.22291993 -0.0033535368
-0.2789331 -0.06622507 -0.04178035
0.16449843 0.0965912 -0.05466369
0.1088621 0.014966961 -0.05006607
0.089101784 -0.1934112 0.015848355
0.15278466 -0.031206323 0.20636705
0.18361598 -0.05032713 0.23657292
0.112934195 -0.02672173 -0.020112667
-0.019002307 0.011860301 0.079447135
0.20849943 0.091324314 -0.10652832
-0.14205974 -0.20866172 -0.017780293
-0.16857748 -0.13356008 0.09324877
0.13488534 0.15817448 0.04807899
-0.12847887 0.088479556 -0.0305316
-0.30130818 -0.034318354 0.07309354
-0.1868701 -0.14499202 0.037559826
-0.12546723 0.19722207 -0.0545024
-0.045956314 -0.07583861 0.1268469
-0.19626819 0.11896841 -0.023286216
0.056554716 -0.05996006 0.04068378
0.1399279 0.15564212 0.03478038
0.2529139 -0.08588589 -0.08153
-0.08011251 0.02304895 -0.015734935
-0.01635426 0.10763045 -0.053461675
0.15966459 -0.031386662 0.11449381
0.121106125 0.0630746 -0.07929742
0.051283397 0.022287102 -0.011979113
-0.13607149 0.1828044 0.01625248
0.17854309 -0.075526066 0.11019635
0.07577548 0.049471393 0.052527826
0.060944017 0.14450145 -0.020365937
-0.004974205 -0.11841124 0.13862847
-0.034109324 -0.25557107 -0.0442721
0.1607678 -0.016462173 0.1597836
-0.07507062 -0.14951119 0.026573183
-0.15029268 0.071817 -0.06414455
0.2345751 0.03206674 0.019441875
-0.1989443 -0.10441141 0.08968352
-0.08244884 0.32104206 0.0025083276
0.023738565 0.15816844 -0.055905625
0.08820924 0.14152284 -0.010917317
-0.21677136 0.08403824 0.00046890957
-0.08921615 -0.07214326 0.11188796
-0.27960175 -0.028083177 0.0077565326
0.2442283 -0.13134056 -0.055820696
-0.08166605 0.09458937 -0.11862168
-0.21260229 -0.14109406 -0.09646279
0.04411318 0.1048805 0.061088365
0.4011322 0.09029324 -0.1397848
0.110492565 -0.19647433 -0.08694322
0.1461681 -0.22699119 -0.016632887
0.06207457 0.18564363 -0.0045985854
-0.15170224 -0.20291969 -0.089504026
-0.08052931 -0.12825742 0.01045958
-0.04710243 0.31223953 0.006617335
-0.23384938 -0.11904773 0.005915338
0.063677974 0.11351818 0.007671432
0.1745702 -0.039764117 -0.007259434
-0.08190717 0.22196826 0.033267874
0.1216195 0.039079066 0.0055107665
-0.14267175 -0.11152525 0.13341902
0.22959468 -0.19518992 0.039413564
0.058652308 -0.22732408 -0.09618766
0.14489253 0.095483534 0.02707661
-0.10686666 -0.20385754 -0.04319435
0.19866806 -0.07818038 0.08988863
0.1892596 0.0066918344 0.1495314
-0.233605 -0.019170824 -0.10082119
-0.18406886 0.0007262416 0.019910736
-0.13229212 0.23807701 -0.008477875
0.07558881 -0.09649475 0.03080927
0.31219596 -0.0073974887 -0.07490703
-0.025392253 -0.166817 0.12664896
-0.14424126 -0.1177238 0.026648138
-0.15199913 -0.10433685 -0.12103414
-0.112188816 0.1094918 -0.060595486
0.1674136 0.2394138 0.06722501
-0.012844475 0.1386522 -0.053633425
-0.060920447 0.114886835 -0.1192819
0.1694979 0.11952914 0.05391791
0.1741319 0.14345306 -0.08516105
0.20979464 -0.048289783 0.027896067
-0.36045262 -0.10442546 0.03257343
0.0029293105 0.24901494 0.021056296
0.33521026 0.038244948 -0.054672368
-0.01344999 0.15262248 0.043052625
-0.17066252 -0.18342508 -0.04732804
0.062495466 -0.11911506 -0.021073075
-0.076617315 -0.13165373 0.07193051
-0.13843508 -0.29949322 -0.123844884
-0.19290338 -0.04554111 -0.07795332
0.29394278 -0.14277275 -0.09684098
-0.10179916 0.21092321 0.037726168
-0.09712261 -0.16644593 0.12473915
-0.0064539355 0.16429894 -0.039111726
0.14214718 -0.21211156 -0.06405703
0.003453251 0.10053855 0.08085559
0.17968327 0.085467555 -0.065690264
0.013258044 -0.28034362 -0.04656574
-0.052847147 -0.20049697 0.09011846
0.2008587 -0.009324009 0.059623767
-0.07416767 0.10784583 -0.121903874
0.18523179 -0.16363068 -0.009385258
-0.022168465 0.14172992 -0.054063678
0.04457925 -0.1694491 -0.047941767
0.36202377 0.086949565 0.011005589
0.037973717 0.05909618 0.07287835
-0.117943265 0.13662617 -0.036211446
-0.09712405 -0.1205514 0.13316736
0.16427787 0.027563585 0.23806055
-0.111610316 -0.15201363 -0.07001433
-0.30875784 -0.12744638 0.011622106
0.15531108 0.18012567 0.04064366
0.10346916 0.17726439 0.055223178
0.09349932 -0.030612214 -0.03208023
0.06750932 -0.052570768 -0.0031114537
-0.1814628 0.16184542 0.00948257
-0.14939894 0.3421805 -0.08127032
-0.04453159 -0.05495189 0.07064346
0.14560851 0.12778412 -0.0633785
0.27035373 -0.1281328 -0.04048826
0.37688076 -0.010254264 -0.09044362
-0.26882577 -0.06812807 -0.18554583
0.15873058 0.08586003 -0.047439232
0.23893577 0.022357509 0.03717649
0.019709053 -0.15546933 -0.048450768
0.38461763 0.07530495 -0.043597676
-0.093677506 0.22564201 -0.013161246
-0.025618885 -0.09331535 -0.11295645
-0.20359382 0.0019329803 0.03156439
-0.08414936 0.012533531 -0.08585367
-0.19815063 -0.058405224 -0.03252884
0.13997416 0.11701322 -0.068971224
-0.31233677 -0.00967448 0.054218967
-0.027514884 -0.15970783 0.08632797
0.12454035 0.18798235 0.019934835
0.005740675 -0.18948081 0.108623005
0.100657485 0.22441298 0.087501615
0.12593918 -0.013374255 -0.016033994
-0.13087094 0.2691648 -0.10251994
-0.21301202 0.16026457 -0.06196763
0.14799169 -0.009201699 0.19064015
0.002173372 0.09622879 -0.0071177
0.14387229 0.009298429 0.20493928
0.32804576 0.03851116 -0.05538994
-0.028776806 0.32862836 -0.063815854
-0.13850226 0.19577271 -0.01774456
-0.09507273 0.2635773 -0.023197643
-0.2792312 -0.02955432 0.02573434
0.14189377 -0.0628913 -0.00076630147
0.2905232 0.10621499 0.039678615
-0.13383591 -0.13829443 -0.024311861
0.16003586 0.09453809 -0.0016730243
-0.18139797 -0.1572397 0.080411784
-0.16070291 -0.11100026 -0.016367301
0.27252722 0.08762707 0.054157946
0.05575712 0.054312967 0.008192211
0.19188438 0.012890127 -0.013918017
0.13111715 0.03074027 0.19415444
0.030942872 -0.10593073 0.10129637
0.15641436 -0.22949879 -0.075272575
-0.12360665 -0.11850671 0.09284229
0.12316634 -0.12461202 0.037068743
0.02026746 0.16688271 0.026085453
0.10387243 -0.043570396 -0.0062783225
-0.056992877 -0.29065034 -0.089563586
-0.14996757 -0.23679034 -0.08288006
-0.13077915 0.1384413 -0.16492006
0.023872063 0.076204345 -0.050189883
0.13498472 -0.0971376 -0.03817946
-0.09729061 -0.14802992 0.010363787
0.15683056 -0.22684646 -0.055752926
0.37390745 0.037868638 -0.09016965
-0.049168885 0.32647946 -0.0026990867
-0.102999054 0.120959826 -0.037378207
-0.3654467 -0.08216954 -0.0005279662
0.02048257 -0.22093222 -0.012895353
-0.09320892 0.27729487 -0.059894178
-0.2157031 0.076006405 -0.023804387
-0.13640325 -0.2508255 -0.058664188
0.078486614 -0.20034498 -0.09364918
0.033811014 0.04639055 -0.048934426
0.21165822 0.012585511 0.1835864
0.021236952 -0.060675964 0.009322534
0.043680787 0.147921 0.020731458
-0.19102311 -0.008850239 0.05967677
0.17382933 -0.16485135 -0.029040357
-0.13972692 0.06710718 0.033040293
0.32043135 -0.069979034 -0.13896453
0.22576845 0.01960749 0.1271254
-0.21464872 0.021251662 -0.121644594
-0.16241919 0.017292805 -0.14584266
-0.088250495 -0.15206191 -0.071622364
0.1988571 0.05138748 0.12548696
-0.123171486 0.04662335 -0.08059534
-0.041416958 0.09876791 -0.07297941
-0.07281871 -0.06269077 0.04307343
-0.057624582 0.0911099 -0.041541837
0.14056586 -0.11683456 0.012797103
-0.13265723 0.17991677 0.0027795995
-0.044843223 -0.07943023 0.14671612
0.058204066 -0.103204325 0.02296226
0.22825514 -0.12586969 0.02210222
0.014742446 0.080144666 0.04148402
-0.19029632 -0.116403386 0.04614507
0.0972983 0.07045678 -0.055157464
-0.09886388 -0.1817021 0.11650568
0.14652185 0.06302604 -0.022358205
-0.14136547 0.15624534 -0.017173506
0.19249731 0.10616641 -0.06388621
0.20352636 -0.025832511 0.18655466
-0.19731179 0.048350185 -0.06668766
-0.2611901 -0.07810424 0.016570553
0.26754358 0.12366285 -0.033500023
-0.036519554 0.072138 -0.11879388
-0.12623143 -0.13314706 0.1183049
-0.21541187 0.102766216 0.029530404
0.016374823 0.0005156527 -0.06128218
0.09755311 -0.16255823 -0.03460661
0.046116784 0.043312706 0.022795511
-0.053748067 -0.09244858 0.071382396
0.009625671 -0.012159022 0.10809382
-0.2277059 -0.024961406 0.05006902
-0.09006265 -0.14765953 0.050032504
-0.069646075 0.3100249 0.017119836
0.082599685 0.11916147 0.057159293
-0.041612703 0.14654475 0.038659792
0.28248215 -0.078493804 -0.13458917
0.20113724 -0.09819345 0.16477042
-0.15259193 0.29644114 -0.0041053765
-0.119125664 0.09694668 -0.040743623
0.10831778 -0.0636332 0.09190524
-0.023043888 -0.18669127 0.003817728
0.05707685 0.15762112 0.06545656
-0.0026442364 -0.14558406 0.12681559
-0.049133155 -0.1322546 0.019804595
0.111037165 -0.13656089 0.011231598
0.14921676 -0.06559826 0.117791414
-0.20702504 -0.047261603 -0.002646517
-0.007045242 -0.049534686 -0.03231108
-0.15176643 -0.038334038 -0.05930378
-0.21555866 -0.06929678 -0.14527667
0.036298946 0.041298702 -0.05140958
-0.2760801 -0.12275658 -0.1327425
0.0738386 0.031651385 -0.01944591
-0.15916395 -0.074092284 -0.028771637
0.112960935 0.0514883 0.014578724
-0.16094574 0.02350205 -0.13293149
-0.03793933 -0.13529678 0.16687626
0.15565534 0.0020845365 0.003011912
0.24171932 -0.06102282 0.15129903
-0.092053354 0.09534664 -0.051527813
-0.26013833 -0.083699994 -0.11347486
0.027086118 0.068955876 0.02036609
-0.047485344 -0.09871071 0.08456048
0.13889056 0.014502992 -0.06291126
-0.12954316 -0.24106896 -0.06723978
0.17893264 -0.030518975 0.09701142
-0.2755371 -0.15473633 -0.048439607
0.07822642 0.08202423 0.0056438013
-0.26849112 0.009541957 0.004350387
0.1376688 -0.08219299 0.101672344
-0.05639505 -0.11553089 0.049093276
0.14240386 0.037181906 -0.057517827
-0.050700765 0.19991297 -0.1303265
-0.0832672 0.029218215 -0.12572399
