# .PCD v0.7 - Point Cloud Data file format
VERSION 0.7
FIELDS x y z
SIZE 4 4 4
TYPE F F F
COUNT 1 1 1
WIDTH 1000
HEIGHT 1
VIEWPOINT 0 0 0 1 0 0 0
POINTS 1000
DATA ascii
-0.12042772 0.21332528 -0.20763904
0.21814975 -0.15591112 0.09934793
-0.23571888 -0.25428957 0.2835457
0.22066689 -0.047332264 -0.013689887
-0.22637834 -0.22356118 0.23130266
0.1870425 -0.046222087 0.0085379
0.21243484 0.088687725 -0.13949032
-0.020311894 0.15675186 -0.21281847
0.10641691 0.006539316 0.06247993
-0.18685557 -0.08945137 0.2528842
-0.24962819 -0.15026523 0.25788486
-0.046958763 -0.04869711 0.010795853
0.27787763 -0.010453226 -0.03719961
0.0009255771 -0.059933163 0.08454825
-0.01661331 0.13377333 -0.090383664
0.27784818 0.12280052 -0.24170287
-0.09077226 0.14303432 -0.21046194
-0.22116105 0.11831417 -0.049674213
-0.06791077 -0.10138187 0.23076941
0.02260953 -0.07821819 0.028579993
0.011040923 -0.02527524 -0.021729903
0.18339531 -0.05099505 -0.07121885
-0.24547702 0.098169155 0.070630014
0.27642256 0.014291445 -0.15561925
0.09215105 -0.20052367 0.04094584
-0.042144313 -0.08951679 0.19213022
-0.2521526 -0.015757859 0.047814924
-0.0701915 -0.04179313 0.16629216
-0.13917695 -0.0770617 0.23712096
-0.054958943 -0.06648108 0.20827316
0.20412236 -0.12096351 0.18149407
0.094173916 0.10423286 -0.25213274
0.30725178 0.096382886 -0.18342534
-0.18297493 0.20056085 -0.1546065
0.15332009 -0.0990726 0.15150154
-0.11190835 0.015295524 0.15431127
0.26449162 -0.034426313 0.11362428
0.27541295 -0.07258571 0.040230438
-0.040826026 0.16030252 -0.18544209
-0.16890785 0.22504722 -0.16988045
0.011962204 -0.03508958 0.16620131
-0.08571495 -0.22324887 0.21489775
0.016891707 0.029158814 -0.21910243
-0.16501936 0.20019668 -0.13755928
-0.29916686 -0.13802926 0.23658718
0.24102955 -0.12242671 0.0796362
-0.0072694733 0.08821667 -0.07329573
-0.19677685 -0.15790333 0.26503447
0.32080847 0.017468864 -0.086764336
-0.17797859 0.042667434 0.09130448
0.2619469 0.12665312 -0.22092171
0.019877993 0.19911735 -0.33578375
-0.16841482 -0.017304268 0.16722865
0.081357814 0.27861497 -0.2784424
0.22407301 -0.08056967 0.08705094
-0.103331625 0.21635868 -0.20960467
-0.01195102 0.1811507 -0.17468464
0.01357882 -0.030197142 0.022416526
0.057915427 -0.05248316 0.14905044
-0.17647097 -0.06550284 0.2719541
-0.2597884 0.14264873 -0.0716535
0.14360666 0.118046 -0.23829985
0.21246016 0.024594976 -0.10814355
0.21389061 -0.07345044 0.052580375
-0.15121152 -0.04312906 0.14213964
-0.04898895 0.021926064 0.102188386
-0.06949072 0.20225668 -0.2421977
-0.22161594 0.028458621 0.014067443
-0.13405636 0.2203153 -0.17902975
0.19975942 -0.15084761 0.10726057
-0.014031895 -0.20316423 0.24387376
-0.03155258 0.20904565 -0.2613947
-0.028289914 0.21558225 -0.30152506
-0.030144718 -0.13079445 0.11872173
0.0073486012 0.15957807 -0.16399752
0.30318233 -0.09772035 -0.034383316
-0.25885442 0.10970968 -0.045490783
0.05063347 -0.037306167 0.0058359653
-0.16223426 -0.12877226 0.23525012
0.22834142 0.20490222 -0.28615078
-0.023310391 0.0049565597 -0.07237666
0.12995914 -0.061286427 -0.16222401
-0.18495107 -0.15364411 0.26393637
0.25656313 0.121468134 -0.21528354
-0.038256828 -0.046717953 0.10834875
-0.23663896 0.027771413 0.14525126
-0.044483908 0.18657891 -0.17854173
0.24864149 0.05734052 -0.16463329
-0.28365937 0.19323877 -0.029797824
-0.028451018 -0.14320067 0.21537563
0.15392599 -0.16832711 0.121703096
0.033240788 0.23144095 -0.2673193
-0.047324874 -0.18404962 0.21755971
-0.08115443 0.115296304 -0.13656457
0.14337347 -0.017083285 0.04713742
-0.10753374 -0.24671876 0.2046182
-0.107046545 0.099242344 -0.05083795
-0.011264879 -0.06034499 0.08113378
0.13404496 0.15076505 -0.15852162
-0.10614165 0.18017592 -0.16837849
-0.15578237 0.07347858 -0.041651834
-0.23847984 -0.15199725 0.1864748
0.2597456 0.1701926 -0.27385142
-0.21640958 -0.18945976 0.2835792
-0.06674802 0.11423867 -0.14620581
0.07121048 -0.15177473 0.14363196
0.24690576 -0.058485433 -0.06941138
-0.13281462 -0.20477393 0.25880903
-0.15406108 -0.13917658 0.24810798
-0.1677331 0.24776445 -0.23411179
-0.047335446 0.27499023 -0.2682288
-0.27615628 -0.10937841 0.20289297
0.102737546 0.2631123 -0.29199117
0.27261367 0.11198608 -0.23485787
0.08787006 -0.033849765 -0.111325346
0.18954572 0.1492451 -0.28616002
0.04887184 -0.04656575 0.22100656
-0.1018388 0.09484321 0.005155343
-0.12773386 -0.06594376 0.24145266
0.14650922 0.1749547 -0.3082663
0.10608403 -0.11390614 0.19465446
0.11958026 -0.08573615 0.1617497
0.044779364 0.06747632 -0.16507123
-0.17031212 0.1456664 -0.07533607
-0.094887055 0.24304792 -0.2911268
-0.11614402 0.03451972 0.09713907
-0.01011957 -0.10815529 -0.13075027
-0.04917812 0.013525354 -0.10392309
0.22028185 -0.07462489 0.019073026
-0.20138241 -0.17877616 0.2657236
-0.047020983 -0.18206856 0.24202228
-0.24950244 -0.12077944 0.18008403
0.09063481 0.14835443 -0.23906511
-0.105965964 0.18394586 -0.24622887
0.2718124 0.09067645 -0.2756286
-0.18862607 -0.04067099 0.13333231
-0.16157606 0.06413177 0.096193716
-0.08162349 0.1351495 -0.13673119
-0.18974556 -0.04250475 0.1660206
-0.10326922 0.147987 -0.20054403
-0.036139503 -0.071832776 0.17278075
0.13096145 0.051957194 -0.093717545
-0.12334633 0.19170888 -0.26868406
0.21093516 0.02810998 -0.15982583
-0.06652257 0.16162217 -0.12237441
-0.1297435 -0.20691416 0.24422124
-0.22647333 -0.24648023 0.2687451
0.2852217 0.110435344 -0.23156968
0.016256506 -0.15464067 0.19777235
-0.1319403 -0.0058133295 0.06354396
-0.111732 0.14177479 -0.10582857
0.21036305 0.079302326 -0.14295179
-0.24472553 -0.13555373 0.30719268
0.24402176 0.043421023 -0.130057
-0.07214686 -0.03362203 0.103775606
-0.10710917 -0.022807721 0.11276616
-0.14454024 0.24575187 -0.24839176
-0.16000554 0.061885297 -0.046793386
-0.041500166 0.1884756 -0.23035127
-0.22292152 0.18541357 -0.19892968
0.059951257 0.22553955 -0.24616924
0.26464525 -0.053442933 -0.0024805742
-0.2744221 0.07469748 -0.011953317
0.09130005 -0.046750225 0.08144451
0.09892132 -0.12575158 0.18019694
0.0701682 0.17755242 -0.21246555
0.006319112 -0.011961238 0.0031681745
-0.12705974 -0.06693404 0.156428
0.15397608 0.14266789 -0.32596132
-0.25432792 -0.20571324 0.31850672
-0.058575645 -0.18449512 0.2905819
-0.049715273 0.2835312 -0.23724781
0.15584911 -0.055134203 0.10524464
-0.18190996 -0.25989562 0.28951818
-0.03181982 0.19028495 -0.2538182
0.12426344 -0.10086503 0.20041092
0.087745585 -0.06788075 0.17489684
-0.052613508 0.05412578 -0.19111556
0.20734033 -0.016992148 0.08632345
-0.23439781 -0.019706968 0.1089908
0.23988795 -0.09963632 0.05620966
-0.120182715 -0.22706027 0.24546914
-0.09913113 -0.13002937 0.20879366
0.1734473 0.050791994 -0.075483166
0.023042114 -0.12338497 0.16675155
0.07487982 -0.14201672 0.0143674
-0.019143762 -0.04920598 -0.25643203
0.13294896 0.07777413 -0.07974169
-0.010820851 0.005977772 0.04839808
-0.13729717 0.09076482 -0.015094158
-0.089456104 -0.1749924 0.25229886
-0.005274793 0.16298103 -0.186627
0.109883815 -0.039207384 -0.11814141
-0.10735748 -0.045546114 0.105807945
0.06935906 0.10280711 -0.14000583
-0.21478966 -0.15967041 0.14421159
0.17612362 -0.0036207505 -0.049165964
0.18120584 -0.046619907 0.13541953
-0.17609222 -0.07482115 0.10832263
-0.0863284 -0.20322084 0.22410658
-0.118269674 -0.1003836 0.18255015
-0.22681652 -0.13784654 0.17286639
0.068923 -0.10382598 0.08364169
-0.21115535 -0.16056532 0.29094872
-0.0537891 -0.16432984 0.24785133
-0.15616575 -0.2022507 0.29973197
0.073586084 -0.041076604 0.090384334
-0.20765592 -0.017866895 0.09145538
0.011619305 -0.0063401326 0.11807375
0.13683179 -0.031966146 0.0033258614
0.1717169 0.22248924 -0.24026546
0.12746446 0.13870181 -0.22244696
-0.0883369 -0.16946577 0.258909
-0.085624434 -0.12616289 -0.07646544
0.1497821 -0.1057665 -0.16583365
-0.04207995 -0.098663755 0.15124659
-0.15080293 -0.10039567 0.24105304
-0.18278058 -0.17667045 0.21937674
-0.049775477 0.033100776 -0.0122723
-0.26380783 -0.12216271 0.31858084
0.11934355 -0.16887787 0.061304886
-0.0115060555 -0.08309142 0.24943508
0.18652822 0.10047089 -0.13704629
0.24807031 0.037718453 -0.1228214
-0.12946044 0.11604726 -0.0060670623
-0.07505728 -0.17109928 0.2758093
-0.04004391 -0.1807423 -0.050171603
0.29739475 0.06994389 -0.13427816
-0.1733887 -0.21202257 0.23636746
-0.20516063 -0.0033306007 0.14374337
-0.19647601 -0.12562881 0.22586441
-0.057414412 0.011642792 -0.009021915
-0.026408743 -0.111416094 0.27937534
0.26865816 0.09967635 -0.15778977
-0.09577897 -0.020692034 -0.19443098
-0.2558883 -0.021708088 0.077438064
-0.08738175 -0.17740121 0.22103024
-0.07138905 -0.026250847 0.114448994
-0.16496867 -0.20008795 0.22314192
-0.20652083 -0.21420273 0.21307525
0.1496672 0.15638039 -0.22582276
-0.2743382 0.005729402 0.12520653
0.08966115 -0.017318143 0.019349502
-0.14410682 -0.15223102 0.25325647
-0.1038412 -0.023085557 0.11725819
0.2961317 -0.011242725 0.0653322
-0.09285283 -0.0038608843 -0.046101432
0.16453199 -0.072164044 0.18953331
-0.021797357 0.021226635 0.037051227
-0.25211734 0.08392288 0.13634597
0.26888824 -0.08832437 0.04345809
-0.25584826 0.08040911 0.09466647
-0.05437787 0.011178076 0.013488223
0.11632787 -0.13711266 0.18488562
0.12768409 -0.06406221 -0.12874517
-0.14771375 -0.11921022 0.29684073
-0.07489643 -0.14064139 0.2174011
-0.2910429 -0.24174055 0.16842541
0.29106563 -0.016972616 0.061964143
0.24413064 0.07310033 -0.23222496
0.090417616 -0.07406986 0.09460826
0.13018778 0.093079254 -0.17692883
-0.041296378 0.014840278 -0.18257426
-0.17881463 -0.20885256 0.23893921
-0.10038059 0.2820531 -0.25651976
0.13578387 0.0031781436 -0.04341525
-0.16531327 -0.21180855 0.1908604
-0.15105888 0.11310664 -0.19301791
0.23095167 -0.13666913 0.14098424
-0.029805548 -0.047175024 0.043488637
-0.21810822 0.03510242 0.106469154
-0.1930633 0.11605131 -0.013076112
-0.11505923 0.1899292 -0.21795504
0.24276453 0.17599499 -0.21239361
0.014452287 0.08674921 -0.14988595
0.20553035 -0.05041272 -0.00642906
0.24711564 0.02734107 -0.10269069
0.027098479 0.17810398 -0.14262895
-0.085128754 0.033419795 -0.047368597
0.108859584 0.11481224 -0.141286
-0.10152124 -0.0073808134 0.09540011
-0.2023482 0.029963158 -0.043941226
0.11415848 -0.046789728 -0.040464725
-0.05553563 -0.03436147 0.23003931
0.11601374 -0.20319504 0.03712844
0.323587 0.14214917 -0.18970054
-0.06350875 -0.21979958 0.17887627
-0.12347199 -0.16393152 0.21572092
0.26393044 -0.094773 -0.037046064
-0.09743099 0.041558165 0.04148074
-0.06928288 -0.13141848 0.2358677
-0.1962401 -0.05214056 0.10594279
0.18366915 0.080187626 -0.13368453
0.10406195 0.1949538 -0.25175434
-0.059506513 -0.12038206 0.18800054
0.16263969 0.063998275 -0.1816674
0.1135585 -0.18910065 -0.12374833
0.14864112 0.11151435 -0.18607196
-0.03258528 0.15533529 -0.15738901
-0.1272388 0.17063156 -0.2120146
-0.16375227 0.21151738 -0.15315416
-0.13300768 0.15735917 -0.15239465
-0.11831997 -0.017562084 0.13777325
0.2755147 -0.05037026 0.007556996
-0.080706686 0.057869416 -0.022218358
0.2346778 -0.05874898 0.01552755
0.33464485 0.08504029 -0.20178966
0.3023862 -0.098386735 0.1077488
0.05849263 -0.16707854 -0.12690711
0.08380448 0.17401952 -0.3114478
0.27287188 -0.123157874 -0.015424572
0.20723225 0.036585063 -0.07416927
-0.042439632 0.17313445 -0.2507668
-0.21045633 -0.003935995 0.1351473
0.18792967 -0.1194649 0.17136386
-0.05890541 -0.08778663 0.24013408
0.005614735 -0.13128644 0.055007186
-0.22220908 -0.20232329 0.23428664
-0.052963734 0.025527457 -0.077317774
-0.10236844 0.05755488 0.0044232355
0.030562362 -0.08063368 0.061017457
0.069070436 -0.044112362 0.110067904
0.05512266 0.21339665 -0.2644704
-0.122201145 0.16619715 -0.13346069
0.0474616 -0.17683747 -0.11542861
-0.093966186 0.1850976 -0.17378926
-0.02500011 0.083321 -0.01851341
0.031198896 -0.054988872 0.038422327
0.08777674 0.047880925 -0.15227965
0.0066091297 0.10017995 -0.1740891
-0.03677115 0.20960255 -0.20986001
-0.11067396 -0.2120741 0.23608716
0.14936958 0.019904755 -0.03338457
0.33159366 -0.04557061 0.08478954
-0.17486599 -0.22873464 0.3256699
-0.046198368 0.20409329 -0.16647553
0.197473 -0.015917864 -0.018151905
0.057255838 -0.15914726 0.15794204
0.19006863 0.22344746 -0.2889804
-0.25539133 0.24276377 -0.10760941
-0.22844449 0.017145988 0.049601957
0.090715155 0.2608646 -0.32170647
-0.15761998 0.20048894 -0.15626705
0.1314453 -0.02907141 0.046043396
-0.21730909 -0.15387984 0.28645453
0.27847752 -0.06293746 0.011048292
0.0336848 0.12901881 -0.1810446
0.09966841 -0.057964906 0.10839155
0.23504794 0.10811982 -0.21603313
-0.06125095 -0.027096795 0.0967475
-0.08369844 0.23537628 -0.31851956
0.079057425 -0.08029786 0.17576571
0.1526594 0.115613244 -0.2093157
0.2194588 0.048939098 -0.09354299
0.20058353 0.19830565 -0.29539493
-0.09801007 -0.19886006 0.20417239
0.08600479 -0.11198951 0.052324116
-0.025854193 -0.12974626 0.18469937
-0.17745139 -0.052395225 0.13152395
-0.193758 -0.16768174 0.22521561
0.03540176 -0.097880125 0.23646995
0.25057998 0.063305415 -0.13226505
-0.04046359 -0.06396939 0.1586326
-0.12853745 -0.026553059 0.06257713
-0.03971242 0.089105666 -0.071793556
0.10431945 -0.06353629 0.18473506
0.16435073 -0.02321374 -0.06092533
-0.19768824 0.04765761 0.12675555
0.1362108 -0.15003072 0.12232275
-0.20348023 -0.16860354 0.20887244
0.12165949 -0.05864008 -0.037965987
-0.02152248 -0.06012792 0.22700775
0.0866716 0.13016877 -0.25645012
-0.009575107 -0.099437386 0.16048193
-0.027305322 -0.24025173 0.1304913
-0.21664228 -0.0123542035 0.09730669
-0.0026606817 -0.17773037 0.24987142
-0.15154183 -0.19198881 0.23274939
-0.21972871 0.04962168 -0.02495428
0.03622445 -0.15197763 0.21186224
0.25527662 -0.035579402 -0.07960766
-0.003031714 -0.18524343 0.22562924
-0.22205383 0.049639937 0.039078146
-0.007394912 -0.043955922 0.12708037
0.16352838 0.14669468 -0.23479085
-0.12922864 0.062003303 0.07030921
-0.14577954 0.13291381 -0.07706961
-0.1002948 -0.21428071 0.19203724
-0.09805838 0.043015063 -0.06416466
-0.21510108 0.019585056 0.10013766
0.026722696 -0.14705338 0.1812181
-0.1639444 -0.14578392 0.27534837
0.14575373 -0.04853607 -0.008450606
-0.19881696 -0.034927066 0.121809065
0.054330748 -0.11414117 0.1540401
0.03578164 -0.099952295 0.056369416
0.005876848 0.14323097 -0.18166608
-0.18134138 0.18696705 -0.10537822
0.062024876 -0.08125677 -0.1829355
-0.0002858042 -0.1299575 0.20857732
-0.24851961 -0.032583505 0.110670894
0.2520942 0.18985201 -0.26534677
-0.19951102 0.15272821 -0.10695338
-0.13383286 -0.24020518 0.23101456
-0.044019748 -0.026457975 0.06782534
-0.10473463 -0.14787509 0.24988148
-0.05647633 0.16591367 -0.19136958
-8.506621e-05 -0.05978476 0.19657797
-0.033805363 -0.15834923 0.24627015
0.30451047 0.05923274 -0.12317964
-0.03523566 -0.13562723 0.21513197
0.042986147 0.09206894 -0.121053554
0.08852062 0.00864752 -0.20891099
0.28949076 0.044834193 -0.14654574
-0.22970822 -0.24742298 0.30610633
0.20904668 -0.015229577 -0.116009586
0.13248257 0.10339607 -0.2894796
0.022714859 -0.011973805 0.034129698
0.049594253 0.13178912 -0.20332919
-0.0112647815 -0.20313 0.18979001
0.10213491 -0.021581516 0.06029055
-0.033199754 0.14697997 -0.20193128
0.13133544 0.21312818 -0.34948125
0.1433388 0.01604145 -0.13666403
-0.0038317852 0.2143896 -0.24856038
0.0507716 -0.0021389825 -0.19605048
0.15396196 -0.08816446 0.15651008
0.010599171 0.035587817 -0.20198637
0.2135002 0.11546213 -0.22188935
0.15798168 0.015876161 -0.07485397
-0.013426296 -0.0744482 0.15473145
0.14045164 0.11508437 -0.20344232
-0.17618957 0.0882176 -0.08795175
0.21549277 0.021268494 -0.0797808
-0.25053132 0.09021253 0.0010066321
0.24093832 -0.11214934 0.07689407
0.08792983 -0.18775685 0.14129502
-0.059689466 0.16489488 -0.26689008
-0.19722478 -0.1444309 0.20039791
-0.12604268 -0.18407828 0.2125058
0.07875404 0.04840496 -0.0855634
-0.25670066 -0.012670084 0.16017985
-0.09332764 0.044223744 -0.052368607
0.16234106 0.057736427 -0.2207365
0.10802398 -0.09904394 0.078572534
-0.056062642 0.06570266 -0.024365738
0.04694965 -0.13100432 0.07985448
0.18229797 -0.0988454 0.051372793
0.21760885 0.0611815 -0.19630235
0.3343288 0.06828917 -0.17652594
-0.10974634 -0.021964945 0.093643606
-0.14933388 -0.12039435 0.21275774
-0.053542435 0.26193753 -0.21195029
0.26174527 -0.07306495 0.08319961
0.2416848 0.1114555 -0.16420296
-0.13706075 -0.21360077 0.14236957
-0.01858566 0.17691311 -0.28967246
-0.12430772 0.14074363 -0.13053466
-0.022175757 0.048083894 -0.03122253
-0.20086603 0.023820711 -0.0021039082
-0.02311426 0.099135056 -0.09564278
0.096935004 0.22600111 -0.34316117
-0.20644908 -0.10089919 0.22692513
-0.029449679 -0.091840036 0.24589509
0.11243395 -0.031741064 0.03092921
-0.046677113 0.011873014 -0.045090012
0.17263752 -0.083284326 0.14244866
0.18928738 0.13348888 -0.21814717
-0.17843075 -0.06044798 0.14849827
-0.14502221 -0.08800392 0.2547114
0.15666507 -0.05936038 0.1110543
-0.2705289 -0.17828166 0.21189709
-0.010208468 0.042088687 0.037773177
-0.08725618 0.114283875 -0.065374695
-0.26483876 -0.015271742 0.024126261
0.26129147 -0.14567266 0.056140445
0.07036613 -0.071814045 0.05773577
-0.061835147 0.0024327314 0.013487468
-0.14988181 -0.049886454 0.060965993
-0.06543128 -0.14868931 -0.06684596
0.03405789 -0.12550184 0.16487558
-0.08336523 0.27245444 -0.23639603
-0.11532383 -0.22876793 0.25951546
-0.12844734 0.12017416 -0.10723664
0.005659669 -0.14357388 0.1391211
0.05616434 -0.064682275 -0.101922244
-0.18666904 -0.16177033 0.22802359
-0.05538968 -0.01877699 0.18469751
0.091998465 0.17892304 -0.22514808
0.27388743 -0.09745539 0.10867583
-0.07940047 -0.0766805 0.17963329
-0.16049047 -0.064399526 0.20585544
-0.14171097 0.005216177 0.028525377
0.06563004 0.09280616 -0.15344793
-0.18132778 0.21475786 -0.1806361
-0.1823981 -0.0005515027 0.15954292
0.34960553 -0.07899473 -0.10371081
0.16557194 -0.16241464 0.025300106
-0.19028461 -0.13151507 0.25080255
-0.045832913 0.041272644 0.034844078
0.05171928 0.17219839 -0.31562752
-0.065930076 0.02781963 -0.22594385
-0.00782451 0.047513794 -0.027187025
0.09854972 -0.034901198 0.022486426
0.078500606 0.057078347 -0.16254419
-0.24015121 0.03139708 0.09650858
-0.31476212 -0.21954806 0.15997095
-0.06511751 0.14755753 -0.12313471
0.077383325 -0.0016727117 0.09336433
0.2296334 -0.13535634 0.10088678
-0.08247372 0.14920618 -0.110799275
-0.1543429 0.2180998 -0.09522207
-0.18427618 -0.1031025 0.1993846
0.2405253 0.012838972 -0.00800868
0.001079966 -0.05278172 0.10356995
0.296868 0.028418807 -0.18228024
-0.012688068 0.20984651 -0.276037
0.13345592 0.024515193 -0.013168165
0.29535758 -0.041250627 0.04351529
-0.06673691 0.044508934 0.046970673
-0.004681113 -0.10159823 0.19318447
0.010142277 0.2558881 -0.25455338
-0.029272545 -0.17779174 -0.09266325
-0.13334177 0.13100928 -0.05851145
0.30854285 0.16943341 -0.22699784
-0.013310262 -0.16928895 0.16516794
-0.07252816 -0.24730451 0.23290747
-0.2680841 -0.18667449 0.26193225
-0.17734036 0.1820832 -0.12127279
-0.20082034 0.087940685 0.029264709
0.2848798 -0.06184699 -0.05787363
0.053565457 0.21007235 -0.25964108
0.0070200814 -0.15647548 -0.06638581
-0.056800354 -0.14130853 -0.084675424
-0.19965817 0.20720655 -0.16227353
-0.049415592 -0.13745037 -0.10386092
-0.06940064 0.26348054 -0.2938767
-0.1369935 0.24461775 -0.25111327
-0.016417231 -0.04116384 0.17895481
-0.16361405 -0.018636405 0.11236926
0.1820003 0.24011067 -0.26407695
0.2861038 -0.06892841 0.02330076
-0.053448483 0.0029844625 0.04596612
-0.15453386 0.14158297 -0.11352615
0.2614844 0.058666192 -0.16469589
0.19097634 0.062998906 -0.18024145
0.25674698 0.15061373 -0.2803062
-0.24472691 0.17196432 -0.0748191
-0.21848443 0.21122016 -0.11233843
0.28868815 0.10641777 -0.26172867
-0.25771376 0.16669576 -0.06986417
-0.0843271 0.12785093 -0.041086424
0.12072141 0.10649555 -0.20140353
-0.119032785 -0.15362868 0.27549544
0.055418316 -0.11420859 0.2052653
0.28980854 -0.046013564 -0.025032435
-0.15864229 -0.18648559 0.15681757
0.24898255 -0.024320815 -0.06969993
0.07866338 0.17460914 -0.32585815
0.111910045 -0.087829694 0.14496483
-0.18556015 -0.008242473 0.122544885
0.18245064 0.10680087 -0.16103947
-0.040623333 -0.15543583 -0.067343466
0.0473279 0.18571162 -0.19658057
-0.034203377 -0.14228415 0.18575811
-0.070196934 -0.16526602 0.22913875
-0.19147174 0.102795415 -0.031136138
-0.14913653 -0.20775397 0.2237412
-0.13412546 0.09876266 -0.072255716
-0.09013424 -0.03933917 0.1751478
-0.1010981 -0.075496234 0.138519
-0.091730796 0.0007625829 -0.018319992
-0.22426334 -0.015706662 0.16089797
-0.059180126 0.25697717 -0.22712336
0.014493322 0.037373763 -0.16958576
0.29948005 -0.07065181 0.06418561
0.012517498 -0.20995831 0.15728122
-0.25344998 0.13969834 -0.0014637276
0.042375866 0.19075839 -0.2707091
-0.13934593 0.04427887 -0.06885316
0.074251086 -0.067455664 0.09872141
-0.270375 0.12673867 -0.09779873
-0.09326336 -0.12874997 0.17576687
-0.22888288 -0.20134743 0.18879919
-0.1805011 0.25410193 -0.1641524
-0.07154282 -0.004806664 0.15435438
0.21150461 0.07581856 -0.060193125
-0.08851146 -0.15305313 0.21380158
0.1627819 -0.16884355 0.008933232
0.2400685 0.12462115 -0.14462012
-0.01672867 0.26573637 -0.33175007
-0.04682867 -0.03010139 0.11064868
-0.041296992 -0.11637473 0.21171537
-0.19495489 -0.19314064 0.30276513
0.1565188 -0.09133541 0.065382674
-0.18290108 -0.21507065 0.21213265
0.15186442 0.1217594 -0.15832949
-0.23734525 0.016542839 0.12392074
0.14464189 -0.04950594 0.06902472
0.1201186 -0.10463666 0.027118709
0.35992825 -0.035256896 -0.07337457
0.25124234 -0.1249648 0.1412143
-0.11686722 -0.22449978 0.19552943
0.26074785 -0.063102335 -0.07543223
-0.28089017 -0.14220792 0.16506834
-0.067279786 -0.20012996 0.22576381
0.08914994 0.0994192 -0.19414225
-0.14254974 -0.09897088 0.2605863
-0.08360296 -0.040216666 0.081976846
-0.1652797 0.058635168 -0.059788827
0.16360016 0.07625191 -0.074659996
0.05764842 -0.08175955 0.13246237
-0.2541219 0.16011344 -0.088568255
-0.074211195 0.016688138 0.055319507
0.11231012 0.20984069 -0.2450968
0.057726145 0.2504067 -0.2978868
0.15329427 -0.15626784 0.053803895
0.2674225 -0.12483108 0.051201902
-0.15254465 0.10626827 -0.1113263
0.046750028 -0.06887634 0.02357236
-0.19051166 -0.012975347 0.12212648
0.18807538 -0.061888266 0.04801575
-0.021524353 -0.1490928 0.16714776
0.0024699206 0.12885684 -0.18321094
-0.086523384 -0.13337885 0.20077725
0.21672544 0.13995957 -0.30217582
0.11553794 0.07605644 -0.04072997
0.12746248 0.09140111 -0.14178853
-0.18477853 -0.043312937 0.16258267
-0.1560152 -0.031672888 0.11052696
0.21672124 0.046496995 -0.08907449
-0.1539519 -0.029699624 0.074316986
-0.13173617 -0.0012230255 0.121560305
-0.018756712 -0.009328881 0.14520603
-0.098552145 0.26303673 -0.26927385
-0.12441406 -0.044300288 0.18483528
-0.14113775 -0.10463573 0.16400969
-0.10500611 0.1070609 -0.060525488
0.18013078 -0.085771695 0.064008534
-0.019026112 -0.20391056 0.109343134
-0.24211238 -0.15202843 0.24078271
-0.27399543 0.1776989 -0.04976191
-0.11236943 -0.09339413 0.22478491
-0.19727378 0.0025254732 0.11124859
0.21570256 0.085191466 -0.20685425
0.1504708 0.15508431 -0.24338827
-0.10513225 -0.045665838 0.07105441
0.20967862 -0.124618456 0.14968964
0.14188692 0.15583254 -0.2705728
0.051242165 0.064545736 -0.16553041
0.036903903 0.27216566 -0.32702312
-0.064335994 0.19072336 -0.27569482
-0.28732842 -0.010748699 0.017719515
0.3098861 0.037743304 -0.10154269
0.21216641 0.04367534 -0.20873854
0.043309674 0.05900512 -0.17953849
-0.12526771 0.08666836 -0.0703092
-0.13800183 0.13393505 -0.14519645
-0.13429555 -0.15971701 0.30327958
0.109302275 -0.16281156 0.15544741
0.14299981 -0.108303815 0.20764369
-0.2082038 0.22246003 -0.1640331
0.32211542 -0.10685752 0.047452424
-0.04908575 -0.13028854 -0.083552405
-0.010144198 -0.21973446 0.12995172
0.031172125 0.0010486187 -0.24207255
-0.12420324 -0.028353611 0.21250966
-0.14487655 -0.050656766 0.03366667
0.088526025 -0.08314299 -0.0646563
-0.18196073 0.027566386 -0.0066409186
0.17224394 -0.16665293 0.15204413
0.1137681 0.14159432 -0.18527973
0.10747032 0.028693376 0.06987862
0.070980206 -0.13220094 0.20437247
-0.04779724 0.052737154 -0.18045256
0.005559007 -0.10407873 0.19842562
0.19682111 -0.07721717 0.017259106
-0.034871925 0.1294664 -0.122945204
-0.038229533 -0.14491397 0.18430395
-0.110289186 -0.13682903 0.26697952
-0.18864164 -0.008581417 0.049401402
-0.013276425 -0.21947534 0.17435415
0.04296218 0.025050469 0.010095048
0.08273855 -0.015937015 -0.023997799
0.34198156 0.12792589 -0.10442084
0.15573245 -0.056016188 -0.02276829
0.072641484 0.013089666 -0.02323891
-0.037535537 0.1663252 -0.2198557
-0.12960944 -0.15289697 0.21881628
0.20260197 0.036392715 -0.04564994
-0.043890085 -0.16161858 0.13423327
0.03139382 0.0045221974 0.046101887
-0.29305106 -0.15794438 0.22411227
-0.27504113 0.09497209 -0.015592507
-0.17339069 0.22981103 -0.1980728
-0.07975362 -0.21885495 0.2695509
0.12884434 0.20686312 -0.26602662
0.008808946 0.09978198 -0.12975718
-0.20518357 -0.24143977 0.23491609
-0.1412303 0.18842259 -0.2049453
-0.17483178 0.093457766 -0.12794499
-0.1983698 -0.010550335 0.1359375
0.1480847 0.008904623 -0.02918266
-0.09766056 0.14023781 -0.19773926
0.23692915 0.0057257605 0.007232493
-0.014447278 0.15168768 -0.13448873
0.06471909 -0.07123093 0.11841886
0.03728781 -0.11687236 0.05092037
0.070251964 -0.14392653 -0.13452223
0.011857268 0.08856208 -0.11722827
0.07680351 0.24061435 -0.28902084
-0.033960205 -0.028818063 -0.015766574
0.15523255 -0.025512503 -0.05607604
-0.23822372 0.08219113 0.012706741
-0.014556909 -0.111227006 0.16920343
-0.09212604 -0.10179389 0.17746638
-0.23623061 -0.23940696 0.24789965
0.028809402 -0.14066544 -0.0705984
-0.088967614 -0.028279245 0.15889135
-0.15828869 0.0961816 -0.10698111
-0.23356701 -0.25962377 0.24520579
0.24738376 0.051033404 -0.15125093
0.0678785 -0.0910774 -0.124095745
-0.28206608 -0.10529897 0.23155043
0.21748868 -0.10858112 0.15922192
-0.16504413 0.15447888 -0.15359883
-0.0887889 0.07198541 -0.118755326
-0.025813404 -0.090313 0.20391752
0.2678304 0.06822946 -0.17814863
0.24754743 -0.112346806 0.03283106
0.041032013 0.043433752 -0.20023027
0.21025975 -0.059419792 -0.016419947
-0.121492736 0.028546786 -0.04159134
-0.21501204 0.021408668 0.011659983
0.05474877 -0.052870646 -0.13994725
-0.100647494 -0.11029883 -0.07399674
-0.24594474 -0.24570587 0.2510081
0.18515028 -0.108602665 -0.03397889
-0.20003535 0.11678083 -0.07785187
-0.121637516 0.23142849 -0.22139715
0.12772343 0.22262092 -0.29970494
0.30339542 0.09400768 -0.14418001
-0.0047956356 -0.09366324 0.21984893
-0.22392775 0.11933609 -0.0403589
0.12954934 -0.04727625 0.055918645
0.19100088 0.071903236 -0.13762067
-0.16690092 0.0052917255 0.08199244
-0.100570895 0.13053097 -0.15349184
0.23958316 0.026230207 -0.1115099
0.096509986 -0.13752668 -0.1238559
0.037074637 -0.046591476 0.17086323
-0.14524469 0.21033598 -0.16507004
-0.07605337 -0.0071264384 0.08189375
-0.14063953 0.09512691 -0.10125963
0.19194007 -0.09789104 -0.06306858
0.15381366 0.16534539 -0.21689261
-0.06743473 0.28699112 -0.2391567
-0.07857131 0.25062352 -0.19955136
-0.030496558 -0.19921523 0.15243515
0.07417209 0.009120296 -0.15565577
-0.09363972 0.026031762 0.029103301
0.18310933 0.0045775557 -0.114333615
0.24409264 0.17080706 -0.25550184
0.060990296 0.09938327 -0.16866331
-0.015126973 0.17297119 -0.24663575
-0.0037927344 -0.124668226 0.23759468
0.06615372 -0.054798324 0.07672978
-0.17517014 0.1873145 -0.09611992
-0.018660916 0.10046569 -0.23771635
-0.24815913 -0.24631485 0.23399006
0.17965421 -0.108331524 0.04937623
0.026569355 0.29474494 -0.27819893
-0.18632853 0.11360875 -0.05806466
0.12756883 0.06400437 -0.17209242
-0.10766839 0.11921406 -0.09748405
-0.030124178 -0.107852645 -0.031771284
0.15961978 0.108291134 -0.29266188
0.29761648 -0.023842584 -0.012786597
0.112513795 0.0670292 -0.1479278
-0.11336454 0.11884212 -0.12094683
-0.15874536 -0.15587416 0.23818028
0.03480322 0.104454465 -0.22966485
-0.18650682 -0.14065647 0.18941352
0.045464236 -0.085805625 0.0823106
0.33045667 0.16224813 -0.18085022
0.072811514 0.1007616 -0.18989879
0.16940221 -0.076598264 0.08104452
-0.1402361 0.036364634 0.037107695
-0.10457865 -0.07077699 0.06656035
-0.24304593 0.038864426 0.12661858
-0.0995822 -0.092179164 0.174829
-0.050122723 -0.06444675 0.23238924
-0.04929711 -0.19179982 0.21142998
-0.06172089 0.22476076 -0.18156204
-0.21076135 0.049400333 0.025983157
0.35670945 -0.009526901 -0.021076564
0.18295276 0.016563695 -0.08033999
0.30251464 0.110232376 -0.22593772
-0.2990083 0.17239702 0.04259907
-0.05554234 0.22429404 -0.2951077
0.17613381 -0.17393947 0.1489838
-0.07915689 -0.23174986 0.26915312
0.35975045 0.042345893 -0.15154539
-0.2348105 0.052538525 0.01496131
0.25515145 -0.04322226 -0.00915379
-0.1646219 -0.17792414 0.33930567
0.13126221 0.062334355 -0.10047432
-0.1138579 -0.04809363 0.14467293
-0.03186578 -0.15432258 0.28528285
0.0237753 0.1005794 -0.17461808
0.21570897 -0.049972545 -0.04763222
0.28426108 0.109007984 -0.23848473
0.0607183 -0.09966459 0.14798003
-0.13144311 -0.05500215 0.10181583
-0.1560829 0.16343473 -0.2576563
0.3140997 0.14662392 -0.17770705
-0.015616357 0.08078669 -0.12198229
-0.20504275 0.17450602 -0.096806794
0.109362565 -0.041050807 0.022521438
-0.03523403 0.17834948 -0.18305933
-0.020141901 -0.11309052 0.19374292
-0.010586783 0.032602496 -0.21553436
0.22222364 0.1953038 -0.24406047
0.35605103 0.019048618 -0.05052569
-0.013671422 -0.09612443 0.14754844
-0.04384322 -0.13942717 0.23607479
0.13511854 0.23305613 -0.34129244
-0.24611072 0.21336193 -0.10420519
-0.24686505 -0.06710743 0.24732354
0.15624827 -0.020436263 -0.038877036
-0.11197887 -0.17533156 0.27030948
0.12559146 -0.043779083 0.11492775
-0.17226818 -0.1834072 0.21362679
-0.22042117 -0.011306835 0.118715025
0.22317506 0.08649467 -0.1597827
0.31317472 -0.021820892 -0.053178005
0.115989655 0.15623455 -0.1335703
-0.17159325 -0.16484493 0.24998164
-0.13836974 0.10531499 -0.13315175
-0.14517717 -0.23657018 0.24305344
-0.26436076 0.14344427 -0.017479295
-0.19896191 -0.07457889 0.22867921
-0.16201858 0.1181996 -0.062008083
-0.24083608 0.11749059 -0.02042053
0.20316185 0.18138596 -0.24668954
-0.05185818 -0.11635662 0.18290873
0.12612166 0.1925396 -0.18706049
-0.20829245 0.013758885 0.16745059
0.0028355 0.28253114 -0.3152794
-0.051115844 -0.116177656 0.17127791
0.060566563 0.24841058 -0.24726422
0.2597011 0.12788685 -0.14693561
0.14723304 0.052224863 -0.07593438
0.058024958 0.1940838 -0.25752774
0.12013659 -0.137902 0.17169595
0.03475736 0.109751016 -0.14272375
-0.2955418 -0.14778663 0.27003127
-0.21410398 0.045714945 0.11362004
0.2851148 -0.015266707 -0.012417756
-0.24260557 0.11790681 0.036681455
0.031551775 -0.047741897 0.015682144
0.29046807 -0.06186552 -0.06324576
0.2671043 -0.06269944 0.048188694
0.2569827 -0.117440425 0.019045876
0.16955303 0.13026375 -0.29281726
0.021462068 0.067177616 -0.11264204
0.04506618 -0.11833867 0.15849835
-0.07026627 -0.030560205 -0.11190763
-0.053638913 -0.06753663 0.1562661
0.19776475 -0.014840164 0.00093767367
0.2290122 -0.08948064 0.08687835
-0.19062786 0.19179265 -0.11291553
0.07322026 -0.14908953 0.04602345
-0.12863746 -0.07990089 0.2637238
-0.20936239 0.17827615 0.01188666
-0.16656475 0.08389551 0.031521354
-0.14780357 0.16472313 -0.13074568
-0.09879835 -0.17831889 0.19531517
-0.06485642 0.08835246 -0.047078796
-0.17837214 -0.10231907 0.28552172
0.06460229 -0.051031027 0.026984574
0.12252439 -0.18416257 0.0711827
0.19729912 -0.09503347 0.14913413
-0.115541205 0.2538059 -0.2344862
-0.055922274 -0.10348668 0.14265092
0.16044667 -0.13138866 0.123988576
-0.17083007 0.09020605 -0.04064333
-0.29483515 -0.14519314 0.19050586
0.115105 -0.15763332 0.11728017
-0.04710199 -0.08511619 0.22792707
-0.29658467 -0.24819593 0.19014804
0.058573555 -0.1194159 0.17754848
0.10902393 0.026471615 -0.15901475
-0.2306203 0.012551091 0.066538714
0.031154506 -0.19193587 0.13247709
-0.1663776 0.10059791 -0.047529038
-0.18691388 -0.15067334 0.2908691
-0.030983843 -0.002920465 0.06570927
0.27919117 0.006878999 -0.05597769
-0.05330503 -0.16429663 0.23032819
-0.09662418 -0.17287637 0.19510931
0.15068471 0.19969821 -0.27422827
-0.060732853 -0.102696836 -0.063792385
-0.16581702 -0.012643849 0.027299259
-0.04200038 0.2521285 -0.25168377
0.03166014 -0.12649015 -0.08434256
-0.03514461 0.16124195 -0.19658022
0.1776101 0.017473863 -0.0018227901
0.1068984 0.20556004 -0.2762183
0.019567953 -0.0482336 0.1482267
-0.2508399 -0.18919681 0.31683183
0.024707964 -0.12026777 0.106212504
-0.07571534 -0.016135035 -0.21283932
0.23915721 -0.15063918 0.10074474
0.06495223 -0.08952009 0.09095777
0.17979829 0.0794965 -0.120274685
0.009136851 -0.04389707 0.09909035
-0.2149933 -0.05087588 0.115401484
0.104482055 0.16570833 -0.16330737
0.037763506 0.12501186 -0.19328651
-0.062165614 0.14547794 -0.14706941
-0.27056274 0.079171985 0.024818119
-0.023799473 -0.026102193 0.11110091
0.057432555 -0.1171402 0.14670652
-0.14825827 -0.017955622 0.13702695
-0.17156482 0.10864489 -0.164041
0.29267517 -0.047789034 0.102889314
-0.24596229 0.11823066 -0.019029865
0.16419783 -0.07660872 0.12953353
0.0014213857 0.10437929 -0.20730306
0.06202332 0.13396938 -0.17364456
0.023269976 0.0696843 -0.15217528
0.30079356 -0.09470872 0.012669986
0.21344253 0.024607148 -0.15336165
0.18799645 -0.0896964 0.10544909
0.09606052 0.17999847 -0.31246504
0.18024267 0.0591463 -0.08307533
0.27392384 0.17526644 -0.22350411
0.1940395 -0.089319564 0.058055155
0.18360865 -0.09126421 0.04451382
-0.051761974 0.030993067 0.05071018
-0.11654566 0.14241181 -0.09098194
0.20934892 0.034847498 -0.052334342
-0.24328505 -0.20463927 0.24661578
-0.26887536 0.13012686 0.024404626
-0.06714391 0.035620973 -0.1674897
0.26138872 -0.09178001 -0.009205589
-0.13355416 0.06754872 -0.05717852
0.269693 0.020627158 -0.08082732
0.2712714 -0.030552559 0.08838543
-0.027805012 -0.11430484 0.14959823
-0.18723789 -0.1559848 0.3433178
0.10795295 0.0933671 -0.115776174
0.27311006 -0.055071305 -0.032973364
-0.21745422 -0.116566315 0.25572783
0.35278678 -0.00016255502 -0.17331305
0.16363443 0.20493954 -0.2871035
-0.06670306 -0.1803143 0.19192429
0.2696213 0.1475069 -0.18497695
0.103584394 0.22222047 -0.29526246
0.015053824 0.09890406 -0.1512964
-0.2323397 -0.178823 0.28730825
0.12272366 0.03492424 -0.18698485
-0.10148088 -0.1623755 0.2628597
0.24739975 -0.060331892 0.103916995
0.16330905 0.20801929 -0.268832
0.24736968 -0.040834162 0.09920735
-0.09751938 -0.040094115 0.0620352
0.08358068 0.23272298 -0.23958828
0.18624754 0.15483011 -0.22685815
-0.016966809 -0.12708233 -0.08440833
0.1329945 -0.20381635 0.07275498
-0.1719011 0.14008532 -0.14129736
-0.04663925 -0.065153524 0.06463825
0.19532755 0.00932078 -0.024043284
0.021332214 -0.17890029 0.19141512
0.13779864 0.009589358 -0.10213192
0.017552763 -0.14676698 0.15746675
0.18938096 -0.13329639 0.090524204
-0.12534587 0.01711318 0.08382966
-0.043841973 0.121443585 -0.18586329
-0.11102452 -0.13844523 0.1984698
0.15206398 -0.16349436 0.14658073
0.11582597 -0.053417277 0.022389913
-0.15676737 -0.16919191 0.30211315
-0.048546292 0.052392986 -0.23501727
-0.010469093 -0.121802285 -0.11656817
-0.10680629 0.08412161 -0.0480358
0.31636277 0.021106886 -0.15436444
-0.035838418 -0.15199819 0.22108588
0.14580469 0.17904639 -0.18366522
-0.007849908 -0.048942916 -0.16077423
-0.16802819 0.29666105 -0.27690566
0.15632112 -0.1886262 0.10936303
-0.13997996 0.03498763 -0.029205354
0.19999875 0.114860654 -0.19342072
0.15009339 0.076883 -0.07782968
-0.12213106 0.0654719 -0.060460333
-0.11714659 0.049359452 0.08671683
-0.18867376 -0.07312834 0.095739506
