# .PCD v0.7 - Point Cloud Data file format
VERSION 0.7
FIELDS x y z
SIZE 4 4 4
TYPE F F F
COUNT 1 1 1
WIDTH 1000
HEIGHT 1
VIEWPOINT 0 0 0 1 0 0 0
POINTS 1000
DATA ascii
0.024723556 0.070372395 -0.009366272
-0.042850304 -0.06344668 0.14881654
0.18805373 0.1347264 0.07652522
0.1589912 0.09837178 -0.012462188
-0.04058838 0.013204754 0.10030976
0.07392124 0.09599956 -0.005903187
0.06620985 -0.067087494 -0.35014892
-0.057990506 -0.12167493 0.23320302
0.08826198 0.043355655 -0.05739595
-0.087588534 -0.1885203 0.24776436
-0.27530137 -0.056882888 -0.04673554
0.020338856 -0.037741877 0.14038427
-0.19939393 -0.018386513 0.0001463278
-0.054723993 0.08668592 -0.089293465
0.097694464 0.05299297 -0.037873447
0.01315304 0.13863029 -0.021522002
-0.026963495 -0.018166002 0.18373674
0.23197122 0.11366576 0.040467598
0.18399903 0.06329335 -0.17136458
-0.041258518 -0.1360397 0.0431731
-0.056702003 -0.1863604 0.24725968
0.044222344 0.049384523 0.06298924
-0.0030279951 0.16775356 0.08019423
-0.24626929 0.006541904 0.097321935
0.15994142 0.19902389 0.007237592
-0.1072658 -0.15582114 0.10760245
-0.1476838 -0.15025508 0.027493544
0.0719207 0.17707428 -0.053824697
-0.121787734 -0.16212413 0.02366422
0.15404817 0.1799035 -0.009823681
0.124885194 -0.14722946 -0.05770528
-0.1635373 0.037018716 0.061232008
-0.2094216 -0.12305625 -0.039943714
0.17288609 0.25882685 0.013097441
-0.113164656 -0.114786625 0.18772234
-0.24813735 0.03246503 -0.021809852
-0.20693566 0.017487282 0.069481336
-0.06546574 -0.20170851 -0.1415302
0.0570851 -0.068387486 0.046451334
-0.1921909 -0.056982223 0.051769067
-0.10431188 0.00068011484 0.24634312
-0.21589798 -0.092167184 -0.059986677
-0.19327621 -0.106005535 0.06535605
0.010300936 0.008754149 0.104299836
-0.06134341 0.09942981 -0.010983471
0.062264826 0.21923254 0.059413344
0.026093591 -0.06250089 0.08947531
0.053083565 0.12793975 -0.20253477
-0.2784952 0.032330386 -0.054588325
0.09333161 0.07035685 0.046190612
-0.05721994 -0.11957708 -0.14480464
-0.05120274 -0.12271397 0.21149485
-0.113451205 0.05733177 -0.3386278
0.019267477 0.12793319 0.018430464
0.16066661 0.17780319 -0.03013963
0.087946944 -0.11186695 -0.052797284
0.05389173 0.114152014 -0.042976033
-0.068764806 -0.05703923 0.21993631
-0.23277175 0.15672396 0.0048996937
0.13676275 0.050745048 0.014660786
0.042620163 -0.05456827 0.030682579
-0.25150707 0.064847484 0.07830697
-0.026124017 0.055244297 0.08917235
-0.28107202 -0.13462147 -0.025667192
-0.107944824 -0.062076934 -0.1004277
-0.15701343 -0.17111667 0.032596905
-0.24415511 0.050175134 0.11843807
0.034562327 0.023345297 0.003994234
-0.11463402 0.08417013 0.112225145
-0.025448749 0.13597889 -0.35996664
0.24943401 -0.060926266 -0.22194217
-0.070749514 0.0546041 0.1919599
-0.13810125 0.119915776 -0.283612
-0.050602786 0.2028626 0.04778129
1.6652712e-05 -0.0034297998 0.10251018
-0.10452907 -0.05160325 0.16962646
0.1664011 0.18828285 -0.14422017
0.21247204 -0.063569196 -0.05288157
-0.16958211 -0.02602028 0.018625028
-0.20657805 -0.13059388 0.026810316
-0.14864889 -0.12974063 0.11417957
0.14655544 0.048302334 0.014109929
0.06923774 -0.12927546 -0.34986225
-0.23173578 0.139828 -0.0056565115
0.10653826 -0.06735563 0.014125254
-0.050990384 0.09510151 -0.095618844
-0.24794593 0.15502292 -0.013995484
0.16965567 0.17103335 0.07387182
0.07507064 0.058073297 -0.29987743
-0.14162767 -0.07230313 0.26018447
0.07711973 -0.08034318 -0.2697242
-0.015929995 -0.08960309 0.105952606
0.22918655 -0.15241121 -0.3070827
-0.05709947 -0.09054437 0.1235428
0.19817598 0.07372516 -0.30499855
-0.13374168 0.039356597 0.1214513
-0.16780044 -0.075300895 -0.081270635
0.23862277 -0.03352997 -0.14047167
-0.2697955 -0.022351628 -0.0023918198
0.17214751 0.0052297087 -0.06480246
-0.0039219633 0.006783242 0.062945604
0.16507155 0.15495624 0.0020941875
0.17197804 -0.11838367 -0.23946297
0.20760244 -0.04680458 -0.08077918
-0.088578925 -0.037877575 0.2881889
0.0107174525 0.106982894 0.07665286
0.21641155 0.07014592 -0.038465362
0.032543577 -0.1507068 0.014699761
-0.2053678 0.055566438 0.038181875
-0.2675285 0.10691039 0.02772116
0.09361323 -0.068266794 -0.04319807
0.22712812 0.114744335 0.030673496
-0.07848575 0.063159324 0.06607294
-0.051737715 -0.018695403 0.09821592
0.1367945 0.01580897 -0.105556816
0.25335485 -0.11042755 -0.1112368
0.2030281 0.124260604 -0.016665542
0.17211382 0.10900162 -0.0045034867
-0.14993982 -0.10235695 0.03153776
0.054173723 -0.08291336 -0.083731994
-0.10405767 -0.17195019 -0.03790117
0.08177019 -0.09546134 -0.009875395
-0.18567106 -0.17832033 0.020029115
-0.18888752 -0.0152895395 0.0076843896
-0.07345524 0.0819081 -0.19026953
-0.16190451 0.11599861 0.05908475
0.08835773 0.23103267 -0.009833338
-0.16467758 0.13819037 -0.12781884
-0.11168075 -0.1178592 -0.056200724
0.054924473 -0.03174582 0.01926209
0.22053406 0.018538965 -0.08145713
0.09721011 -0.05922325 -0.04380684
-0.21069045 -0.005839634 -0.057116564
0.087804645 0.107170925 -0.30982637
0.04349976 0.055650257 -0.050083563
-0.08259653 -0.08305116 0.22161333
-0.08446558 -0.1515888 -0.077629216
-0.21643157 -0.047448482 0.018181562
0.12540828 -0.12125577 0.002109017
-0.12924205 -0.002190338 0.18282406
-0.2078891 0.07944756 -0.24478664
0.025086949 -0.01722754 0.108007334
-0.093940035 0.12087875 0.05351363
0.035694737 0.010528613 -0.0358676
-0.19985808 -0.036519285 0.01771614
-0.15068425 -0.14254093 0.15157136
0.10448377 0.17056644 -0.3109151
0.16700247 -0.07233422 -0.29075018
-0.23598087 -0.07246793 0.016520133
0.20428073 0.03166431 -0.16416427
-0.21377093 0.091192216 0.144735
-0.057292964 0.090259284 -0.41158712
-0.13869391 -0.16620982 0.14802128
-0.10336758 -0.09343663 0.22378126
-0.026475586 -0.00871384 0.124299474
-0.0069221887 -0.12609945 -0.22889417
0.0013383995 -0.07147089 0.05186109
-0.012350679 0.05940049 -0.02760449
-0.20129898 -0.15795384 0.07842111
-0.20089862 0.15726827 0.07695003
-0.0103603555 -0.13985968 -0.28494707
-0.087417595 -0.038125616 0.23581113
-0.07731185 -0.13653082 -0.105709046
0.13751526 -0.09248817 -0.13785687
0.023144763 -0.10180448 0.13651599
-0.22198355 -0.03365992 0.039629325
0.047348984 -0.10233749 -0.3532209
-0.24554516 0.042676944 0.03452648
0.21083693 0.16399784 -0.0047762417
-0.13047487 0.009547484 0.19729233
-0.042104892 -0.11778224 0.08797686
-0.10472173 -0.15283248 -0.20958346
0.13663411 -0.057168998 -0.10015082
0.17252016 0.015571678 -0.056391228
-0.13027897 0.095124215 0.08604751
0.17616737 -0.037286602 -0.036565475
0.00448111 0.16416886 0.12163329
-0.043149993 0.022211365 0.18093155
-0.09053338 -0.095942914 0.2358109
-0.2015583 -0.10356427 0.054339286
-0.023573143 -0.07238205 -0.051226802
0.029494574 0.10154699 -0.3615493
-0.15209967 -0.032771043 -0.0070171026
0.2991132 0.24909614 -0.027483147
-0.14575948 -0.15987 0.082183175
-0.07283735 -0.15413007 0.10867202
-0.15934943 -0.14310697 0.04643387
-0.24115044 0.14008448 0.12165143
0.026592823 -0.039816953 0.092181
-0.026817515 0.072666906 -0.28064957
-0.18404122 0.18598048 -0.061615393
0.08928864 0.045508973 -0.05291738
-0.17090034 0.047100216 -0.0009400953
0.20061645 0.18968639 0.035565153
0.04377517 0.1830658 0.09029901
0.21983884 -0.046986423 -0.22059168
0.27397218 -0.118158214 -0.18302855
-0.0123761995 0.13110831 0.14817262
-0.13867375 0.032180227 0.23467337
0.024040285 -0.18547022 -0.32355943
0.038323935 -0.16936581 -0.12195716
0.081911825 0.14658393 -0.3013908
-0.12863502 -0.11060768 0.2559272
0.14298281 0.071459055 -0.003336925
0.062229086 0.041250005 -0.0010868573
0.06806856 0.19360875 0.058286853
-0.17795782 0.15581414 0.082322836
-0.17516515 0.080086015 0.1430069
0.24257366 0.20803078 0.05516291
0.23183502 0.1735992 0.022031909
-0.015254721 -0.09335927 -0.03240651
-0.02735065 -0.06608915 0.0819818
-0.058032364 -0.1547224 -0.04963999
-0.22345899 0.120361164 0.113741584
-0.09941732 -0.06961548 0.25122023
-0.17232078 -0.075589016 0.17209563
0.19283769 -0.06952612 -0.26893482
0.22988395 -0.059624832 -0.20441547
-0.09243612 -0.089686796 0.03979136
0.208544 0.014290314 -0.08760757
0.062318735 0.081676796 0.0433381
-0.10370592 0.018683765 0.18323171
-0.17013341 0.0805069 0.08620831
-0.19493453 0.1780547 0.09543272
-0.04498469 -0.16662768 0.020168656
0.27251986 0.15721431 -0.063135
-0.13186175 -0.07790288 0.19712682
0.012666787 0.035518475 0.021994218
-0.16868931 -0.0057813236 0.24803215
0.08358978 0.11686262 0.014362423
0.023647286 -0.123838335 -0.072900794
-0.14414316 -0.0059351367 0.18419322
-0.23909956 0.07198022 0.017491676
-0.11882931 0.08311458 0.15402272
0.05200836 0.061311394 0.056488592
0.11748062 0.04921491 -0.03744581
-0.22659537 -0.17857178 -0.009886575
0.24472362 -0.020834211 -0.1443798
0.01797832 -0.08815977 0.022930758
0.24741109 0.18419947 0.014025028
-0.0107735 -0.023298798 0.13443962
-0.1665641 -0.18098976 -0.18332666
-0.2869928 0.09545184 -0.0342053
0.07643458 0.11440942 0.019990442
0.11062462 -0.021067144 0.032573674
0.21127255 0.0980331 -0.10834357
-0.05988181 0.040866405 -0.18103077
0.0021671117 0.113266796 0.0028955417
-0.1755352 -0.1782842 0.13183999
-0.14485128 -0.12415531 0.09052445
0.08145245 0.05945006 -0.002510908
0.19862919 -0.088662654 -0.058458824
0.09864883 0.040393267 0.053328153
-0.03592258 -0.047189258 0.085388705
0.0044470094 -0.0526558 0.14586194
-0.08574497 -0.004834896 0.23149852
-0.041398365 0.028267486 0.1352736
0.111933485 -0.077620685 -0.07072762
0.08045792 -0.11367835 -0.07580608
-0.17741627 -0.13775058 0.024306728
0.14968045 -0.030174132 -0.026197927
0.013538872 -0.1649983 -0.3568057
-0.023922957 -0.04362436 0.17812146
-0.23444921 0.08118242 0.035644777
0.23840536 0.122636735 -0.047242563
0.202282 -0.030752873 -0.09865272
-0.09682453 -0.1193974 -0.034501616
-0.196713 0.10213801 0.07017275
0.23513566 0.17812952 -0.0029815834
-0.096684 0.047198385 0.25870898
-0.023906969 -0.02144212 0.09293523
-0.1347419 -0.0827133 0.23035374
-0.04845365 -0.08808073 0.29748592
0.13130157 0.014525477 -0.07709099
-0.18948409 0.14879309 0.05816097
-0.06152258 -0.13641992 0.09865049
0.16366133 0.047925156 -0.0684611
0.032674447 0.06575357 0.053122852
-0.17998795 -0.17494974 -0.0044340543
0.034910925 0.0026365605 0.053390846
-0.014791854 -0.04518824 0.14155293
-0.10125938 -0.09388091 0.083778866
0.104583785 -0.07010211 -0.25073346
0.2015863 0.14214249 -0.051907595
-0.1510635 0.070258394 0.11535152
0.21705425 0.09111312 0.004950414
-0.1416119 0.019333547 0.19173697
0.3121882 0.1633202 -0.028817225
-0.047566805 -0.09741863 0.27950394
0.21845137 0.05853577 -0.17867559
-0.123909354 -0.15462875 -0.11004366
0.12849303 0.13454415 0.04991939
0.27091247 0.14705652 -0.1528264
-0.2168345 0.06810218 0.113772884
0.004110803 -0.15944503 -0.12534492
-0.20908235 0.0058589173 0.023236101
0.11406052 -0.09327135 -0.038366534
-0.043960325 0.029521432 0.15636787
0.24743319 -0.10005425 -0.10596765
-0.16097146 0.03852098 0.2235388
-0.010996166 -0.059246168 0.14384967
-0.027882619 0.15332016 0.039083716
0.11668239 -0.023000905 0.014554227
-0.18771441 -0.07042672 -0.06427068
0.02631513 0.008039578 0.005617638
-0.03761056 0.0022986762 0.15376745
-0.2191971 0.18517374 -0.013027467
0.09948001 -0.027707158 0.005070487
-0.12103177 -0.1337526 -0.033161223
-0.08738991 0.15890245 0.06596106
0.18268137 -0.0040062093 -0.059865616
-0.06715407 -0.008332148 0.16717555
-0.12151416 -0.12487282 0.13794191
0.08848834 0.1633994 0.020579396
0.2246487 0.22481845 -0.013338978
-0.11099898 -0.01361127 0.13533483
0.23912194 0.1575598 0.016225878
-0.036906265 0.034843087 0.027360667
-0.010994981 -0.122589774 0.098326705
-0.18066585 -0.21784888 0.13132106
0.06130758 -0.018093187 -0.25441828
0.06622875 -0.15022019 -0.37862325
0.14449148 -0.00046260556 -0.029335057
-0.05817735 0.09962402 -0.1510729
-0.10794606 -0.2320305 -0.009313189
-0.035382822 0.1423977 0.08409568
-0.08161488 0.13244276 -0.15878215
0.21222001 0.064986125 -0.09679735
-0.034590594 0.13597895 0.13532506
0.02963407 0.08158239 -6.586332e-05
0.10737273 0.020338748 -0.036690935
0.21729694 0.09423166 -0.028255826
0.19115195 -0.12502457 -0.24950027
0.018116912 0.14949927 -0.30821127
-0.13676074 -0.02784078 0.18683784
-0.22700737 0.06993272 0.0044165184
-0.08136642 -0.1354777 0.24187192
0.17906044 0.0757435 -0.027587447
0.2335618 0.26393485 -0.02879352
0.01352314 -0.21489923 -0.30397967
-0.21732156 0.15477078 0.05899275
0.21816541 0.18669702 -0.035597973
-0.08061395 -0.009849309 0.19627163
0.2121065 0.065100566 -0.1269126
-0.079852715 -0.046678577 0.113035254
0.033261266 -0.06564758 0.11405922
-0.049208768 -0.0838559 0.169078
-0.11568171 -0.11387185 0.27089384
0.054301895 0.025267337 0.06110672
0.028559871 0.15064484 0.08667231
-0.08750873 0.008154662 0.25605
0.18122897 0.23262714 0.05270354
-0.17006953 0.059960745 0.14732924
-0.009113315 0.09693737 -0.049657017
0.011848706 -0.13183516 -0.31033245
-0.059139136 -0.123713054 0.164211
-0.017969208 -0.026363403 0.2717187
0.085855976 0.0698402 -0.47989035
-0.08457119 -0.06848163 0.23695251
0.19220276 -0.020142538 -0.06234518
0.06613816 0.03670429 0.034103725
0.17460786 0.20263949 0.025001388
-0.07067804 -0.059346274 -0.029005412
0.024398807 0.13076453 0.042209968
0.2315663 0.22484806 -0.08876186
0.12903883 -0.05941873 -0.05444969
-0.047538605 -0.097700216 0.14843291
-0.037757277 0.10843495 0.123767875
-0.13849476 -0.12984724 0.005283936
0.022702979 -0.014926766 0.09761739
0.1184075 0.1635309 0.027285226
0.13221294 -0.011951047 0.03938934
-0.050842598 0.031053113 0.033986367
0.13818508 0.030810196 -0.0044121365
0.14141929 -0.10118033 -0.29167578
0.1172871 0.050789416 -0.048318792
-0.013606335 -0.11051501 0.25862116
-0.23349383 0.0008742269 0.015738506
-0.26641047 0.121595524 0.06706369
0.15393418 0.2120184 -0.17990875
-0.061385866 -0.041851312 0.11091993
0.14401872 0.07630832 -0.085594185
-0.25430202 -0.06965966 -0.009992942
0.1799573 0.07268735 -0.05307335
0.10554562 0.020598434 -0.078494586
0.20495927 0.19510242 0.020385228
0.101509854 0.065845236 -0.22441514
-0.18449835 0.0677062 0.04918761
0.13318437 -0.077216245 0.04299704
-0.11877342 0.018928228 0.21185468
0.12368191 -0.036232583 0.04117441
-0.06119532 -0.16894454 0.20575784
0.19516075 0.17618467 0.0328271
-0.09536194 0.00830262 0.11229671
0.0665263 -0.06715151 0.12518738
0.084988244 0.10866546 0.01455004
0.006945759 -0.125569 -0.24926864
-0.0014403092 0.17345081 -0.0018225082
-0.17142154 0.029713484 0.17339559
0.085478544 0.059301555 0.051812567
0.14157408 0.033275608 -0.32184795
-0.1452288 -0.10212789 0.020589797
0.14661355 0.055257615 -0.040850732
0.007821017 -0.055181865 0.13284868
0.069052 0.15158105 0.049756765
0.28261593 0.099757425 -0.027936295
0.10050779 -0.053986344 -0.34199333
-0.009590622 0.04954685 -0.091167256
0.09012597 0.116948836 -0.04812292
-0.2483413 0.09596597 0.07452255
-0.14115432 -0.04189666 0.29210582
-0.004684912 -0.040649377 0.14433603
0.16517644 -0.03369211 -0.07675863
0.098718636 -0.030907778 0.03200778
0.26682237 0.23397996 -0.050532963
-0.055887293 0.017572839 -0.057639413
-0.2549781 0.14436206 -0.0051733027
0.15163247 0.048020933 -0.097098194
-0.04552079 0.09305612 -0.12998544
-0.12172033 -0.16497701 -0.04043883
-0.098248124 0.048417635 0.20246738
-0.13306609 0.059119407 0.19738868
0.19375299 0.029051349 -0.12703271
0.019918123 -0.028006526 -0.04500322
-0.13010052 0.0808799 0.09111662
-0.10389587 0.09905369 -0.14768618
0.2112457 0.108247295 -0.07458686
-0.06983617 -0.025630374 0.2260484
0.22311209 -0.1243149 -0.20549935
-0.08978322 -0.15450618 0.13977945
-0.05720613 0.023788005 0.062191892
-0.20320974 -0.08306631 0.062923506
-0.14820744 -0.048870057 0.23112386
0.07490443 -0.14288613 -0.28881368
-0.059689004 -0.105107374 0.11973133
-0.15191208 -0.17523964 0.026517348
-0.08383436 -0.13604404 -0.16046594
0.13847855 0.10768851 -0.010977466
0.06439661 -0.09726042 -0.31858024
0.21489748 0.027030049 -0.0791363
-0.055182084 -0.077828795 0.16305616
-0.1666975 0.050478164 0.03444225
0.074026674 -0.09044181 0.10406669
-0.039500006 0.06574334 -0.26640776
0.12151109 0.0048586237 -0.039493714
0.020731118 -0.06539571 -0.31516087
-0.014086936 -0.09459611 -0.23489732
0.14553834 0.22110626 0.028164912
0.083452955 0.063658595 -0.28818503
0.17785452 -0.09832052 -0.3247192
0.029374404 0.10875988 -0.017702702
-0.013505001 -0.031894483 0.09193312
-0.12012812 -0.1876143 -0.31099454
-0.1599915 0.09464113 0.17598817
0.17425758 -0.030989802 0.022354914
-0.022296963 -0.0133251045 0.11973734
0.2138212 -0.08113359 -0.3422318
-0.2238306 0.0048729773 -0.051563304
0.040714927 -0.078557216 0.055483524
0.037788 -0.12281369 0.049251225
0.115548946 -0.023320155 -0.24507624
-0.13978301 -0.14556526 0.20055918
0.19835046 0.04184367 -0.1248852
0.18352576 0.1409196 0.024409827
-0.29188943 0.14259605 0.031742223
0.014786976 0.111971974 0.115315415
-0.0863447 -0.08118101 0.2671993
-0.022669865 0.13016254 -0.06564725
0.17549124 0.091469 -0.049091317
0.10364952 0.13093872 -0.0026971821
-0.10873572 -0.06353811 0.28060114
-0.11155816 -0.12910073 0.18388857
0.15144542 -0.033061206 -0.050766192
-0.07980151 -0.13042381 0.27106202
0.18098912 0.107389 -0.10776641
0.11461541 0.13121045 0.03884349
0.0051314156 -0.12743036 -0.31758994
-0.23178363 -0.05792567 0.07106649
0.14792316 -0.074403286 -0.28043258
-0.12542124 0.032194756 0.1409911
-0.15673147 0.028936232 0.21465236
0.040690035 0.10129498 -0.011062958
-0.2579798 -0.13618176 -0.05337446
0.2420961 0.19612664 -0.06109834
-0.15584086 -0.13440427 0.082573175
-0.054279488 -0.012710351 0.10886732
-0.26079515 0.05932238 0.063471764
0.04346788 0.16626954 0.006309476
0.31138572 0.2211902 -0.087460265
-0.06308766 0.028955558 0.19160621
-0.10648834 -0.047709346 0.28684092
0.18156765 0.16026439 -0.046488166
-0.17790112 0.07793406 0.14686169
0.25447047 0.048156474 -0.048239537
0.15886572 0.23357232 -0.0076014833
0.079468295 -0.020115238 0.101946756
0.065941386 -0.08085391 0.055685874
0.02443053 -0.06633194 0.018176718
-0.052427962 -0.08854383 0.16404958
0.19732785 -0.011791913 -0.09702858
-0.16219729 -0.046430834 0.084342726
-0.055188842 -0.14794987 0.12669559
0.19763462 0.040986177 -0.083965294
0.04049088 -0.14889936 -0.03215182
-0.06842308 -0.12979084 0.021900488
-0.05054938 -0.030075114 0.22025803
0.1513365 -0.06753949 0.0749017
-0.16612503 0.016822731 -0.005383076
0.058616623 -0.054837506 0.021231376
-0.06710976 -0.032736443 0.21002677
-0.022063695 0.09104842 -0.08716091
0.0071875313 0.18170066 0.06403125
-0.057363547 -0.049341146 0.27559006
-0.110090405 -0.1601439 0.19205625
-0.05290684 -0.06539392 0.17904697
-0.0762972 -0.17979637 -0.27469653
0.0205238 0.009763474 0.04568615
0.046126228 0.13300528 -0.35050026
-0.008184611 -0.085964255 0.14135265
-0.15043317 -0.10207099 0.054946803
-0.026012616 0.024630463 0.03058008
0.14354046 0.030241773 0.030274535
0.22106162 -0.008488647 -0.22991982
-0.02281857 -0.06273214 0.15770163
-0.058751315 -0.13458018 -0.23593363
0.29056695 0.20390151 -0.13886727
-0.23039994 0.058401722 0.0784371
-0.12443199 -0.10550285 -0.04683118
-0.081834376 -0.20012514 -0.22271118
0.15357058 -0.0016661228 0.04677231
-0.014549377 -0.16729547 -0.30778897
0.15166105 0.046436943 -0.03704816
0.006861728 0.03216046 0.0439769
-0.06076786 -0.14319035 0.20589879
0.01063871 -0.0567003 0.09149204
-0.014210347 0.07789972 0.034597836
0.06838156 -0.16010731 -0.3239464
-0.14097932 0.011187595 0.21150878
0.05774786 -0.08964019 -0.048719402
-0.065997824 -0.13680476 0.13346666
-0.08085593 0.050230373 0.13122028
0.042719882 -0.1213058 -0.41631728
0.21396185 0.21903504 -0.00092158525
-0.016443286 0.16880435 0.09818678
-0.16217928 0.124676116 0.13747025
-0.036859307 0.179539 0.06387079
0.10952313 -0.08592103 -0.33198407
0.031766493 0.029173749 0.09811438
0.2490881 0.04126486 -0.101342954
-0.07369116 -0.16585325 -0.08040736
-0.086635575 -0.07427862 0.20163514
0.09502571 0.1558835 -0.048790533
0.12512136 0.012130232 -0.12221421
0.16811268 -0.07053014 -0.28686413
-0.003277039 -0.0698422 0.10871141
0.24717912 -0.062986426 -0.17780139
-0.19102807 0.011369769 0.14474711
0.17332293 0.092677206 -0.110397615
0.17690313 0.03308769 -0.1746635
-0.18178824 -0.201183 0.06354179
0.16412094 -0.095242426 -0.07672216
-0.13092871 -0.05702833 0.04971268
0.11952304 0.19702171 0.019263612
-0.13248652 -0.12533952 -0.13207528
-0.23075187 -0.06572077 -0.00634433
-0.19942318 -0.21905647 0.06901896
-0.11825997 -0.014195763 0.27324244
-0.06800439 -0.13694023 0.111019924
-0.24595173 0.122489184 0.12539402
0.18311724 0.19053958 -0.029161647
0.12484174 -0.024626499 0.018327875
0.09740227 0.08443813 0.011033208
-0.10998934 0.065665126 0.15210328
0.10539999 -0.0862409 0.0798289
0.0747347 0.11103971 -0.31963068
-0.16954763 0.020834941 -0.059803654
-0.07400895 -0.016480217 0.18984586
0.0012200945 0.0043651937 0.022634031
-0.1769583 -0.03300847 0.14207798
0.08230775 -0.06556482 0.017106501
0.17206676 0.07665014 -0.06107952
0.14128678 0.0549791 -0.057557628
0.10908682 -0.08431313 0.015206244
-0.14599738 -0.12324364 0.23522584
0.21588904 -0.10352128 -0.13588582
-0.0658915 -0.038700256 0.18097752
-0.053142615 -0.06340607 -0.06776156
-0.16691598 -0.051641267 0.09150621
-0.11745654 -0.06228982 0.2703346
-0.098638184 -0.02285164 0.13192528
-0.17806736 0.07323041 0.0011962274
0.26410553 0.15725671 0.0004905877
-0.043044273 -0.14047717 0.004264709
0.05032543 0.031738058 0.093425624
-0.0677813 -0.19224095 -0.23667833
0.1318543 -0.078638434 -0.29035705
0.18741716 0.13382374 -0.114264406
0.09569388 -0.1100877 -0.24083701
-0.027919115 -0.034012273 0.09224437
-0.2156866 -0.19994013 0.0053474237
-0.1018889 0.0077099972 0.118527964
-0.2272439 0.056566942 0.1521842
-0.014115088 0.15250073 0.08578212
-0.1214079 -0.07321505 0.2532614
0.0858996 -0.049715653 0.013276571
-0.040465944 -0.06329699 0.12842396
-0.004641988 0.105726436 0.14130926
-0.079716176 0.04995256 0.11256857
0.003530834 0.19390374 0.13399544
-0.24467112 0.11329893 0.055226494
-0.2137474 -0.04714049 0.036143467
-0.15432097 -0.09912726 -0.07515804
-0.10257323 0.05318359 -0.34469658
0.009716566 -0.060309768 0.16891423
0.059845485 -0.15837733 -0.3483961
0.049944628 -0.16053048 -0.27728683
-0.088128 -0.018564966 0.25147447
0.20200986 0.030586021 -0.1094301
0.20175093 -0.05789047 -0.22060087
0.1823813 -0.1196663 -0.27891642
-0.020900516 0.15716714 0.013011359
0.23280057 0.11485754 -0.019483654
0.10957703 0.040362015 -0.01101328
-0.008081978 0.028795479 0.03760001
-0.03382807 -0.1731142 0.16828388
0.15175049 0.14843091 -0.029044293
-0.15514804 0.02030317 0.15969831
-0.035666782 0.0848848 -0.15734687
0.1307557 0.18061002 -0.20489463
0.18931389 -0.02252924 -0.016975658
-0.11842957 0.08628297 0.1746215
-0.148555 -0.06801837 0.032666404
0.11466005 -0.08569588 -0.2918639
-0.1766433 -0.079421125 0.0045658797
0.16348255 0.20428938 0.006981925
0.0146188745 0.02029775 0.06260821
-0.25806108 0.15337949 0.058846284
0.11076481 -0.037074413 0.0020175867
-0.09296677 -0.17906295 -0.25220263
0.24105395 -0.07522194 -0.15515499
0.17070004 -0.07392866 -0.12720609
-0.22361061 -0.010337293 0.12579033
-0.008917022 0.17555228 0.08784364
-0.23662497 0.050050255 0.06286994
-0.26743495 0.124888115 -0.060888905
-0.19891363 -0.088620424 0.07911246
-0.13318457 -0.035954393 0.20748346
0.12529309 0.12780797 -0.04779875
-0.22487633 0.12703004 0.0025064286
0.17963654 -0.09824028 -0.15756612
-0.26121047 0.09081978 0.02788906
0.15409072 0.13402992 -0.016867409
0.09224134 -0.09132951 0.022348234
-0.18266954 -0.13203317 0.0860245
0.072108254 -0.12973773 -0.3522986
-0.03895002 -0.070526525 0.24760756
0.16991538 0.22242597 0.005264392
-0.028068583 -0.11772189 0.12240295
-0.11244625 -0.061872493 0.25640148
0.22894807 0.22569665 0.08093013
0.23773846 -0.014390137 -0.22575784
0.23572995 0.0404176 -0.22634776
0.00358631 0.08930238 -0.08067015
-0.047943722 -0.10535248 -0.060261738
0.0031894178 0.0168669 -0.03385728
-0.20266613 -0.18895355 -0.001188337
0.028617878 -0.14145821 -0.001357146
0.21946776 0.25491527 0.028589476
-0.03006616 -0.043857995 0.10330008
-0.16489866 -0.025973413 0.2267478
-0.08447575 -0.17286022 0.131137
-0.1496893 -0.10953423 0.062022816
0.07140441 0.0566309 -0.031356364
-0.13137992 -0.17358392 0.03540575
0.2765642 -0.011614531 -0.21805292
0.005443543 -0.123372406 -0.03040092
-0.01712448 0.11304502 0.06987034
-0.0716525 0.06124112 -0.09985155
0.17944719 0.11919792 -0.074186794
-0.2022809 -0.19853903 -0.0072094514
0.1719183 -0.12521912 -0.10641059
0.04876453 0.014096962 0.082368344
-0.11733389 -0.10077982 0.25001895
0.08644189 0.16615179 0.018070292
0.2916948 0.1484417 -0.01018824
0.19301686 -0.10490035 -0.034069236
-0.067947365 -0.015181445 0.18701735
-0.05157183 -0.2042817 -0.07309373
0.17014468 0.081973135 -0.03720023
-0.1465918 -0.043396454 0.04584953
-0.16338614 -0.061087906 0.24372734
0.068052955 0.06353921 -0.029149078
-0.2227687 0.06539146 -0.0073955855
0.0049476996 0.020088613 0.11005269
0.18760411 -0.040449653 -0.050178424
-0.011249467 0.16915093 0.091918394
0.12480375 -0.059308317 0.0029686138
-0.09950154 -0.18070598 -0.12880042
0.22818102 0.17920996 -0.18066093
0.20081387 0.12591043 -0.008534517
0.028089676 0.06337789 0.058789838
0.0046513756 0.062243823 -0.3223533
-0.08653851 -0.16444762 -0.092117295
0.16363394 -0.080106474 -0.033717576
-0.21454273 -0.09579596 -0.06849494
-0.10017911 0.00048729256 0.20456804
0.026855849 0.144511 -0.011119159
0.047740944 -0.05142868 0.0023394118
-0.11666648 -0.08891647 0.08717184
0.04645057 0.15797211 0.0044837124
0.2651439 0.14044103 -0.03134686
-0.015923154 0.0034990993 0.08125916
-0.03581321 0.0310233 -0.33279818
0.008254258 0.06860704 0.0028456615
0.06269628 0.031486455 -0.015334996
0.113034785 0.19234532 0.016309457
0.114067644 -0.11278129 -0.0618733
0.23867115 0.14969696 -0.17253897
-0.23136109 0.025760494 -0.042485964
-0.066293344 -0.031026443 -0.035586964
0.13286762 0.14364666 0.012103323
-0.07105556 -0.09357099 0.3075412
-0.062173717 0.08442812 -0.0869904
0.08019696 -0.09439179 0.02226837
0.0055232644 -0.14221266 -0.056512963
-0.12623425 -0.15135121 0.09283729
0.11054199 0.11047405 -0.24782059
0.1785086 0.017453568 -0.103438035
0.2100506 -0.015571601 -0.10493086
0.22493336 -0.0860588 -0.06433663
-0.025539253 -0.0010829602 0.17734732
0.062017072 0.04530975 -0.023817604
0.058447853 0.20788608 0.062311072
-0.18747577 0.12535018 0.12793155
0.0018521659 -0.040306665 -0.2705737
-0.070615314 0.01932486 -0.037442595
-0.2292693 0.05125615 -0.16590928
0.1657908 -0.07211426 -0.16633022
-0.13732064 -0.13584033 0.072554275
0.12803605 0.0922619 -0.04112878
-0.027998371 0.012744293 0.13790637
-0.05237865 0.17701294 0.08292755
-0.16500846 -0.13038902 0.17706425
-0.10080037 -0.15267606 -0.09858573
-0.1289612 -0.14264017 0.06013472
0.047399413 0.0712634 -0.04063273
-0.04293557 0.13853574 -0.06041044
0.2467709 0.13004282 -0.066335134
0.08284065 -0.061418608 0.012382091
-0.22587994 -0.13146047 0.026811382
0.014987444 -0.19180718 -0.3935305
-0.1616689 -0.067057416 0.2582038
0.21221215 0.24507372 0.010198592
-0.18453346 0.052699517 0.18107288
-0.08579548 -0.12458548 -0.26826027
-0.042676017 -0.123753086 0.12824912
0.07773402 -0.116207905 0.11817586
-0.20911317 0.06961992 0.13578741
-0.12821922 0.07811144 -0.11927588
-0.082528085 -0.14083199 0.06666984
-0.23197438 0.044733483 -0.10308175
0.20558153 0.117153935 0.009950285
0.2580695 0.20405523 0.03153855
0.03230125 -0.039964102 -0.33244884
0.0010936931 -0.16808964 -0.0741584
0.286634 0.1685881 0.010040969
0.06337777 0.17558002 -0.21052706
-0.094590046 -0.16257022 -0.10537423
0.05515555 0.1433775 0.047247972
-0.095123604 -0.09819906 0.23609868
-0.12448999 0.101094335 -0.1310019
0.32304218 0.13919607 -0.07095108
-0.11937962 -0.002029134 0.19694562
0.29472044 0.0820975 0.045576524
0.1171969 -0.079125494 -0.27924353
0.13938771 0.032530606 -0.11072728
-0.08312161 0.10654234 0.10485487
0.10930966 -0.09023586 -0.054849193
0.27734676 0.19236478 -0.04250001
-0.017113766 0.1925387 0.15380518
0.08657167 0.19706917 -0.013318145
0.061954666 0.0012853196 0.11022833
0.14824292 0.14977702 -0.022232696
0.14164431 0.11140581 -0.006766324
0.004958518 0.1079 0.105878316
0.3216692 0.21473117 -0.07330748
-0.034818236 0.13634647 -0.07134217
0.114245735 0.116010055 -0.2692729
0.06952059 -0.11335065 0.10129838
-0.063614845 0.0432615 -0.13482976
-0.1012837 -0.050745048 0.23072886
0.08954456 0.012365815 0.029310416
-0.10993286 -0.19464056 -0.14704674
-0.064844124 0.024605697 0.11489564
0.18503946 0.06258389 -0.06481461
-0.045951992 -0.12907688 -0.057228375
0.26003706 0.022660814 -0.1300971
-0.14368664 -0.17215447 0.06356978
0.03714535 -0.050357446 0.070489995
0.14782166 0.108441785 -0.059853025
-0.25131497 0.07675721 0.11049571
-0.079902604 -0.16365954 -0.10886832
-0.18229832 -0.014399046 0.043234058
0.09564569 -0.13553008 -0.035477538
-0.24595886 -0.06983064 -0.018609792
-0.1971635 0.057724524 0.046807267
-0.15090384 -0.23007552 0.051976997
0.1310203 0.017963698 -0.058878068
0.00014173899 0.08344875 0.011073555
0.092909135 -0.099538974 0.073904045
-0.25293317 -0.044770706 -0.021781072
0.03287211 0.03940361 0.058249004
-0.0650425 -0.103762925 0.16108267
-0.054970857 0.040234078 0.13384937
0.024944568 0.071038455 -0.00032921784
0.20943029 0.13036013 0.03929404
0.015163069 -0.04373355 0.07975443
-0.16915372 -0.023813305 0.18142137
-0.22888204 0.08265967 -0.0490126
0.020600557 -0.041682255 0.07859006
0.29106975 0.13689312 -0.0508546
0.063141234 -0.031651825 -0.28724998
-0.15605554 -0.09899776 0.19132796
0.16549571 -0.092715144 -0.30268034
-0.02963661 0.11062253 -0.00568228
-0.082631506 -0.10133923 0.22554511
0.14449252 -0.037601724 -0.0406289
0.18323243 0.17494753 -0.00708121
-0.14581 0.02852536 0.22927314
-0.20813316 -0.11802633 0.024478327
0.08246718 0.020187214 -0.001070696
0.1342326 0.1478531 0.021981394
0.21615963 -0.0027827271 -0.18305415
0.07647919 0.15856695 0.038736556
0.079449184 0.036533903 0.118492946
0.13266402 0.16010942 -0.091887504
-0.17125684 -0.19880961 0.08635075
0.079529926 0.018033324 0.0020659321
0.16550416 0.013131929 -0.05532238
-0.1000206 -0.14489171 -0.20927835
0.2110899 -0.11246393 -0.25174284
0.2028639 0.07769211 -0.112185016
-0.039303467 0.044203572 -0.090109825
-0.059440132 -0.012725077 0.27820587
-0.2842248 0.18078166 0.057855766
-0.23651226 0.003762422 0.007367593
0.060184103 0.15601335 0.047723033
-0.015078031 -0.13723683 -0.29420844
-0.22142348 0.0870866 0.18440042
-0.04829964 0.022870375 0.02540709
0.034797084 0.029912665 0.03579912
0.024695372 0.057849392 -0.033482876
-0.20208196 0.011236796 0.020728821
0.061782442 -0.083827004 0.081258684
0.1323559 0.10081483 -0.11598637
0.22370034 0.25870946 0.04628162
0.18655777 -0.122472085 -0.13293247
-0.05993367 -0.15255217 0.063312404
0.14084044 -0.07388728 0.015419391
-0.05761045 0.10174202 -0.050244957
-0.15070741 0.13400225 0.13146158
0.11290717 -0.089133486 -0.040803686
-0.21130213 -0.14556892 -0.055086438
0.16882399 0.16252437 0.009061416
0.090572834 -0.03196367 0.04215392
0.17666928 0.10220494 0.009928073
-0.13041466 -0.16841894 0.13409472
-0.18762617 -0.13699353 0.017313631
0.0135204075 -0.14354658 0.07117179
-0.20675552 -0.09103244 -0.0017876293
-0.059805203 -0.10720447 0.18537316
0.16693969 -0.09731047 -0.033246722
-0.116153345 0.023860842 0.258595
-0.22853738 0.17190404 0.06907048
0.09349221 -0.078721 -0.07618894
0.13913658 -0.07973389 -0.041307345
-0.056232467 0.0890369 -0.14374594
-0.092426464 -0.14364876 -0.08606541
-0.2098251 -0.15943879 0.011729759
0.16014895 0.1291467 0.019481162
-0.05394125 -0.13220033 -0.044713873
0.23666164 0.23298801 -0.021775268
-0.07387479 -0.058813985 0.21658528
0.25833732 0.17113365 0.030023007
0.067753546 0.0058094356 -0.017664999
-0.044645898 -0.1775508 0.22912416
-0.008997846 -0.1569393 -0.24707608
0.11200017 0.13549694 -0.25575158
-0.01693535 -0.06930491 0.18778327
0.17106166 0.049095225 -0.083368115
-0.00022201223 0.18536171 0.11346619
-0.17002246 -0.04022029 0.051559303
-0.13617033 -0.036405813 0.24138731
0.06777461 -0.14097969 0.02066034
-0.25387087 0.21082976 0.070644855
-0.19965097 0.065534145 0.011621373
0.08795954 -0.045661196 0.021647355
-0.1285266 -0.020139832 0.20699598
0.13170195 0.1509147 -0.006134751
0.06286673 -0.067688145 0.08962808
0.070997834 0.013611944 0.076001205
-0.22804421 0.005153553 -0.06515773
0.20644668 0.1888569 -0.041259944
-0.16670063 0.039480865 0.1843022
0.005533957 0.08927429 0.12890571
-0.049500726 -0.0056301346 0.16378014
-0.20637944 0.023163714 0.06764926
-0.10861099 -0.1701934 -0.20396952
-0.12264547 0.007912326 0.21916562
0.0115078585 -0.15321419 -0.012568844
0.056803897 0.08738101 -0.40637648
-0.0135199325 -0.164016 -0.33983094
-0.0010036051 0.07203166 0.06946754
-0.061786234 -0.15202624 0.2673258
-0.12955129 -0.016465131 0.20225705
0.14003958 -0.049760167 0.019034363
0.17743933 -0.135357 -0.30283114
0.2191492 -0.07610581 -0.05466462
-0.025864217 0.084882565 -0.13896012
-0.16896503 -0.12732564 -0.007244689
-0.07556584 -0.11801245 0.17327222
0.015144308 0.06798658 -0.03759271
-0.14102593 -0.19607913 0.08586394
-0.2179542 -0.1843028 -0.032457303
0.03311557 -0.05989425 0.13938457
0.20338756 0.15659653 0.020087056
-0.21599056 -0.03601878 0.07122639
-0.10788242 -0.15679885 0.23424025
0.21774088 0.06152932 -0.1145333
-0.2685676 -0.13884811 -0.05798721
0.17169113 0.09064098 -0.040461205
0.112350196 0.17039365 -0.23168002
0.14556685 0.110522114 -0.04664143
0.09836168 -0.053768758 0.056417886
-0.011298744 -0.011376524 -0.026220787
0.02812941 -0.17330171 -0.32863083
-0.2571464 -0.052131068 -0.03887702
-0.07506191 -0.061463762 0.24330093
-0.13753788 -0.024878861 0.18673547
0.08962798 -0.125114 -0.025969295
-0.23260471 -0.1818509 -0.029591057
0.25207174 0.17523049 0.056016207
0.0152844805 -0.07319883 -0.29382265
-0.049803082 -0.073313445 0.22595866
0.15602207 0.048994903 -0.10341462
0.06261852 0.119591184 -0.05107081
-0.013043776 0.120880894 0.024641382
0.014982643 -0.047995955 0.1380312
0.103100576 0.016775265 -0.035337336
-0.0062378696 0.12405748 0.08669646
0.0039239954 0.18059838 0.13555825
-0.112620704 0.027553393 0.15598921
-0.075838335 -0.13199016 -0.07939081
-0.004549349 -0.17271642 -0.2426081
0.25477308 0.03129522 -0.23490712
-0.055765692 0.046157114 -0.06008225
0.13685973 -0.10864597 -0.273955
-0.07159295 -0.1319124 0.26180634
-0.1836179 0.058453772 0.1706952
0.02151575 -0.048628293 -0.22665115
-0.0022852658 -0.10339148 0.19046035
0.09159351 0.13252153 -0.013465244
0.16758189 0.015300081 -0.029482119
0.18792315 -0.033481665 -0.16455053
-0.113679305 0.0144882025 0.13921219
0.21470048 -0.073999256 -0.15488249
-0.22502753 -0.16383508 -0.08538766
0.12907867 -0.06955498 -0.058682784
0.05015114 0.054668922 -0.026448896
-0.015160936 -0.14624408 -0.2993779
-0.20992184 0.04639229 0.112792045
-0.069694564 -0.11509694 0.29223952
-0.23504895 -0.082972325 -0.0040738084
0.024205599 -0.047050297 -0.24629949
0.033950984 0.09509662 0.051937707
0.02129363 0.18350002 0.08429946
0.1228637 0.021098651 0.018718004
0.21352577 -0.04004603 -0.25583228
0.014575209 -0.1411054 -0.28260702
-0.107732855 -0.16656685 0.10198028
-0.02789289 0.12162804 0.08898509
0.10694379 -0.17541718 -0.34675592
0.032170173 -0.14060295 -0.14774787
0.18914424 -0.040461592 -0.016619701
-0.0116946 -0.02062517 0.1455059
0.08177216 -0.08101906 -0.33430552
0.08372441 0.040233023 0.04260181
-0.23627284 -0.04163955 0.018620376
0.20772758 0.013781136 -0.13234425
-0.029003518 0.07389657 0.06471406
-0.14564867 -0.06719063 0.04373791
-0.09543451 -0.12571152 0.20485531
-0.255849 0.16020593 0.051185288
0.11609001 0.207252 -0.13589136
0.19268449 -0.055190913 -0.016677195
-0.0421269 -0.047943126 0.10240289
0.18918136 0.17170355 0.009868143
0.09718423 -0.13213885 -0.27345458
0.04812786 -0.024771832 0.031173263
-0.24962325 0.15365757 0.013400512
