# .PCD v0.7 - Point Cloud Data file format
VERSION 0.7
FIELDS x y z
SIZE 4 4 4
TYPE F F F
COUNT 1 1 1
WIDTH 1000
HEIGHT 1
VIEWPOINT 0 0 0 1 0 0 0
POINTS 1000
DATA ascii
0.09390549 0.28732523 -0.32848895
-0.086718306 -0.1671796 0.1418089
0.03099094 0.29262623 -0.4088065
-0.25853285 -0.091844544 0.028630918
-0.1228896 0.029296726 0.09382272
0.009092744 0.12030279 -0.041667793
-0.09466868 -0.14520425 0.16332471
0.018964138 -0.022164753 0.07430912
0.22786164 -0.08764894 0.017429814
-0.08454597 -0.18672812 0.026898274
0.0379487 -0.22022605 0.09418146
-0.06972585 0.10179444 0.036362838
0.08674193 -0.15304069 0.1533057
0.10994222 -0.18835191 0.08940907
0.10062396 0.00019407125 0.008518279
0.036544986 0.009038409 0.08896919
0.034703556 -0.19508474 0.12299014
0.064007364 0.06179098 0.034828324
-0.0074681267 0.100744516 -0.06792761
0.09006254 -0.03248811 0.052685715
-0.04628037 -0.091747314 0.15211247
0.04237716 -0.05354454 0.110145584
-0.046477146 0.034975626 0.073156744
-0.15386498 0.10055686 -0.05805635
0.10416884 0.03354763 -0.3709256
0.07855643 -0.13481304 0.1586411
0.05322708 0.09721967 -0.15056273
0.080710456 0.1581788 -0.24864398
-0.01930616 -0.010338019 0.06390248
-0.04454474 0.14192583 -0.010946326
0.11961038 0.16998406 -0.2589558
0.15298957 0.07059033 -0.4000224
0.002676824 -0.026206162 0.12368511
-0.053345725 -0.03720384 0.13031778
0.2134027 -0.027723994 0.027372811
-0.23055092 -0.04478838 0.014712534
0.22655377 0.0050708535 -0.049915597
-0.003893914 -0.009511906 0.08196238
-0.044829782 0.122469954 -0.122327566
0.018494368 0.15587388 -0.20898238
-0.2455158 -0.035864588 0.059693195
0.04071937 -0.07120465 0.09165368
0.21699731 -0.10132925 -0.041552007
0.10401144 -0.081897266 0.12589084
-0.21415174 -0.023194496 0.11372351
-0.11991704 -0.08723565 0.18005277
-0.034597583 -0.20330605 0.15140058
-0.18450734 -0.1370753 0.099463776
0.2164667 0.27255124 -0.28783476
-0.098245814 -0.017005773 0.01787886
-0.09686647 -0.09436565 0.16356963
0.1484695 0.2265949 -0.29418975
-0.09643474 -0.15345588 0.15285407
-0.018937234 -0.084487416 0.1350742
0.2389834 -0.062020604 0.0066966577
-0.0035061515 0.10126534 -0.17915514
0.05531402 -0.15662979 0.16704534
0.04463653 -0.054807737 0.050751194
0.084058784 -0.05745915 0.121084504
-0.008850766 -0.12994313 0.19129437
0.081805125 -0.05106115 0.012123535
0.08621029 0.0009736577 0.06879135
0.17386682 0.007802589 -0.00643861
0.026257453 0.32847312 -0.40067557
0.00168593 0.15295753 -0.22297452
0.011423187 0.11180718 -0.5190957
0.15746194 0.07424475 -0.40308297
-0.20950341 -0.08509226 0.07517807
-0.1609863 -0.039804943 0.120738335
-0.13786893 -0.013672275 0.13862242
0.16455294 0.011137677 -0.027652565
0.12635477 0.06363064 -0.07211951
-0.2591553 -0.05155401 0.024927132
0.16154344 0.14770204 -0.35348752
0.18843615 -0.1711392 0.022315655
0.06625541 0.17109644 -0.27544373
-0.04383394 0.15384775 -0.042582616
0.064204074 0.092731304 0.0388797
0.060585685 0.13341053 -0.23307255
0.17513205 -0.16070783 -0.0047058486
0.07571303 0.16980569 -0.22850215
0.018523445 -0.043822467 0.05868094
-0.08804651 0.039688732 -0.062142357
0.12803894 -0.04850691 0.12620749
0.10635183 0.14414853 -0.27828586
0.13780892 0.06871647 -0.07209471
0.0620673 0.09839312 -0.15374589
-0.051087372 -0.12285582 0.16611491
0.043319304 -0.14586303 0.17024305
0.23258702 -0.06909342 0.044662535
0.0033754322 0.2434056 -0.31850722
0.21939825 -0.076548345 0.038480423
0.12888171 -0.023114257 0.05703431
-0.06638381 -0.045893192 0.15416414
0.18004842 0.05467303 -0.14424561
0.163527 0.07014203 -0.079647124
0.06068375 -0.13510312 0.12568869
0.10036854 -0.021450624 -0.038115013
-0.07989425 0.196912 -0.23815793
0.083057664 0.08058724 -0.32167646
0.14770235 -0.057509687 0.08656247
-0.17300351 -0.17181341 0.06730102
0.06705296 0.17480975 -0.20865628
0.16915798 0.016699797 -0.017392948
0.18636002 0.05980125 -0.106486194
0.048499126 0.08634557 -0.13680196
0.07389485 0.09732623 -0.4986517
-0.19217339 0.026198091 0.075517416
0.12707844 -0.1018126 0.117547214
0.1905137 -0.13035874 -0.001524624
-0.10187308 -0.13856034 0.17320229
-0.0057664155 0.11832126 -0.068470076
-0.07789654 0.08673875 -0.007804987
0.105657056 -0.07094809 0.11072557
0.04924536 -0.15758401 0.15352887
-0.21522264 -0.042160124 0.08134054
-0.2236593 -0.07244212 0.05578757
-0.09991078 0.018608533 0.018879356
0.21295859 0.041493155 -0.090753
-0.21081583 -0.05298784 0.098168276
0.18463215 -0.042706907 0.0878456
-0.07803351 0.08891667 0.023935135
-0.12516133 -0.17168783 0.09363671
0.081315994 0.07077225 0.0354665
-0.053829927 0.0804285 -0.081902705
-0.08641247 -0.051817276 0.14206271
-0.021125782 0.04281206 0.08696056
-0.10167335 0.07868699 0.05426584
0.21691613 -0.0864988 0.015048751
0.11144914 -0.020384759 0.02992507
-0.074563414 -0.13684137 0.18319038
0.080499366 0.112493366 -0.15315086
-0.018944627 0.121918336 -0.046756122
0.036775436 -0.17745702 0.17672743
-0.090403974 -0.151984 0.13604388
-0.043447368 0.049493257 0.1109215
-0.088371865 0.04912819 0.021975247
-0.14225465 -0.15201275 0.0062617543
0.08600848 0.08438627 -0.0754458
-0.07167813 0.1009828 0.053458333
-0.11285006 -0.18280095 0.09710698
0.09002418 0.0051229284 0.009542507
0.114889905 -0.10816505 0.12726738
0.20365617 -0.1172152 -0.0273493
-0.06479057 -0.06522847 0.19064023
-0.04268802 -0.16874075 0.15991986
-0.20958042 -0.05587888 0.06952146
-0.13020012 -0.11575706 0.12952255
-0.14336929 -0.0299173 0.1311027
0.0106606595 -0.15466635 0.19457299
0.06470218 0.21430193 -0.2669369
-0.048993353 0.20377384 -0.20882957
-0.05272334 -0.11012918 0.17184605
-0.21381795 -0.1276988 0.09955528
-0.01853035 -0.08927619 0.1564065
0.120312914 -0.08968132 0.14390145
-0.05881739 -0.06424071 0.1502434
-0.048291467 -0.10983226 0.15708728
0.011562514 -0.21572359 0.041032024
-0.023503372 0.07637678 -0.10470891
-0.11608933 0.036366947 0.02194923
0.10066857 0.08460532 -0.1348875
0.020617684 0.16710004 -0.24768333
-0.039547026 0.15027902 -0.19286956
0.16567843 0.18812324 -0.32395816
0.2005475 0.17578834 -0.3407517
0.07581919 0.023617148 0.05459982
-0.07231062 -0.12269598 0.19189982
0.16583276 -0.01717516 0.07061296
-0.2120179 0.11014106 -0.101786315
0.13856232 -0.17624316 0.013052178
-0.25515145 -0.05394113 -0.016050968
0.12432671 -0.10664375 0.12072867
-0.09692488 0.09456116 0.045618933
0.025872776 -0.045828257 0.11029692
-0.0087107755 0.028752746 0.094187185
-0.108545795 0.06326887 0.03090689
-0.00990094 0.038763028 0.082166225
0.035732716 -0.026289659 0.027665498
-0.082015865 0.07825895 -0.047323443
-0.07990786 -0.17785904 0.17293543
-0.014708506 0.054984372 0.067303285
0.11709679 -0.114192165 0.15317248
-0.038759835 -0.08042866 0.16261992
0.08249685 0.092422776 -0.03183789
0.12873994 -0.15672408 0.092710555
0.07820478 0.22851987 -0.34666893
-0.23993222 -0.041034758 0.07485308
0.104728684 0.34741038 -0.39103726
0.16094285 -0.13130327 0.105252005
-0.16705354 -0.12966931 0.08729545
-0.083545364 -0.13591155 0.13582085
-0.15155387 -0.09514725 0.16665594
-0.1738846 0.058067385 -0.0012015199
-0.029816153 0.0600816 0.062724195
0.051537264 0.0589559 0.12090979
-0.014336792 0.22307496 -0.30450565
0.15844718 -0.004909701 0.013988976
0.23890881 -0.015188371 -0.028842518
0.05774076 0.14347762 -0.06199241
0.10192299 0.10453345 -0.12479764
0.1867414 -0.11858023 0.056363672
-0.034967087 0.086403176 -0.1007816
-0.15097369 0.037225116 0.035962928
-0.12003725 0.06354288 -0.054694124
-0.1479242 0.06070777 -0.04730965
0.14657512 0.12494834 -0.3569475
-0.10922608 0.123183265 -0.14804026
0.011424565 -0.16822428 0.16326341
-0.102065295 -0.13351315 0.14509861
-0.09659183 0.02612584 -0.0030690527
-0.16978475 -0.0018939932 0.070962265
0.15749247 0.06383307 -0.16416024
0.08533974 0.020116428 -0.122762315
-0.23619254 -0.09682271 0.0084939
0.08906936 0.095001735 -0.002157497
0.06641759 0.24902359 -0.30287144
-0.14596325 0.09272949 -0.09025162
0.14923757 0.036849186 -0.0005356279
0.038427796 0.18228625 -0.43994418
-0.17378406 0.051527478 0.0638092
0.21167715 -0.021107743 0.023722857
-0.0032739216 0.15412779 -0.171036
0.012441386 -0.124486156 0.15359077
0.151353 0.23804778 -0.2956071
0.18122974 -0.057296235 0.029847017
0.23407468 -0.082261026 -0.07682705
0.13780086 0.014572734 0.0057121576
0.00888462 -0.21167439 0.13545956
0.09742024 0.2503659 -0.28546062
-0.09727942 0.111509286 0.034504976
-0.1316832 -0.062477045 0.13458154
0.07079204 0.049277507 -0.09574861
-0.029615775 -0.11798978 0.16332126
0.055473503 -0.08055034 0.134736
0.20406382 0.10029592 -0.34193695
-0.19357264 -0.0049965926 0.11346653
-0.031117612 0.05473896 0.08135264
0.055903193 0.050987992 0.033542044
0.017746253 -0.047772236 0.07896114
0.13093027 -0.05440397 0.065759234
0.1665934 -0.02238665 0.046926297
-0.03073369 0.094349414 -0.073276825
0.17752995 -0.15477379 0.031586103
0.11727837 0.09428213 -0.14225902
-0.07263125 0.12717605 -0.0034962667
-0.12595434 -0.09535006 0.15460718
-0.16440663 -0.045238294 0.12864678
-0.018295964 0.052936774 0.0835227
0.1338502 0.053506818 -0.06984497
-0.06683903 0.09620982 0.07190002
-0.20802529 0.11861508 -0.1082304
0.19253574 -0.11435998 -0.0063928165
0.06962763 0.2594903 -0.33289665
0.17775828 0.18507236 -0.28488874
-0.027413731 0.02449128 0.07576427
0.0517151 0.12921469 -0.011283758
-0.11597776 0.06263279 0.0014737116
0.1270502 0.029848242 -0.4028976
-0.097187266 0.072323106 0.02016336
0.05888563 0.081696056 -0.10169034
-0.047947887 -0.014203059 0.06482046
0.21136792 0.003082797 -0.0031372248
0.13161525 -0.14995915 0.13901144
0.027731014 0.32332328 -0.3678612
0.1463023 0.30027187 -0.33207437
0.029780412 0.25756484 -0.4345083
-0.012093553 0.02810286 -0.13136029
0.18028904 -0.039280836 0.0075049843
0.021563666 0.15377793 -0.19230002
-0.22973543 0.07042118 -0.067858085
-0.13767205 -0.14941125 0.06995184
0.117044576 0.043017406 -0.40955618
0.024220575 0.15918934 -0.043516368
0.03134732 0.25453892 -0.4289633
-0.28598145 0.03371681 -0.07319093
-0.13027588 -0.106671296 0.13644877
0.13979447 0.2165403 -0.2987076
0.047873735 0.124746986 -0.02357908
-0.24945956 0.029725386 -0.004595254
0.08232724 -0.1827588 -0.022783864
-0.16334835 -0.007864161 0.07025249
-0.0725482 -0.10490018 0.15448448
-0.10662362 -0.072241805 0.17893238
-0.1401346 -0.17652194 0.08135586
-0.26158252 0.029919745 -0.048040874
-0.131025 -0.15736605 0.14393954
0.14723203 -0.075929515 0.09344878
-0.23491457 0.01451841 -0.13940941
-0.02677841 0.00932448 0.0787082
-0.12144241 -0.18066141 0.007409975
0.18928507 -0.020521853 0.004036852
-0.1814841 -0.15921766 0.06689106
0.1038756 0.105596274 -0.02669463
-0.25426158 0.047534622 -0.026238617
-0.07453239 -0.043213774 0.09015263
-0.11026931 -0.06599794 0.14878292
0.18428259 0.11504523 -0.31639972
-0.09161784 -0.092082724 0.18609339
0.1470495 0.027385911 -0.025153544
0.074559994 -0.029542394 0.10869005
-0.06089311 0.12599851 -0.074302875
-0.2470926 0.014840628 0.019799126
-0.04849418 0.12812734 -0.013404807
0.02194093 -0.026092032 0.09197863
0.13049151 0.025887923 -0.40743428
0.17999728 -0.12623072 0.06040384
0.005672862 -0.17381847 0.15675081
0.1850151 -0.064121164 0.08016445
-0.18115063 0.047585055 0.027805807
-0.10942119 0.037209466 -0.031324256
0.15977521 -0.10509234 0.084544055
0.11465999 0.22112086 -0.2818398
0.08893071 -0.021361094 0.023043364
-0.007007161 0.029624877 0.054395854
0.075257435 -0.012623477 -0.011954543
0.030949868 0.15202887 -0.21768372
0.09699704 0.10099623 -0.12114884
-0.2249596 -0.016957514 0.08488601
0.13992818 -0.088330165 0.092846915
-0.020876128 -0.17933893 0.17257096
-0.12155037 -0.12737139 0.14784314
0.047544826 0.072965175 0.079367794
0.062042918 0.15281615 -0.17672057
-0.15591286 -0.064801656 0.1286254
-0.03289225 -0.10620789 0.16904697
-0.024810307 -0.15159269 0.16477522
0.13081244 -0.047677472 0.059793483
0.016625261 -0.14803477 0.18231916
0.0419104 -0.14415929 0.16089375
0.062367458 0.18164554 -0.24860632
0.13911738 -0.071173236 0.12561105
-0.07436601 0.07288883 0.0024543214
-0.03862176 -0.16429734 0.13909452
0.0932177 -0.11315818 0.17558965
-0.17399034 -0.097844355 0.12082364
0.13325216 0.0516798 -0.38593853
-0.036749933 -0.14565293 0.14698751
0.14643355 0.27844685 -0.2951581
-0.010234523 0.023640394 0.10980895
0.04674066 -0.05332173 0.14521657
-0.05577643 -0.08915139 0.16658609
-0.119801685 -0.13835977 0.13719432
0.0327497 0.16335775 -0.25645468
0.10248727 0.037708852 0.014356736
0.07526328 -0.1154343 0.16948025
-0.09478777 0.14181186 -0.15821251
-0.22031257 0.066538095 0.005515596
-0.17301075 0.058723915 -0.030592429
-0.26841056 -0.03198675 0.0002447629
0.08436093 -0.1761965 0.019778492
0.12299732 -0.1718711 0.09521067
0.102306455 0.19400917 -0.23223871
0.07237396 0.2897186 -0.40636444
-0.0740639 0.18710946 -0.24866143
0.09322314 -0.17493285 0.10282815
0.1869382 0.04858805 -0.091677755
0.026567334 0.22256726 -0.31506994
-0.16026145 -0.06487216 0.12884517
-0.09459374 -0.12167871 0.17981206
0.059806153 -0.1853586 0.14936136
-0.08182226 -0.15072784 0.17012624
-0.125058 -0.17891544 0.1249471
0.0122276265 0.021417683 0.08009593
-0.029920593 -0.098322615 0.18063891
-0.012681444 0.07827099 0.112708695
0.12250082 0.17201824 -0.2980694
0.04897914 -0.06690394 0.10572763
0.22972485 -0.04302778 -0.024532441
0.04783078 0.106629916 -0.009058286
0.2390338 -0.01572341 -0.07673503
0.09470855 0.023308376 0.0003983627
-0.024715932 0.016891737 0.080617465
0.04376978 0.04205021 0.08623139
0.14560619 0.24963626 -0.32349184
-0.16394185 0.003183924 0.12599717
0.15592553 0.066012256 -0.079622954
-0.1363101 -0.056297097 0.124237224
0.1402862 -0.035293434 0.07913128
0.18027492 0.056957282 -0.3506219
-0.16443151 0.00059503154 0.052027717
-0.058280945 -0.11728412 0.18223032
-0.18684639 -0.12465848 0.08324727
-0.14822784 -0.09255689 0.121273704
-0.23912719 0.042159893 0.057988618
-0.24064529 -0.070882484 0.10240806
-0.018412549 0.18093401 -0.20481747
-0.00591664 -0.004358704 0.062706605
0.19212486 0.12690076 -0.32113335
0.09105209 0.053595867 -0.11455584
0.021232137 0.014869358 0.07054525
-0.056195308 -0.15750322 0.16027874
-0.2897748 0.026098397 -0.014791977
-0.11373224 0.030595155 0.061173536
0.15771389 0.0033917457 0.0440952
-0.07491299 -0.010892012 0.025629649
0.16412623 -0.0136281615 0.019504404
-0.02752378 -0.028810034 0.12120837
0.16602318 0.11650422 -0.34198895
0.16347022 0.26914415 -0.32905447
0.026592605 0.00578802 0.06628158
-0.14368586 -0.18523356 0.1074449
-0.13758181 -0.07514995 0.16300745
-0.19285429 0.062124945 0.020448385
-0.18163648 -0.07708282 0.12665704
-0.034196664 -0.0054546082 0.060703944
0.11399913 0.08062882 -0.2675738
0.02257166 0.0011767932 0.06982582
-0.105870605 -0.010480445 0.075680524
0.18624705 -0.045359913 0.039829455
-0.06395083 -0.07889562 0.18552317
-0.035918336 -0.037704445 0.16054583
0.07096281 0.06469401 -0.11373002
0.01607904 0.20672797 -0.37380335
0.12846889 0.04305734 -0.05694807
0.08852413 0.044869993 -0.010751836
0.04708726 -0.09371143 0.13332438
0.04008313 0.0013743072 0.08003862
-0.09697966 0.13664827 -0.09815667
-0.04481603 0.119192086 -0.025921762
0.23828778 0.016586192 -0.073428065
0.060547657 -0.15296759 0.16180086
0.10077347 0.17157485 -0.26837596
0.038447905 -0.044517513 0.027469361
0.038250305 0.23943307 -0.29962
0.07188556 0.076486 -0.072691634
0.018836103 -0.18166631 0.15710801
-0.1931715 -0.0051503005 0.10190833
-0.23169313 0.03425895 0.037666567
-0.05668526 -0.042597946 0.16110913
-0.17981672 0.06531032 0.0023095764
0.020140061 0.13059525 -0.16807336
-0.021643998 0.043621033 0.097044215
0.19249244 -0.07062002 0.057874683
0.099049255 0.081109405 -0.0116658015
0.039890956 -0.09666563 0.13869178
0.22794233 0.0051914114 -0.10311342
-0.1799172 -0.010792483 0.08012882
0.17820911 0.21824478 -0.31467983
0.036130678 -0.16122888 0.1476401
0.16651896 0.16923617 -0.3310624
-0.23059739 0.09305613 -0.03471409
-0.15487154 -0.12622304 0.11984277
0.047525693 -0.100681886 0.14846537
0.093674645 0.13302182 0.00078147784
-0.051030047 0.06339241 -0.076886855
0.030193377 -0.029382786 0.099231794
0.09325198 0.103422806 -0.30269593
-0.19122079 -0.047783256 0.10217702
-0.25097707 0.07956701 -0.049518604
-0.044107392 -0.120154426 0.17518462
-0.17911623 0.09859342 -0.09876423
-0.12481006 0.053917527 0.012116889
0.0041521164 0.07048987 0.104152724
-0.1396131 -0.0704764 0.13888946
-0.0013767539 -0.1467963 0.17158316
0.15529232 -0.027782835 0.02571161
-0.056300443 -0.09148606 0.1595761
-0.07608458 -0.06300147 0.18070897
-0.2289212 0.09619549 -0.025854036
-0.024583893 0.111226246 -0.049872212
0.08481118 -0.11091485 0.13066955
-0.17944811 0.073048495 -0.012039013
-0.27198353 0.062174637 -0.007100736
-0.189866 -0.12740608 0.13867323
0.1990078 -0.06800056 0.034482017
0.094763204 -0.14572546 0.14652319
-0.12843919 -0.15262717 0.16560043
0.00065980916 0.18948708 -0.26577935
-0.0015379642 -0.03880612 0.07050687
0.24575803 -0.08645146 -0.048811577
0.20246623 0.21617039 -0.28488064
0.13963684 0.24500792 -0.28553236
-0.012942266 -0.06636725 0.12865393
-0.017809698 -0.16446987 0.14382625
-0.14382648 -0.14742044 0.1286912
0.045531407 -0.07008006 0.10095293
-0.057253644 0.05061181 0.057670165
0.08270699 0.2774081 -0.3504187
0.10511371 0.22325356 -0.29744488
0.08335384 -0.083340704 0.15731655
0.17171769 0.032751493 -0.04443815
-0.20940769 -0.042423617 0.06343443
0.24693435 -0.0111872535 -0.09101089
-0.20694906 -0.00048637248 0.05894083
0.087610364 0.13775206 -0.2347905
0.12242984 -0.11919183 0.1263293
-0.14368838 -0.13315241 0.1357907
0.14699243 -0.04409937 0.038373798
-0.09277053 0.07359037 -0.119155414
-0.21471716 0.00960595 0.11414596
-0.19407608 0.1372648 -0.10931825
0.00020038088 -0.15350527 0.18502311
-0.033519242 0.12708573 -0.13349466
0.13285306 -0.15027034 0.085300796
0.16869316 -0.14026392 0.10354882
0.1057906 0.06662665 -0.46814838
-0.056109 -0.18718861 0.053338327
-0.122210875 0.16724549 -0.1759391
0.11621883 0.06999891 -0.07670218
-0.029219838 -0.014997896 0.058507644
0.04040982 0.042257823 0.05917399
0.11599597 -0.20309134 0.020810604
-0.01738312 -0.17673047 0.11937238
-0.053390842 0.04956734 0.03767422
-0.0133272195 -0.21584208 0.03215584
-0.013313551 -0.049656488 0.13258412
-0.0018351113 0.021744408 0.07628422
0.10528567 0.08285442 0.07369698
-0.042736985 -0.10965613 0.19541444
-0.20961422 0.10778072 -0.087505095
-0.026718445 0.112369664 -0.08013009
0.12101526 0.098225616 -0.18583795
0.055289723 0.12202275 -0.13522208
-0.15709825 -0.011868817 0.12641469
0.092985176 -0.098248884 0.15571773
-0.12978984 -0.1416841 0.13228193
-0.19035803 0.081204385 -0.025534498
0.1373948 -0.018002039 -0.003977662
-0.111388505 0.01269923 0.0553464
0.18335 -0.16987513 0.06795466
0.22086501 -0.06042101 -0.030800182
-0.17152715 -0.024771867 0.09605176
-0.013525987 0.07473732 0.09215492
0.09104736 -0.11721611 0.12428106
-0.14014195 -0.016668499 0.14182644
0.10464487 0.1042267 -0.31897596
0.09669543 0.12757455 -0.2995466
0.17097248 -0.09209316 0.06792617
-0.013573457 0.055322185 0.07278289
0.0867056 0.06578407 0.029969713
0.1371817 -0.12046809 0.13067555
-0.02037379 -0.17584433 0.06750811
0.022146253 0.047164574 0.09053355
-0.15885589 -0.16207834 0.100009836
0.039225895 -0.1543817 0.17118517
-0.23854758 -0.030463181 0.08296356
-0.18179011 0.040876742 0.009021149
-0.26988897 -0.08674596 0.03967755
0.13796246 -0.059437253 0.11472924
0.02418238 -0.041504472 0.11214298
0.06485125 0.07156657 -0.121537544
0.12556203 0.08807154 -0.13909219
0.13299903 0.16377433 -0.2912927
-0.20521446 0.038897377 0.0017949503
0.018486353 -0.12544148 0.1407204
-0.112281226 -0.1173266 0.13094042
-0.23234932 0.0040458324 0.05136905
-0.03871599 -0.029656114 0.14501111
-0.13194369 -0.17489104 0.115991585
0.13490207 0.17981389 -0.26752242
0.1433791 -0.037902363 0.073432125
-0.09746864 -0.14713524 0.1473371
0.14110413 -0.1089161 0.103264615
-0.0884281 -0.12466361 0.16707148
0.07248668 0.020567914 0.05542014
0.12270597 -0.1787657 0.07100681
0.02372541 -0.20660073 0.08550747
-0.09225898 -0.15528546 0.13733384
0.078224696 0.040137447 -0.02592614
0.21292306 0.002271511 -0.07707461
0.033497825 0.049588732 0.08556148
-0.111008935 -0.17077991 0.14623491
-0.13015154 -0.11895562 0.14441805
0.083348796 -0.09519671 0.16229181
0.12281369 0.004814787 0.007925816
-0.099353746 -0.011530933 0.05944883
0.1945525 -0.048345488 0.055350587
-0.22143193 0.04779655 -0.03613334
0.07868363 -0.03964598 0.10131726
-0.03981902 0.11978826 -0.040785722
0.10415173 0.04339417 0.052568786
0.002494363 -0.029525813 0.046836764
0.088397376 0.040288903 0.036174636
0.09610529 0.29922605 -0.35851622
0.20180856 0.011550679 -0.072533816
0.14616624 0.24755402 -0.32088727
-0.19388288 -0.1452993 -0.023070006
0.12741193 0.21432708 -0.28740385
0.11280939 -0.020425456 0.009332966
0.058956064 -0.14680766 0.15566611
0.04353507 0.025043933 0.094164275
-0.12898178 0.034941822 0.012451212
-0.058737423 0.058972225 -0.07210273
-0.020632723 0.11848498 -0.15111089
0.10073553 0.22352579 -0.31153467
0.14688137 0.027971081 -0.41202158
-0.19341797 -0.052141465 0.13274793
0.14175159 0.07011226 -0.14759167
-0.21817954 0.101566784 -0.06407262
-0.1054703 -0.11360827 0.1755945
-0.08347597 -0.012465437 0.09952303
0.04763825 0.15950836 -0.21162754
-0.071662 0.13505071 -0.19956276
0.17813237 0.18703601 -0.30737677
-0.17175405 0.12547016 -0.06347135
-0.19961327 0.013306664 0.0950269
-0.0018740091 -0.12728707 0.18062758
-0.13730626 -0.1467786 0.005371271
0.03703852 -0.123074606 0.19096296
-0.088155404 -0.015330759 0.100289054
-0.103861526 0.03625138 0.04398049
-0.16191298 -0.0861707 0.13371743
0.14345318 0.035838474 -0.44019988
-0.043451935 -0.16924001 0.14588387
-0.09268868 0.046338852 -0.10466866
-0.25213805 -0.029745031 0.020490984
0.19093426 0.106831245 -0.37527296
0.04833513 0.13165043 -0.07014185
-0.22097732 -0.03573532 0.09868977
-0.09329828 0.10187207 -0.002213606
-0.07022019 0.06946045 0.04498323
0.16033718 -0.045633256 0.10578653
0.15033543 0.2681848 -0.3034384
0.049155958 -0.109431334 0.17992474
0.09697522 0.3196677 -0.3538578
-0.12885143 -0.043836925 0.1234606
0.1408595 -0.14020056 0.122784816
-0.1541186 -0.05822911 0.15036064
-0.21190499 0.11057676 -0.06832723
-0.016553601 -0.14005664 0.17173262
0.14197968 0.07699171 -0.1285898
-0.084546365 -0.15522364 0.1526237
0.025397139 -0.15968941 0.1505219
-0.0905006 -0.07399535 0.14738056
-0.17840534 -0.17433788 0.059597883
0.09467971 0.20530957 -0.26447895
0.015691051 0.04461382 0.100658186
-0.022788806 -0.033663373 0.12218818
0.12997131 0.030895 -0.06119139
0.20251985 -0.070643276 0.019376552
0.07630244 0.0909163 0.010134678
0.122287504 -0.17279398 0.05936035
0.15491553 0.20535545 -0.27320114
0.11599651 0.08268732 -0.0032031017
0.22953503 -0.1611588 -0.005067974
0.10943996 -0.044758834 0.11327888
0.20723182 -0.0670518 0.0149311405
0.02539505 -0.0029601865 0.086041726
0.13367417 -0.17195906 0.07656886
-0.1097845 0.17142601 -0.24728817
-0.27934062 -0.0031901202 0.01033231
-0.07199885 -0.043628544 0.12770887
0.12936841 0.030297214 -0.4270878
0.14677121 -0.07499396 0.11237592
-0.24256882 -0.05990396 0.076330595
0.15640482 -0.18510705 0.034596223
-0.22283876 0.01973232 0.035794582
-0.23098977 0.021156989 0.06881827
-0.044408944 -0.113063 0.16413851
0.081917524 -0.16383152 0.17230898
-0.15979387 -0.031653784 0.12631032
0.10029643 -0.10230446 0.1607852
-0.09329638 -0.067797214 0.14299925
0.041792814 0.06493069 0.08270036
0.18745688 -0.056464773 0.100495204
0.005087886 0.16562417 -0.26002863
0.04265966 0.03661611 0.09466966
-0.20311731 0.09721627 -0.087724835
-0.07672352 0.12041754 -0.0011270312
-0.13154471 -0.0395323 0.13290499
0.2245343 0.017028032 -0.10745751
0.1190633 0.14964214 -0.27922806
-0.15490945 -0.016662806 0.12519497
0.07623587 0.067782596 -0.4405957
-0.020881528 0.033857383 0.08621549
0.008154518 0.040243752 0.087261274
0.030905055 0.1596682 -0.25687754
-0.18408298 -0.08245511 0.122014545
-0.054930102 0.05173361 0.080600984
0.15040335 -0.025194924 0.045265075
0.015492756 0.19213048 -0.21743855
-0.1054447 -0.060281754 0.17460006
-0.15180118 -0.13566919 0.000335552
0.16794883 -0.15418486 0.080319144
0.13739438 -0.13613792 0.12636651
0.15098676 0.012445211 -0.012255883
-0.27790818 0.009721056 -0.018483313
-0.010019511 -0.11795306 0.18287018
-0.21590501 0.103957795 -0.069456585
-0.020782897 0.17177737 -0.21899743
-0.13069864 -0.08862788 0.1314589
0.15543497 0.00083582086 -0.41802835
0.10163198 0.2529054 -0.31827286
0.040825725 0.15932041 -0.24740238
-0.08374245 -0.01553078 -0.19449952
0.018320346 -0.20406067 0.074381925
-0.117532425 0.029532583 0.07294556
-0.026857221 -0.10729553 0.17408715
-0.016770203 0.14168297 -0.02020173
-0.23665108 -0.1199673 0.07540514
0.14962265 0.014094651 -0.42527068
0.0068985866 0.028015936 0.058859326
0.10988991 -0.08067337 0.1257376
-0.194371 0.07693331 0.016640633
0.2504608 -0.022949457 -0.013879745
-0.056011453 0.006447523 0.065901846
0.02224696 0.009051544 0.034632985
0.16390443 0.24248563 -0.31437248
0.1023233 -0.13818824 0.14181744
-0.24690825 0.025987996 0.005034707
-0.015415661 -0.00044604175 0.096354604
0.015466312 -0.0074115335 0.06504974
0.057386708 -0.16633601 0.17134486
-0.014981554 -0.16620812 0.117941365
-0.08549517 0.18545456 -0.21255895
0.15408674 -0.0578551 0.10213976
-0.08517819 -0.16867422 0.12922776
0.06987893 0.13399139 -0.050101478
0.07974434 0.07881645 -0.024224196
0.10952719 0.18185918 -0.24625205
-0.061123554 -0.004736575 0.07650786
-0.056528397 -0.13489112 0.15992287
0.20807663 -0.022345688 -0.0027733704
-0.16984855 0.01933107 0.06673346
0.112381 -0.1528398 0.112615064
0.08151517 -0.13332252 0.15500703
-0.06615706 -0.13824798 0.14449102
0.1057309 0.18390785 -0.24816053
0.070890084 0.081160896 0.01912501
0.20147519 0.23909767 -0.29275563
0.18180194 -0.09778843 0.09073274
0.13565317 0.16190937 -0.27943036
0.019486958 0.00601426 0.103968546
0.10709175 -0.18869215 0.1373714
-0.09482839 -0.07493169 0.12925658
-0.0032050093 -0.104505606 0.14563237
0.11054965 0.1333656 -0.23958088
-0.14666843 0.15535262 -0.11649642
0.24610312 -0.012166849 -0.028162923
-0.2582074 0.015848355 0.0014631869
-0.0904006 0.0155741405 0.086314276
0.017983183 -0.095019124 0.14833118
-0.09125711 -0.19507332 0.11510473
-0.08058146 0.027290441 -0.026457634
-0.08415014 0.0460323 -0.04980627
0.17854917 -0.0449393 0.029690001
-0.0063159587 0.12770441 -0.069687426
0.14592007 0.12437179 -0.3459083
0.103437714 -0.16807267 0.135118
0.11528432 0.043649383 -0.3588683
-0.15786932 0.061651044 -0.01844679
0.04722137 -0.1898152 -0.001278965
-0.13397872 -0.10692829 0.16662472
0.031227529 -0.11211651 0.16470754
0.036518544 -0.11200462 0.1445656
-0.13800037 0.022644907 0.056093432
-0.04398773 -0.0035021377 0.048909724
0.13909352 -0.19311656 0.06107749
-0.08175183 0.15285534 -0.16651908
-0.014802558 0.18385552 -0.283046
0.17300086 0.15303245 -0.30361158
0.0027383978 -0.012303038 0.08879142
-0.0796114 0.13386361 0.023779368
-0.2619862 0.0071592713 -0.12494332
0.08829953 -0.16734111 -0.0063787275
0.097115114 0.18693301 -0.23892817
-0.16282992 0.0064943186 0.039960984
-0.17557961 -0.06653372 0.12674378
-0.11586117 -0.055941492 0.14727639
-0.022498984 0.15035976 -0.2067451
0.07850627 -0.116645366 0.13788028
-0.09293391 -0.06185058 0.17080037
0.09122341 0.07146355 -0.48835173
-0.0037374073 0.060579382 -0.078755334
0.10732642 0.2138885 -0.24654143
0.048695896 -0.17735103 0.12571876
0.038123596 0.07619933 -0.06891381
-0.18577991 0.13525176 -0.08634819
0.029340655 -0.02102384 0.03824682
0.16412134 -0.024552664 0.042102218
-0.25915948 0.042773817 0.020346453
0.21972637 -0.09423353 -0.034479026
0.0010558103 -0.13954102 0.17497323
-0.22313823 0.021339111 0.06775781
-0.10465601 -0.15094969 0.14819077
-0.054826993 0.16417909 -0.055223178
-0.20810576 0.107399665 -0.122585185
0.054492407 -0.08265458 0.17537281
0.026039543 0.019692607 0.0787684
0.039436873 -0.08198759 0.16293883
-0.16209851 -0.07603232 0.14835274
-0.08360143 -0.12710948 0.19337335
-0.03728531 -0.08994189 0.15790693
0.10562372 -0.06734046 0.08159311
0.13488841 0.00041875103 0.008684666
0.072994046 0.1347598 -0.042292256
-0.022844134 0.005777615 0.04752751
0.10632401 0.09587662 -0.13633972
-0.23108444 -0.066190556 0.04541424
0.043315437 -0.14046377 0.18058948
0.123734005 -0.18025924 0.1095924
0.16525646 -0.16413285 0.09964071
0.0559372 0.17272837 -0.2508244
-0.093189955 0.061647117 -0.027694589
0.17926766 -0.15582871 0.016991299
-0.25029674 0.05291076 -0.11394877
0.08493542 -0.19831336 0.07863153
-0.03791138 -0.08613174 0.18403965
-0.029897192 0.14416493 -0.033245426
0.18773477 -0.101915896 0.10488209
0.143883 -0.048397142 0.06486272
-0.10137516 0.13526082 -0.14956099
0.07707753 0.16213198 -0.24156336
-0.048860636 0.05563242 0.06475213
0.09752248 0.09151494 -0.004933519
-0.103827834 -0.05891675 0.11911809
0.08435473 -0.0560646 0.06468798
0.13915673 -0.0029592065 0.010815555
-0.21365424 0.122014984 -0.10268897
-0.26967213 -0.034920197 0.065658405
-0.2066975 0.060388565 -0.01583501
0.07522775 -0.04476279 0.12824231
0.10185824 -0.039004747 0.072480686
-0.0592737 -0.08176968 0.17095512
-0.09145395 -0.15395299 0.1781281
0.077796526 -0.068144925 0.12193079
0.05687244 -0.031799246 0.07861143
0.04661584 0.06916473 0.08212541
0.012298701 0.08810198 -0.05981697
0.12417847 -0.015050536 0.06352249
0.08059253 0.09467244 -0.13887562
0.16882066 -0.13392241 0.12136203
-0.13812533 -0.015563076 0.10875527
0.10142606 -0.16916336 0.09379025
-0.22787328 0.026493132 0.060193457
0.21285968 -0.11340275 0.02724822
-0.20024854 -0.014013471 0.061236028
0.07723335 -0.05451163 0.10271588
0.07298919 0.024144525 0.039037947
-0.041722078 0.010445464 0.07560426
-0.074024834 0.09746055 0.08680901
0.019805837 -0.059329126 0.080818705
-0.23258588 0.12447067 -0.050625958
0.112170495 0.20056403 -0.2789916
-0.080295846 0.035727646 -0.12271304
-0.1932582 -0.08047312 0.113592856
-0.13901398 -0.16654605 0.11326972
0.18996795 -0.014969335 -0.010615276
0.1218339 0.055169012 -0.09881562
0.04582009 -0.0790472 0.13077746
-0.094822586 -0.057404216 0.14845566
-0.11025598 -0.03307076 0.1586052
-0.00047818437 -0.056246042 0.13743636
-0.11903176 0.08784385 -0.09090255
-0.038907275 0.0031511292 0.100052446
-0.15396953 -0.17264234 0.11671189
0.1711394 0.15235798 -0.30450353
0.02370412 0.18060622 -0.2369621
-0.019907491 -0.091255486 0.16249362
-0.030800657 -0.08654775 0.15153761
-0.0069476613 0.17578493 -0.22821216
-0.17128152 0.019261913 0.018030914
0.1796917 -0.10012574 0.0931711
0.009655 -0.08247758 0.13538006
-0.21551979 0.1129672 -0.116558485
-0.24594244 -0.015940031 0.038354073
-0.11666624 -0.13039732 0.16780333
-0.15191548 0.14005513 -0.16683851
-0.14872018 0.060969297 -0.021860655
0.07933898 -0.01900887 0.080880515
0.1095042 -0.15338084 0.1401009
-0.10345611 0.14888446 -0.12210854
-0.07088793 -0.030284347 0.10845629
0.11451918 0.06377136 -0.074757576
-0.13697888 0.017489657 0.05114517
0.2046698 -0.04959514 0.04775712
-0.029780451 -0.19126032 0.10627652
-0.24128184 0.09019506 0.004431929
-0.08387006 0.06926671 0.064639874
-0.0067986622 0.05134634 0.089119814
0.021004437 -0.13996588 0.17080906
-0.0840666 0.11586835 0.05514365
-0.22336334 0.0020080565 0.055579286
0.22384425 -0.03328844 -0.12163976
0.15593143 0.039459657 -0.06555674
0.05770237 0.05488891 0.07983604
-0.08089356 -0.18892263 0.0920113
0.013624462 -0.17798975 0.14647947
0.1710806 0.21117705 -0.2748892
0.03016807 -0.06728563 0.11077009
-0.26333612 -0.051940322 0.0200161
0.17732196 -0.15416814 0.022342332
0.0024611803 0.04375067 0.120963484
-0.22373365 -0.041297194 0.076806456
0.07296922 -0.014241971 0.040101256
0.06598852 -0.20738593 0.13135752
0.17630762 0.015883202 -0.07607603
-0.22731197 0.0749645 -0.06778567
-0.18387744 0.0819558 -0.02907745
-0.153037 0.1153899 -0.095986545
-0.1213989 0.15857759 -0.20123695
-0.10699935 0.11353409 -0.13186939
0.19719718 -0.15156512 0.016920913
-0.04286289 0.1513286 -0.15491028
-0.25308886 -0.057228938 0.021466237
-0.024540855 0.03388628 0.089488365
0.20083368 0.025384128 -0.040030625
-0.0389142 0.04086853 -0.10358854
-0.12484282 -0.07189908 0.15121865
0.072694495 0.23467259 -0.26885507
0.14110288 0.010662649 -0.019639766
-0.011654874 -0.084276415 0.17124744
-0.15700455 0.08015378 0.010563528
-0.05856669 -0.043526217 0.08826084
0.047545727 0.22655497 -0.29641798
0.06913694 -0.15009694 0.12311803
-0.02226667 -0.11344004 0.19192073
0.021686208 0.009215546 0.077439725
0.09298701 0.034428813 -0.39034536
-0.122238755 -0.091061115 0.1416215
0.2093521 -0.100719 0.004237351
0.044079017 0.032406356 0.08573108
-0.011830738 0.0677101 0.08812184
-0.018026602 -0.14980458 0.18705402
-0.138323 -0.03194351 0.1308255
-0.261317 -0.111387834 0.043883834
0.00897358 -0.21057218 0.14596811
-0.13094676 -0.15928227 0.11389307
-0.09248641 -0.0023249493 -0.014332039
-0.16263142 0.09553353 -0.046412274
-0.18332806 -0.12769738 -0.0074787014
-0.016731247 0.034419622 0.10906457
-0.17066441 -0.059403833 0.13051683
0.1896648 0.09733284 -0.39919612
-0.17543396 0.031466566 0.013659979
-0.091515414 0.07031747 -0.024181483
-0.061545514 -0.094862774 0.17383142
0.027348056 0.08314271 -0.053645592
0.036511812 -0.16047686 0.17147015
-0.15356061 0.00861671 0.10086317
0.04924623 0.24392663 -0.36469135
-0.24153705 0.017427623 0.037240844
-0.114154026 -0.004695501 0.047078565
0.07871297 -0.09328905 0.16448782
-0.29484802 0.011241531 -0.07990286
0.16883117 0.111911364 -0.33915797
-0.14233804 0.046404023 -0.00026134038
0.0847719 -0.08346937 0.12991175
-0.15861748 0.03530097 0.028767016
0.10576114 0.23874123 -0.3088619
-0.034612212 0.02775948 0.09445433
0.1357665 0.05236249 -0.11050454
0.11338891 -0.09615338 0.15021543
-0.103228316 -0.17152844 0.109969124
0.06901913 0.03609965 0.06485795
0.004347192 -0.04522254 0.054346275
0.077503435 -0.20417203 0.10743921
0.100535184 0.3128816 -0.36250913
0.13240108 0.25817302 -0.31825837
-0.06905544 -0.02931193 0.11776113
0.049431767 -0.0734795 0.16068888
0.09555695 0.18117175 -0.25419235
-0.025194526 -0.08998725 0.16315429
0.045108385 -0.113407135 0.17004375
0.18320866 -0.00859515 0.01995347
0.094097435 -0.1523455 0.119046964
0.09806391 -0.04264795 0.050475314
0.17683661 0.024738695 -0.063979805
0.11184037 -0.078981906 0.093153305
0.0942577 -0.09292154 0.13152282
0.11292323 0.008671661 0.013349335
0.07639405 0.31992656 -0.35809064
0.19744618 0.15518706 -0.33460644
-0.19940501 -0.090766475 0.089575574
0.101658165 0.06512398 -0.13405848
-0.0659317 0.10403372 -0.03630982
0.14410573 -0.06321973 0.09442121
0.13015138 0.10584003 -0.167611
0.08505662 0.069594145 0.031529047
-0.12268749 -0.19726965 0.012601536
0.12309256 0.05789345 -0.35980508
0.0615852 -0.01681845 0.06061637
-0.22523 0.05869509 0.033896755
0.05495647 0.035282247 0.10249463
-0.21506462 -0.08582487 0.10334751
0.15618657 -0.15590687 0.08110456
0.17986013 0.22043999 -0.2757484
-0.19509825 -0.122142375 0.028702365
0.07721801 -0.1628999 0.16689526
0.15522905 0.073801376 -0.12853138
0.08364659 -0.114048176 0.13715206
0.028863063 -0.18959387 0.15524654
-0.17001872 -0.15001862 0.0890803
-0.22273308 -0.013397063 0.06511027
-0.22496751 -0.09171001 0.07446325
0.16381612 -0.103572294 0.10904399
-0.06171228 -0.15063837 0.1578464
-0.101792455 -0.14872609 0.061318517
0.07521043 -0.1331244 0.13142075
-0.23860165 -0.12217639 0.080977984
-0.026208961 0.123549335 -0.0869944
-0.1410036 -0.074393526 0.1366108
0.038917117 0.0018684405 0.030276734
0.006135938 0.23692046 -0.3881127
-0.067478135 -0.033005 0.089305155
0.100946724 0.022722054 -0.11081274
0.06325304 -0.05638446 0.13825159
-0.12483916 0.15026425 -0.13979426
-0.20073414 -0.0953013 0.095955744
