# .PCD v0.7 - Point Cloud Data file format
VERSION 0.7
FIELDS x y z
SIZE 4 4 4
TYPE F F F
COUNT 1 1 1
WIDTH 1000
HEIGHT 1
VIEWPOINT 0 0 0 1 0 0 0
POINTS 1000
DATA ascii
-0.16580026 -0.11053261 0.17235176
0.13432595 0.011242224 -0.03533671
-0.113324635 0.04856421 0.08602558
0.09338296 0.12237709 -0.054584745
-0.17461671 -0.055323362 0.1509523
0.06564471 -0.23493467 0.1424881
-0.13973852 -0.0792013 0.16942479
-0.20527324 -0.026600547 0.16000618
-0.20771538 -0.010801031 0.14284329
0.11710109 -0.22045717 -0.053802375
-0.20409544 0.112706825 0.08254395
-0.0074314107 -0.23639603 0.15667994
-0.1934653 -0.0074632075 0.17362384
0.1996814 0.095229775 -0.15765946
-0.20608881 -0.10101816 0.17214164
-0.040127944 -0.1570541 0.17116335
-0.12690565 -0.0059257904 0.14616056
0.1251541 0.08661441 -0.05299685
0.029429037 -0.13443013 0.030625848
-0.241786 -0.15412973 0.15305507
-0.021933988 -0.15457204 0.02871436
0.17248741 0.03887148 -0.0812891
0.21369053 0.29028884 -0.18461663
0.15561825 0.14371644 -0.15641484
-0.1477015 -0.13276513 0.21311368
-0.05617056 -0.23403539 0.15032855
-0.009915812 0.12970243 -0.16261959
0.17964266 0.105068944 -0.15059088
0.05339886 -0.1811 0.122173965
0.15397388 0.015632913 -0.009338304
-0.17962746 -0.19937187 0.10235104
-0.00024028767 0.13264748 0.00030287774
0.0006883977 -0.2549053 0.10061154
-0.03324037 0.100867115 -0.02131088
-0.16557941 0.10657302 0.06543381
0.10534627 0.13652858 -0.10902117
0.14238055 0.08549106 -0.10079279
0.1989955 0.21402138 -0.19024076
0.11889699 0.18608281 -0.14846013
0.14024168 0.069425955 -0.08824238
0.10402952 0.22563258 -0.19953385
-0.0790001 -0.09820491 0.17037265
-0.27819154 -0.020321265 0.07902749
0.17732468 0.25334567 -0.17804852
-0.26307634 -0.07152399 0.13756429
0.048229683 -0.049929276 -0.071693264
-0.16286361 0.11805874 0.073091105
-0.11663619 -0.13366255 0.20495114
0.108901426 -0.06260383 0.06182322
0.0070408895 -0.031938605 -0.06247995
-0.10722227 0.1610236 -0.10786831
-0.08677201 -0.23716436 0.17291498
0.16529945 0.17700686 -0.155545
-0.1698523 -0.05145842 0.15221179
-0.10880259 0.14435324 0.009122003
0.11008264 -0.13536659 0.06688989
-0.20240845 0.0044928174 0.110626444
-0.08420948 -0.09315555 0.024089886
-0.0111888265 -0.11603166 0.0043916027
-0.07047591 -0.23823081 0.1265853
0.11602043 0.27944273 -0.1539929
-0.06429428 0.12633827 -0.017618002
0.15145208 0.15851235 -0.1456566
0.19169064 0.26834574 -0.15032469
0.07085214 0.09164061 -0.07299421
-0.04406786 -0.23536396 0.18644212
-0.20200187 -0.05477059 0.1877534
0.13533057 0.29066476 -0.13849789
0.116708465 -0.19339037 0.094579786
0.21709222 0.15807857 -0.21046495
-0.044147473 0.057634503 -0.15557648
0.12312969 0.21050572 -0.11917403
0.1354097 0.27660435 -0.15697567
0.20936534 0.10137417 -0.16720456
-0.008596998 -0.23104566 0.19372028
0.108461596 0.20679694 -0.20516568
0.0078096977 -0.1247426 -0.053444803
0.03327312 -0.12359314 -0.013989115
-0.09674175 0.1384872 -0.013509427
0.18836911 -0.0014429066 -0.084267974
-0.28333327 0.017687114 0.055321407
-0.16439219 -0.22388452 0.17070092
0.062458422 -0.03988282 -0.0467663
-0.18805513 0.079994254 0.07411617
0.004779455 -0.031550206 -0.11343196
0.14383586 -0.22847463 0.075017795
0.28905925 0.19054817 -0.2455492
0.16861995 -0.2234828 0.07557846
-0.13194375 0.016976848 0.15917763
0.14944807 -0.15173699 -0.0798589
-0.08964969 -0.10736101 0.17248757
0.066894986 -0.26926118 0.103425674
0.080767974 0.082655646 -0.14579298
-0.17510334 -0.004514905 0.15002897
0.21431983 0.18515505 -0.20656452
-0.13356869 0.00037708966 0.1733452
-0.1388224 -0.1480538 0.17220668
-0.08872257 0.061064914 -0.020087693
-0.23457032 0.01695423 0.10463279
-0.24165967 0.09613512 0.07671378
0.20318487 0.24534284 -0.174322
0.06034558 -0.22210975 0.13685334
-0.20812081 -0.10527885 0.15804468
0.17734082 -0.07852111 0.0099130375
-0.20927776 0.033907816 0.12325265
0.0026700336 -0.14000238 0.1701099
0.25488728 0.22931969 -0.19367291
-0.15806997 0.030312723 0.14440325
-0.076135084 -0.002822501 -0.03779122
-0.11771069 -0.19167098 0.18623187
0.13781431 0.18609291 -0.13273299
0.061660074 -0.14749324 0.11542773
-0.06924309 0.14905815 -0.103965655
-0.011862399 -0.072300844 -0.092876375
0.1659824 -0.052228652 0.0180102
0.1561198 -0.011233352 -0.20011026
-0.020780442 -0.14272074 0.15970752
0.06385389 -0.06106554 -0.093615524
-0.021142416 -0.16224745 0.15826403
-0.14464995 -0.1341687 0.18379523
-0.043395936 -0.18074812 0.20713802
0.1429733 0.077844635 -0.07434031
0.24011923 0.15304838 -0.29437816
-0.1837622 0.11967877 0.06587041
0.067734145 0.26432425 -0.18462564
-0.14816698 -0.10278523 0.06251789
0.21630369 0.017484302 -0.096974455
0.13591479 0.2488954 -0.1538633
0.1013697 0.027790932 -0.007988721
-0.057437137 -0.2676087 0.13302413
-0.10874631 -0.15574948 0.21206029
-0.17612769 0.04446361 0.09295463
0.105422296 0.2525369 -0.16826697
0.023594705 0.13729556 -0.042816672
-0.19238655 -0.09705227 0.15821771
0.053680457 -0.24321616 0.13127853
-0.13689147 0.048650295 -0.1142905
0.0015711819 -0.2121419 0.1619691
-0.13824366 -0.2395086 0.1314815
-0.10115149 -0.102658786 0.15950215
-0.10021673 -0.03794048 0.056436546
0.14359768 0.22981265 -0.15015887
0.23163871 0.23812255 -0.2177537
-0.001892729 -0.15420239 0.17836456
0.23796037 0.12420867 -0.18191335
0.075481825 0.1260811 -0.12197811
0.00374833 -0.1550222 0.14244545
-0.21825515 0.08092695 0.10138748
-0.09404858 -0.123916484 0.17689587
-0.2568245 0.076314464 0.059981853
-0.0026939143 -0.15388164 0.1471873
-0.056918945 0.16746807 -0.022552835
-0.07228972 -0.1791182 0.19143544
-0.14788364 -0.025854047 0.16237795
-0.12890844 0.13488671 -0.10887534
-0.13259788 -0.036576547 0.14831473
-0.068504974 -0.09806375 0.08369949
-0.23798586 0.096871205 0.038544808
-0.018247435 -0.021130158 -0.054775085
-0.14777878 -0.1836282 0.16965875
-0.044351663 -0.035283588 -0.06763899
-0.096992366 -0.05684502 0.1908559
-0.15432298 0.056222815 0.08443812
-0.1301987 -0.104558915 0.17114764
0.21203507 0.1414716 -0.30713525
0.041763395 0.12038161 -0.051554386
-0.21253549 0.10672481 0.057938524
0.12207318 -0.14408988 0.0758502
-0.1717908 -0.12012884 0.1915073
0.1937369 0.22392793 -0.16121612
0.07345171 -0.24187152 0.13960825
-0.021240916 -0.18771268 0.18309882
-0.095891446 0.13037643 0.037215944
0.1475329 -0.0374711 -0.18891273
-0.10404595 0.14546213 -0.089781545
-0.058036372 -0.10903031 0.19193457
-0.2025369 0.15253986 0.0489905
0.1685181 -0.21406084 -0.0011267791
0.0038470246 -0.03895587 -0.052412745
-0.008697452 0.08669818 -0.04212311
-0.23700383 0.020827718 0.10176713
0.020945063 -0.097612865 -0.033649072
-0.14848658 0.028080871 0.16103885
-0.06455117 -0.10475251 0.059683908
0.04277598 -0.17470288 0.15625615
0.15743332 -0.18163548 0.07276777
0.046236113 -0.09340871 -0.015156451
0.10609383 0.18169002 -0.12460099
0.22857404 0.053975586 -0.15427652
0.2016221 0.25351873 -0.16218078
-0.20069732 0.00037418696 0.12472454
-0.23785721 -0.062020205 0.17413865
-0.05858179 0.1333768 -0.16041881
0.05467682 -0.11728378 0.14717141
0.13250698 -0.05941273 0.02225389
0.23129171 0.07282529 -0.14012635
-0.0611206 0.1235694 0.029905614
-0.22923177 -0.069004476 0.17080858
0.12844165 -0.022481656 -0.0059308065
-0.16015649 -0.18487725 0.1379758
-0.046661276 -0.2490577 0.20071417
0.18144466 0.14146765 -0.29298893
0.1335107 0.02579555 -0.05280434
-0.18119626 0.017405206 0.15821888
0.060110167 0.1257371 -0.08031101
0.1488732 0.18545924 -0.16447099
0.14866081 -0.077409305 -0.0049247458
-0.080578394 0.059130505 -0.11428611
-0.10473809 -0.16842195 0.19545507
0.031113358 -0.008330782 -0.14788812
-0.1855355 -0.10391065 0.19922906
-0.018393908 -0.18714783 0.17012027
-0.09516894 0.009638913 5.51174e-05
-0.082225546 -0.099650174 0.15807967
-0.111230016 0.09734227 0.072481625
0.08971088 -0.023512332 -0.18235159
-0.18403009 -0.11025332 0.16327575
0.28772745 0.1914736 -0.20128798
0.12882155 0.1919134 -0.1465104
0.16253032 0.19054322 -0.1501938
0.14107433 0.11064567 -0.13541266
-0.10921468 -0.1259291 0.17268914
0.19550264 -0.022167 -0.15724806
0.0042699785 0.15973513 -0.04794353
0.17648962 -0.11249255 0.00060848554
-0.100453846 0.10945756 0.044858918
0.08979133 -0.02716195 -0.18579824
0.0675246 -0.16920936 0.14225608
-0.023387004 -0.2517413 0.16764897
0.22234744 0.25820386 -0.16843571
-0.22841647 0.13073932 -0.026219029
-0.09013558 0.13791229 -0.031488042
-0.07406271 -0.14205238 0.07212341
0.15700182 0.037668616 -0.10140747
0.13816316 0.099459596 -0.11337517
0.15742302 0.07738643 -0.08239694
-0.08622094 0.13542324 -0.023689933
-0.08348388 -0.1723418 0.1950934
0.14335284 -0.0057135797 -0.0351873
-0.047468256 -0.029236414 -0.14889906
-0.16450782 -0.031876825 0.15088373
-0.102592304 -0.029225187 -0.11574689
-0.23753989 -0.1316309 0.11676015
-0.20523557 -0.08386288 0.16561855
-0.025942165 0.055823386 -0.05471852
0.07859088 -0.13158523 -0.038768943
0.1841896 0.17676377 -0.16504909
-0.13373898 0.16589022 -0.07116399
0.14426337 0.10421878 -0.10511894
0.2237906 0.15706883 -0.16668175
-0.11206133 -0.035338443 -0.0037245972
-0.0930363 0.12512004 0.030334909
-0.0018281677 -0.081722654 -0.09063002
0.12657145 -0.06662846 0.015213435
0.0393877 -0.24775422 0.1705125
0.17951933 0.123555854 -0.1507955
0.28721738 0.22427799 -0.17895448
0.058716398 0.09662632 -0.03645799
0.1812533 0.15048134 -0.1738596
-0.22903745 0.04523049 0.10973138
0.12892592 0.1211432 -0.08218912
-0.16478606 0.18045557 -0.02457358
0.13424599 -0.24549742 0.08747375
-0.13798581 -0.13723528 0.17719813
0.2043138 0.087087005 -0.15753049
-0.1855789 -0.16739772 0.19281952
-0.1872958 0.06530403 0.074643135
-0.0055887983 0.15334168 -0.06015813
-0.0009429298 -0.025716707 -0.06874322
-0.043929767 -0.12485315 0.1594503
-0.18632236 0.051783394 0.071495354
0.0471593 -0.14665733 0.039357092
0.013366888 0.12594783 -0.037379354
0.061683174 -0.18506783 0.11900743
0.13361447 0.020835236 -0.2558223
-0.12118881 0.16750522 0.006460832
-0.17686805 0.024961924 0.12900811
0.17379592 0.22985515 -0.20395671
0.04401385 0.10643805 -0.01975002
0.030873671 -0.20292485 0.15982491
0.002308605 -0.18742687 0.18227182
-0.2719943 0.024507334 0.04843619
-0.15704231 0.08019345 0.08270323
-0.25253725 0.06555621 0.0926769
-0.04508932 -0.007929582 -0.05525337
0.144595 0.25953645 -0.14593937
-0.181562 0.1478162 -0.0410519
-0.14915733 -0.1468499 0.1849175
0.1556899 0.22776812 -0.16221191
-0.13685974 -0.04923774 -0.090698935
0.14264067 0.08859727 -0.09213457
-0.15095972 -0.04306955 0.12976758
0.22140473 0.20279521 -0.15919247
-0.07580078 0.117096685 0.038471114
0.06946764 0.099512845 -0.098787546
-0.17474973 0.12200899 -0.007349354
0.20968442 0.2605618 -0.18772142
-0.12831947 0.13769062 -0.103910655
0.20728783 0.067601256 -0.12476146
0.21655953 0.08149159 -0.14713658
0.31038982 0.20338193 -0.23265186
0.13492033 0.28134358 -0.15531683
-0.2116776 0.11110746 0.006578635
0.013933916 -0.13773865 0.15627813
-0.26285785 -0.0018191782 0.12608168
0.047250874 -0.171825 0.15831846
0.025270954 -0.22056228 0.1632214
0.0035641473 -0.013527005 -0.08940914
0.09646224 0.06541172 -0.16019294
0.065588735 0.07850888 -0.15920529
-0.14583938 -0.021249216 0.17338003
-0.1547724 -0.06752845 0.19421716
0.024436634 -0.06774005 -0.051556967
-0.21639225 -0.021509066 0.18547183
0.03540026 0.15643093 -0.29903078
0.031084687 -0.23695193 0.15941322
0.07889934 0.076532766 -0.04891653
-0.08900865 -0.0705342 0.16396672
-0.08514031 0.0072625503 -0.03444234
0.14906552 -0.10000527 0.0129996985
-0.15792498 -0.06530093 0.18757342
-0.06918405 -0.24816625 0.09954137
-0.19101928 -0.089832455 0.17051822
0.12571022 -0.12367924 -0.14788626
-1.3481845e-05 -0.03367625 -0.08130737
0.11529487 -0.27316484 0.00813054
-0.15019573 0.13386327 0.018995002
0.04046382 0.159643 -0.1150318
-0.09451281 0.023523854 -0.045456313
0.14317168 0.010735972 -0.22554293
0.048155356 -0.16195926 0.14248364
0.0072861654 -0.112017624 -0.112009875
-0.11610418 -0.1880446 0.18445672
0.12914078 0.28363904 -0.17243792
0.09780203 0.19355246 -0.19657205
-0.13449028 0.14749803 0.0433923
-0.083648294 -0.039842457 0.18695332
0.13846853 -0.09644917 0.09061739
0.07624046 0.1477169 -0.20480464
0.09365232 0.05311211 -0.050512496
0.03441414 0.16274182 -0.08673054
-0.17322272 0.041239087 0.1165642
-0.22051898 0.045143425 0.1474797
-0.07028946 -0.13613856 0.20474061
-0.15322141 -0.057175826 0.19187857
0.018279884 0.1493034 -0.32769835
0.081939556 0.086010784 -0.05838769
0.20181529 0.2111101 -0.1652641
0.22487743 0.24482642 -0.17978515
0.20667924 -0.08246318 -0.056814592
0.14395662 0.24041675 -0.17891838
0.16131909 -0.09650258 -0.0016965877
0.06688099 0.18837325 -0.30498996
0.07203522 -0.27388862 0.12768659
-0.19547261 -0.05556508 0.14948176
0.029411117 -0.15612957 0.13640466
0.08181046 0.052600414 -0.2314506
0.101446874 -0.14691016 0.09447291
-0.21794413 -0.13543473 0.12509976
0.19234678 0.16138321 -0.18008028
-0.1711539 0.013664149 0.09556299
-0.13592438 0.059902206 0.1048889
-0.1614377 -0.07481981 0.18255548
0.15319814 -0.013921906 -0.076531544
0.19102497 -0.092876874 -0.13706823
-0.23441216 0.025474725 0.10746567
0.19275577 -0.16538613 -0.0056622312
0.060229618 -0.10914286 -0.10239175
-0.08757852 0.107564196 0.06434293
0.11452513 0.14839715 -0.12980509
0.021678109 -0.22923894 0.13572197
-0.094546705 -0.017040191 -0.09271648
-0.027747696 -0.19602807 0.18762684
0.25934285 0.19974408 -0.2318445
-0.1014769 -0.19343995 0.17465839
-0.15682621 -0.16688137 0.19295797
0.15023442 0.1993521 -0.17326878
0.17770725 -0.09769721 0.012044907
-0.11137604 0.13315687 -0.10939407
0.13377118 0.13087578 -0.33757442
0.22757186 0.1960951 -0.1716063
-0.22839479 0.005119997 0.10060158
-0.17434669 -0.18118323 0.14322141
0.009458717 -0.2722534 0.08649878
-0.12020229 0.14994362 -0.01266988
0.07042988 -0.073091134 -0.050412245
-0.09732305 0.12860273 -0.1002714
0.21344045 0.14956641 -0.17779464
0.14200178 0.17940496 -0.15315835
-0.19876848 0.012491166 0.14136472
-0.023047928 -0.0058600414 -0.08507518
-0.036619253 -0.13630658 0.15460896
0.16999716 0.18341915 -0.16160809
-0.22350389 -0.082189664 0.18198325
-0.02023723 -0.15300936 0.07477512
0.18972452 0.2228229 -0.14853083
0.011309248 0.16864932 -0.14668043
-0.26301205 0.004532431 0.10878854
-0.027007975 -0.19350247 0.15047693
-0.23681277 0.014463691 0.15076153
-0.102301314 0.13855919 -0.09479247
0.056537762 0.18111472 -0.23466927
-0.27075502 -0.026780415 0.07964456
0.11988694 0.115769915 -0.14290714
0.007125309 -0.25304627 0.12646921
-0.26343626 -0.021299206 0.0799731
0.099029936 0.22764224 -0.22588418
0.11666594 -0.21245943 -0.07789975
0.13349895 -0.08749312 0.0056208936
0.010966239 0.13667765 -0.045325536
-0.1709878 -0.0556979 0.20154771
0.1534873 -0.14126217 0.04438891
-0.009824385 0.13945153 -0.0728273
-0.0014168696 -0.13675135 0.1640688
0.085234754 0.24925305 -0.15522555
0.018321587 -0.08793113 -0.018083526
0.25232604 0.21626966 -0.23440449
0.033003755 0.13654158 -0.10043632
0.047005177 0.2295788 -0.22319631
-0.21388993 -0.04773465 0.14630114
0.11415202 0.062068135 -0.017432446
0.15382843 0.15947786 -0.13229531
-0.25856072 -0.12123402 0.09665714
-0.03514018 0.15463527 -0.13359225
0.015470993 0.13328661 -0.12300038
0.26500222 0.2348514 -0.21582805
0.019052576 -0.27288944 0.114413254
0.14957222 -0.07977773 -0.16334885
-0.022180881 -0.20393145 0.19069923
-0.13928348 0.169013 -0.02609927
-0.20883842 0.022703646 0.14203304
-0.23496406 0.064180955 0.06334113
0.18806897 0.25359026 -0.19014375
1.9524672e-05 -0.23708394 0.17159949
-0.04905523 -0.16882858 0.19253898
0.013798163 0.0457735 -0.170103
0.07165193 -0.095017165 -0.036740012
0.13054569 0.17132415 -0.1147495
-0.17916478 0.048229434 0.10776508
-0.12788981 -0.2692048 0.14139318
0.17085043 -0.17239761 0.085398175
-0.11836552 -0.14078203 0.19912826
-0.03518473 -0.12206507 0.18276037
0.19849762 0.06664322 -0.099730134
0.106018014 0.20767523 -0.24232402
0.14407241 0.03533176 -0.04036276
-0.016405053 -0.19551465 0.16077912
-0.11930739 -0.18502696 0.20939507
-0.26084214 0.051464107 0.053488154
0.15981308 -0.059951063 -0.1730533
0.07237566 0.15998925 -0.09681214
-0.028850986 -0.17747548 0.15611923
-0.15015288 -0.14485197 0.19008195
-0.04072288 0.0590078 -0.15520531
0.013304581 0.1489451 -0.07880073
0.09745147 -0.13472168 0.09866504
0.05292825 -0.040331516 -0.04320056
0.03951607 0.067265846 -0.19532873
0.21659204 0.21937917 -0.17969516
-0.2053367 -0.0005525634 0.11825309
0.008464198 -0.1172338 0.028833464
0.13362972 -0.09074063 0.024568034
-0.13423102 0.09322172 0.06871536
0.16599998 -0.11321977 0.016009117
0.054541852 0.20499757 -0.22137442
-0.11188962 0.023432944 0.0018909931
-0.02055803 -0.09771082 -0.09904554
-0.10081609 0.04956084 -0.110014245
-0.015074731 0.13987838 -0.0051153693
0.22535056 -0.09246275 -0.061219566
-0.103015855 -0.1886021 0.16588429
0.09506738 0.12555186 -0.1083072
0.2164335 0.18049389 -0.21923152
0.052482273 0.085820206 -0.16835792
0.21115103 -0.040916234 -0.089312755
0.158432 -0.2030707 0.049636155
0.008735681 0.11275683 -0.31968608
0.05369856 -0.055805836 -0.05516329
0.08197184 0.023128208 -0.23891851
0.18926586 0.041357975 -0.20756915
0.16027045 0.10172405 -0.13163704
0.17393889 0.11166857 -0.12199352
-0.07101207 -0.17110191 0.16904478
-0.07850451 -0.06953991 0.077904
0.06577546 0.14230533 -0.29141524
-0.039231613 -0.1149942 0.16565493
0.15516247 -0.15831272 0.043015365
0.044038486 -0.2033686 0.124744214
0.15057 0.2250766 -0.17047605
0.12536113 0.19437861 -0.16819489
-0.19270447 -0.15600201 0.2075369
-0.108391225 -0.004343054 0.053372383
-0.23515356 -0.15587817 0.14802049
-0.02023411 0.022912934 -0.14981218
0.07784856 0.17353818 -0.1597191
-0.27346492 0.04737307 0.011294649
-0.106703475 -0.09386217 0.17824697
-0.08813598 -0.20685565 0.19595894
0.11377878 -0.17665139 0.09745116
-0.1552372 0.10070653 0.06588342
-0.14567958 -0.11392635 0.16772217
-0.20601311 0.034792118 0.13214405
-0.065746926 0.022514766 -0.021871125
0.13465104 -0.22956583 0.091513604
-0.06513781 -0.17559035 0.1854364
0.1474486 0.065477274 -0.10812294
-0.21915476 0.04106862 0.13769938
0.028785918 0.090498835 -0.01676225
0.03392775 -0.02642583 -0.074759625
-0.016170418 0.059610453 -0.045823377
-0.18489571 -0.06691099 0.02201723
-0.10921631 -0.10181617 0.17394936
-0.11428522 0.1681307 -0.060687814
0.11792688 -0.18457082 0.09182453
-0.048177294 -0.066265725 -0.13201778
0.16029058 -0.18726012 -0.058042556
0.078832194 -0.2562477 0.12559918
-0.081973664 -0.1396403 0.16904344
0.09448469 0.060072534 -0.038290765
0.1423371 -0.0340779 -0.012316467
-0.08141223 0.107693374 0.057359777
-0.28834882 -0.01600223 0.06289624
-0.0261186 0.12382101 -0.17311038
0.04675316 -0.012847689 -0.051528882
0.13075063 -0.26699933 -0.013491821
-0.16108528 0.0058381744 0.12819168
0.14983898 -0.07626547 0.01737572
-0.20358542 -0.20654574 0.15920098
0.22880886 0.058009107 -0.18415356
0.014996401 -0.028038932 -0.05762752
0.059227668 0.17432989 -0.29467997
0.1375255 0.2904255 -0.14579
-0.0604382 0.15438643 -0.024952196
-0.16572864 0.08853566 0.07032094
0.13069548 -0.013871133 -0.017989354
0.17871834 0.045459807 -0.086709194
0.15499568 0.1220556 -0.14644523
-0.25362185 0.008519414 0.06996558
-0.11438733 -0.1587231 0.21221259
-0.011365531 0.10662939 -0.03944175
0.014274747 -0.009311739 -0.0750959
-0.16151156 -0.05521582 0.03756111
0.14574116 0.26721856 -0.15510355
0.13264112 -0.1797115 -0.06158072
-0.000934316 -0.26792556 0.15622635
-0.095443316 0.08806004 0.0022401258
-0.07988805 0.045869328 -0.04509604
0.1390798 -0.2525187 0.060972404
0.18018703 -0.018321415 -0.0412732
-0.19923735 -0.035345763 0.16636425
-0.03292523 -0.13556834 0.15738146
-0.2019466 0.038990203 -0.03477684
0.19503576 0.2315358 -0.19252864
0.124032006 0.21810117 -0.14100595
0.036381245 0.06028756 -0.1654425
0.15756094 0.13706727 -0.14143163
0.113958605 -0.12486968 0.081899896
-0.1129136 0.13451849 0.02247741
0.19450094 -0.067755446 -0.1351591
-7.397473e-05 0.14977781 -0.07554764
0.16065672 -0.16405031 0.045132242
0.12042035 0.02335933 -0.012365256
-0.019949103 -0.11399904 0.16475172
0.11482424 -0.11214386 0.087387145
0.10509257 0.05859005 -0.05583797
-0.1645594 -0.020634726 0.010281654
-0.019258108 0.0930367 -0.17003798
0.07385853 -0.22272813 0.11679558
-0.16937572 -0.09451515 0.20820947
-0.20108338 0.047208324 0.15378664
0.084756464 0.12850642 -0.07643653
-0.17265823 -0.024443032 0.15597717
0.014591454 0.2101826 -0.29486927
0.22780879 -0.06563022 -0.08811962
-0.17569557 -0.1388222 0.20772998
-0.06983147 0.089180075 -0.14328766
-0.013477404 -0.25476965 0.1459309
0.12002325 -0.005445721 -0.24184667
-0.1467829 -0.1644312 0.19096275
-0.05073126 -0.2343119 0.19222331
-0.01818335 -0.21591228 0.16945419
-0.14064674 0.13394685 -0.0896214
-0.1835906 0.03074481 -0.07608587
-0.24360204 -0.059876263 0.14343342
0.22638763 0.17937875 -0.22259076
0.0048118616 0.010007944 -0.08615788
0.11145036 -0.15822566 0.09740127
-0.19396977 0.022115447 0.14221397
0.15894529 0.19110687 -0.17631137
-0.16650842 -0.04348786 0.13555133
-0.12020098 0.05680049 0.10554413
-0.013227277 -0.21871592 0.19024405
-0.20375274 -0.06585769 0.18945926
0.16864762 -0.070812665 0.025457107
0.028168269 0.023802292 -0.1699056
0.05162713 0.13920861 -0.251254
0.20153706 0.19571574 -0.18271087
-0.023704631 0.100263916 -0.061628774
-0.020927673 -0.2006537 0.14915824
-0.098029554 0.12558223 -0.15483853
0.040301044 -0.07697431 -0.050299656
-0.18864678 -0.115773015 0.15658864
-0.15260114 0.13989796 0.0073433137
-0.07113353 0.12945284 -0.015307876
0.22527109 0.10532246 -0.13789
-0.12180608 -0.05757002 -0.16040435
0.17538479 0.033884104 -0.08310863
-0.22546276 0.0749188 0.052752838
0.05496158 -0.036791746 -0.04691559
0.120925814 0.05346317 -0.049625266
-0.1884291 -0.029202966 0.017760392
-0.07398998 -0.2577384 0.10577734
0.13184068 -0.18205774 0.088183045
0.023777822 -0.11683423 0.18096375
-0.20879911 0.05455143 0.09701678
-0.09927128 -0.15508759 0.056791358
-0.055208664 0.065588295 -0.031490866
-0.21958005 0.15097661 0.020573417
0.164006 0.08347883 -0.1329299
0.22060826 0.17786478 -0.170411
-0.16085996 0.15311973 0.035982713
-0.23588538 -0.14956196 0.10850535
0.04017742 0.1781656 -0.26134723
-0.12607656 -0.06408998 0.19675931
0.0324447 0.04574301 -0.15243201
-0.2098299 -0.041358933 0.16922349
-0.14344338 -0.1828844 0.15460576
-0.0035912169 0.1901882 -0.07178809
-0.12519488 -0.04043647 -0.06389485
0.16129598 0.28938344 -0.19092491
0.19912922 0.24295397 -0.20685098
0.15783027 0.006362277 -0.0693175
0.08755844 -0.11941701 0.105224185
0.21281832 0.23139367 -0.18621989
0.27318168 0.2307496 -0.20206895
0.11804578 -0.01718661 -0.05220317
-0.040339835 -0.16356999 0.15871657
0.2054777 0.19944783 -0.20118311
0.16091184 0.006195207 -0.06461479
0.09069783 0.16049808 -0.20718697
0.12241121 -0.19673799 0.07599133
-0.17361785 0.13153127 0.033538986
-0.22371781 -0.15193875 0.10168689
0.12888986 -0.25008437 0.101823986
0.12706544 -0.15896794 0.07776314
0.14094953 0.052200362 -0.007149059
-0.07736409 0.099995136 0.038731802
-0.14186586 -0.09595382 0.16388093
0.012904625 -0.14595792 0.13886365
-0.031662684 0.09939299 -0.037598517
-0.05379125 -0.16413172 0.19044444
-0.24522048 0.009491504 0.108231194
-0.22249098 -0.10526544 0.19922006
0.15515475 -0.16345376 -0.11108586
-0.23269539 -0.08389561 0.15123348
-0.19837266 0.033103943 0.11593011
0.11382653 -0.18794017 -0.08021033
-0.2721991 0.024339147 0.111322574
0.097407795 -0.17210943 -0.088764824
0.22803542 0.15902206 -0.29466507
-0.012854529 0.024376657 -0.07955926
-0.16757172 -0.020625034 0.14868478
0.18701896 0.18917108 -0.17763264
0.188691 -0.095300645 -0.106982395
-0.24572647 -0.06446232 0.122452356
0.037103787 0.05913223 -0.20131476
0.14835837 0.20827095 -0.1515427
0.11329633 0.22777954 -0.1796525
0.10594194 0.22840224 -0.22437118
0.013071101 0.1531793 -0.13208415
0.15983169 0.24114634 -0.16279644
0.16850889 0.21762374 -0.15067057
0.1310512 -0.14834005 0.04725604
-0.21909374 -0.07192846 0.203515
0.2231447 0.2007145 -0.20823123
0.13844436 0.004780692 -0.015585089
-0.17007175 0.044983074 0.10887242
0.027708536 0.028073303 -0.17375147
-0.10217629 0.09840791 -0.16724613
0.20843557 0.24790134 -0.16866143
0.21827386 -0.052302446 -0.039393783
-0.11472115 -0.042465393 0.17293854
0.22374795 0.17689978 -0.21079707
0.013425391 -0.16151026 0.071856186
0.07114818 0.07891602 -0.061870668
-0.11600188 -0.15948842 0.19872592
0.07681961 0.049903832 -0.200043
0.111941166 -0.064142846 0.039759893
0.18194272 -0.17736614 0.012472617
0.20256862 0.008767111 -0.096111685
0.016369555 -0.075770736 -0.09632958
-0.15813681 -0.21689634 0.16408436
0.030668084 -0.14743367 0.1299955
-0.1549138 0.08335306 0.06580408
-0.08166088 0.11497933 0.019725595
0.24223533 0.21242467 -0.21630402
0.15051572 -0.036291067 -0.19718732
0.036862187 -0.0485092 -0.07930129
0.18782742 0.19927728 -0.14081347
-0.08483723 -0.13770236 0.040098693
0.022782078 0.13344859 -0.074368164
-0.14582911 -0.03881052 0.16181691
0.17138381 -0.004936858 -0.025146633
0.29020795 0.20754169 -0.19296302
0.08993024 -0.15248829 0.10397703
0.06746102 -0.019671042 -0.2092757
0.072971754 0.15546349 -0.16741149
-0.08645001 -0.160992 0.21155535
0.19338931 0.20880614 -0.2040749
0.024248965 -0.07087912 -0.1181055
0.1515122 -0.026551455 -0.041644644
-0.14276467 -0.029912371 0.12570041
-0.16810055 0.15521812 -0.020098306
0.06136194 -0.113975264 -0.11359229
-0.0054978775 -0.16435678 0.14972694
0.12655617 -0.14425544 0.057514187
-0.13513668 0.082310274 0.07459465
0.2055277 0.22383969 -0.19694951
-0.08688013 0.108370796 0.0050410996
0.12406489 0.0423361 -0.022591237
-0.1160478 -0.027037432 0.15662485
-0.11064611 -0.062307294 0.17901568
0.10493145 -0.21353358 0.11977027
-0.032465577 0.0441821 -0.1660254
0.17183122 0.11304711 -0.3908131
-0.15302272 0.031667717 0.14184335
-0.20898858 -0.06479994 0.15189365
0.16253005 -0.12219928 -0.1507169
0.014550747 -0.1421646 0.035852283
-0.04151085 0.13184494 -0.024283648
0.15727128 -0.016660115 -0.015780207
0.11485557 -0.07362153 -0.19148521
-0.0878541 -0.0003605049 -0.063463286
0.14169158 0.046996664 -0.10450246
0.21105365 0.21733579 -0.1513323
-0.00010841772 0.13913888 -0.14135514
0.21329391 0.08591779 -0.15036449
-0.08111607 -0.13856472 0.19558014
-0.010135331 -0.22618093 0.16258205
-0.029229429 0.15029126 -0.044727854
0.1438661 -0.112405755 0.054179072
0.17159137 -0.016060004 0.001897056
0.11524126 0.2569049 -0.20835051
-0.20078297 -0.042903487 0.16059701
-0.15163642 0.03823178 0.1497083
-0.16064714 0.1388985 0.038239777
-0.2675275 -0.027443748 0.07447824
0.13550176 -0.071447596 0.024999905
-0.06888412 0.124581896 -0.13216664
-0.20384145 0.07813799 0.08747737
-0.12423228 -0.022770481 0.19066043
0.046226088 0.058185298 -0.17196494
0.11810767 0.24669689 -0.14199987
0.20593871 0.018286722 -0.1320008
0.15483549 0.024860527 -0.057428215
0.14570352 0.2304552 -0.19090936
-0.09485157 0.11227567 -0.17505862
-0.13331342 0.065654434 0.08568704
0.21760045 0.08069397 -0.17847483
0.010447318 -0.10801094 -0.042984325
-0.22083104 -0.08778623 0.13371027
-0.0977324 -0.10284573 0.17629705
-0.15637264 -0.10863449 0.1781362
-0.21889368 -0.078682765 0.14284569
-0.0027728984 -0.051923607 -0.11409458
-0.23219877 -0.12098697 0.11151005
0.19148956 0.0076512503 -0.053382944
0.0004198226 -0.0076265535 -0.148522
-0.1865443 -0.05112054 0.15662712
-0.089238964 0.19335799 -0.05479189
-0.10907042 0.020414406 0.0055898293
0.032001026 0.14995438 -0.07679889
-0.102232754 0.02363994 -0.04796637
-0.04537665 0.15446317 -0.020456834
-0.13062663 -0.041881654 0.14713986
-0.123394474 -0.18813772 0.17872727
0.08932468 -0.23741654 0.119573966
-0.22734597 -0.09308924 0.18034676
0.24258713 0.21443164 -0.20585206
0.013426655 -0.14338402 0.0065181954
0.08435474 -0.0710667 -0.0925195
-0.05165684 -0.025336668 -0.059798352
0.076732315 -0.19191389 0.13705628
0.16065966 0.06703884 -0.08759687
-0.024276571 -0.22008945 0.18045263
0.1014049 0.21970753 -0.22953013
-0.14508937 0.11632598 0.06725173
0.18852831 0.03219534 -0.14650384
-0.096541665 0.07917518 0.047797643
-0.0128351245 -0.27080306 0.0752431
-0.01236564 -0.13708596 0.17895386
0.06894181 -0.18944901 0.12323491
-0.045127843 -0.19543721 0.1618376
-0.09235583 -0.236533 0.15924329
0.030134546 -0.118154466 0.003630227
0.15360357 -0.0071980464 -0.028894272
0.07748398 -0.14833656 0.097315826
-0.18943001 0.059501406 0.0644762
-0.14348786 -0.15541013 0.17961493
0.063182406 0.106806405 -0.05648433
-0.07512351 0.13391478 -0.17145984
0.16968738 0.050759755 -0.07623238
0.123564996 0.24266297 -0.13235895
0.10037552 -0.13856876 0.12137942
0.09089308 0.1639141 -0.3548398
-0.2018049 -0.033744965 0.16521063
-0.17216408 -0.094566956 0.18376337
-0.16901249 0.13133912 0.015588477
-0.057442628 -0.12084737 0.07762573
-0.0072572976 0.1323921 -0.021544194
-0.006717529 -0.03151482 -0.08260944
0.157667 0.17125432 -0.14158595
0.034151547 -0.057289373 -0.023774397
0.022403235 0.07083425 -0.19418015
0.21080822 -0.16952391 -0.012917827
-0.16555917 -0.17211257 0.19628157
0.082018904 0.23795338 -0.17598145
-0.14643142 0.039132122 0.09789468
-0.16587107 0.08200533 0.12074523
0.15108046 -0.037070956 -0.031662278
0.2366424 0.27451664 -0.17464261
-0.106129155 0.08038217 0.1077115
-0.042113252 0.12573686 -0.0029935844
-0.078315265 0.18955323 -0.06011108
-0.08300085 0.029017543 -0.048504025
0.12008866 0.0020446465 -0.00020637178
-0.11683822 0.13256973 -0.104486145
0.1811169 -0.08481935 0.01265004
0.1012726 0.1395461 -0.11382434
-0.035937868 0.111956544 -0.043505207
0.03818451 0.1550891 -0.3441703
0.122500755 0.11678892 -0.09945163
0.020194706 0.049290538 -0.07585227
-0.05047501 0.15599562 -0.03873739
-0.0787958 -0.1496477 0.18895012
0.11866028 0.1957118 -0.14453268
-0.12184156 0.16657273 -0.04356549
-0.15278882 -0.101459555 0.19666733
-0.092175506 -0.1957613 0.17292269
0.20153314 0.16790278 -0.15247521
-0.024380859 0.14947781 -0.0068264236
-0.26324412 0.012492354 0.11797211
0.004429798 0.10488176 -0.020568186
-0.17711854 0.04450245 -0.08911693
0.06042942 0.09439008 -0.061762962
-0.17050722 0.001669296 0.12934054
-0.02348417 0.17103973 -0.058883626
0.056159724 0.12517188 -0.04620231
-0.019737037 -0.17721452 0.03369907
0.17757517 -0.06433876 0.004664123
0.17620187 0.16862483 -0.16939263
0.15139084 -0.08128282 -0.1638498
0.025990078 0.16839023 -0.064044505
0.14175141 0.21981473 -0.13945927
0.1256886 0.14270622 -0.12194833
-0.20730977 -0.07183745 0.17889534
0.024986977 -0.17058086 0.12685749
0.20843151 0.04667686 -0.11037609
0.21998076 -0.03016342 -0.07054718
-0.09782432 -0.15000647 0.17815958
-0.036427483 0.1713441 -0.07923812
0.18277991 0.13741907 -0.17416874
0.06491835 0.24834697 -0.22912996
-0.015565744 -0.10315558 0.15793228
-0.14093518 0.0819836 0.04504222
0.2066711 0.17773558 -0.15765892
0.058660883 -0.13470064 0.13312607
0.10449734 -0.12158114 0.08200535
-0.07122806 0.09127486 0.009407897
-0.009499249 -0.018240405 -0.061903153
0.081022404 0.22406887 -0.19395936
0.03400787 -0.15963069 0.15725023
-0.2548951 -0.0805453 0.11195192
-0.015792934 -0.020128088 -0.060759313
0.041766807 -0.091872364 -0.03401714
-0.13636647 -0.026139813 0.15112978
-0.17083485 -0.08069907 0.20447488
-0.057031937 0.13031259 -0.16160299
-0.12449805 -0.1546033 0.18334119
-0.12661237 -0.09409128 0.17823978
0.026459094 0.14475943 -0.0890304
0.19177501 0.039693005 -0.12664706
0.14080058 0.08882317 -0.11677188
0.036083993 -0.058183666 -0.05856704
-0.1780932 0.052108373 0.12742049
-0.19778048 0.022927035 0.13136001
-0.010075096 -0.107229054 0.19110341
0.2030215 -0.11295891 -0.0372685
-0.16944116 0.062373362 0.12752144
0.18005656 -0.1347449 -0.07267334
0.070235774 -0.11517369 0.13063598
-0.1504327 0.03460665 0.15012863
-0.09522467 -0.05694703 0.18102334
-0.07716353 -0.17522728 0.19435027
-0.021282084 -0.23035505 0.16957511
-0.09139309 -0.25444221 0.110842444
0.06300699 -0.12401748 0.13139106
0.016696788 -0.22686361 0.19084509
0.17541161 0.080723755 -0.12927377
-0.03822143 0.13741797 -0.015046739
0.24708928 0.22977412 -0.1757264
-0.033996854 -0.2832017 0.11234257
0.19449185 0.13695204 -0.14513998
0.13504662 0.13267106 -0.116065904
0.098032005 -0.2649098 0.04984786
-0.27615777 -0.031195583 0.1253525
0.039145485 -0.023938743 -0.15331571
0.0478564 -0.091725044 -0.09815229
-0.12164274 -0.16915286 0.17015646
-0.098670565 -0.05270519 0.15430139
0.14901121 -0.136359 0.097489655
-0.17160138 -0.023594012 0.15630141
-0.1640975 -0.15611929 0.16453631
-0.11232485 0.12762988 -0.12158344
-0.0612626 -0.19528468 0.20561919
0.0064492715 -0.19207934 0.13930993
-0.12816231 -0.076579265 0.18634748
-0.2432013 0.06515359 0.06389348
0.10270255 -0.20862417 0.116304256
0.13820434 0.25329292 -0.15633543
-0.18081987 0.12151481 -0.08341161
0.17535335 -0.21221755 0.048202246
0.07188062 0.13336754 -0.12596302
-0.032159172 0.16201593 -0.036644388
0.07924263 -0.08558436 -0.13320002
-0.18733354 -0.11668493 0.17438258
-0.1342648 0.11453881 -0.12118354
-0.12614703 -0.026502056 0.13031219
-0.07890822 -0.18468896 0.20268402
-0.19071598 0.0976055 0.082037486
-0.000822053 -0.23210357 0.17422585
0.028605236 0.13755451 -0.09002359
0.117735825 0.3024762 -0.18130009
-0.04971645 0.04680247 -0.11728667
-0.03738705 -0.23000021 0.15330626
-0.15365258 -0.17922443 0.19350426
-0.24972972 -0.027104182 0.14363289
-0.038245443 0.16439344 -0.062564395
0.20235342 0.12386892 -0.20923303
0.13059492 0.08837191 -0.09094936
-0.21659003 0.0010338792 0.104158156
0.13019717 0.1648142 -0.12361395
0.15883513 -0.1316313 0.059049867
0.120730385 -0.12957051 -0.14638467
0.09857338 -0.16089787 0.11603278
-0.029910725 -0.13450752 0.016105251
0.04687035 -0.08276724 -0.09347791
0.039730344 -0.20180616 0.16006602
-0.012245724 0.051531244 -0.16569375
-0.06494906 0.028031169 -0.054317147
0.09609979 0.27440917 -0.14411403
0.23289219 0.17091033 -0.18292548
0.11066752 -0.034991413 -0.20628896
0.21793991 -0.014216751 -0.10185409
0.05289637 0.072778404 -0.18920769
-0.02483174 -0.18883346 0.20156191
0.050440077 -0.005021934 -0.14710161
0.0239211 0.11978378 -0.029627023
-0.060658112 -0.12574999 0.20598896
0.10390625 0.040206216 -0.011690226
-0.15970519 0.03649814 -0.092024356
-0.13306859 -0.1287017 0.19198054
0.14404294 0.003867736 -0.23149332
0.03580374 -0.13857009 0.041486233
-0.12857406 -0.1487584 0.19638842
0.18241131 -0.17714663 0.036997493
-0.013845752 -0.20296441 0.1751459
-0.11180132 -0.07652998 0.15859152
0.060324166 0.16742654 -0.25545254
-0.2075534 -0.1871611 0.11949829
-0.28502667 0.054083355 0.0015527161
-0.16189618 0.032244258 0.15640582
0.01907191 -0.12916178 0.021015564
-0.2550803 0.0018330712 0.03510229
-0.1299954 0.087230064 0.10537961
0.09713818 0.08991143 -0.04274543
-0.2696312 0.035696954 0.10311333
-0.11690235 -0.22055934 0.1666878
-0.2233197 0.06445235 0.08887223
0.04454711 0.092755385 -0.19930518
0.014901617 -0.24558008 0.15173446
-0.079793446 -0.109802775 0.14880988
0.12434408 -0.12768525 -0.13792698
-0.2352443 -0.12298539 0.15071873
-0.16728584 -0.069464795 -0.08501957
0.020452393 -0.20250018 0.15030678
-0.07395255 -0.19187532 0.18120393
0.11966092 -0.17193405 0.05275592
0.19891192 0.08489283 -0.1160251
0.2285776 0.23548412 -0.19879329
-0.11407721 -0.12228268 0.2050991
0.101732396 0.058409665 -0.043488268
0.0046843356 -0.10561768 0.004127321
0.038280334 -0.2886469 0.08055962
0.02982394 0.049660213 -0.047617998
-0.19648282 -0.084211096 0.16392389
0.16926804 0.05528333 -0.09824306
0.15730762 -0.0038438411 -0.009884873
0.0854714 0.12059674 -0.057206053
0.11964148 -0.24079305 0.088213935
