# .PCD v0.7 - Point Cloud Data file format
VERSION 0.7
FIELDS x y z
SIZE 4 4 4
TYPE F F F
COUNT 1 1 1
WIDTH 1000
HEIGHT 1
VIEWPOINT 0 0 0 1 0 0 0
POINTS 1000
DATA ascii
-0.05937325 0.19093986 0.03802782
0.08485086 0.114364676 -0.109714024
-0.021873664 0.016192859 -0.013410142
-0.06417238 -0.034949034 0.037433237
-0.25078452 -0.10031027 0.20140196
0.13771546 0.0811762 -0.09049031
-0.06693717 0.07298739 0.016357016
0.025210528 0.31904107 -0.08797529
0.05280474 0.3058441 -0.1057607
0.073309556 0.13238318 0.049446385
0.10429233 0.22342823 -0.060801726
0.22425067 0.13713312 -0.09995838
0.10967004 0.1890157 -0.06772944
-0.004364636 0.2203141 -0.0067931935
-0.14515437 -0.074038655 0.14422785
0.21314396 -0.044681143 -0.0954914
0.026001535 0.10301343 0.084168695
0.23176433 -0.21584481 -0.12781425
0.26289925 0.08228101 -0.14977266
-0.06850163 0.036093324 -0.025054773
-0.28810227 -0.17436913 0.18515314
-0.26265898 -0.20343462 0.20059831
0.14900245 -0.11965128 -0.090388566
-0.07765097 -0.022104202 0.02839035
0.087772846 0.23259906 -0.03403183
0.0327109 -0.0025535235 0.070632204
-0.046267703 0.11922367 0.05361155
-0.13290487 0.18782179 0.024587626
0.03732638 0.048855163 0.10917838
0.14744127 0.15679926 -0.08513339
-0.2177458 0.10051484 0.037243623
0.010770856 0.29622307 -0.08741679
0.10409467 -0.06482366 0.063537516
-0.06691279 -0.21528785 0.045332424
-0.2695279 -0.07982249 0.10216669
-0.008418069 0.2617114 -0.07535251
-0.17741078 -0.016738368 0.08289266
-0.024158243 0.11407771 -0.045458276
-0.19223233 -0.1414278 0.1839318
0.118303984 -0.16055891 -0.02220871
-0.14764652 -0.10229438 0.17194371
-0.21436597 -0.19027065 0.23258288
-0.2116372 -0.09767128 0.1932299
-0.050336733 0.28685215 -0.031469736
-0.1568843 -0.10529738 0.1479141
-0.23825833 -0.14546505 0.18541968
0.1306832 0.292084 -0.13851893
0.01930033 0.11657367 -0.074173674
0.12668496 -0.07548996 0.047248688
-0.083514206 0.22188695 0.017249513
-0.18321837 0.075000554 0.056695707
-0.044235785 0.0035194145 -0.02276152
-0.08598046 -0.034203693 0.0064742006
0.114258185 -0.14088051 -0.08204637
0.15526098 0.17080341 -0.09511168
0.013675658 -0.15017363 -0.040607434
-0.006206373 -0.23213632 -0.037099913
0.16717331 -0.041288424 -0.05356834
0.22464445 0.21746342 -0.1661189
0.22032626 0.05656908 -0.14470774
0.087706186 -0.05883281 0.076911435
0.011076849 -0.10212664 -0.0028651042
0.20709874 0.1079188 -0.13687041
-0.028997319 0.17234576 0.01251775
-0.1530874 -0.16026697 0.16836424
0.22429243 0.05863625 -0.0058055925
0.30785286 -0.14502586 -0.21546125
-0.14181833 -0.16756995 0.023649693
-0.28368145 -0.24179427 0.113371655
0.20037812 0.24698117 -0.1701846
0.22415212 -0.17706555 -0.11688112
-0.17290789 0.14924805 0.018386744
0.1389807 -0.064297155 -0.044881318
-0.087316886 -0.112652734 0.042723935
-0.03038826 0.15009005 0.043917615
-0.15274853 -0.15114513 0.19082646
0.2828254 -0.15147743 -0.16809082
-0.20836216 -0.10353791 0.18558924
0.10967817 -0.14482342 -0.06406998
0.27445132 0.16526611 -0.16979152
0.036822252 0.25813845 -0.090321496
0.06613633 -0.10844228 -0.052691907
-0.112928614 -0.12309051 0.109321706
-0.07000602 0.22993022 -0.005305515
-0.056500044 0.194869 0.020663468
0.17421833 -0.22235167 -0.12806422
0.27770767 0.006389805 -0.11913234
0.32143402 0.007320818 -0.19700943
0.20126274 -0.06330864 0.060010113
-0.012981601 0.049820296 0.050543092
-0.096369445 -0.06873652 0.089101404
-0.13420829 -0.05926295 0.0457296
-0.08106882 -0.24657567 0.025241321
0.19612692 -0.025295433 0.03627331
0.038233973 0.2761458 -0.08812877
-0.17184302 0.11266619 0.039017387
-0.00019774494 0.1554715 -0.033996448
-0.16840313 0.21577635 0.042552967
-0.16515715 -0.029637355 0.14691162
-0.091399156 0.114766106 0.08638018
0.13743846 0.29021257 -0.15199636
-0.08945784 0.086429216 0.08328407
0.042100243 -0.13739583 -0.020397939
-0.061373662 0.24438864 -0.040764913
0.18675609 -0.0023532384 -0.08160806
-0.26542732 -0.23821534 0.1189731
-0.08851349 0.31959757 -0.06697497
-0.13317052 -0.21051294 0.023800844
-0.077636935 -0.27160844 0.035669144
0.011384124 -0.16734955 -0.00916218
0.28809398 -0.036442216 -0.20568222
-0.19012062 -0.075011276 0.19493526
-0.10527885 -0.21732697 0.023350116
-0.017526142 0.23027614 0.03107447
0.01897079 -0.26366222 -0.027734643
-0.09129835 -0.09611398 0.049158204
-0.09106344 -0.26955608 0.0031956173
0.13339916 0.2794339 -0.23228405
0.24274819 0.14244425 -0.13609456
-0.14987211 0.17461237 0.045918275
-0.32950038 -0.20516425 0.18562981
-0.22172278 -0.1758958 0.18295528
-0.100561425 0.012116221 0.0652489
0.22276829 0.073466234 0.030737909
-0.11572312 -0.03876376 0.09629337
0.022789136 -0.24056897 -0.040769666
-0.02041881 -0.20189391 -0.007965816
-0.070329644 0.046664454 -0.026248217
-0.122562 -0.08183299 0.15918085
-0.176935 -0.03249342 0.1360976
0.18754005 0.034922093 -0.03185514
-0.21815774 -0.22202837 0.19528651
-0.018049542 -0.20531875 -0.02791785
-0.3313459 -0.20030381 0.156932
-0.14106645 0.11711863 0.08882555
-0.1016082 0.10091608 0.078709446
0.095075935 -0.239584 -0.031101186
-0.32409617 -0.21002412 0.17165235
0.000112336944 0.22937936 0.022628613
0.10222917 0.2579629 -0.052958913
-0.038239915 0.11867461 -0.037586257
-0.14407943 -0.13486847 0.07399192
0.009729382 0.0280302 0.09330615
0.26009318 0.15996887 -0.17785028
0.013629617 0.21196619 -0.008893556
0.13441274 -0.16124998 -0.0737718
0.20076258 0.016620934 0.033881236
-0.031304244 -0.0034181962 -0.031182228
-0.1315251 0.23571458 -0.036681216
0.044744425 0.072032474 0.07763068
-0.11178181 -0.099934794 0.047078323
0.17580552 -0.046429176 -0.14561474
0.20110182 -0.0104470765 -0.03962309
-0.17920959 0.18400496 -0.021518653
-0.27177566 -0.14057703 0.17566095
-0.21928093 -0.003543073 0.06758495
0.13177429 -0.22383146 -0.07068382
0.115447134 0.24772406 -0.097130395
0.08047755 0.109198555 -0.123848505
-0.08778882 0.17281882 0.014089871
-0.15179592 0.12523256 0.061995238
-0.19432609 -0.094795324 0.19211425
0.18524863 -0.1260749 -0.07931457
-0.0716665 0.14622132 0.023247078
-0.17257378 -0.20011511 0.16065921
0.106210336 0.23724645 -0.034693364
-0.10935982 0.18284927 0.032359153
-0.30405363 -0.23283052 0.13695641
0.0927483 0.11189314 -0.085900694
0.075834595 -0.16516419 -0.043895375
-0.1343607 -0.23693292 -0.009851176
-0.25869578 -0.15437517 0.18573269
0.21020697 -0.012396238 0.029733313
0.1668636 -0.24314663 -0.12506276
-0.22024168 -0.1841063 0.21755269
0.21516591 -0.09079316 -0.10316215
-0.098649256 0.19135483 0.02511136
-0.02727685 -0.04555943 0.005893185
-0.024712957 0.0069425916 -0.029522019
-0.22425586 -0.039139904 0.14921495
0.0629208 0.16599868 -0.035806004
0.046136234 -0.19709185 -0.057459176
0.24443336 -0.083498985 -0.087076694
-0.20685956 -0.22892451 0.222329
-0.036131553 0.13013384 -0.013288375
0.2057538 -0.02864153 -0.1487551
0.17312643 -0.1564766 -0.07284376
-0.12245404 0.19566667 0.015024425
-0.10392553 0.119235665 0.057825267
0.18086681 -0.0047943895 -0.019836916
-0.12756044 0.099470295 0.051746346
-0.15853192 0.030781576 0.076110035
0.028472187 0.2517362 -0.040160485
-0.25511757 -0.18079798 0.2189268
0.21436466 0.085805915 0.009471385
-0.15080525 -0.17266962 0.1767217
-0.11959941 -0.048513718 0.13030349
0.31613415 -0.061618708 -0.1977587
0.14571679 0.20332325 -0.06347588
-0.095732234 0.14963993 0.050582647
0.16860448 -0.23288499 -0.12900352
0.096306905 0.14655422 -0.048393536
-0.07114913 -0.009887557 -0.02921367
0.1270042 -0.12745395 -0.02794054
-0.078336515 0.08832559 0.044517662
0.18280807 -0.22918178 -0.13164663
-0.12005098 0.17918158 0.027620537
-0.24948344 -0.059956342 0.13331337
-0.074066445 -0.19135886 0.022163346
0.019147184 0.32545826 -0.1374649
0.1447393 0.12683834 0.022268003
-0.22808146 0.046307966 0.041023493
-0.14507681 0.21011652 -0.019877428
0.018887736 -0.04672046 0.0029227792
0.016567893 -0.2595365 -0.014067529
0.04233622 0.060644012 0.05424854
0.10950761 -0.047707245 0.10438825
-0.15595287 0.11676527 0.072180934
0.028163988 0.16572051 -0.06935696
-0.12875682 -0.21045598 -0.006331953
-0.0740295 0.2747694 -0.047450215
0.060710553 -0.21917433 -0.02274896
0.18300706 -0.021472104 -0.1202191
0.041798376 0.11925983 0.03354373
0.07332377 0.13771348 -0.08840841
-0.11289004 0.16920988 0.0657131
-0.12113695 0.20570025 0.001577367
0.19538009 -0.14301385 -0.10144368
0.0600492 0.11350991 0.04698539
0.15699044 0.24648008 -0.19770963
-0.047998704 0.12757726 0.01177249
-0.024874194 -0.14041963 0.008693816
-0.23599064 -0.019578563 0.08465208
-0.16830058 -0.17537786 -0.003311338
-0.036333833 0.16589409 0.054039706
0.1255544 0.25239763 -0.08907068
-0.02015889 -0.044853874 -0.039489213
0.19946177 0.2097004 -0.11821632
-0.12987179 0.057469983 0.09465568
0.24090602 0.21327165 -0.22189067
-0.25927436 -0.18268093 0.20372276
0.034984555 -0.15963869 -0.027543595
-0.22332326 -0.13288145 0.17216243
-0.21119337 -0.037264932 0.093397334
-0.25166592 -0.15507619 0.2152142
-0.014135996 0.07192385 -0.016533146
-0.06449848 0.035355836 0.03669039
-0.06406012 -0.04105062 0.03809674
-0.0851103 0.105547294 0.06461684
-0.10237528 -0.06051288 0.11049843
0.17618468 0.04962695 -0.14208946
0.26359853 0.07604581 -0.11290641
-0.11197907 -0.13385797 0.13201183
0.061416827 -0.185819 -0.032089345
0.14886193 -0.046615843 -0.13190946
-0.2867885 -0.23544243 0.07251438
0.045593858 0.06790415 0.08632553
-0.2794118 -0.16537948 0.17252953
0.23587841 -0.06390402 -0.12900497
0.08217029 -0.07013678 -0.05866321
0.20292775 -0.08396286 -0.13804391
0.1418032 -0.2961677 -0.09585159
-0.17357783 0.14050862 0.05981432
0.14703895 0.05395609 -0.12234909
-0.045030594 -0.119627595 0.030428253
-0.14337993 -0.05111213 0.17789532
-0.33417052 -0.17528623 0.16855915
0.16228911 0.03647957 -0.026787939
0.011293176 0.05523932 0.022899674
0.12749487 0.13193148 0.02307372
-0.108495474 0.22716653 0.0060101068
-0.107715204 0.2424451 -0.014352615
0.13795124 0.27771088 -0.09417917
0.057323806 0.209441 -0.011988437
-0.039341938 -0.11853238 0.04328503
-0.29130608 -0.07265484 0.16170819
0.16278936 -0.2261304 -0.08913789
-0.20698658 -0.16809094 0.22475527
-0.0022138366 -0.03509327 0.023500849
-0.04811192 0.16685835 0.03609235
-0.13723366 -0.15631688 0.15691905
0.12652126 -0.2779173 -0.15332995
0.22372402 0.10083582 -0.1525272
-0.0031188864 0.042452797 -0.05315342
-0.019610707 0.004185138 -0.028286861
-0.18510689 -0.058742523 0.14571287
0.21433187 -0.017630527 0.046294495
-0.2262673 -0.03307441 0.11376893
0.07746506 -0.010291327 0.091321535
0.2574901 0.090030275 -0.16911054
0.22628579 0.15090767 -0.12443341
0.021669777 -0.29253218 -0.0843999
-0.01237029 0.22371024 -0.009962341
-0.15652117 0.09582273 0.0829099
0.09941235 -0.24473134 -0.060666684
0.23383519 -0.10253723 -0.10413538
0.08984597 -0.13430147 -0.07849823
-0.050351802 -0.10446065 0.021021077
-0.11164207 0.23338786 -0.008049946
0.29828468 -0.13237654 -0.18557428
0.30113608 -0.0042595053 -0.18695062
-0.039123286 -0.111204825 0.050259184
-0.053315215 -0.15772873 0.009394134
0.20963432 -0.08337091 -0.07900853
0.2531966 -0.13008991 -0.15620366
0.2623148 0.19313307 -0.21492286
-0.20510764 0.03994177 0.09167609
0.05183867 -0.012619013 0.07140105
-0.09125884 -0.18773852 0.023345815
-0.181888 -0.02773217 0.15478915
0.1489774 -0.107992746 -0.11862753
-0.24149863 -0.11945256 0.2112427
-0.23317647 -0.13693427 0.19522135
-0.09673799 0.11451675 0.09472525
-0.06285459 -0.033858415 0.018054245
-0.017349632 0.03276078 -0.038553
-0.10536753 -0.13306907 0.040832527
-0.09743671 0.13417123 0.050469704
0.05592182 -0.15266456 -0.025509624
0.06585418 0.24299328 -0.045164287
-0.09432144 0.265719 0.0051755076
-0.20885812 -0.15606424 0.18196434
0.22548735 -0.090429515 -0.11456253
-0.17943864 0.22183914 -0.0026162632
-0.30738434 -0.18325873 0.19826816
-0.066835664 -0.09179901 0.054283246
-0.1453249 0.13608159 0.021783361
-0.190718 0.08729885 0.04764507
0.039811455 -0.26923946 -0.03371575
-0.21571605 -0.16165559 0.1985417
0.077138186 -0.1529217 -0.031743575
-0.04930774 0.18786088 0.03396359
0.19235851 -0.0895114 -0.1223993
0.28061226 0.006897767 -0.14656156
-0.08782 0.042543717 0.081000574
-0.15546356 -0.12850522 0.16365166
-0.028116817 0.128545 0.030611204
0.09918472 -0.102841586 -0.09737161
-0.16068077 0.119054355 0.06483559
-0.10073721 0.21867144 0.00045103751
-0.040150914 0.08841211 -0.010649196
0.21593355 -0.11422983 -0.07777942
-0.035207395 0.11165536 -0.050374772
0.113748714 0.299985 -0.12683508
0.05033304 -0.29942906 -0.053990588
0.1987533 -0.20610347 -0.1328147
0.15654264 0.2271086 -0.07054885
0.057243902 -0.12402494 -0.023499396
-0.007969064 0.14597993 -0.0704206
-0.04690259 -0.111782424 0.050707806
-0.21156381 0.050990563 0.06560963
-0.01664083 0.08438177 0.012681113
0.18078962 0.09481058 -0.03706106
0.04324144 -0.061731968 -0.007269423
-0.17848608 -0.0004952336 0.09877141
-0.08860709 0.24887626 -0.052611444
0.08490754 -0.2386638 -0.065133534
0.22156133 0.02373604 0.026693443
-0.12993905 0.060031384 0.08915217
-0.08194168 -0.19812436 0.049246583
0.014565382 -0.29551667 -0.00038117878
0.020884901 -0.029685043 -0.07099452
-0.2716338 -0.08251977 0.13352455
0.1098878 -0.16754095 -0.019483548
0.23439988 0.13079606 -0.13906719
-0.15022637 0.090133585 0.09563597
-0.0812646 0.016363997 0.051886708
-0.18080987 0.13589008 0.04803359
-0.11094255 -0.08798369 0.028055409
0.059910636 0.30348638 -0.08960364
-0.09874563 -0.092257105 0.05922354
0.023981513 0.28912488 -0.06573046
0.16320609 0.23978962 -0.12063554
-0.039952133 0.12399747 0.059297312
-0.110418566 0.09001883 0.093083516
-0.033199444 -0.22664253 0.012034359
-0.078130186 -0.066588774 0.06803705
-0.17221968 0.07139244 0.112707004
0.18856572 -0.13098419 -0.08915224
-0.073142976 -0.21462673 0.01950518
-0.27836126 -0.09757386 0.18110783
0.103173815 -0.23779836 -0.09255257
0.24915645 -0.1670727 -0.15580563
-0.06577506 0.29050773 -0.017488929
0.004596547 -0.22544594 -0.00097425614
-0.17507987 0.17248294 0.02247045
-0.20591776 -0.15273118 0.1886052
0.13429734 0.15232009 0.04753429
0.123148166 -0.227312 -0.04927325
-0.076292366 0.27700856 -0.04157112
-0.062016204 0.00508447 -0.022049291
-0.2557151 -0.15303463 0.19532053
-0.09795848 0.20890014 -0.015688531
-0.06627815 -0.048997715 -0.0033685325
-0.23828349 -0.088091 0.18238279
-0.06392637 0.015395295 0.034453
0.07616615 -0.030107869 0.10237035
-0.14200203 -0.06740609 0.15663196
-0.22292092 -0.29508767 0.12115497
0.15055466 0.24535824 -0.16548015
-0.06578073 -0.08484638 0.04871657
0.031194452 0.23688044 -0.017751668
0.02338698 -0.016615886 0.044804536
0.29035577 0.072435886 -0.18643214
-0.14699325 0.14122938 0.07061392
0.015743285 -0.17723837 -0.007999244
-0.20466807 -0.013277502 0.13713188
0.3114829 0.021791145 -0.19746843
-0.058543075 -0.25682175 -0.034374986
-0.0337859 -0.09957532 0.04267924
-0.20318837 0.19352214 0.028495012
-0.046915356 -0.20324712 -0.00071407884
0.17567292 0.122613214 0.049415488
-0.24252774 -0.074361175 0.1323433
-0.115362585 0.055691328 0.09574468
-0.25537312 -0.14189936 0.178121
-0.2268655 -0.21893045 0.2151772
0.08065574 0.20707902 -0.051370487
-0.1879022 0.17279232 0.05211248
0.025584964 0.07615463 0.05683406
-0.13018106 -0.10395582 0.13643971
0.031069081 -0.01409867 0.07033131
0.032145955 0.15063646 -0.07597716
-0.01200853 0.05054503 0.019328699
0.26618055 -0.018679492 -0.1368348
-0.14755571 0.010423291 0.08951237
-0.035495427 0.18327354 -0.01116062
-0.22896323 -0.11989974 0.22182292
-0.08466403 0.030257368 0.05942417
0.09781945 0.32052007 -0.17853281
0.04155494 0.24523649 -0.028655918
-0.21123631 0.078865215 0.029126434
0.16211784 -0.039826624 -0.08674696
0.25083885 -0.09801541 -0.13619848
-0.25097004 -0.15077905 0.21336402
0.012403074 0.18217036 -0.030694915
-0.19267422 -0.11361314 0.18165058
0.14859863 0.13752933 0.005646356
0.13445331 0.079050966 -0.11906315
0.25796333 -0.20447823 -0.13716285
-0.0013201765 0.06593093 0.0291717
-0.012517113 -0.12465529 -0.01642656
0.066740446 0.032828066 0.10483136
0.17025028 0.32528847 -0.18608549
-0.27462435 -0.098539 0.1625554
0.2670464 0.038278416 -0.13428757
-0.17915787 0.16995907 0.029043315
-0.03784324 -0.2767619 -0.03762007
-0.018406464 -0.07313817 -0.019173874
0.21381404 0.27312258 -0.19907773
0.1140667 -0.045094933 0.044490583
-0.14068197 -0.082485445 0.022441141
0.16586232 -0.07142409 -0.104344934
-0.021069134 0.057675373 -0.033111807
-0.073058724 -0.27722728 0.00895461
0.20934623 0.20413598 -0.18662304
0.047387697 0.092560984 0.11316097
0.22075376 -0.0673829 -0.10302526
-0.14184631 -0.13518192 0.05931987
0.08965851 -0.25921425 -0.05753323
-0.072711945 0.20100029 0.056154832
0.27684122 0.0011167818 -0.11844419
-0.16338885 -0.1786961 0.1739797
-0.18992819 -0.19357498 0.21593507
0.016115377 0.06727459 0.08280389
-0.21950932 0.029764177 0.06942629
-0.06318331 -0.01315992 -0.031453904
-0.016735911 -0.106291406 -0.030942546
-0.25503048 -0.20247996 0.22812882
-0.25077352 0.01715929 0.06884158
0.2709467 -0.039819855 -0.1899703
-0.22433251 -0.078914724 0.1829393
-0.073968045 -0.062963516 0.031674802
0.02455907 0.022198278 0.08376268
-0.16680329 0.038571946 0.09878096
-0.21965742 -0.13550782 0.18733945
0.27349162 0.06830613 -0.15200487
0.018817514 0.09953344 0.050031226
0.2883052 -0.035989378 -0.15121408
-0.2024524 -0.11233298 0.18932353
0.06669937 0.32713285 -0.13887586
0.10596408 -0.2791012 -0.07008297
0.10632302 0.2707346 -0.1340726
-0.038086023 -0.077096 -0.041004885
-0.05959984 0.16001108 0.06985371
0.20341618 0.0089267725 -0.0090591395
-0.22852507 -0.15556334 0.22230123
0.0346667 -0.027356453 0.04968574
0.10036796 -0.09424084 -0.09510511
0.22136338 0.04646741 0.006507486
0.015750667 0.09425299 0.022465128
0.19348933 -0.047288008 -0.1322363
0.16323616 -0.073760614 0.017618073
-0.032589626 0.09592215 0.06441404
0.2825052 -0.020532066 -0.13406892
0.03589588 0.06952721 0.08770442
-0.08734987 -0.09891938 0.0422992
-0.21547748 0.018341782 0.027710453
0.08339735 -0.2807662 -0.06098285
0.010682372 0.24492212 -0.059215173
0.2156482 0.20119412 -0.14310114
-0.19393943 -0.20369005 0.20675625
0.11823198 0.123844855 -0.045299865
0.26094586 0.19247527 -0.21445544
-0.143265 -0.04499006 0.15118672
0.07497765 0.101025954 -0.13735604
0.21990907 0.09755073 -0.13737783
0.05806714 0.04890159 0.06727024
0.04735486 0.10571464 -0.09014322
0.0879058 -0.24682593 -0.029006535
-0.18085305 0.13651073 0.04350603
0.10297029 -0.10435267 -0.059540644
0.04919902 0.05934819 0.07882765
0.096176535 -0.19896506 -0.027625224
-0.04405317 -0.03758008 0.0013635528
-0.0067126504 -0.01692203 -0.017901659
0.058854185 0.26885444 -0.037605684
-0.30684906 -0.16091588 0.16737942
-0.032661077 0.2768304 -0.063812554
-0.016737863 -0.22255413 0.01632425
-0.20876007 -0.06497011 0.18256971
0.027828565 -0.25713924 -0.0064869234
-0.20181815 -0.08033171 0.16062373
-0.16251202 -0.04350222 0.14942782
-0.0030436579 0.26852283 -0.04007616
0.18240185 0.2212395 -0.15713327
-0.13951671 0.2036618 0.03833421
-0.005052888 0.04836847 0.010712423
0.22610903 -0.06683253 -0.11771246
-0.20594566 -0.17861713 0.18669522
0.20650025 0.04085735 0.033614576
-0.10414902 0.008811411 0.06503964
0.053268638 0.069181666 0.12789138
-0.21356508 -0.20132956 0.19920301
0.22601703 -0.016833557 -0.13664319
0.055237968 0.2910924 -0.11184413
0.14342049 0.13158458 -0.014555072
-0.19502412 -0.025943011 0.11991497
0.22016092 0.00091627694 0.028328918
0.016551701 -0.04409982 -0.011732237
-0.21380423 -0.07988467 0.1884771
-0.23237012 -0.20127326 0.21968736
0.10999286 -0.1572505 -0.027229564
-0.11541505 -0.12689443 0.043349516
0.015792085 0.22734508 -0.038684048
0.16214405 0.11249996 0.058067705
0.12073754 0.1319344 0.022821728
0.008167989 0.01792415 0.064167246
0.15322727 0.07762419 -0.03236797
0.0029672699 -0.12022945 -0.007268801
-0.24296668 -0.27044678 0.111565545
-0.29190198 -0.079046555 0.116212115
0.0885515 -0.21081035 0.0056123445
0.15442589 -0.022577042 -0.016560325
0.16281438 -0.071053274 -0.111127734
0.12480354 -0.115401804 -0.07411253
0.060327146 0.2995641 -0.07669162
-0.119253516 0.2171626 -0.003915603
-0.13217485 0.09941493 0.04696777
0.17795064 -0.05572629 -0.11873033
0.16551913 -0.16685857 -0.0504581
-0.27826652 -0.21001275 0.08597345
0.10819025 -0.22819889 -0.08082137
-0.09734843 0.2566476 -0.08411686
0.16840255 0.1420975 0.008219109
0.28032386 -0.0072550117 -0.22322056
0.16587093 -0.23168783 -0.10779318
0.082407534 -0.025705278 0.08590242
-0.017711055 -0.2659741 -0.0032977953
0.092533335 0.3209213 -0.13008657
0.027619878 0.22600067 -0.011531689
0.28894588 -0.04507402 -0.19318563
-0.28291413 -0.122732185 0.13519284
0.19012676 -0.055507023 -0.13723399
0.20145267 0.06935283 -0.024593059
-0.066775255 0.12506995 0.07792807
-0.14303914 0.04445101 0.08016419
0.074732594 -0.2848603 -0.03930986
-0.1803328 0.10536432 0.06923341
-0.015251777 -0.07258012 0.0030893376
-0.21765378 0.03457023 0.07535196
0.075649336 -0.016509516 0.094171755
-0.0682056 -0.1632914 0.016150016
-0.083587304 0.14965646 0.048011236
-0.13092226 0.15857354 0.0427011
-0.10897395 0.2062054 0.002882293
0.102481976 0.2702903 -0.08476542
-0.16703825 -0.052877177 0.1650221
0.27128232 -0.102126986 -0.16406214
0.15626557 0.13953094 0.03509255
-0.08965619 -0.14608593 0.038772542
0.02187701 -0.29726604 -0.095719285
-0.18950985 -0.1456232 0.18739407
-0.05247075 0.06779444 0.053009875
0.031727 -0.0040370445 0.0063089496
0.094521716 -0.1519875 -0.019020393
-0.01946801 0.14746433 -0.03861751
-0.09369932 0.06199455 0.08262536
-0.028845979 -0.20302351 0.005734338
0.17487448 -0.21893483 -0.10900003
0.24825825 -0.14828625 -0.1554885
0.14278038 -0.0612585 -0.119072884
-0.0601605 -0.086526565 0.0036487668
0.1383676 0.13713361 0.0032355036
-0.17836317 0.20072843 0.019047169
-0.28621358 -0.166492 0.17701475
0.07101138 -0.021297902 0.032140344
0.17664811 0.12544174 0.006643755
-0.26842764 -0.2787516 0.12944338
0.03890078 -0.26812142 -0.033634745
0.01010062 0.013461041 0.0094246175
-0.009028408 -0.2733844 -0.044916596
0.18544216 -0.09740925 -0.116501115
0.16072266 -0.035264038 -0.05355142
0.021007527 0.32937455 -0.0966735
0.15956345 -0.24113254 -0.093684174
-0.07889337 0.07595599 0.075488344
-0.15303864 0.16852416 0.022354791
0.07601058 0.13171875 0.06745476
-0.16096194 0.03207301 0.128929
0.07113817 -0.2822523 -0.109723285
-0.020258954 -0.12183274 -0.024655849
0.129098 0.12304636 0.071391925
0.088614605 0.21221659 -0.045551054
-0.043005012 -0.122215904 0.016199967
-0.13597916 -0.079493396 0.08723659
-0.14110723 -0.07721713 0.094544746
0.012863256 -0.21296392 -0.007029423
0.12126472 0.11258055 -0.037611023
-0.12614362 0.25539443 -0.0499512
-0.071281984 0.22970879 -0.018651882
-0.30386263 -0.19683005 0.15336397
0.16826332 0.09104332 -0.0031923861
-0.04461543 -0.13439669 0.036378182
-0.048521962 0.07211508 0.03264622
-0.1619091 -0.035883483 0.11933771
0.07821191 0.20160969 -0.042188294
-0.11450993 0.27044842 -0.022469794
-0.2978421 -0.18645866 0.20009087
-0.04202534 0.28560698 -0.039118994
-0.19840443 0.117731445 0.065820254
0.0072308606 0.10945934 -0.051800665
0.14698663 0.30753502 -0.13743347
0.030772364 0.21307558 -0.03937323
-0.054942783 -0.21784434 -0.007747135
0.16449466 -0.031578694 -0.03796673
-0.064909585 -0.10679873 0.037075903
0.29066652 -0.025245372 -0.19588391
0.17171654 0.22006881 -0.11433619
-0.04068755 0.23846589 0.015400565
-0.024517372 -0.05835547 -0.04361318
-0.11944379 0.042424385 0.09483119
-0.065453485 0.18910299 0.042293746
0.18946636 -0.02539745 0.030546384
-0.14575294 -0.06267441 0.1444277
-0.10656336 -0.06802664 0.0573787
0.0651577 -0.19561522 -0.062478967
-0.19031428 -0.12098143 0.18268418
-0.09358325 0.05169557 0.11303972
0.021291917 -0.20525867 -0.023343135
0.13986391 -0.14203563 -0.06917565
0.30633816 -0.07160246 -0.2078877
0.097581744 0.14756183 -0.045863487
-0.116935015 0.28456506 -0.036012962
0.0844765 0.12327226 0.014193041
0.12672298 -0.19491684 -0.078452624
0.17194566 0.14365196 -0.118398175
-0.21909107 -0.1935971 0.17691055
0.081504844 -0.14824677 -0.0075364965
0.097007856 -0.24487269 -0.070561476
0.062472966 0.3095603 -0.122250564
0.30508414 0.057400167 -0.17375389
-0.1611346 -0.11741685 0.17806552
0.22399926 0.0019834281 -0.119726986
0.12028463 0.0040196343 -0.13397013
-0.25311893 -0.041419294 0.17485802
-0.06812901 0.23361051 0.028670074
0.0748056 -0.05975164 0.017437933
0.08343393 0.28857055 -0.12660299
-0.09891766 -0.012712907 0.036849067
0.040001184 0.14042598 -0.014080846
0.18275777 -0.1578543 -0.090464756
-0.19985656 -0.08330911 0.1734176
-0.033222783 0.23588026 -0.012897134
-0.29915264 -0.22371934 0.19523603
-0.22261284 0.0795052 0.03964331
0.20148382 0.1910092 -0.10500582
-0.08842624 0.057763945 0.09050367
-0.07295654 0.28439194 -0.03186168
0.05433348 -0.06454848 -0.025058191
0.3048667 -0.009756605 -0.20888613
0.13540831 0.1432245 -0.12046792
-0.046523754 0.23941381 0.0042796754
-0.07389368 0.22209378 0.04108577
-0.015491109 -0.15689263 0.011142391
-0.17788538 0.23210168 -0.06788895
0.27290684 0.14368472 -0.22692953
0.27857757 0.09807801 -0.21291511
0.23432 0.18278016 -0.15403801
-0.04328384 -0.04880539 -0.023044184
-0.045380127 0.28846812 -0.06343366
0.042921055 0.2464764 -0.030623564
-0.2278092 0.11281342 0.00085583987
0.14465839 0.25490594 -0.16147278
0.11478183 -0.09493694 -0.10772129
-0.24691004 -0.08145122 0.16584234
-0.046685673 -0.16252589 0.016019123
0.2149175 -0.041083828 -0.08919142
-0.28541237 -0.238424 0.2048047
0.26293862 -0.044366524 -0.09218175
-0.029201256 0.22600667 -0.00317842
0.023295613 -0.21960773 -0.028171806
0.04544563 0.093219236 0.06740843
0.1454939 -0.12253792 -0.09705377
0.063407764 0.29665405 -0.13795514
0.15126829 -0.05541073 0.029502051
-0.12004968 0.28026146 -0.08674638
0.00487858 0.18265489 -0.014522529
-0.13783754 -0.11656946 0.1314735
0.20723872 0.2133263 -0.18043518
0.13585015 0.160866 -0.12779725
0.15259485 0.23819709 -0.08954353
0.0638736 0.008519296 0.078540474
-0.0030914692 -0.013041877 -0.014631623
-0.043069582 -0.12987144 0.0023862661
0.22358525 -0.12910748 -0.13896145
0.074410714 0.26301706 -0.07685855
-0.021929393 -0.14538477 0.0043685315
-0.12186193 0.0642664 0.10720353
-0.24256222 -0.034151766 0.08296509
-0.0664451 -0.024146335 -0.028192079
0.12216552 0.13253944 0.048358437
-0.23102513 0.056081537 0.069118515
0.1776366 0.012244231 -0.14299919
-0.035743013 -0.1064002 0.04903166
-0.2508128 -0.035501853 0.087446705
0.2850184 0.0036866285 -0.13030232
-0.06378704 0.14923377 0.07608496
-0.07579673 -0.2658114 0.03766959
0.034024186 0.31087154 -0.076676644
0.039779 0.31614563 -0.12452803
0.335934 0.032161012 -0.24140641
0.20901376 -0.06795286 -0.10477223
0.2812794 -0.0633576 -0.16028805
0.2172689 0.14669682 -0.13307352
-0.078896135 0.104275905 0.059958186
-0.059045266 0.063756615 -0.0008352814
-0.2459377 -0.22787702 0.21236584
-0.14114313 -0.089944705 0.07956969
0.28307 -0.15743107 -0.18975572
-0.23144269 -0.05934007 0.1560627
0.14788641 -0.2316289 -0.09954066
0.047847375 -0.058888413 0.05227636
-0.062388595 -0.049220175 0.012455315
-0.07963774 -0.14776173 0.022644348
-0.14349018 0.0946163 0.07249456
0.103139535 -0.16227764 -0.027956897
-0.05263816 0.13451087 0.034154017
-0.20241147 -0.003106065 0.11846434
0.015447839 0.18480329 0.0019597139
-0.29071024 -0.14726055 0.1680429
-0.12812425 0.15857244 0.027059577
0.06543239 -0.08242201 0.01647623
-0.012813458 0.20773141 0.015035531
-0.27957913 -0.23803025 0.096650094
-0.1577981 -0.11936421 0.16052218
0.06081483 0.26062962 -0.060727805
-0.1546392 -0.11339166 0.19331776
0.22250561 -0.16362399 -0.10794315
0.07940327 -0.15620483 -0.009591751
0.058834307 -0.2523607 -0.05356654
-0.028897617 -0.20991668 -0.0032645678
-0.121395215 0.09543782 0.07758592
-0.26008236 -0.15593469 0.19420284
-0.17613992 -0.0027066106 0.09315031
0.11406622 0.217998 -0.08530576
0.12411317 0.10270591 -0.021957645
-0.12815838 -0.19542168 0.031011226
-0.16269156 -0.011058801 0.12918013
-0.0038501197 -0.2821801 -0.05255925
0.03093487 -0.22093983 -0.024955826
0.30704376 -0.06624403 -0.19247079
0.033523884 0.1733993 -0.045320157
-0.01302111 -0.028625088 -0.041155044
-0.13325042 0.22261067 -0.012088229
0.040590882 -0.27891678 -0.010035551
0.13387981 0.06358026 -0.08190243
0.06705939 -0.09640043 -0.037847977
-0.25153503 0.19215675 0.005221197
-0.19098033 0.0072237463 0.13184816
-0.113618456 -0.21818402 0.017169636
-0.19904959 0.056682985 0.043614075
-0.1684681 -0.046996225 0.15377316
-0.20151217 -0.017843539 0.09636225
0.03305434 -0.2672334 -0.008832659
-0.15349518 0.21655366 0.021550568
0.011489841 -0.24934237 -0.004128957
-0.2144093 -0.22559746 0.19033583
-0.113803625 0.1523768 0.065662704
-0.013053677 -0.23410867 -0.0024435795
-0.04041661 -0.021714171 -0.03228836
-0.031578925 -0.2998726 -0.0819019
0.05499066 0.23599145 -0.049697015
0.01561526 -0.27332145 -0.0521468
0.26280734 0.00037757715 -0.1439138
0.0730357 -0.024688216 0.106051326
-0.08059166 0.16140364 0.026816873
-0.19630854 0.012767528 0.0882438
0.01472492 -0.25784907 -0.029970214
-0.16767941 0.09544941 0.035521492
-0.111635745 0.28387588 -0.09179299
-0.14938278 -0.013219498 0.115320824
-0.15276754 0.11865205 0.04086927
0.023648528 0.28596047 -0.097248115
-0.30092728 -0.20238747 0.11225343
0.043055777 0.1875693 -0.0078343265
-0.12938207 0.062860556 0.09299734
0.11547706 0.29297054 -0.12084255
-0.054998208 0.13639306 0.073330365
-0.08092833 -0.0033202257 -0.023297338
-0.25334316 -0.15896818 0.17075069
-0.2664216 -0.11532311 0.18192343
0.14500372 0.3220511 -0.17918716
0.015875138 0.33833125 -0.0866706
0.06091349 -0.22359082 -0.072079845
0.20374224 0.19111145 -0.089648165
-0.13322219 0.1515174 0.035155427
-0.029075231 -0.29178166 -0.06817275
0.049932428 -0.02017479 0.11404108
0.18732525 0.27538097 -0.15686864
0.062584825 0.1372857 0.054627378
0.06595449 0.026635146 0.10774173
-0.010738102 -0.00473847 0.022931455
0.26394403 -0.12950096 -0.1611175
0.18911093 -0.05556745 -0.09429552
-0.16795532 -0.16420802 0.2095168
0.29679585 -0.036905847 -0.16714929
-0.14068665 -0.10765312 0.100440316
-0.28902417 -0.19989361 0.20135081
0.1115295 -0.27196047 -0.06603632
0.19593135 0.25656638 -0.17615642
0.06582462 -0.061936155 -0.09012961
0.27221057 -0.21097773 -0.16648412
-0.1707321 0.18844894 -0.001365209
0.25408152 -0.14710586 -0.14330828
0.06338396 0.019096317 0.1092916
0.018347258 0.15045917 -0.08304569
-0.07258628 0.02780285 -0.015884569
0.055692583 -0.035756536 0.06782747
0.10860141 0.24570005 -0.035177894
0.018600125 -0.006341075 0.0830468
0.15336922 -0.16046792 -0.053910818
0.28294042 0.11824763 -0.21325313
0.08127757 -0.25751594 -0.041212663
-0.153951 0.08676872 0.064865075
0.16250035 0.19843093 -0.10845566
-0.23239996 0.04127519 0.008947683
0.036920942 -0.0027797145 0.04056327
0.17482218 -0.081118464 -0.095072046
-0.035895396 0.16876982 0.01578747
0.33068174 -0.096507326 -0.18596527
0.17116514 0.13213155 0.0449831
0.27033836 0.035103764 -0.21989058
0.1474816 -0.055242322 0.03254124
0.24226758 -0.028082844 -0.13097227
0.13960995 -0.15321691 -0.055629633
-0.13208492 0.2081285 0.004612256
-0.12818675 -0.05845975 0.052980952
0.06948313 -0.16480976 -0.023974508
0.16009513 -0.034924053 -0.10272791
-0.19745666 -0.1350042 0.17236128
0.021053303 -0.19140434 -0.010885676
0.20465432 0.117076606 -0.12461376
0.31644714 0.07032422 -0.20639065
-0.21965581 0.10874994 0.063238375
0.30044216 0.037373077 -0.21027714
0.06617878 -0.24160175 -0.0825146
-0.014010381 -0.115786314 0.02796482
0.28235075 -0.06506668 -0.17468384
0.30532512 0.09752818 -0.19786805
0.0072890236 -0.11567707 0.009318697
0.12416757 0.13364297 0.05639527
-0.019313278 -0.09573554 -0.029203366
0.29485896 0.008182144 -0.22339323
-0.23968935 -0.21857144 0.076656096
-0.086248465 0.29755476 -0.10387332
0.020696968 -0.18261968 0.013628097
-0.25856525 -0.036017686 0.124641046
0.22025418 -0.16875178 -0.12239064
-0.051552687 -0.014312707 -0.041664165
0.28738353 -0.06707938 -0.14097081
0.12351314 0.1624753 0.017055765
0.08459607 -0.052481305 -0.035442878
-0.020398235 -0.013220657 -0.01817305
0.21774946 0.03805965 -0.14995335
-0.054858837 -0.21570316 0.0361173
-0.21566676 -0.130469 0.20912912
0.04496568 -0.25881445 -0.07026631
0.17743932 -0.057527006 -0.114220425
0.036885288 -0.21708086 -0.05321255
0.1816151 -0.109145485 -0.09782007
0.12009063 -0.018909851 -0.12918788
0.23817247 0.17728567 -0.2115199
-0.015435261 0.1282886 3.140461e-05
-0.14876108 -0.1476726 0.037733883
-0.13947484 -0.15910165 0.032972686
0.26754686 0.15170938 -0.22471729
0.15997733 0.20012622 -0.09422421
0.3023128 0.109902985 -0.22448957
0.116856426 0.25607714 -0.06548135
-0.12133137 -0.12162978 0.1181967
-0.15933014 0.2548235 -0.013000288
0.06425327 -0.088046886 -0.09484936
0.011685212 0.0039603156 0.047875337
0.09240002 -0.07426334 -0.0036862935
-0.0020024197 -0.10842331 -0.0027563663
0.01015573 0.18755442 -0.02230806
0.23129424 0.19350722 -0.14231294
0.16594712 0.19113795 -0.09698283
-0.19530146 -0.14477672 0.19083288
-0.19526441 -0.15784049 0.18898138
0.23248222 0.07871922 -0.12832722
0.26059413 -0.02474521 -0.10584887
-0.34480822 -0.19675076 0.18551841
-0.12529406 -0.032531444 0.044918556
-0.030149255 -0.045168657 -0.03900222
-0.26217905 -0.24399734 0.23770186
-0.27912578 -0.14160843 0.16748469
-0.2002192 0.033582386 0.04655815
0.24650384 0.07993816 -0.10469331
0.22097452 -0.082920626 -0.12190423
0.1881421 0.30838388 -0.22460057
0.03812293 -0.24993719 -0.015022496
-0.06278917 0.27068523 -0.04929996
0.023107274 0.32710305 -0.17072135
-0.30193025 -0.19297433 0.15395655
0.14033677 0.23198035 -0.103263095
0.034267224 -0.09181355 -0.076369524
0.100885004 0.22931115 -0.05237757
0.26452604 0.04028708 -0.13453254
-0.2232023 -0.22357525 0.20913714
-0.15031762 -0.046450496 0.12633263
-0.08502153 -0.1951162 0.023319272
-0.07483917 -0.07702557 0.054119106
0.08426877 -0.20514171 -0.0041889455
0.16626093 -0.17226684 -0.11478853
0.23439753 0.08305876 -0.12331815
-0.10190146 -0.24730499 -0.014049881
0.2361482 0.13835692 -0.120519385
-0.08147394 -0.12198457 0.027319642
-0.19260557 0.09636065 0.023718996
0.19535187 -0.048735138 -0.09830924
0.18875861 0.025548773 -0.025788276
-0.033066586 -0.22922987 0.006738819
-0.15255393 -0.010480402 0.10503764
0.027497582 -0.096197456 -0.04439471
0.032786347 0.23941934 -0.013776622
-0.28160295 -0.16808005 0.19164482
-0.0117909545 -0.05932515 -0.038673833
0.105354965 -0.2576416 -0.073696986
-0.07221479 -0.23967336 0.003187433
0.08123203 0.26126125 -0.0887871
0.20296407 -0.16956595 -0.10208724
-0.010525278 -0.27386168 -0.039611463
-0.16383603 -0.10350176 0.15913625
-0.06840702 0.00223859 -0.012015168
0.16085805 0.2235421 -0.09645583
-0.25228882 -0.1726073 0.2060337
0.16734254 0.28688347 -0.21279353
-0.041283384 -0.24891686 0.02001929
-0.023444988 -0.25567907 -0.0072498145
0.22615637 0.19820812 -0.124824695
-0.23712246 -0.06905351 0.16695113
-0.109227814 0.14651698 0.038516894
-0.13095762 0.07157556 0.084059946
0.243017 0.19177131 -0.21721148
-0.14143203 -0.19533847 0.16371676
-0.059914045 0.23483342 0.0108659975
0.09028208 0.24159598 -0.06844285
-0.20071071 -0.0694729 0.12755951
-0.17183673 -0.048735987 0.14625947
-0.022782309 0.034539625 -0.031582836
0.020459741 -0.2243419 -0.017273998
-0.19438647 -0.07824531 0.1912043
0.30595997 -0.018202363 -0.21064676
0.21794629 0.09481489 -0.12720476
-0.15392129 0.04980594 0.08960029
-0.22073743 0.1877395 0.022306103
-0.05764664 0.24674053 -0.017773304
-0.13899498 -0.0089368345 0.13403416
-0.06738061 -0.057232164 -0.004594805
-0.088674225 0.010319799 0.049534112
-0.20527062 0.19625604 0.015987879
-0.16379397 0.13547994 0.053630132
0.14152463 0.27573824 -0.14245994
0.066489935 0.30398092 -0.08360191
-0.059008885 -0.076033846 -0.009112565
-0.22251745 -0.012691941 0.10227744
0.1877927 -0.24395585 -0.11214164
0.21404745 0.2242144 -0.21541415
