# .PCD v0.7 - Point Cloud Data file format
VERSION 0.7
FIELDS x y z
SIZE 4 4 4
TYPE F F F
COUNT 1 1 1
WIDTH 1000
HEIGHT 1
VIEWPOINT 0 0 0 1 0 0 0
POINTS 1000
DATA ascii
-0.07320249 0.08452686 0.14464225
-0.1430092 0.119069174 0.1460834
-0.06919789 0.13365449 0.18671973
-0.11447723 0.23610567 0.00034127876
-0.22296466 0.004804625 -0.16727759
-0.1823242 0.15204759 0.12818356
-0.29183185 0.09450663 -0.024539135
-0.038706325 0.16122861 0.17512245
0.15478173 -0.07627484 -0.024119964
0.27518505 -0.2198991 -0.12039757
-0.124102786 0.024551777 0.052600455
0.13528544 -0.1585088 -0.09711778
-0.22765128 0.16151987 0.10365657
-0.029486718 0.013375937 0.14207321
0.008992293 0.020237802 0.11229455
0.020523546 0.07835252 0.16433091
0.26514673 -0.05366294 -0.08142623
-0.053188983 0.09917392 0.18670192
-0.104457654 -0.020291958 0.07830015
-0.042224962 0.050509904 0.13363743
0.21417084 -0.16628738 -0.07303074
0.092147484 -0.13865577 -0.095947385
-0.1900871 0.24064468 0.07781793
0.3266113 -0.15325776 -0.17792761
0.2048055 -0.2731835 -0.121750616
-0.22227876 0.13653867 0.06877736
-0.020730037 -0.1034983 -0.0038730146
-0.032152753 0.06873845 0.13362886
0.24016362 -0.12996982 -0.08360734
-0.1497199 0.2208467 -0.015001034
-0.20255347 0.22181322 0.057185728
-0.19056779 0.15350257 0.12740925
-0.060038846 0.039129995 0.07937725
0.17883107 -0.28780562 -0.16665983
-0.19173244 0.089164115 0.039608426
-0.21191324 0.2069765 0.085260116
-0.2587094 0.18910687 -0.09712312
-0.18861164 -0.020509562 -0.06705738
0.22377443 -0.033741117 -0.29024786
0.15081944 -0.24462163 -0.15696387
-0.24611841 0.101014234 0.048509244
-0.044827815 0.036935877 0.11346116
0.08412891 -0.0923746 0.027624225
-0.2434812 -0.04210502 -0.21537533
-0.13570966 0.20656526 0.079255074
0.09727131 -0.0923204 -0.016720047
-0.08018121 0.17044932 0.13804895
-0.09299359 0.15820472 0.17789693
0.05379464 0.039115388 0.15946373
0.06826021 -0.06562239 0.03239105
-0.13383439 -0.06030786 -0.21195766
0.16394885 0.0382341 0.013743989
0.21624425 -0.26775405 -0.13315445
-0.13038664 0.12069143 0.1363279
0.10343947 -0.2394422 -0.16860977
0.057814825 -0.011944606 0.093671754
-0.17841297 -0.003205964 -0.09170603
0.105543554 -0.1730039 -0.1574856
0.22482966 -0.2787931 -0.14144342
-0.18913093 -0.08152904 -0.098797046
-0.19934711 0.040297076 -0.051968727
0.13281067 0.017204393 0.10117095
0.08249569 0.04462595 0.14777744
-0.03721968 0.13923779 0.13860518
-0.0038926404 -0.0040569548 0.117335595
0.2729911 -0.08708621 -0.13565157
0.18170439 -0.20499709 -0.09785655
-0.18101391 0.022110924 -0.08799194
0.27621347 -0.25373992 -0.12136727
-0.12159382 0.13663988 0.17786732
-0.0450049 0.083965205 0.15860339
0.29616985 -0.18705043 -0.14277594
-0.2289573 0.14402679 0.11858148
0.12574102 0.042095073 0.055859342
0.3171743 -0.07002771 -0.27069855
-0.05638814 -0.013516388 0.057276327
-0.09331964 0.07365169 0.1400969
-0.14210919 0.20817043 0.12782249
-0.06562045 0.13400544 0.18733385
-0.020865338 0.06424742 0.15086529
0.031162372 0.13372578 0.14592938
-0.059321925 0.063880146 -0.24649313
0.24445307 -0.07606171 -0.2571778
0.04503691 -0.061209425 -0.028059065
-0.09585933 0.22588903 0.06915727
-0.114670016 0.1721424 0.13686761
-0.009644088 -0.05011176 -0.076291434
-0.14140582 -0.019618252 0.083831266
0.33112982 -0.109873205 -0.18708853
0.006240049 -0.074346304 -0.03495834
-0.22796822 0.08364538 0.010359501
0.15617996 0.056167763 0.06377536
-0.23998411 0.124501 0.09590707
0.15914734 0.064843945 -0.007163558
0.075297825 0.06680956 0.11055313
-0.08199755 0.19915186 0.016860586
0.107843675 0.065222405 0.029898627
0.29304612 -0.15841313 -0.14395572
0.21647924 -0.06420057 -0.07458559
0.22932954 -0.14084744 -0.08119301
0.3172337 -0.0772077 -0.1731371
-0.26410264 0.19254965 0.022155141
0.15530847 0.00596509 0.021455375
-0.0065205963 -0.034734372 -0.013466161
0.13804822 -0.17905502 -0.09636682
0.09522635 -0.23705034 -0.22036433
-0.014224054 -0.115991175 -0.15665875
0.3558253 -0.096241616 -0.17491195
0.15995602 -0.057553034 0.03660212
-0.2182771 -0.06326278 -0.030361213
0.07657 -0.043045394 0.08076898
0.03427926 -0.053978298 0.106796935
-0.06146059 -0.12520611 -0.007546433
0.3388361 -0.07911888 -0.18490596
-0.14914784 0.19116029 0.12690648
-0.031080855 0.15666024 0.17618096
0.13259786 -0.044100147 0.061569963
-0.17245147 0.21389927 -0.102016635
0.334366 -0.12496323 -0.16785155
0.11621438 -0.25124332 -0.23657979
-0.11256326 -0.057726175 0.07340921
0.21837857 -0.14928843 -0.0719036
0.04308948 -0.069182664 -0.017977903
-0.024043478 0.11672401 0.18647945
0.027965927 -0.05037211 -0.010392746
-0.12781584 0.045380827 0.04361192
0.09295723 -0.06260757 0.07910421
-0.11874506 0.08361826 0.13721943
0.18557033 -0.018693648 -0.015990708
0.21980636 -0.24776031 -0.1325
0.21866256 -0.23858851 -0.12667808
0.22387846 -0.08743343 -0.037840765
-0.049276255 0.13389365 0.15327056
-0.132139 0.17715313 0.10559592
0.09817487 0.103334874 -0.002697211
-0.29585496 0.15745565 -0.031589694
-0.0008317838 -0.035325732 0.054235
-0.20875189 -0.0026989984 -0.13555509
0.24633233 -0.13249245 -0.084541865
-0.11862973 -0.09925131 -0.12314494
-0.032078214 0.12421073 0.14990555
0.25685954 -0.21570882 -0.10299373
0.050754942 -0.023835251 0.08791469
-0.07829013 -0.0017111306 0.056782898
-0.10126077 0.086225964 0.14930315
0.08058147 0.11432919 0.11454043
-0.16255978 -0.00056845875 0.05566038
-0.061231505 0.18218562 0.13145013
0.1641069 -0.25627428 -0.13572454
0.24886853 -0.13545758 -0.06965623
-0.16610979 0.10618455 0.115532786
0.14078146 -0.23318972 -0.21463381
-0.15592314 0.1479784 0.12781951
-0.09993496 0.021359386 0.09795331
0.17780754 -0.21936652 -0.09999671
-0.01628354 0.11158452 0.16988795
-0.14726952 0.13901569 -0.18542145
-0.082026504 0.13390867 0.14584601
0.15528704 -0.065391906 0.04221258
0.24249157 -0.2973816 -0.12020541
-0.04170599 0.101716965 0.16724919
-0.014551268 0.17896926 0.16112404
-0.059456766 -0.1320478 -0.19937864
-0.005439335 0.09456982 0.18728466
0.058847304 -0.067314364 -0.0036209708
0.092897415 -0.022032075 0.13110559
-0.059264738 0.12213624 0.18975846
0.027995136 0.015811097 0.14158598
0.16414322 -0.22752783 -0.13165507
0.34006396 -0.10944977 -0.16193238
0.024918223 -0.04544271 0.0509703
0.20873994 -0.06759039 -0.033170518
-0.2255005 0.22610207 0.06750953
-0.14814316 -0.030782286 0.040144674
-0.16449778 0.077022746 -0.2354905
0.1331369 -0.00798111 0.1052093
-0.08464707 0.10084845 0.16183619
-0.30941898 0.113132715 -0.05437839
0.26998913 -0.073796615 -0.14871898
-0.1371565 -0.010929203 0.038255125
0.025460653 0.02933262 -0.1893821
-0.26300392 0.04755189 -0.053041585
-0.22101684 0.1577621 0.08568053
-0.18075596 0.07337671 0.047719665
0.007838148 0.04107914 0.16582052
-0.018382018 0.15958668 0.17235596
-0.25635818 0.016696818 -0.12864444
-0.13038255 0.04040318 -0.1128734
-0.14220807 0.14551435 0.16416916
-0.09219018 0.061659757 0.17311044
0.0876421 0.016198967 0.10884733
0.19316338 -0.08845927 -0.01795458
-0.022660848 -0.08391923 -0.18304534
0.3193801 -0.14854148 -0.1566251
-0.08864433 0.22530818 0.1298327
-0.033377104 -0.10609854 -0.20324622
-0.1662228 0.10652826 0.13941137
0.23387498 -0.23847978 -0.12262206
-0.08347902 -0.048414063 0.07426392
0.12917605 -0.06278008 0.05259773
0.28673932 -0.10671838 -0.1143514
-0.07089769 -0.04574971 -0.134856
-0.2532704 0.121899344 0.018858826
0.06384318 0.12236335 0.115480565
-0.08207455 0.18764052 0.1099398
0.2377597 -0.16368894 -0.07687066
-0.18229109 0.19194072 0.14038539
-0.25528055 0.21933813 0.032636803
0.20635948 -0.24983771 -0.1364068
-0.058134694 0.22722176 0.08297905
-0.01956308 -0.13418561 -0.20941055
-0.13306648 0.19748983 0.1398249
0.09287262 -0.13588177 -0.092311166
-0.028770989 0.09976332 0.18146224
-0.23488577 0.14561668 0.09297695
0.18955885 -0.03555193 0.02498845
-0.2889121 0.1648382 0.031281497
-0.059395052 -0.018328134 0.03524246
-0.04744628 0.14231756 0.16577761
-0.15308101 0.20936167 -0.044726904
-0.21785419 0.208316 0.052489832
-0.04096401 0.122815564 0.15886095
-0.11240389 0.20510744 0.108910136
-0.15400726 -0.07593614 -0.23577093
-0.2882278 0.0827685 0.010069766
0.2285151 -0.21379699 -0.09347243
0.32456985 -0.12518917 -0.16832748
0.26913166 -0.11134781 -0.08478233
0.026798258 0.043076657 0.15581512
-0.100421235 -0.06261047 0.061017428
-0.041622102 0.0035915792 0.106699795
0.33831877 -0.15144898 -0.12517244
0.12042251 -0.27286136 -0.20607035
-0.035099708 0.08730076 0.16937199
0.06869593 0.13762416 0.02579514
-0.07935707 -0.09274968 -0.06845241
0.25331485 -0.10809666 -0.11842405
-0.03691171 -0.08197462 -0.13941124
0.29832095 -0.055856757 -0.24918196
-0.116893046 0.06325908 0.09037784
0.055210404 0.04248743 0.16363876
-0.0857164 0.19528218 0.1286177
-0.09964809 0.040940896 0.10569937
0.02395556 0.168897 0.058873978
-0.046899643 0.14227006 0.1775803
0.06770068 -0.07182478 0.051180135
0.06738735 0.06499008 0.13374951
0.079814896 -0.11833149 -0.032683544
-0.114154264 0.20984545 0.064655185
0.20567937 -0.0292274 -0.03339109
-0.11508954 0.018924851 0.074181065
0.24299239 -0.25863898 -0.13770528
-0.3006662 0.09113576 -0.09663888
-0.049647916 -0.12353443 0.018323347
0.23189467 -0.10325442 -0.08410489
-0.056227215 -0.09577586 -0.24460702
0.2303177 -0.17149942 -0.106624104
-0.042471975 0.053539976 0.169305
-0.07827228 0.09521014 0.18276978
0.10737813 0.09405046 0.08907324
-0.09058692 -0.0025200231 0.040482987
0.2955954 -0.06345776 -0.18408296
-0.1903195 0.16336553 0.117275484
0.19040027 -0.20756117 -0.09083412
-0.10278001 -0.09875776 -0.09259652
-0.27801913 0.031177718 -0.13525923
-0.23332307 0.055407386 0.038492147
-0.12522146 -0.036100663 -0.10374139
0.07071332 -0.04816535 0.09629996
-0.19388454 -0.02274385 -0.18969221
0.0116924755 -0.06444021 0.01294868
-0.27875257 0.15942758 -0.049917243
-0.08659178 0.18347529 0.090248205
0.068341345 0.047321443 0.16344264
0.20336723 -0.26634753 -0.1128288
0.011913022 -0.051881358 -0.06958326
0.206578 -0.09152609 -0.031054074
0.047272794 0.0694122 0.12258295
-0.25911766 0.1980328 -0.009816964
0.08539513 -0.12154287 -0.03577005
0.100850396 -0.15784334 -0.089494266
-0.13195004 0.0554485 0.15162554
-0.022243831 0.059623037 0.14252354
0.21427935 -0.19622773 -0.12935282
0.24697608 -0.16392876 -0.07926024
-0.05449772 0.025255047 0.12565087
0.01123595 0.1302152 0.16548938
0.033867072 -0.09524005 -0.14115955
0.121775284 0.0432749 0.09561147
0.08547963 0.009406624 0.13941662
0.1643686 -0.013812572 -0.18763655
-0.19478223 0.16405475 0.12319208
-0.2144943 0.12576273 0.11676239
-0.11261282 -0.005259486 -0.13996147
0.3303654 -0.19552143 -0.15683246
-0.26962838 0.07633123 -0.021889355
0.18231311 -0.15498719 -0.08894023
-0.020913256 0.0016856624 0.049413245
-0.3274433 0.11163484 -0.12389971
0.039565522 -0.12693304 -0.07231477
0.33577746 -0.081234224 -0.19275633
-0.09573764 0.14565432 0.16526422
-0.043608245 0.21001491 0.10694715
-0.12752414 0.19939081 -0.0007777263
-0.17916317 0.22003089 0.104075775
-0.20640177 -0.015448948 -0.19634278
-0.12049731 0.1373908 0.15639918
-0.13392855 -0.023573743 0.036745615
-0.01118648 0.101777375 0.18589585
-0.1696515 0.16061668 0.12450724
-0.01656447 -0.020088332 -0.018070426
-0.17267846 0.19647397 0.096835926
-0.2786178 0.18867822 -0.034148257
0.24188904 -0.15552375 -0.12705933
-0.25221568 0.06274586 -0.0202443
-0.1624427 0.19307733 0.07921107
-0.023223067 0.18686207 0.08303926
-0.1794996 0.17782919 -0.14890888
0.14988382 -0.0026316342 -0.07327135
-0.051660143 0.11483652 0.15625848
0.20806682 -0.028050018 -0.07893321
-0.14400256 0.098179154 0.12756683
0.16448617 -0.20302735 -0.123755254
-0.2514182 0.090985335 0.021038027
-0.07074287 0.1878482 0.16441564
-0.15620287 0.11495577 0.13016158
-0.14297394 0.1774056 0.11691718
0.21968116 -0.28912508 -0.118111186
0.25831297 -0.14454472 -0.10407816
0.27816653 -0.12335871 -0.14517488
0.23616609 -0.13490382 -0.08046445
0.21338768 -0.07076201 -0.01286972
0.13248008 0.02573201 0.05059224
-0.10820721 -0.011346681 0.055074815
-0.20402001 -0.013032112 -0.07404081
-0.08678729 -0.10435241 -0.07632941
0.070538245 -0.070550404 0.0413523
0.046339612 0.095412396 0.14234123
-0.21695693 0.12240352 0.1431595
0.131921 -0.040024146 0.077817105
-0.27183422 0.033619206 -0.17227526
0.13714416 -0.039807 0.021769417
-0.08327887 -0.081619255 -0.084944025
-0.09314017 0.02685012 0.030434268
0.10059005 -0.11643751 -0.034896016
0.20182553 -0.23129706 -0.12953208
0.26112655 -0.28128824 -0.105079256
-0.21147268 -0.019192738 -0.04727788
-0.07317189 0.09297706 0.16307068
-0.25397074 0.116182014 0.045976173
-0.16151689 0.12028828 0.14006658
0.3019878 -0.31581843 -0.13204117
-0.123671226 0.16682144 0.15209809
0.20154665 -0.14647159 -0.07780111
0.30477926 -0.22673146 -0.1418486
-0.036635302 -0.004807799 0.0029611909
0.13747658 -0.11391645 -0.061298776
0.24113937 -0.28976882 -0.13152966
0.25986344 -0.19836146 -0.13936351
-0.12167306 -0.049275175 0.07056953
0.1970104 -0.28049344 -0.14456037
0.33837825 -0.18127352 -0.15507656
-0.16545424 -0.01423106 0.07005246
-0.10645707 0.010440286 0.07287605
-0.06752012 0.08910193 0.17156087
-0.22346997 0.17450464 0.10396295
-0.19576629 0.0347984 -0.012038945
-0.16833608 -0.059614234 -0.10727521
-0.15986858 0.16748804 0.15547414
-0.018072197 -0.10898667 -0.13998355
0.27214152 -0.1662357 -0.1069285
-0.119235806 0.09906165 -0.22401851
-0.041162375 -0.072108105 0.036761604
-0.16065423 0.19644476 -0.13780054
0.20824161 -0.028639963 -0.0052787117
0.07796064 0.03548578 0.12932833
0.38978276 -0.10089045 -0.20569925
-0.07765582 0.19068375 0.15314597
-0.23462254 -0.03155634 -0.19730082
-0.095114194 0.026813041 0.03478992
0.1581506 0.046176378 0.0040147332
-0.21216613 -0.07365505 -0.05351225
0.10749294 0.09511972 0.1296151
-0.041130394 0.09337571 0.18677317
-0.20481424 0.21874283 0.09101082
-0.08192407 -0.1376825 -0.044598468
0.09982399 -0.10078379 0.0112279495
0.23078583 -0.2618832 -0.11211634
-0.08188512 -0.07363946 -0.15292604
0.20902787 -0.23175804 -0.1399116
-0.11611464 0.106898025 -0.24275427
-0.21849017 0.036153723 0.004148308
-0.20889029 -0.052731857 -0.22161184
-0.14789097 -0.06377105 -0.08038223
-0.1233793 0.2129976 0.1196621
0.03938489 0.097780086 0.12958106
0.16002752 -0.15260479 -0.039727814
-0.10858231 0.14267251 0.13980018
0.21464267 -0.105177544 -0.055732004
0.21629833 -0.22714731 -0.13435629
0.089519024 0.083252646 0.093230024
0.20431304 -0.09047192 -0.050306436
0.046410423 0.14633007 0.12930572
0.2733185 -0.25489342 -0.13683127
0.020009678 0.024139607 0.12304865
-0.22660235 0.0152211115 -0.15452974
-0.053709563 0.13696434 0.17442642
-0.044747256 0.16980277 0.15476508
-0.2308091 0.23478186 0.076845005
-0.015623378 0.009002067 0.11106878
0.20636275 -0.13673651 -0.034748424
-0.085419245 0.19796073 0.08698272
-0.22695778 0.13822156 0.09999854
0.18728599 -0.05330941 -0.03158642
0.081489705 0.120315455 0.09685626
0.12837505 -0.11280797 -0.0044683814
-0.077340774 0.09443229 0.13449593
-0.25519165 0.12692834 0.044392142
0.22949 -0.23442292 -0.10196544
0.28919676 -0.083435714 -0.16652536
0.10871081 -0.15731375 -0.071339116
0.26146087 -0.20542462 -0.15826997
0.035109974 0.063004315 0.14273489
0.014641671 0.01242881 0.10741145
0.111364596 0.09535224 0.028525544
-0.11085565 0.17045687 0.14303854
-0.094623044 -0.027800541 -0.14235723
-0.2945205 0.07666507 -0.058330055
-0.13569422 -0.07031621 -0.12695806
-0.06538353 -0.11718968 -0.005788805
-0.22109431 0.19586809 0.038593404
0.18128046 -0.25586715 -0.14741163
0.17208047 -0.26733038 -0.13681528
-0.17563969 -0.030194715 0.0124955345
-0.029816361 0.09831145 0.1883786
-0.14341125 -0.09499476 -0.2577085
0.18584378 0.032452956 0.012664361
-0.06769527 0.18052289 0.050248355
0.16483198 0.018612929 0.033494245
-0.29871526 0.13994557 -0.02104032
-0.2236032 0.12274742 0.1293674
-0.18905643 0.15306789 0.11217266
0.024995966 0.18684363 0.07849594
-0.10777369 0.20327659 0.15169959
-0.1480293 0.15255356 0.14562763
-0.21810068 0.050250586 0.05025185
-0.13667354 0.102380104 0.15195377
0.085967734 -0.1275189 -0.07043703
-0.026104083 0.080330454 0.18060398
0.05763934 0.16121379 0.025830185
-0.044099703 -0.058191936 0.011040564
0.17455901 -0.08156563 0.018785533
-0.10086506 0.20219693 0.13652347
-0.19252804 0.09592355 0.09647857
0.096636765 0.038201477 0.07882781
-0.18261652 0.21181919 0.10250493
-0.1642549 0.20825511 0.057896405
-0.21858943 0.03489447 -0.058740873
0.19364458 0.00021109298 -0.069655254
-0.09397909 0.015221014 0.034134164
-0.06714973 0.09332495 0.1612289
0.07124617 -0.13738906 -0.11924813
0.18756145 0.012990905 -0.08262261
-0.046616048 0.05324654 0.1583159
-0.024793306 0.019141816 0.13985254
-0.06360099 -0.084483 -0.17474043
0.27347213 -0.0710509 -0.14173749
-0.09481554 0.13514744 0.15251745
-0.2607494 0.12278739 0.06481938
0.25467154 -0.169734 -0.106483586
-0.16541551 0.19889654 0.09107871
-0.107649304 0.060261074 0.14799559
0.091941945 -0.09607518 0.017634543
-0.082647555 0.21387789 0.12395398
-0.13401341 0.022422152 0.030938322
0.116883054 -0.15794782 -0.09034768
-0.098558135 -0.021813903 0.054608397
0.10269175 -0.12167338 -0.047337666
0.1714043 -0.063962854 -0.033074126
0.10003094 -0.055920575 0.0147416955
-0.22376771 -0.046783898 0.000430387
0.041123025 0.0018293146 0.11467522
-0.13698408 0.08395442 0.12875059
0.30464256 -0.2561328 -0.09693297
-0.11675764 0.054323316 0.054469462
-0.24279234 0.026978265 -0.058375344
-0.21617049 0.19314389 0.07481584
0.070753075 0.024071643 0.13446961
-0.28705937 0.12724797 -0.026364444
0.032012228 0.048544057 0.15379429
-0.03622657 -0.13640025 -0.22810827
-0.21096694 -0.053509977 -0.033309676
-0.2683165 0.16359352 0.0051350887
-0.11354568 -0.09993799 -0.09036467
-0.20458299 0.062377635 -0.012789608
-0.034002442 0.03025818 0.055589728
0.07973514 -0.05884516 0.09643059
0.18176599 -0.27311197 -0.18024594
0.007479364 -0.12312207 -0.1780303
-0.20306155 0.19704679 0.12438811
-0.21791342 0.08609591 0.06081015
0.22552839 -0.050863534 -0.13877188
-0.07742754 0.11238141 0.16246031
0.29601887 -0.281769 -0.10743248
-0.1686577 -0.009502423 0.0009996367
-0.1863721 0.053743888 -0.055944204
0.09033191 -0.085518315 0.02352255
0.1480148 -0.13015871 -0.057414517
-0.04282146 0.07899805 0.14285418
-0.19086094 0.22731337 -0.0008797969
0.24271002 -0.2608276 -0.13843842
-0.1630506 0.078870215 -0.2196951
-0.0030955158 -0.08145611 -0.082440026
0.112486556 0.0084529715 0.121467724
0.13411285 -0.05345913 0.05595811
0.23885281 -0.25027776 -0.14160343
-0.16554183 0.23332734 0.07148229
-0.2285342 0.09840799 0.0148895
0.17535608 -0.06903738 0.0117097115
0.2116628 -0.08081452 -0.051380347
0.2632554 -0.21000607 -0.12639847
0.004810534 0.003618737 0.11818751
0.14293092 -0.036046084 0.0382146
0.14233428 -0.21463327 -0.14452341
0.15479614 -0.26045734 -0.17090473
0.1774307 -0.18586314 -0.06270899
0.35036683 -0.080343865 -0.20213874
0.088713326 0.032380305 0.14174996
0.26471892 -0.051926624 -0.13619506
0.135482 -0.17827962 -0.1649867
0.2079258 -0.29079896 -0.11507601
0.031617273 -0.14378104 -0.17531545
0.28836247 -0.17533794 -0.16441551
-0.12769794 0.07767695 0.14533015
-0.10153636 0.19199456 0.13202548
0.2753842 -0.10323886 -0.124936394
-0.024555005 0.02013743 0.102932066
0.1739061 -0.21170194 -0.13492209
-0.109262586 0.07332485 0.15253842
0.010699223 0.17097087 0.085678555
-0.08010752 0.1637551 0.17241734
0.10802953 -0.19906704 -0.1474955
0.12407147 -0.21096203 -0.13581866
-0.013252397 0.07736538 0.17997415
0.24941546 -0.20130163 -0.083750136
0.104908936 0.067682646 -0.07678944
-0.20863645 0.1600356 0.11881648
-0.087901235 -0.07466229 0.05824341
-0.15117303 -0.03382041 0.05538212
0.22833166 -0.014085875 -0.14869651
-0.13540289 0.08981293 0.110307
-0.21242751 0.00754166 0.019260714
0.00012575711 0.014044079 0.096849844
0.16446823 -0.16334675 -0.048653927
-0.12381766 -0.06424968 0.05178603
-0.08720312 -0.09151065 0.06146372
-0.24636476 0.21816453 -0.027232839
-0.096027635 -0.03585935 0.048558548
-0.13419054 -0.116761945 -0.26006916
0.12001691 0.038752783 0.093818106
-0.22610629 -0.019436873 -0.01780603
0.057291158 -0.10010673 -0.0067856424
0.15394405 0.05501497 -0.032738484
-0.0067331735 0.019184506 -0.24762553
0.27988055 -0.18472545 -0.1499968
-0.17790936 0.09285252 0.14293629
-0.061721466 0.025605056 0.060019843
-0.049496286 -0.024620982 0.033505686
-0.18619019 0.19055405 0.10931594
0.044143606 0.07750226 0.15282685
-0.13979062 -0.0044700033 -0.15072721
0.17969224 -0.2053867 -0.09163972
0.2124971 -0.10256376 -0.03524319
-0.10115122 -0.02664934 0.043692768
-0.10080978 -0.022159649 0.08811795
0.21251312 -0.2620565 -0.15788363
-0.0053006653 0.16497129 0.09415604
-0.225964 -0.014819995 -0.17349097
-0.041422416 0.018846676 0.11629306
0.20234233 -0.21808742 -0.13280518
-0.15103395 -0.0018310554 0.060026325
0.015367494 -0.05764202 0.039757717
0.25383106 -0.26340154 -0.10508622
-0.19182274 0.10113931 0.15125571
0.19897196 -0.06774542 -0.013489224
-0.10841016 0.17316964 0.13583532
-0.08002226 0.06538591 0.1616992
0.123085685 -0.035936538 0.101009056
-0.11544483 0.0005620084 0.07280905
-0.195279 0.20281231 0.026514314
-0.03699391 0.079488434 0.14818662
0.32776028 -0.106016636 -0.19055812
0.3753536 -0.050104924 -0.21304537
0.27406597 -0.21347032 -0.121840075
0.0072518135 -0.0041507226 0.085925065
-0.15891936 0.12336054 0.15668294
0.355833 -0.047494937 -0.21756697
-0.26735455 0.004873741 -0.11310203
-0.28074434 0.15316774 0.026063545
-0.10587408 -0.029126534 -0.14563012
0.18412033 -0.09738327 -0.012981046
0.25973296 -0.25428724 -0.1386131
-0.11598349 0.046004113 0.1387701
-0.27539492 0.081813864 -0.0014631896
0.10133642 -0.13434143 -0.053623583
0.04291176 -0.10842224 -0.09775014
-0.0113755055 0.15219884 0.15086824
-0.22072092 -0.033949863 -0.066949084
-0.103890166 0.14682293 0.15470837
0.04267821 -0.082309924 -0.0009770687
-0.1285606 0.046970822 0.09281698
0.24091887 -0.07430041 -0.17734313
-0.04814516 0.03503455 0.14039612
0.32508892 -0.2284571 -0.15432598
-0.049661715 -0.04432624 0.020112691
-0.29248974 0.07912993 -0.10038778
0.019623144 0.07305205 0.18443288
0.21140507 -0.11529874 -0.054208662
0.24931969 -0.14843287 -0.11991733
0.07167449 0.06002262 0.17240606
-0.21573384 0.19148849 0.10661016
-0.0072643613 0.10213317 0.17637339
0.029137814 -0.027955696 0.06988108
0.13346533 0.013487235 0.055036977
0.21372497 -0.08430294 -0.041432355
-0.049636565 0.19078921 0.09332584
-0.14735861 0.07645325 0.1355043
-0.02450849 0.02753232 0.12099068
0.11205756 0.019140972 0.12557247
-0.014672835 0.004066255 0.0063615097
0.16532181 -0.25612366 -0.14328285
0.039981853 -0.012424761 0.07165273
0.25713724 -0.154807 -0.11981993
0.150138 -0.24291843 -0.18755625
-0.061914425 0.035977278 0.16852151
0.10532979 0.023359662 0.10616085
-0.07096931 -0.09715802 -0.19581948
0.33114782 -0.19594218 -0.13813265
-0.032458454 -0.07275866 0.039723266
0.14155346 -0.13880663 -0.058544144
-0.080754146 0.19715296 0.16426434
0.20352508 -0.30909318 -0.14107314
-0.25449026 0.02583235 -0.077569894
-0.25642636 0.20315118 -0.15510678
-0.21402103 -0.022836318 -0.052167617
-0.151915 -0.10058559 -0.09552585
-0.28322747 0.18078461 -0.1527988
-0.080525346 0.02669164 0.057964608
-0.10772726 -0.14260525 -0.10272726
0.14688292 -0.26598966 -0.18991664
0.19346532 -0.10987583 -0.00568707
0.2284382 -0.26724756 -0.14036815
-0.14294995 -0.018397273 0.054183442
0.16962937 -0.2745581 -0.17522056
0.252193 -0.11841272 -0.08947112
-0.1599984 0.073042445 -0.0026652424
-0.15426712 0.21677336 0.05697378
-0.3019348 0.06332202 -0.04935333
-0.22642542 -0.045451153 0.020262744
0.3678155 -0.1261554 -0.14895815
-0.060799927 -0.08110048 0.06519277
-0.24616598 0.011915959 -0.122714005
0.0667589 -0.07011381 0.035609774
-0.044942286 0.21926424 0.054687064
-0.050773412 0.07572904 0.17361069
-0.09139101 -0.0789421 0.07341921
-0.1732238 -0.10072597 -0.098181166
-0.04429974 -0.085473165 -0.017101644
0.22870992 -0.28204155 -0.129762
0.16209297 -0.21011634 -0.144225
0.12187278 -0.19194555 -0.1032071
-0.22079033 0.021608321 0.015903475
0.050403867 0.14487533 0.14699242
0.06564396 0.10162784 0.1359259
-0.24816413 0.11126614 0.06427559
-0.15403974 0.021370055 -0.0815673
0.10292113 -0.15812616 -0.15564552
-0.15774177 0.01736254 0.01252907
-0.115740985 0.1398647 0.15624538
-0.27509806 0.11772439 0.04762941
0.08101754 -0.14164148 -0.09458894
0.01016719 0.026275951 0.12557253
-0.18187058 -0.03609602 0.047983956
0.22218002 -0.1759013 -0.09122811
-0.08063366 0.052689716 0.101034805
-0.011768595 0.06257989 -0.27300593
0.0927151 0.119955175 0.0840854
-0.18518183 0.17156698 0.14276066
-0.0314256 0.11261135 0.17884567
0.03424737 -0.113892265 -0.19101779
0.2615037 -0.21065682 -0.117143735
0.09901894 0.07406482 0.09351298
-0.097958036 -0.066960916 -0.09023621
-0.071777545 0.009621433 0.027368288
0.010098826 0.050756708 0.13682033
-0.25388378 0.21514049 0.06282286
0.011486172 0.103890754 0.1615986
-0.11463718 -0.042816233 -0.12294249
0.2673565 -0.1863551 -0.1263121
-0.24264692 -0.022489749 -0.20716172
0.07750368 -0.0680965 0.013641734
0.15941687 -0.05603792 -0.19848762
0.3124518 -0.11029715 -0.1530265
-0.2787987 0.076735154 -0.011970836
0.08538775 0.07427129 -0.013421021
-0.047969893 0.13007942 0.13739361
0.1361857 -0.20107678 -0.21690546
-0.18601239 0.08140952 0.11265209
-0.27211708 0.005715112 -0.123482145
0.06263294 0.051701073 0.15178876
-0.14578581 0.049236644 -0.0059169396
-0.17700766 0.15553716 0.1426337
0.2966181 -0.123110496 -0.18659589
-0.08798268 0.19527297 0.14336008
0.35322428 -0.05428951 -0.18213576
0.15148741 -0.24019037 -0.18748647
-0.068891935 0.11682814 0.1958416
-0.16748472 0.004104385 -0.1000308
0.09129531 0.15425842 0.10033821
-0.15948781 0.21838908 0.05516895
-0.042158198 0.025118046 0.0007477781
-0.02662657 0.21488737 0.075283885
-0.2465917 0.07879388 -0.033108603
0.37510318 -0.067302264 -0.19209023
-0.056747682 -0.07209304 0.0014496151
-0.08421123 0.14192975 0.17264622
-0.19731735 0.13318887 0.08519033
0.089714274 0.076986454 -0.010073302
-0.12478488 0.09196681 0.13619402
0.15254553 -0.038040314 0.08114932
0.035119645 0.006982113 0.100982696
0.26808128 -0.2326953 -0.12452691
-0.10777067 0.119958766 0.16912365
0.0014680694 -0.08084796 -0.0687395
0.35845906 -0.071254134 -0.194893
0.31917012 -0.11591491 -0.17973974
-0.2310129 0.08787561 0.05369127
-0.13752232 0.16765648 0.16197951
-0.02977816 -0.07154558 -0.03349843
0.26007485 -0.2715023 -0.14727922
0.0063015544 0.04765102 0.181445
-0.013297909 -0.07918939 -0.13258593
-0.16050869 0.012300085 0.023320623
-0.17911555 0.1409824 0.14041515
0.14114752 -0.29369044 -0.18742298
-0.04277155 -0.08658495 -0.034798272
-0.11465765 0.20071864 0.015153758
0.1904229 -0.19581144 -0.13517764
0.022572067 -0.023768598 -0.09151576
0.13192439 -0.07270049 0.02679911
0.30839086 -0.15968281 -0.13573146
0.2702611 -0.2800842 -0.13168938
-0.11045032 0.1107162 0.15205081
0.17899716 -0.2378082 -0.16749005
-0.28669763 0.2065111 -0.048030805
-0.14603786 0.024799144 0.029879317
-0.274006 0.22404876 -0.05180071
0.006087391 0.10307745 0.1439441
0.16217723 -0.29017437 -0.17184359
0.23944607 -0.25948992 -0.13006333
-0.23086528 -0.038099498 -0.0115577495
-0.055059317 0.20922929 0.14518806
-0.16491784 -0.0062336973 -0.08384591
-0.21041468 -0.05151661 0.05025032
0.26058716 -0.107397385 -0.09349639
-0.2053977 0.14901203 0.13142166
0.30707937 -0.21101797 -0.1009167
-0.021230146 0.09187286 0.16904828
0.2428835 -0.15875578 -0.06509347
0.16617468 -0.26363358 -0.14801702
-0.105461515 0.19644791 0.13813092
0.10760296 0.06318135 0.03067128
0.014404049 0.039936543 0.16676402
0.111453205 0.08866063 -0.04140921
0.23468076 -0.13697374 -0.10776548
-0.06696583 0.15937316 0.16759138
0.05830554 0.15511388 0.11362884
-0.11372421 0.090057716 0.14744888
0.14015722 0.06671484 0.09288381
-0.078938745 0.044312194 0.14006542
-0.09126026 -0.0221152 0.050033227
0.21612144 -0.055554952 -0.08218601
0.07112221 -0.12913464 0.0023283937
0.21691139 -0.2519839 -0.13950884
0.16178265 -0.22289602 -0.19301413
-0.18359402 0.22074372 0.043978304
0.11837846 -0.108196795 0.023217997
-0.17577301 0.13067745 0.14814737
-0.24884632 0.09329468 0.010697795
-0.032157876 0.14607696 0.14232686
0.18752588 -0.023180014 -0.22195743
0.048040647 0.057958174 0.12580578
-0.1543161 0.23725928 0.09432189
-0.2818563 0.22067864 0.005766584
0.11898125 0.0797151 0.103996746
-0.1798797 0.099044956 0.12243495
-0.08043481 0.045759242 0.13803652
0.27065927 -0.09588157 -0.15366544
0.068646766 -0.00020255285 0.1224287
0.022074373 -0.026109174 0.108819366
-0.21220595 -0.002887834 -0.13606024
-0.07738443 0.15129906 0.17512235
-0.11430889 -0.059615303 0.056537688
-0.15513034 -0.005535938 0.006079586
-0.2709758 0.034550656 -0.13816945
-0.342508 0.11446341 -0.069023184
0.19185778 -0.027250046 -0.0002876998
-0.1889391 0.011519593 0.013336163
0.24655764 -0.20055942 -0.117123626
0.14553714 0.00016297131 0.057899788
-0.18862668 0.24627261 0.041308735
-0.1298736 -0.06068129 -0.23881689
0.099727325 0.08458291 -0.047618926
0.16497034 0.030555626 0.07888426
0.08328514 0.10058239 0.08058951
-0.09246743 0.029832907 0.113746025
0.31631327 -0.16283177 -0.16348518
0.12469278 0.083835594 -0.033908762
0.15241684 -0.15353057 -0.112147205
0.064206354 0.0030373344 0.1053797
-0.075309075 0.19682766 0.1543905
0.062905654 0.16130434 0.08269439
-0.23992324 0.13779102 0.085878626
-0.0074366177 0.098993614 0.17143413
-0.04394804 -0.04720986 -0.120629705
-0.053713363 -0.022606041 0.063160695
-0.036222603 0.0268116 -0.22634415
0.1369231 -0.24957608 -0.21663356
0.12238767 -0.015545757 0.09686398
-0.100014195 0.06448493 0.018023435
0.080212146 0.004981762 0.120365635
-0.071146 -0.07964627 0.05518142
0.324474 -0.17962363 -0.15361413
-0.19350839 0.20215723 0.076838695
0.13854632 -0.02850701 -0.13478957
0.23801929 -0.15761255 -0.09191572
-0.057642367 0.109035686 0.15132885
-0.09185616 0.09450038 0.18183932
-0.069924064 -0.1333718 -0.054272737
0.13542242 -0.17061748 -0.14660448
-0.25076705 0.21707521 0.048210256
0.32680213 -0.15360746 -0.17735246
0.01690047 -0.014698598 0.06346788
-0.024931168 0.21674985 0.06990442
0.19522549 -0.11922717 -0.0042355754
-0.102816 0.22696385 0.11369928
0.301353 -0.139195 -0.15346788
-0.15997595 -0.056819737 -0.10170973
6.0051334e-05 0.031302534 0.16461538
0.25883922 -0.20903902 -0.15330426
0.088687636 0.10085439 0.10647328
-0.013476398 0.08889809 0.19481345
0.28004703 -0.19803701 -0.1210542
-0.00028892487 -0.09014309 -0.094498254
-0.12004836 0.053202573 0.16752492
-0.053061895 -0.12023023 -0.23725761
0.13577487 -0.24268797 -0.16324256
-0.1809641 -0.031092536 0.055699438
-0.30954087 0.15258399 -0.13249336
-0.15741773 0.22358035 0.12343265
-0.076923326 0.13147643 0.15677531
-0.26832828 0.18685752 -0.011723716
0.29283607 -0.08626162 -0.14259286
-0.10192799 -0.0873998 -0.19522801
0.14579427 0.05746934 0.097411335
-0.16124001 0.22100385 0.066477425
0.022963203 -0.06061293 0.00026212496
0.12145935 -0.012984923 0.09678733
-0.06781024 0.12528308 0.1483444
0.2856549 -0.19642559 -0.12896822
-0.17689054 -0.069228664 -0.19423132
0.17589428 -0.033299807 0.038857836
-0.046983685 -0.10794745 -0.024486938
0.04324825 0.056267902 0.1810654
-0.046105932 0.110052295 0.17084064
0.033823963 0.16225417 0.056112573
0.028165622 -0.044932164 0.028586686
0.03604457 0.0143806515 0.15652734
-0.019796701 -0.09203065 -0.13899013
-0.18655899 -0.009542083 -0.135223
-0.04459386 -0.12298153 -0.03447998
0.23170047 -0.069936305 -0.30069736
-0.19147074 -0.005983851 -0.09379007
0.21154036 -0.12871028 -0.07670681
0.12522231 -0.13892145 -0.058880385
-0.08356622 -0.0013529275 0.06942398
-0.02958473 -0.0944748 -0.026129235
-0.27979034 0.115970485 0.007941544
-0.32098496 0.11940235 -0.14237359
-0.26362526 0.15884851 0.06815718
-0.12529257 0.19330317 0.08305969
-0.19811101 0.13103896 0.13503155
0.035947688 0.13975461 0.1504714
0.11442375 -0.25476903 -0.21550387
-0.16434218 0.08933152 0.09978049
0.18977918 0.019361181 0.051044792
-0.16007061 0.15210384 0.12519933
-0.089102075 -0.006451231 -0.15265054
0.05436153 -0.07189531 0.030316288
-0.27960148 0.1837938 0.018884538
-0.14675656 0.15248176 0.1384412
-0.16643007 -0.032471467 0.058739953
0.16125235 0.02978976 0.049149375
-0.27337557 0.18724817 0.03367923
-0.16239561 -0.08382148 -0.22581124
-0.038174987 0.12490474 0.17499246
0.068966724 0.025341634 0.13470532
0.010532124 -0.06679252 -0.014469076
0.017822726 0.17519942 0.13705607
0.0749973 0.023172127 0.13177045
-0.22325526 0.17842393 0.077791624
0.18484412 -0.2797886 -0.1842252
-0.14482644 -0.010919986 -0.12931588
-0.20646955 0.13900186 0.14897583
0.09569333 0.08034052 -0.076824084
0.07851477 -0.026580252 0.100496314
-0.11421619 -0.04949183 0.074756
0.058869336 0.11097076 0.16250321
0.11854251 -0.10231497 0.0069521116
0.18881121 0.008265771 0.030844137
-0.09236464 0.22830245 0.098295644
0.020762002 -0.03161779 0.0140754385
-0.047451247 0.020637134 0.114093274
0.18477842 -0.05716446 -0.0027037852
-0.06921779 0.17499082 0.107306905
-0.14155717 -0.079791605 -0.09236285
-0.06411426 0.023839291 0.092454575
-0.18207575 0.22434677 0.07073648
0.09378949 0.013158631 0.10477487
-0.28025287 0.14988543 0.041412696
-0.062061455 -0.033306282 -0.15065932
-0.152906 0.16128698 0.12916394
0.03234511 -0.032313537 -0.043313704
0.23362158 -0.21220572 -0.13885145
-0.16886985 0.060460895 0.006582483
0.09697032 0.07048342 0.089276575
0.21619374 -0.094447955 -0.089392304
-0.2917941 0.2043561 0.0023355244
-0.04931202 -0.04051062 0.06448121
0.24550955 -0.07434959 -0.078702554
0.23958342 -0.07903928 -0.043010253
0.08367176 0.06394105 0.11350853
-0.01985749 0.17243868 0.14193927
-0.0879957 -0.0052050613 0.032122463
0.0062126764 0.09188051 0.18233724
-0.12066444 0.050909154 -0.2392877
0.14295483 0.05580629 0.003213932
0.21429823 0.0121437935 -0.037943006
-0.03538237 0.16285118 0.07805789
-0.21990657 0.10526768 0.112226516
0.066258386 0.076563485 0.12957124
-0.3268037 0.06279275 -0.07979509
-0.08427306 -0.03885028 -0.13953194
-0.052321363 -0.03851359 0.04147651
0.21313179 -0.1637462 -0.075397275
-0.041263796 0.025111776 0.11943392
-0.20355931 0.07101228 0.025952483
-0.14242448 0.045654703 -0.0075472738
-0.20019728 -0.046016417 0.026300345
-0.11485825 0.16512516 0.13069147
0.091577664 0.05224537 0.12096052
-0.12203794 -0.015100784 0.056996323
0.20282991 -0.24936764 -0.13686171
-0.15581584 0.012995597 -0.12572844
0.08221827 -0.176957 -0.1336711
0.2619897 -0.30546996 -0.103271686
0.13222706 -0.093032524 -0.0029310284
-0.16154052 -0.025340954 0.08003951
0.134559 -0.15437604 -0.14614604
0.0023129855 0.009407052 0.13444284
0.025274292 0.16487812 0.046650313
0.19954813 -0.07418799 -0.013249074
-0.019261518 0.1796424 0.045297667
0.3405897 -0.0845584 -0.2076878
-0.016284578 -0.00899108 0.07939963
0.23479795 -0.24219805 -0.13514687
0.11421261 -0.11390336 0.0073348805
0.3151732 -0.09717347 -0.18900666
0.24579711 -0.08853049 -0.057395272
-0.09473672 0.07663846 0.17394128
0.259922 -0.02947017 -0.13867286
0.16163246 -0.07069135 -0.0037992569
0.0011811892 0.037264615 0.16676022
-0.031929787 0.18729854 0.11487846
-0.07916988 0.21513568 0.04715316
-0.22000726 0.08432436 0.05785883
0.031787295 0.02271258 0.1626702
-0.17435367 -0.0586689 -0.2428114
-0.16200763 -0.073947504 -0.10296886
0.20485033 -0.22965218 -0.09350063
-0.13557492 0.21481274 0.09054247
0.19897282 -0.045971137 0.011417153
-0.13805182 0.18957357 0.15585117
-0.050725263 -0.075270794 -0.16184215
0.08512989 0.012315997 0.121868804
-0.33047527 0.08508137 -0.07052467
0.24394383 -0.07543422 -0.09586959
-0.119594 0.027896414 0.10172859
0.03797289 0.12042518 0.1520276
-0.038018953 0.043443937 -0.23741496
