# .PCD v0.7 - Point Cloud Data file format
VERSION 0.7
FIELDS x y z
SIZE 4 4 4
TYPE F F F
COUNT 1 1 1
WIDTH 1000
HEIGHT 1
VIEWPOINT 0 0 0 1 0 0 0
POINTS 1000
DATA ascii
0.3789409 -0.067536905 -0.116612814
0.16701628 0.00822614 0.035132863
0.30451316 0.08071511 -0.07127991
0.2769571 0.11878768 -0.07087322
-0.029109642 -0.03986305 0.15706755
-0.19934598 0.007449419 -0.040713493
-0.26768875 0.063499555 -0.049969826
0.15991913 -0.060629856 -0.002041414
0.26467913 0.10239739 -0.02485461
0.23674864 0.2076961 -0.18181364
0.024714217 -0.08547853 0.17208906
0.2757956 0.0018053642 -0.052555334
-0.08897776 -0.0006271907 -0.18566528
0.0880905 0.028806828 0.070863396
-0.19581233 -0.03707015 0.14225337
0.37211728 0.0072587742 -0.120525114
-0.20801577 -0.027354026 -0.12173015
-0.22259073 0.116833284 -0.15739883
0.23782694 -0.061259713 -0.030462986
-0.17304301 -0.15027323 -0.030718774
-0.15727794 -0.1541612 -0.055634156
0.13238074 -0.007148101 0.072724946
-0.15837108 -0.005431066 0.13423459
-0.18459271 -0.012943225 -0.07615128
0.083583266 0.08366375 0.003669288
-0.16523834 -0.09935807 0.15976268
0.27120492 0.03564847 -0.0072937594
-0.17329207 -0.05895917 0.16482702
0.06942347 -0.13793436 0.021554386
-0.34645176 0.02294373 -0.03456948
0.11476792 -0.11285871 -0.0037432797
0.25317538 0.2023403 -0.14871708
0.22014436 0.0502857 -0.011429683
-0.00064217823 -0.01205566 0.17702352
-0.022396695 0.06594524 -0.266651
0.08276441 -0.026872395 0.08030075
0.28669918 -0.043581035 -0.21855868
-0.17498547 -0.06678576 0.17684689
-0.07320811 0.071335904 -0.32454717
0.23891357 0.028486148 0.020051574
0.15607134 0.03020612 0.015092594
0.19397813 -0.070792474 0.018964794
-0.068138845 -0.016003162 -0.17706473
-0.002102679 0.033566076 -0.29276577
-0.095416814 -0.16575052 0.16271946
-0.35886514 0.016394885 -0.084493056
0.30333316 -0.023695152 -0.10481646
-0.031278804 0.04397473 -0.14506283
0.09302502 -0.075601265 0.12689501
0.0025693905 -0.004358723 0.11941007
0.15435569 -0.09107206 0.007541322
-0.29535717 -0.010364296 0.10984332
-0.2528691 0.034247532 0.04245502
0.21989156 0.04276311 -0.013708038
0.090528466 -0.016821949 0.12584937
0.317673 0.18742128 -0.10350009
-0.2578746 0.10113571 -0.1266185
-0.14906235 -0.17269824 0.13941717
0.25352228 -0.049505394 -0.25731605
0.08542401 0.031916574 0.053891957
-0.27519307 -0.13204771 0.13321722
0.087895446 0.023048231 0.08723453
-0.2975218 -0.033359777 0.12057621
-0.20203915 0.016316354 -0.10814508
0.3210458 0.001293489 -0.11973987
0.37829986 -0.08692708 -0.1701454
-0.19644299 -0.029470358 -0.14087017
-0.29080895 0.003967693 0.0650018
-0.0028759742 0.07613461 -0.27991083
-0.11430198 -0.053843442 0.20585126
0.20981602 0.055275697 -0.0030702236
-0.1714015 -0.08710987 0.16712476
-0.033170547 -0.11027589 -0.058543596
0.2539753 0.050361343 0.002242543
-0.21499725 -0.15481713 0.10131781
0.3316114 0.16123466 -0.064713374
0.0041657663 -0.1407112 0.13355862
-0.21847893 -0.056479666 0.14179273
0.16108797 -0.008734547 0.05715518
0.25303105 0.14855167 -0.116680145
0.1416118 0.09136545 -0.004410724
-0.32297507 0.01846431 0.05326911
0.0063486705 -0.08281304 0.16919723
-0.1549679 0.024190877 0.14739235
0.06670789 0.11251375 -0.022008494
-0.13272339 -0.13717316 0.1291324
-0.17519844 -0.16229418 -0.049367305
0.09310948 0.07517657 -0.090881325
-0.18985422 -0.01015386 0.110460006
-0.08961363 0.015621209 0.107390545
-0.103235155 -0.12426654 0.0077691292
-0.16347909 -0.07734168 0.15363462
-0.110452734 0.07773997 -0.29167655
-0.28616107 0.06256989 -0.059893876
-0.12879167 -0.072096355 0.16665444
0.36148113 0.02779412 -0.08968791
0.20906362 -0.06762225 0.004788075
0.20629111 0.12271989 -0.083465956
-0.3613248 0.073271446 -0.10239801
0.085862726 -0.007988072 0.13208345
-0.12979104 0.009648851 0.14437726
-0.29913998 -0.026092738 0.14657462
0.37508994 0.13140543 -0.05407223
0.06389507 -0.10813641 0.077564634
-0.25566652 0.06157163 -0.03137802
-0.30612734 0.04946515 -0.061557144
0.020721104 -0.06857867 0.13433024
0.3118478 0.046781003 -0.074711435
-0.045271978 -0.073381715 0.16701041
-0.28137875 -0.011746418 -0.22876464
0.031267263 -0.04643464 0.18125696
-0.32794437 0.016589416 -0.22732408
-0.2195499 0.028528431 0.14128974
0.38682356 -0.0747861 -0.10793663
0.29951122 0.16948515 -0.11594956
-0.25233322 -0.07224439 0.13558018
-0.12050495 0.01906324 0.16822527
0.032339655 0.014561296 0.12712568
-0.36979172 -0.04236575 0.071458854
0.11414005 -0.017508233 0.07118422
0.1110391 0.028856818 0.027423225
-0.11028619 -0.14993833 0.15664425
-0.34447315 -0.027641306 0.044586696
0.12843436 -0.05452971 0.054896936
0.14584966 -0.05255835 0.0767719
-0.3309917 0.06608173 -0.023561647
-0.19028237 0.09647746 -0.278366
-0.2808794 0.07363267 -0.023929223
0.11310473 -0.09754664 0.07502904
0.25042355 0.07343001 0.0058510923
-0.08292821 -0.08534344 0.1679301
-0.2718717 0.078877516 -0.045226287
-0.23365301 0.10280816 -0.13382548
-0.21086495 0.0039173802 0.11446969
-0.031522837 -0.095665745 0.19037916
-0.016397042 0.018235127 0.09207479
-0.1316513 -0.089309044 0.1994282
-0.04013948 -0.15927354 -0.17578587
0.058011457 0.111990236 -0.1843088
-0.07867273 0.009195773 0.11324915
0.023594303 0.1457507 -0.1564416
-0.141482 -0.16215195 -0.0024771483
0.2395623 0.15370198 -0.083287194
0.18243411 0.11087004 -0.042310122
-0.049930163 -0.11527318 -0.046664547
-0.078053884 0.019560814 0.14199364
0.233169 0.030956237 0.009659314
-0.09960086 -0.13202743 0.16149978
-0.1575941 -0.07343366 0.19539593
-0.39079562 0.019679593 -0.04239584
-0.06546452 -0.09695093 0.17131107
0.08382074 -0.05325433 -0.12986703
0.20642681 -0.04618613 -0.1761483
-0.1940402 0.13527657 -0.17641929
0.31021798 0.13424522 -0.071673
0.10144059 0.13192149 -0.14230219
-0.0015906212 0.040819127 -0.2549506
0.37009627 0.117556445 -0.061384663
0.22972171 0.15615585 -0.16314946
0.25959578 -0.07318031 -0.0601417
-0.32822087 0.036937926 -0.05464288
0.14835721 0.0725967 -0.018718071
-0.20945756 -0.10736045 0.1250955
-0.06551903 -0.0136511605 0.17427923
-0.35611984 -0.048506543 -0.09718325
0.2085461 0.013488023 0.019714056
0.111457646 -0.058059584 0.11507277
0.251056 -0.025088217 -0.019948222
0.24440773 -0.048620854 -0.053737946
-0.122923315 -0.10529115 0.17492056
0.123319596 0.0118510015 0.077294186
-0.35662583 0.09108066 -0.120599516
0.37287563 -0.017674983 -0.104123786
0.20939152 -0.03301203 -0.13777325
-0.16382569 -0.13026087 0.16077505
0.15881191 -0.05497891 0.04419011
0.12567158 -0.10789509 0.078607954
-0.13732243 -0.0014976874 -0.15133029
-0.23555857 -0.073436886 0.12922284
-0.35803342 0.0057162163 -0.027865723
0.35051024 0.022342267 -0.08580028
0.025928874 -0.10226063 0.12704717
0.094228156 0.076427825 0.04274034
-0.10669228 -0.13459727 -0.024092661
0.17539722 0.059597973 -0.03207349
-0.114479825 0.022069708 0.13629176
-0.23609649 -0.015762439 0.11320519
0.046957143 0.047515843 0.03175135
-0.2063404 0.05667911 -0.15452129
-0.1811231 0.0079748295 0.10591386
-0.0020741732 0.047527175 0.112802364
-0.25690475 0.10121442 -0.05991105
-0.37384588 -0.061981827 -0.04372523
0.11724935 -0.06860055 0.05272026
-0.12910149 0.12398483 -0.1678586
-0.17801863 0.04298056 -0.30341238
0.36328498 -0.09343234 -0.1484139
0.11549251 -0.10117836 0.06990059
-0.19543232 -0.03551862 0.15341581
-0.04552285 -0.18646859 -0.07118639
0.33440188 0.12441945 -0.052516434
0.091956295 0.063718684 -0.047450718
0.20493665 0.13347624 -0.07346589
0.006299331 -0.08495349 0.14578527
-0.24743588 -0.13198408 0.15440911
-0.005328376 -0.04609073 -0.053602904
0.15550105 0.09362717 -0.1232147
-0.08735848 -0.13190432 0.17541523
-0.37566063 0.066589884 -0.102548115
-0.2347275 -0.089665525 -0.102927335
-0.24518876 0.080886476 -0.27604243
-0.021914104 -0.05310469 0.17932346
0.010750004 -0.037987545 0.17785484
-0.18058378 -0.119061336 -0.097163886
0.34087747 0.10020314 -0.07720613
0.24273661 0.035953935 -0.026257528
0.21576998 0.06461881 0.037294067
0.26325557 0.106053375 -0.045037948
-0.06962128 0.017829964 -0.13981548
-0.15330677 0.016583096 0.16019998
0.022060476 -0.12417765 0.108938925
-0.12531585 0.08858788 -0.2954855
-0.3124022 -0.00040624337 -0.2409601
0.0027770426 0.15544637 -0.12954791
-0.007296405 -0.005976613 -0.07094369
0.0034753645 0.0028574534 0.15690698
-0.065393485 0.016994432 -0.14805639
0.18469067 0.15874192 -0.09899405
-0.079889655 -0.123932555 0.18945898
0.13740353 -0.044606198 0.05294745
0.3365517 0.14371789 -0.039586127
0.26569986 0.14862795 -0.09216614
-0.09284843 0.039438467 -0.298977
0.34735173 0.14782968 -0.07743739
0.35447565 0.01832801 -0.109268025
0.3826463 0.02648288 -0.07091163
0.048954513 -0.062665254 0.14773163
-0.10733191 -0.1562235 -0.011419221
0.024618827 0.0149063375 0.16392723
0.010556952 0.13196675 -0.1271481
0.13204709 -0.05833049 0.043417253
-0.32016945 -0.057372574 0.09411641
0.36400023 -0.06839843 -0.099425696
-0.22363317 0.014395576 0.079164386
-0.19616115 0.0047822245 0.13300699
-0.053183336 0.02689858 0.13011554
-0.0589871 -0.057568002 -0.13860248
-0.14575931 -0.15122522 -0.012393376
-0.27425367 -0.03933433 0.13259402
-0.26289168 0.09422689 -0.16106787
-0.033581235 0.015970519 -0.1409098
-0.15081841 0.05738589 -0.29205316
-0.09198478 -0.109404534 0.19139306
0.25272658 0.18353812 -0.15085483
0.07304082 0.040249605 -0.25261948
0.2229615 -0.04742439 -0.05189344
-0.27414364 -0.07674362 0.1056008
0.24822517 0.21577561 -0.17780538
-0.08697871 -0.09538426 0.1923185
0.07281429 -0.10538723 0.10986533
-0.26312837 0.052520815 0.02730986
-0.34007692 -0.061618395 -0.1460695
-0.16219828 0.024298666 -0.31888747
-0.3183613 -0.041866686 0.1285914
0.21062681 0.12572683 -0.08695123
-0.026332214 -0.114884414 0.14652963
0.28712988 0.055421393 -0.025513733
-0.2980567 0.010190266 0.07262639
-0.09743344 0.1282455 -0.17567526
0.36821213 0.046994545 -0.062087737
-0.13598189 -0.122204624 0.19427976
-0.16978055 0.009942684 0.10249946
0.11165141 -0.03538756 0.10883707
-0.3521658 0.057253346 -0.1982755
-0.096521355 0.015687926 0.15237747
-0.21707132 0.060044486 0.055643536
-0.17949075 -0.118056804 0.17370473
0.23040906 0.15217824 -0.109842636
0.22566986 -0.002921627 0.0027374774
0.1619215 -0.006333914 0.029887214
0.042480744 -0.119611025 0.12540598
0.37114286 0.16477801 -0.030552097
-0.32810655 0.035686694 -0.022281088
-0.09438751 -0.024871213 0.17265926
0.3176656 -0.029232407 -0.12855296
0.102650166 -0.032169 0.12559944
0.35154042 0.104781374 -0.081863664
0.065683804 0.07173718 0.026517615
0.16057774 -0.01013525 0.07067694
0.31768498 0.086942315 -0.07365095
0.14692867 -0.084024474 0.024185257
0.09993799 -0.06821539 0.087639675
-0.11379231 -0.136368 0.052571878
-0.10638695 -0.09842795 0.18856825
-0.35646862 -0.03689301 0.04726734
0.007343641 0.0006200951 0.15484661
-0.28025252 0.038553026 0.049221784
0.20970756 -0.057352163 -0.011037064
-0.062639624 0.0050732656 0.13868916
0.26905206 0.09929949 -0.04725113
-0.25762653 0.018836435 0.11316065
0.18592171 0.085895024 -0.03615857
0.023468629 0.030252423 0.12065277
-0.2025226 -0.13327931 0.11367771
0.12190764 -0.0072135776 0.07507771
0.3646889 0.1516195 -0.030978087
0.24397723 0.17389011 -0.15101393
-0.13733357 -0.112205185 0.19094798
-0.26003173 -0.09867705 0.13666953
0.0330743 0.03943992 0.057948686
0.02806946 -0.10035687 0.13601862
-0.2902485 0.041922383 0.041635662
-0.13131092 -0.13016598 0.17342791
-0.26979303 -0.026047973 0.16097382
0.32813534 0.1930363 -0.054051474
0.2870689 -0.029629821 -0.068064414
-0.0095285345 -0.022355942 0.14704329
0.14418153 0.0644612 0.024511807
0.25899598 0.196456 -0.14301275
-0.1941043 -0.15303037 0.10011671
-0.20089823 -0.1429408 0.15042175
-0.18165898 0.026760362 0.14929381
0.038009834 -0.018917678 0.1437366
-0.17962538 -0.0830504 0.17253293
-0.30440187 0.039399866 0.021292906
0.2251069 -0.05665813 -0.046572477
-0.07023166 -0.025028978 0.19132587
0.14644615 -0.04107953 0.04914475
-0.25275996 0.08469497 -0.10454803
-0.2095031 -0.07173766 0.18309343
0.3448005 -0.094422124 -0.15960556
-0.3027877 0.063519366 -0.019173976
0.30736837 0.0342067 -0.042884264
-0.040721826 0.1642363 -0.16020553
-0.26333192 0.012019813 0.07487606
0.2119452 -0.03167598 -0.00085404795
0.2556441 0.17918938 -0.14343435
-0.19691092 -0.15143687 0.17318982
-0.20576066 -0.07788902 0.17056537
0.23629372 -0.033925753 -0.02072857
-0.088258564 -0.014236898 0.14646284
0.04582058 0.0035687522 0.0913199
-0.17064711 -0.15775031 0.10431464
-0.1405904 -0.13939202 -0.011659655
-0.05569364 -0.14548698 0.18405107
-0.13631178 0.022728302 -0.33154115
0.21353711 -0.051219724 -0.035222907
-0.07756129 -0.056480836 -0.15463638
0.21904232 0.1398126 -0.10782808
-0.271176 -0.041775282 0.13213712
0.116704516 0.013269945 0.08175099
-0.26218656 -0.08362322 0.14332378
0.0030478558 -0.05948925 0.15461707
0.026514985 -0.15508963 0.09894297
-0.01429332 -0.13665089 -0.02094839
-0.03319508 0.13001172 -0.14511362
0.347648 0.065946445 -0.072796576
-0.25604698 -0.030520968 0.13501084
0.028033515 -0.15490024 0.0776772
0.23574042 0.14300184 -0.0938959
-0.04461437 -0.06162879 -0.15637004
-0.12579904 0.09436649 -0.22537924
-0.29355595 0.112663426 -0.15502664
0.054309856 0.03726215 0.080896236
-0.34866768 0.081497416 -0.17494008
-0.1450194 0.14362893 -0.17432615
0.32261583 -0.05488409 -0.12523356
0.094239175 0.04389876 -0.011193208
0.1862603 0.12833686 -0.11864226
0.20591308 -0.047533214 -0.14040746
-0.30985653 -8.431225e-06 0.08883584
0.31021366 0.14209597 -0.054937985
-0.34517795 0.024368241 0.005613629
0.10065359 -0.11888172 0.04210391
0.11216753 0.053166997 -0.024910755
-0.26664746 0.06663633 -0.057213377
-0.049679447 -0.004709435 -0.13843073
-0.19257538 -0.08074567 0.1882206
-0.1529644 -0.025162376 -0.15864553
-0.12786998 -0.10171809 0.1870632
0.25610518 0.13225299 -0.076616414
0.2885167 -0.06847142 -0.16776314
-0.052212447 0.009156884 -0.13143402
0.25694865 0.20325503 -0.104929164
0.089214854 -0.008777233 0.11431033
-0.0048696194 -0.14698459 -0.040919214
0.33612576 0.09805661 -0.061919153
-0.2957929 -0.06261956 -0.16143805
0.06632157 0.091857694 -0.050044097
0.28505382 0.1857173 -0.1378099
0.2284678 0.08153788 0.011875816
0.010602738 -0.0016840571 0.16158694
0.16073246 0.067607 -0.048894156
-0.023495413 -0.09118869 -0.050186303
-0.26903427 0.033914726 0.05919405
0.2015536 0.15388267 -0.10272697
-0.006079502 -0.06915773 0.14609647
0.2137597 0.1250363 -0.11795243
0.006067334 -0.16106471 0.101379514
-0.3265936 -0.10830316 0.051351413
-0.17975026 0.009144223 0.1365337
0.13168634 0.050574645 0.03319105
0.019165473 0.038507726 0.08101229
-0.08808363 -0.09392736 0.1852684
0.04123021 0.120456554 -0.10089668
0.37433678 -0.0034575833 -0.12116862
0.32987285 0.16195787 -0.087215506
0.030542647 0.0122067435 -0.23956677
0.0857809 0.0651093 0.010648233
-0.05100497 0.04778599 -0.14084226
0.034357388 0.0030949288 0.09914689
-0.18061034 -0.019854674 -0.11785698
0.013195736 -0.09981186 0.10282687
0.005395057 -0.16581443 -0.08297291
-0.2291835 -0.06393642 0.18635568
0.3720045 0.047012974 -0.096407905
-0.0061565335 -0.12963176 0.1301628
-0.34558436 0.051202822 -0.06318089
-0.25227398 0.011236434 0.10821546
0.06508222 -0.12191418 0.10308203
0.2826231 -0.0734749 -0.19683586
-0.09832106 0.11022119 -0.192147
0.31330118 0.210806 -0.12747641
0.09030193 0.02555087 0.061657127
-0.2932791 0.071846865 0.013678585
-0.03716775 -0.1109638 0.16312473
0.07623953 -0.066081285 0.11314974
0.26119217 0.23230356 -0.14651805
0.24121816 0.093688115 -0.03742814
-0.31685504 0.048325416 -0.017711336
0.21975675 -0.06324496 -0.10442296
0.04080753 -0.03670479 0.15917066
0.076569445 -0.08964868 0.08899301
0.047771048 -0.121126175 0.11217581
-0.23843656 -0.09948619 0.09441186
0.024696019 0.130318 -0.09579896
0.039960876 -0.006739471 0.13583489
-0.15774132 -0.009475908 0.14480017
-0.30995575 -0.071960054 0.12776041
0.11867437 0.06934025 -0.07606208
0.0891526 0.084720224 0.009903297
0.093764015 7.50182e-05 0.07525096
-0.11001923 0.037322044 -0.1788258
-0.23353022 0.009523066 -0.29582226
-0.2109777 0.11199228 -0.13591331
0.2154423 0.1802329 -0.17358522
0.12431746 -0.072755344 0.03878762
0.26689565 0.010018286 -0.069497816
0.0765159 0.11105165 -0.11241311
-0.1830282 0.012742422 0.120869875
0.17275088 -0.061723173 0.008394696
0.030506646 0.102411404 -0.054254502
-0.12891814 -0.09680558 0.17673324
-0.29675448 -0.06678781 0.08525038
0.01973485 0.12525931 -0.08749714
0.072238185 0.008055774 0.09305045
-0.013586889 0.028319659 0.09400417
0.09641205 -0.045867592 0.07350574
-0.020809785 -0.14008853 0.10849211
-0.04406471 -0.13804454 -0.03421781
-0.23662604 -0.009384979 0.100243464
-0.19414756 0.008027454 -0.11471677
-0.16290286 0.019278387 -0.31983158
-0.23612258 0.059402116 0.11015706
-0.19260144 0.15307075 -0.20917718
0.18963248 0.14037852 -0.120704666
0.22163504 -0.068098485 -0.17697732
0.24222504 0.03205694 0.01645527
0.32435563 0.17822807 -0.09669931
0.37959272 0.06479268 -0.06606191
-0.028601598 0.015231828 0.12768562
0.32528624 0.11784138 -0.051739905
-0.1419615 0.010148475 -0.17423746
-0.16936122 -0.15146294 0.16053835
0.055303168 0.11925501 -0.064783394
0.0059823506 -0.11363171 -0.09235341
0.2552097 0.020369561 -0.028779209
0.22040688 0.012085416 -0.03188645
0.35969785 -0.036956236 -0.14670128
-0.10845753 -0.106455944 0.17181668
-0.21595119 0.13243964 -0.1578847
0.15488115 -0.06958244 0.04089404
-0.04067899 0.13886772 -0.1870259
0.050976045 0.08570208 0.0054446207
0.23483711 0.089794986 -0.035060488
-0.19693829 0.122906365 -0.21093744
-0.07060997 -0.14425108 -0.0253926
-0.3303021 0.035451006 -0.17489067
0.39556807 0.054404322 -0.07215646
-0.17742036 0.029590549 -0.1597991
0.24410658 0.02070285 -0.046947505
-0.109696835 -0.08272528 -0.17140016
-0.3627152 -0.023620307 0.040060963
-0.26823714 0.047555756 0.09240421
0.037339333 -0.007819829 0.097816564
0.014135911 -0.10866079 0.133764
0.2850391 -0.006537052 -0.0944787
-0.027562592 -0.06268213 0.1785132
-0.043707658 0.05930126 -0.30920896
-0.24287699 -0.11493448 0.13033412
-0.17518675 -0.1240703 0.13865405
0.10859576 -0.06322099 0.09006236
-0.120991915 -0.14939241 0.16475646
0.27654955 -0.0056462865 -0.0021537312
0.27661273 0.097366326 -0.046901006
0.0052271923 -0.14029564 0.10770386
0.041734844 -0.047562286 0.16222703
-0.020944351 -0.13081415 0.13150084
-0.31018695 -0.121964276 0.06470953
-0.04817216 0.0127731515 0.13108374
-0.22559889 -0.13914068 0.09896933
0.0363867 -0.11503379 0.14730546
0.09533921 0.12557016 -0.15965518
-0.06809467 -0.10577868 0.16988257
-0.033698108 -0.072811365 0.1835508
0.31193963 0.09888731 -0.05988639
0.24173675 0.1184132 -0.10704132
0.33819973 -0.051999465 -0.12665631
-0.1787204 0.0004166968 0.11902608
0.26808652 0.004768047 -0.022417767
-0.15196922 -0.015356948 0.13493958
0.36036357 0.13461873 -0.037138443
0.37472582 0.0534056 -0.10201276
-0.20016046 0.15099657 -0.23272261
0.2561139 0.08950492 -0.044889964
0.29835036 -0.063529216 -0.059296045
-0.10177619 0.16375619 -0.20347467
-0.15269652 -0.03596596 0.16076423
0.25704283 -0.06596201 -0.054483764
-0.094042 0.048411883 0.13415903
-0.20194407 -0.0020415955 0.10024896
-0.29994544 -0.005891003 0.078823894
-0.34140578 -0.037652977 0.062050004
0.3631463 0.11408077 -0.040808607
0.24269997 0.11475464 -0.074197054
-0.10985689 0.06991105 -0.32308322
-0.060115673 -0.065244876 0.17777655
-0.07604142 -0.07109302 0.18931368
0.11154205 0.11501078 -0.07911927
-0.3237074 -0.060312197 0.0319447
-0.34786308 -0.107318796 0.02946906
0.09804125 0.07740554 -0.20387611
-0.21502568 0.0059384885 0.093587674
-0.14162652 -0.114630535 0.19371936
0.12008713 0.026854355 0.05627787
0.17879252 -0.036032237 0.012123957
0.36122698 -0.08474774 -0.11560026
0.14735194 0.113673314 -0.07731264
-0.3193683 -0.041701492 0.07144047
-0.19696465 -0.11591513 -0.038232144
-0.2809095 -0.059616797 0.11603783
-0.18691571 -0.16681282 -0.06596086
-0.02376382 -0.122654594 -0.036419608
0.32047614 0.20734586 -0.11867529
-0.09535711 0.015404633 0.13951994
0.2822942 0.13975412 -0.09553653
-0.13398108 0.017789928 -0.31876597
0.17366837 0.048178963 0.034676872
0.31905633 0.0377636 -0.08820929
0.30644506 0.13054188 -0.04081293
-0.098997295 0.012529171 -0.13744971
-0.23846208 -0.04388158 -0.195855
-0.026610337 0.016817532 -0.07545263
0.33777952 -0.032531366 -0.098097235
-0.33559963 -0.011207641 0.042692635
0.31581485 0.16671321 -0.051359877
0.07858794 0.031892616 0.026310211
0.008632764 0.024717929 0.079465926
-0.289583 0.021898963 -0.27631077
0.16402438 -0.030920163 0.025736032
-0.16413641 0.0071447324 0.15244469
-0.33889484 -0.09674961 0.025279976
0.30147457 0.19362023 -0.10759738
-0.075303674 -0.13424484 0.15716682
0.12140185 -0.0032670223 0.12155548
-0.0640796 -0.059902143 0.20057316
0.094123654 -0.057780065 -0.12956412
-0.19372058 -0.11357444 0.1383822
-0.016116891 -0.1041844 0.15343808
0.08113827 -0.051460575 0.14779864
0.07763923 0.02692789 -0.24005729
-0.1720092 -0.1597312 0.08566208
-0.21182139 -0.103589304 0.14425802
-0.15099113 -0.0043712747 0.14704987
-0.098885015 -0.09602634 0.20824794
-0.17798328 -0.06340679 0.15308644
0.40185636 -0.0016028741 -0.08212323
0.27207413 0.08300375 -0.028862847
0.31618828 0.047034554 -0.090393245
-0.26698166 -0.007472515 0.111947276
-0.05990178 -0.10859192 -0.03617006
-0.24185318 0.08855624 -0.13081005
0.008881049 -0.07299188 0.18037336
-0.29550108 0.041056085 0.053722233
-0.005453003 -0.033446047 0.169775
-0.041879475 -0.01754449 -0.15296437
-0.19483829 -0.09165303 0.19456749
0.014426236 0.046304375 -0.24403436
0.19250837 0.056006163 0.0062219556
-0.32347852 -0.035155714 0.053011462
0.065938264 -0.05421842 0.16393071
-0.036529735 -0.0844019 -0.04035831
-0.102998815 -0.06742651 -0.17631562
-0.27041152 -0.0932827 0.12731162
-0.39280474 -0.032824088 -0.054064333
0.3490456 -0.014175953 -0.09810133
0.3337308 0.13758029 -0.062464915
0.16974787 0.068844944 -0.045573913
-0.11976136 -0.06357552 0.17082164
-0.19503462 0.017395036 -0.14749743
0.31995857 0.12986828 -0.0738364
-0.044871636 0.039854795 0.090304576
0.3367241 -0.04740109 -0.14693771
-0.18151847 -0.035377964 0.19878332
-0.17739709 -0.13241394 -0.064873256
0.30659923 0.18669708 -0.11641286
0.013498563 0.13345693 -0.1593876
-0.0015884587 0.13666083 -0.19641012
0.11424675 0.06907156 -0.18632616
0.40142518 -0.066847906 -0.10931603
-0.11899094 -0.10293916 0.17088254
-0.24722454 -0.08199476 0.13444103
-0.17936406 -0.14156982 0.095190115
0.021324068 -0.05453793 0.14503579
-0.24058183 -0.0017945936 0.11738306
-0.037293162 -0.15213346 0.13808116
0.046932228 0.00906798 -0.21673715
0.03923218 0.048832726 0.10435945
-0.310976 -0.11731696 0.086252674
-0.03187178 0.0072948975 -0.14545251
-0.11473349 -0.033165503 -0.17700592
-0.33729696 -0.042764887 -0.120857224
0.14803037 0.01637969 0.058985405
0.33401635 0.0931868 -0.06810113
0.075061254 0.042889494 0.065823644
-0.28493613 -0.041833963 0.15144846
0.26107472 0.025611335 -0.016886313
-0.12748246 -0.062003013 0.17862459
-0.29117516 -0.04424556 0.11039789
-0.09171731 -0.05638997 0.16448644
-0.133957 0.010747425 -0.15956949
-0.12220814 -0.15905246 0.1602084
0.28038955 -0.042801 -0.11387878
-0.13837746 -0.033319376 0.18723208
0.29496586 0.14069276 -0.06747197
0.32367522 -0.080190755 -0.14228666
-0.16198699 -0.021148633 0.15525721
-0.02625211 0.03720072 0.13649844
0.29981214 -0.051424462 -0.21396892
0.008214649 0.116419315 -0.0748643
-0.13413204 -0.12338928 0.1775219
0.36634558 0.049541928 -0.068119854
-0.07515881 -0.123641625 0.16880544
-0.13109483 0.13234535 -0.21211797
-0.31947914 -0.1250073 0.026830265
-0.32504034 0.08134695 -0.10822544
-0.28508887 0.05413811 0.005558975
-0.06667925 -0.11172798 0.18227246
-0.29710326 -0.010447819 0.071978904
0.30019182 -0.019904558 -0.04911219
-0.29100937 0.07624534 0.039176695
-0.11047216 -0.10853894 0.18875985
0.0010984137 -0.0963348 0.14993674
-0.0012563579 -0.11242998 -0.063214734
0.07117288 0.109854 -0.009613268
0.24862666 -0.0538428 -0.2750531
-0.11991367 0.018117236 0.11557155
0.0007476254 -0.0827431 0.19459294
-0.3302161 0.05224818 -0.071567334
-0.26171786 0.094643496 -0.039461803
0.2928113 0.20073989 -0.12890893
-0.14193945 0.04063234 -0.15962696
-0.34775472 0.0551467 -0.016428122
0.12524928 -0.05729175 0.07333019
-0.19661073 0.055082995 0.12883778
-0.16805139 -0.037423767 0.16656
-0.21743071 -0.0836337 0.18107352
0.34050223 0.09532691 -0.055883497
0.25928792 -0.053165484 -0.06810719
0.23645957 0.060259607 -0.004831967
-0.09953615 -0.14292133 0.16341357
0.31366578 0.04897415 -0.08209458
0.076270394 -0.08561096 0.14117175
0.2123102 0.0369591 0.0069608972
-0.27606457 0.11505237 -0.09491872
-0.022996066 -0.03367262 0.18693517
-0.0499405 -0.06627874 0.19601868
0.034103606 0.04956165 -0.2656406
0.058371212 0.12228919 -0.05340504
-0.09749715 0.04826912 0.117025554
-0.14086418 -0.007420962 0.13910672
0.083318934 0.01795059 0.08948044
-0.2705475 -0.10720246 0.10145163
0.33867812 0.1347888 -0.026689716
0.27592945 0.08629672 -0.028910436
-0.3002379 0.10557264 -0.078594394
0.30354077 0.07715474 -0.07772538
0.16310011 0.110250555 -0.10302659
-0.107748136 0.068369195 -0.29960504
0.18734579 0.11552087 -0.07049411
0.23117812 0.21718246 -0.17217197
0.2835546 0.18815792 -0.1385805
0.25483564 0.13938116 -0.102743916
0.079608746 0.051563628 -0.21654254
-0.06947287 0.0027884191 0.15959239
0.12270575 -0.026624702 0.098920435
-0.12389464 -0.11194874 0.0038459343
-0.24935517 -0.028611416 0.16722868
0.049933307 -0.08917441 0.13427229
-0.038234122 -0.14127225 0.12658542
0.25033805 0.20910774 -0.1975317
-0.3718285 0.017280666 -0.13417737
0.15155366 -0.022779837 0.055532563
-0.015418478 -0.11264164 0.12393026
0.015663706 -0.040330354 0.14036268
-0.25463334 -0.061705794 0.14478809
-0.09396619 0.15190025 -0.1961513
-0.11632813 0.020259855 -0.27316758
0.23732615 0.12077528 -0.02312451
-0.11719216 -0.12447771 0.16098648
-0.19898875 0.14653555 -0.13175441
-0.348053 0.062584884 -0.103816405
0.22444575 0.10059489 -0.063605554
-0.2393725 -0.10173289 0.115697
0.22333264 0.12766697 -0.07472888
0.23829553 -0.07100094 -0.17779604
0.07137408 -0.017771846 0.13462028
0.2715324 0.200341 -0.1145251
0.27758595 0.048596673 -0.040389776
-0.29499096 -0.07054336 0.15101625
0.23084377 -0.009203504 -0.010288534
-0.0054718982 -0.018543806 0.14016034
-0.042279392 -0.08125219 0.15094545
0.253058 0.13257256 -0.099135704
0.3215041 0.076521516 -0.07824719
0.09349099 0.046945002 0.05013088
0.0660689 -0.06295285 0.13017325
-0.15311418 0.116682835 -0.18948646
-0.23766792 -0.06553823 0.16549647
-0.1465612 0.002317719 -0.2836949
0.13977212 0.1272201 -0.0830879
0.028437557 0.023318913 0.13599546
-0.23308048 -0.03923695 -0.020499146
-0.085475944 -0.0062704827 -0.17004146
-0.12753533 0.014853062 -0.15166181
0.25252149 -0.04106728 -0.041433934
-0.18575846 0.010900794 0.12903994
0.12867299 -0.0032824336 0.08509173
-0.23885685 0.0048909653 -0.24414766
-0.11148702 0.122440755 -0.18864116
0.0665081 0.04876804 0.042288885
0.251339 0.17345461 -0.12333268
-0.19061287 0.13727677 -0.26271743
0.18462661 -0.067099005 0.007912445
0.16822278 -0.08701365 0.032110676
-0.2476675 -0.028608104 0.115297824
0.2680136 0.065328375 -0.023823857
0.2146281 0.10871447 -0.03394579
-0.22795542 0.04552895 -0.10957812
0.055785373 0.11008588 -0.19892518
-0.18422148 -0.017097233 0.12262945
0.09890836 -0.045510713 0.093547925
-0.32868698 -0.016156524 -0.17300141
-0.1523431 -0.077877276 0.15715453
-0.3387401 0.013875791 0.07713809
-0.092467025 0.029292786 -0.29676503
0.27865303 0.22338171 -0.14515497
-0.10409745 0.07212358 -0.32866952
-0.27351782 -0.14756702 0.12848419
0.32119694 0.09844449 -0.04007466
0.2493629 0.07611879 -0.010410863
-0.03060397 0.0014706892 0.110540524
-0.20139611 -0.1054747 0.15725932
-0.05552985 -0.001542726 0.18449251
0.068603806 -0.033368476 0.13399819
0.2081629 0.09307974 -0.052976735
-0.120334685 -0.12149158 0.1625838
-0.22208798 -0.10998243 0.16877879
-0.288927 0.020068938 -0.2275636
0.29639563 0.103856824 -0.077516176
-0.18675241 0.027044687 -0.28817868
-0.16763368 -0.1862064 -0.03429844
0.097155236 0.10523161 -0.13703674
-0.2254627 0.10098264 -0.13406129
-0.12927529 0.012774555 -0.15920411
0.31165856 0.13818882 -0.06515919
0.3519787 0.052183162 -0.08537061
-0.04875109 -0.046486434 0.18847369
-0.2965007 -0.12292489 0.014260002
0.33899188 0.09355583 -0.06340709
-0.3393527 -0.092509724 0.07667016
0.3917937 0.03674176 -0.11295236
-0.006189109 -0.15394494 0.07570914
0.07769116 0.02783801 0.067551255
-0.042033996 -0.1282228 0.17470618
0.07460547 0.10608716 -0.078345574
0.1621195 0.035658967 0.021363737
0.22732864 0.12088744 -0.08294014
0.04216933 -0.04533146 0.13673516
0.11850339 -0.09800427 0.061989803
0.11737111 -0.012693053 0.09449616
0.32786366 0.15376325 -0.061606567
0.20167616 -0.08399712 -0.097971216
-0.3014279 -0.13691539 0.09815654
-0.1768068 -0.11759947 -0.060913865
-0.23189497 0.0044176723 0.10703349
0.17293908 0.080234304 -0.043426827
-0.17279133 0.03255296 -0.14602417
0.3154833 0.027217103 -0.08661468
0.24262218 -0.0321142 0.010202279
0.15549947 0.05242295 0.046182968
-0.13867909 -0.086643495 0.16435501
0.12747721 -0.018855719 0.070289366
0.065248184 0.14796324 -0.12349211
-0.16454539 -0.11928831 0.15542276
0.21443576 0.11178376 -0.0771457
-0.15630162 -0.12281379 0.0017853423
-0.1708368 -0.12437499 -0.061520893
-0.0036423993 -0.08942352 0.16942464
-0.18136173 -0.055680014 0.20065336
0.3521474 -0.045876376 -0.13753441
0.08848747 0.07975919 -0.1148426
-0.004657178 0.14429384 -0.13105293
0.253251 0.05735117 -0.05055486
-0.16303237 -0.13772173 0.1819889
-0.21155754 -0.024259018 0.16189282
0.08090375 0.016642153 -0.23100229
0.16692957 -0.0768797 0.039630942
-0.27334225 0.044048615 -0.034874182
-0.12264462 -0.1556147 -0.043112326
-0.12575881 -0.17059664 0.09348958
-0.2712676 0.03133524 0.0025712752
0.04765275 -0.05079489 0.16556518
0.25095704 0.09802976 -0.0752679
0.17904587 0.12089853 -0.11381627
-0.34979442 -0.059360165 0.042429276
-0.26053095 -0.02045366 0.13311902
-0.03158871 0.026129777 0.15266798
0.30785438 0.1250264 -0.05204017
-0.015084454 0.026901819 0.15143926
-0.1704955 0.01358468 -0.16476403
0.25537097 0.21514252 -0.09855748
0.374437 -0.008288357 -0.12100057
0.3315465 0.14308494 -0.042516973
0.081101224 -0.08087306 0.1072065
-0.30269086 0.07368494 -0.060068086
-0.03947986 -0.04283798 0.18225276
3.4428682e-05 -0.038943432 0.15538263
0.36753085 0.044390008 -0.07051851
-0.33426875 -0.028514756 0.058278747
0.09457373 0.002467541 0.077163935
0.12850778 0.030157812 0.07340686
0.26334864 -0.0725728 -0.22655761
0.03226396 -0.099560715 0.10849572
0.22719604 0.12494545 -0.13085851
0.31512508 0.142062 -0.08273613
-0.02352196 -0.17252003 0.112170845
-0.16190143 -0.02854076 -0.10884566
-0.17831048 -0.13807452 -0.20032549
-0.090970255 0.14517325 -0.16635248
0.12561664 -0.100663 0.0021279268
-0.046717633 -0.07714169 0.17985873
-0.21722652 0.038905136 0.085317865
0.032540828 -0.08242738 0.12250388
-0.18005158 -0.031853728 0.14866291
-0.36462566 -0.03530566 -0.016210577
-0.3130434 -0.11019711 0.04501347
0.013726929 0.13597515 -0.16314763
-0.14523457 0.15743315 -0.20590438
-0.20653424 0.07287525 -0.26363215
-0.026684828 -0.12858613 0.073695846
-0.26438448 -0.010945864 0.09566598
-0.31462774 0.07442984 -0.01782697
-0.023542367 -0.15244126 -0.034431238
-0.062339358 -0.026194593 -0.15178268
-0.31812632 -0.12357592 -0.025203845
0.1306727 0.064100586 -0.020511216
0.05238257 -0.036873076 0.120758474
-0.0828422 0.010970357 0.15583552
0.13219395 -0.030482253 -0.18310457
0.14393066 0.06979148 0.050527602
0.058761075 -0.014191922 0.14480953
-0.004350255 0.018878693 0.08562355
-0.3763703 -0.011577488 0.01284313
-0.33109736 -0.051375717 0.059026383
-0.27798483 -0.030471481 0.14898255
-0.068560176 0.14532071 -0.16809744
-0.20505527 -0.14530085 0.08918998
-0.12154097 0.0045949062 0.12905091
0.08017509 -0.10851443 0.10761094
-0.19072764 -0.018923268 -0.1674388
-0.29214144 -0.0017502911 0.084812306
0.32910463 -0.060426716 -0.10987728
-0.35246468 -0.10191848 -0.034168195
-0.053390164 -0.08620451 0.19278511
0.1222616 -0.038428973 0.102316715
0.008889399 -0.11423975 0.13632323
0.37826097 0.06360113 -0.04728598
0.12936008 0.003932478 0.07383685
0.3173153 0.16028574 -0.09894576
-0.12690827 -0.14968589 0.06881395
-0.37053564 -0.020806499 -0.06558798
0.28198156 0.18248762 -0.07751764
-0.12454965 -0.064818166 0.20524967
-0.18497673 -0.16637279 0.11973495
0.029980872 -0.053090975 0.14691769
-0.09643996 -0.010961056 0.121589154
-0.23675957 -0.13726503 0.1201365
0.14390841 -0.021453451 0.07231334
0.31584403 0.18206243 -0.10098628
0.37682685 -0.00921793 -0.13631879
0.25673583 0.114162706 -0.112499736
0.115701705 -0.001931905 -0.18931994
0.2333232 0.038114667 -0.013791954
-0.16530797 -0.0009469677 0.14805497
-0.25408593 0.004182849 -0.24913706
-0.092114046 -0.097994424 0.18325046
0.115772285 -0.09371966 0.06558505
0.034214042 -0.14605533 0.031846676
-0.1644022 0.03981638 -0.3092301
0.3543781 0.008339343 -0.0863174
-0.17052796 -0.036302347 0.1848758
-0.03992297 -0.14409842 -0.081008665
-0.09785988 -0.04070186 0.15401267
0.11752404 -0.033550516 0.10062776
-0.14612265 0.0060137524 0.1205136
0.2566893 0.18867043 -0.17927568
0.32563663 0.100493334 -0.058430318
0.08001939 -0.0962701 0.122343205
-0.16155887 -0.013477091 0.13818523
0.02740817 -0.14332652 0.07093723
0.15567906 -0.007342342 0.059172664
0.323497 0.06425135 -0.053962134
0.2696611 -0.027257478 -0.05495177
0.37519136 0.11584207 -0.065831445
-0.1625264 -0.004391445 -0.30719382
0.14271808 -0.00583969 0.106724106
-0.06149377 -0.17318626 -0.026888162
0.2489127 -0.01874165 -0.04098902
-0.13774098 -0.16314544 0.14014319
-0.12059921 0.026203228 0.15212531
-0.11461971 0.0649192 -0.15415713
0.019870663 -0.0016109968 0.16488011
-0.059022218 0.029368943 -0.30662426
-0.28961107 0.04676802 0.036725573
-0.050752994 0.0005679703 0.18136597
-0.025475105 0.17069519 -0.22502966
0.066645436 0.04844514 0.023200119
0.13554364 -0.024524642 0.0873621
-0.2491785 -0.06463623 0.13998745
-0.25744054 -0.008351902 0.14170304
-0.14237538 -0.10184501 0.17127793
0.29640073 0.042057857 -0.041458517
0.051752396 -0.063499 0.16283572
0.14120953 0.062394973 0.025779195
-0.25724337 0.02545959 0.056757577
0.24435985 -0.06433563 -0.05979858
0.26100907 0.012068478 -0.0026951476
-0.2139243 -0.17588994 0.11192606
0.36111656 -0.07273109 -0.15285511
0.13627 -0.021405015 0.07065858
-0.13715014 -0.12762296 0.15782666
-0.23991829 -0.10235886 0.14191037
0.29820764 0.21763827 -0.11354804
-0.26245886 0.046205893 0.056812115
0.29542568 0.092490956 -0.0818208
-0.041382004 -0.16301541 0.10472422
-0.29210672 0.06171678 0.029964318
-0.34502205 0.009496962 -2.4493549e-05
0.2308294 0.14528646 -0.13728228
-0.14231747 -0.1699797 0.13578412
0.010965801 -0.13164854 0.13267344
0.35780174 0.079191215 -0.08322379
-0.004236525 -0.040424466 0.1682942
-0.11983309 0.062010325 -0.14821948
-0.0038103946 -0.13529995 0.16177826
-0.028364273 0.15080172 -0.17712945
0.0005155705 -0.097697504 0.16345586
0.082285166 0.10887656 -0.16423698
0.23623462 0.20853142 -0.1387677
-0.1321555 -0.054374035 -0.17582314
-0.111639716 0.004125 0.150786
0.09265795 -0.088674195 0.10083904
-0.07093669 -0.1142084 0.17069991
0.14488202 0.077785976 0.024543535
0.12526004 0.021282153 0.053682216
-0.23039936 -0.160278 0.13819614
0.011486041 -0.047313467 0.18013479
0.090298176 0.013158874 -0.22357981
0.13226156 0.09862967 -0.041884743
0.27713072 -0.035520606 -0.09533846
-0.23540163 0.13286461 -0.13249482
-0.052362066 -0.1243105 0.0808597
-0.2289742 -0.17267537 0.08893497
-0.26725033 0.039481185 0.038561843
0.3170701 -0.017272389 -0.10773327
-0.04889678 -0.12169558 0.1658848
0.09863535 0.08427432 -0.13044399
-0.3009355 0.04211294 0.069128476
-0.012196057 -0.0851452 0.15394191
