# .PCD v0.7 - Point Cloud Data file format
VERSION 0.7
FIELDS x y z
SIZE 4 4 4
TYPE F F F
COUNT 1 1 1
WIDTH 1000
HEIGHT 1
VIEWPOINT 0 0 0 1 0 0 0
POINTS 1000
DATA ascii
-0.054357238 -0.08389608 -0.024292238
-0.0021293967 -0.046035036 -0.16036493
0.21250188 0.24956024 0.060965322
-0.2519085 -0.10618269 -0.09874266
0.07050299 -0.050964244 -0.11494227
0.15008979 0.13837284 0.1335589
-0.089909665 -0.3225043 -0.13733009
0.27151033 0.086779684 0.06598703
0.067361295 -0.15597749 -0.028231487
-0.07993676 0.12969309 0.0063115945
-0.04396896 0.23674084 0.14363584
0.0067928294 -0.08666157 -0.08949237
-0.13595562 -0.0925785 0.012186622
-0.19538437 -0.14546008 -0.062338844
-0.125523 0.0615007 0.085370794
-0.15208484 -0.015711332 -0.13207309
-0.07236457 -0.07056884 0.0077578328
-0.07226367 0.17635766 0.15385675
-0.20240943 -0.046566136 -0.0036935974
0.067124434 0.13514699 0.13941449
0.21169631 -0.0059555005 0.020622192
0.1076808 0.20357853 0.0068807965
0.05898455 0.15047881 0.12049413
-0.13385306 -0.18583594 -0.2522891
-0.18654288 -0.12543464 -0.2123195
0.08921889 0.1585602 0.15433125
0.03571469 -0.053485878 -0.076786965
0.023411298 0.25991386 0.069000356
-0.18779667 -0.0070667113 -0.124011755
0.21649435 -0.08557343 0.0180283
-0.08756841 -0.16056643 -0.044968702
-0.1258938 0.18497615 0.09798043
0.11898876 -0.031009715 -0.18360822
-0.20102006 -0.1942647 -0.0456197
0.12127707 -0.07998157 -0.2034613
0.16119014 -0.033287186 -0.11735832
-0.23092817 -0.004622066 0.017601483
-0.25518215 -0.28945366 -0.17330112
-0.0027973931 0.1279486 0.004734797
0.118122295 0.26188725 0.109661765
0.042973477 -0.16507924 -0.16623771
0.07999738 -0.17049411 -0.12562388
0.20278335 0.18617217 0.10324082
-0.026183816 0.1601358 0.14265925
-0.16484551 0.06305808 0.07054394
-0.12467742 0.110526256 0.123178154
-0.047724307 -0.040193383 -0.15191299
-0.06901776 0.22954975 0.11046888
-0.010520519 -0.00045887945 -0.112142175
-0.10965307 -0.20175676 -0.07197311
-0.06904406 0.25889307 0.118144035
0.17719692 0.20046008 0.13651371
-0.19390704 -0.029940236 0.017481918
0.26937574 0.11230777 0.024938032
0.28808594 -0.031868096 0.0014373441
-0.22375464 -0.101628155 -0.08403079
0.034515947 -0.13369355 -0.017795946
-0.17313506 -0.11480645 -0.17384528
0.06986949 0.0008123162 -0.16780338
0.17392708 0.1413096 -0.06287372
-0.16956292 -0.33461288 -0.07861779
0.07070099 -0.065367945 -0.16493279
-0.084477276 0.009556522 -0.04270154
-0.10651221 -0.12623939 -0.18801421
-0.15774812 0.044317055 0.08319851
0.13708328 0.22082539 0.10622269
-0.124902554 -0.21323195 -0.09287104
-0.015046161 -0.02862907 -0.06693558
-0.09776126 0.21925822 0.10605389
-0.08348447 -0.31116447 -0.11360249
-0.082087085 0.19785234 0.13270144
0.11246182 0.07645238 0.024366444
0.2728116 0.016573595 0.055323645
0.029507972 0.21151643 0.13834807
0.26358426 -0.12362334 -0.04174253
0.08952758 0.124592386 0.008924024
0.08204743 0.26519907 0.041622482
0.18305683 0.10945273 0.12009447
0.12435426 -0.13426572 -0.049198117
-0.08093161 -0.0825298 -0.18499194
0.02993401 -0.08140822 -0.17688121
0.24462523 0.03673666 0.0341834
0.03907564 0.14179066 0.1274384
-0.28223214 -0.35752377 -0.10921557
-0.030922297 0.11290948 0.13985366
-0.24495219 -0.07769269 -0.07835815
-0.07785385 -0.22241843 -0.10446675
0.11236589 0.24642213 0.08926279
-0.15500063 0.046906736 0.07454278
0.11569622 0.17608052 0.12800543
0.048805494 0.23079072 0.13026574
0.10596025 0.11518773 0.123668656
-0.20771405 -0.3655833 -0.053079903
-0.23254147 0.032980543 0.039559644
0.011165733 -0.085948005 -0.19824272
-0.250365 -0.32844228 -0.124014154
-0.002497877 0.16914544 0.14757253
0.22481376 -0.00013632608 -0.13177791
0.16172636 -0.13527389 -0.08514052
-0.008812819 0.0130505655 -0.12710659
-0.06663406 0.0016516699 -0.14425969
-0.008626725 0.17900689 0.120426476
0.089335844 0.038654856 -0.09801648
0.012079714 0.09716803 0.013640171
0.12791109 0.19675818 0.13883539
0.13887067 0.18084522 -0.020487027
-0.102982365 -0.31677896 -0.113827996
-0.17832749 -0.34683788 -0.11407856
0.16477361 0.1297995 0.14888577
-0.05700407 0.052741695 -0.037772305
-0.17106345 -0.054228242 -0.10837
-0.06619751 0.06387819 -0.075580336
0.2375888 0.07748961 -0.12634085
-0.03852529 -0.20029972 -0.14099672
0.24982257 0.12949263 0.013048904
0.083996125 0.14836425 0.13725369
0.0039069983 -0.015365381 -0.052268315
-0.050293762 0.16913381 0.11731882
-0.16551174 -0.23373194 -0.07907453
-0.22717594 -0.05944087 0.037968155
0.13039595 0.18348992 0.12845597
-0.12375694 -0.20852338 -0.093048275
0.19745705 0.06333774 0.09497978
0.23515005 0.11923026 0.11068359
0.080430165 -0.0300173 -0.18607292
-0.16720764 0.023374269 0.043076042
-0.11439802 -0.10983997 -0.037227117
-0.26399615 -0.21132475 -0.13425952
0.22597323 -0.034632474 0.012884679
-0.11967939 0.06655368 0.10016971
-0.20824403 -0.29152912 -0.11076408
0.038534556 -0.15856692 -0.06591195
0.042817198 -0.18136133 -0.041180167
0.19087034 -0.15683305 -0.068749756
0.19057533 0.18948412 0.09640564
0.26717958 -0.018425345 -0.018967645
0.22002177 -0.02398131 0.004427953
0.08207543 0.11076291 -0.030466361
-0.23388939 -0.38478464 -0.09435611
-0.20074955 0.063288786 0.05977027
0.28450635 0.016018273 0.040048912
-0.07776875 -0.16320494 -0.120762415
0.25100493 0.0035610641 0.025553023
0.24309468 0.2070986 -0.007545228
-0.12579477 -0.24921948 -0.09074135
-0.1627807 0.09087565 0.09419986
0.1919551 0.1915432 0.058559448
-0.07459477 -0.27039552 -0.17989683
0.014898063 -0.028106118 -0.12088359
-0.024249602 -0.17032439 -0.1625661
0.124890655 -0.17606051 -0.076068856
-0.19474842 -0.010138711 0.050949316
-0.1688498 0.11518292 0.08090532
0.1692951 0.13901632 0.10011342
-0.1733334 -0.29988325 -0.113667935
-0.022620747 0.26519132 0.12654972
0.15288499 0.24337807 0.079272464
0.067175396 -0.19967134 -0.085191905
0.31197172 0.14208043 -0.022771824
-0.08505779 0.20778905 0.11610539
-0.036461603 -0.054486345 -0.11778211
0.2117592 -0.13894889 -0.08243749
-0.14661394 -0.19993588 -0.057506606
0.08068561 0.19950807 -0.0052282903
0.2233517 -0.09857949 -0.049188346
0.07887243 -0.04258059 -0.10458517
-0.05307695 -0.34998405 -0.17842144
0.21670398 -0.067628674 -0.16672713
-0.15998559 -0.3290426 -0.09160767
-0.13909104 0.14008185 0.103957884
-0.20954104 -0.2423717 -0.090765044
-0.15564126 0.056369796 -0.07638398
0.020946069 0.29713014 0.09012535
0.11177954 0.2515876 0.051938348
-0.083437175 0.19126686 0.15670143
-0.12926295 -0.1781263 -0.026149595
0.19966544 0.25309578 0.05563389
-0.09190882 0.096714176 0.12465049
0.22454274 0.23216662 0.05078518
0.06333474 -0.06843979 -0.06287724
-0.09821701 0.12727304 0.13453908
0.15063296 -0.008126326 -0.076583564
-0.23776683 -0.20277831 -0.09099724
0.00786614 0.13916516 -0.016489
-0.15438366 0.14860569 0.08581415
-0.1871023 0.10670425 0.116392225
0.100042164 -0.01694183 -0.08967587
0.030206556 -0.027786016 -0.08574297
0.02801978 0.13584092 0.15485913
0.03355243 0.28348643 0.09117344
0.23636806 -0.012687444 -0.020353632
-0.020147698 -0.16840298 -0.0260748
-0.13248223 0.13985954 0.1415558
0.12944129 0.13588576 0.1242777
-0.22746766 0.009597213 -0.04456284
-0.0048131254 0.1814834 0.14276692
-0.11702376 -0.11147495 0.022005811
-0.1334469 -0.22864418 -0.09516264
0.2823634 0.12583092 0.052792527
-0.23070833 -0.29125476 -0.10093554
0.23540246 0.14692345 0.08495929
-0.037483167 0.20458606 0.16187981
0.24851137 0.2038955 0.0034241728
-0.14337303 0.0728707 0.12228598
-0.112677224 0.035462912 0.09818948
0.009296574 0.19737187 0.17067246
-0.20167325 0.09464184 0.05934958
0.048630744 0.21210113 0.15699522
0.08069421 0.10982079 0.13148835
-0.14339526 0.043065805 0.09679295
-0.15806092 0.1431729 0.110310555
0.037660807 0.11286066 0.031946756
-0.122558296 0.04523517 0.09765989
0.25535923 0.16662519 0.088521846
0.25034186 0.016941234 0.0037778271
-0.14647865 0.08032157 0.10463139
-0.033004567 0.22779916 0.12288293
-0.053244334 0.033714715 -0.009077779
0.23762262 -0.027492743 -0.01423877
0.21779343 -0.076140344 -0.13960543
0.30094522 0.11327917 -0.01352549
0.19315888 0.15890092 0.089236505
0.23196073 0.19240578 0.099190824
0.05036431 -0.19530661 -0.10697359
0.12870088 0.06362049 -0.00079631055
-0.021383278 -0.0010404654 -0.09897403
0.17866223 0.14075826 0.08305776
-0.096900485 0.0653443 0.10878644
0.1566113 0.17844234 0.13427235
-0.0370822 -0.19434927 -0.09009436
0.1661754 0.12003607 0.112349585
0.12280939 0.26483354 0.10987379
0.123247474 0.20769681 0.11678639
0.20227143 0.13143422 0.072921425
0.15191625 -0.104938775 -0.026224568
0.16025592 0.17667292 0.13923326
-0.19368465 -0.17439945 -0.073692285
0.25744236 0.132933 0.03552682
-0.11318605 -0.29984626 -0.12493183
-0.11675896 -0.20108463 -0.06874778
0.18054697 -0.010955043 0.032495532
-0.23680782 -0.16109177 -0.099772535
0.27982658 0.07175702 0.026709188
-0.19915521 -0.35253066 -0.09015239
-0.0105200205 -0.045930583 -0.053802583
-0.17156051 -0.21917233 -0.09845016
-0.09044645 0.02859957 0.09383866
-0.17808664 0.011093872 0.026176162
0.04750534 0.16955042 0.15873608
0.00033834012 0.13805752 0.016838763
0.22219348 0.14293431 0.08705773
0.18668853 -0.06929523 -0.021862125
0.16518903 0.12579873 0.12455672
-0.092273496 0.036429282 -0.024066847
-0.098945014 0.15294704 0.14707102
0.047421377 -0.16785575 -0.047892705
-0.023509815 -0.03448635 -0.1456166
0.17836346 -0.09446664 -0.04321608
-0.019833807 0.19869609 0.12288065
0.29583788 0.0055029057 -0.009459511
-0.07122392 -0.22938913 -0.1584108
0.20404711 0.12041729 0.10556787
-0.08316808 -0.20390841 -0.12702893
-0.23466845 -0.26939502 -0.100692056
0.02714868 -0.033240944 -0.10810385
0.25047797 0.12206649 0.06824249
0.12877934 0.19466798 0.15236062
-0.122927845 -0.29637477 -0.09143561
-0.09612045 -0.32533336 -0.07813844
0.20836587 0.111181095 0.08366622
-0.11879114 -0.34275803 -0.12577046
-0.27032697 -0.2002579 -0.2975954
-0.24012375 -0.3267665 -0.112131886
0.080053926 0.13608041 0.15627149
-0.059300378 0.058978904 0.020665146
0.05060887 0.24890025 0.16105996
-0.22335239 -0.08775626 -0.020891827
-0.20268553 -0.041952584 0.0019476931
0.23789677 0.18301992 0.038884226
-0.08502238 -0.2939878 -0.12061094
-0.15878816 -0.24733236 -0.059053548
-0.077174395 -0.30213937 -0.1326084
0.026549768 0.2581593 0.075629406
0.22558594 -0.1174074 -0.014282198
0.11934733 -0.1270131 -0.0055451295
0.044861265 0.16122538 0.13986263
-0.010928995 -0.14334567 -0.017936451
0.22651227 -0.06280407 -0.15765272
-0.20723511 -0.01783425 0.01379336
-0.19363728 -0.27652863 -0.09856015
-0.22603133 0.06811374 0.040668037
-0.048796814 0.202645 0.16516246
-0.22711042 -0.23591676 -0.24713813
0.19341569 0.13945751 0.08309896
-0.08718246 0.019139843 -0.13126242
-0.26170596 -0.37572277 -0.08660617
-0.009381191 0.12188023 0.12687984
0.109361984 0.12414098 0.14434785
-0.13037881 -0.060531076 0.0077697053
0.053766068 0.2533332 0.083427906
-0.11629949 -0.036165975 -0.16923034
0.26641476 0.052851565 0.053065334
0.16023126 0.18510383 0.1292954
0.063371226 -0.15777661 -0.15859376
0.28378752 0.04447702 -0.059091073
-0.09958603 -0.08435872 -0.017822154
0.23706055 -0.10641743 -0.013799068
-0.20898272 0.16657607 0.04812416
-0.17084283 0.037676528 0.053924605
0.16027659 0.071554124 -0.017872069
-0.16198216 0.113419056 0.1081548
0.050731465 -0.07955619 -0.17119978
-0.1251243 -0.044165555 0.02724909
-0.0940843 -0.19983639 -0.08314451
0.1996065 -0.07314507 0.020320026
-0.1535315 -0.13990217 -0.031120997
0.108317845 -0.00027745028 -0.06361054
0.17760068 -0.14367029 -0.09534361
-0.0666563 0.0076564145 -0.08421758
0.0434585 0.13550146 0.112982914
0.0724616 0.2667973 0.13968357
-0.121167704 -0.033871826 0.05295228
0.021088965 -0.048432264 -0.057321373
-0.17560221 -0.16608776 -0.08685375
0.2045862 0.19484381 0.0964074
-0.036139414 -0.1419134 -0.03387589
0.12094359 -0.16351765 -0.03929548
-0.17450356 0.11152011 0.08350413
-0.12418655 -0.11525482 -0.016664054
0.2832895 -0.07101627 -0.01640614
0.090863764 -0.059504583 -0.07877728
0.104069404 0.14879127 0.13520065
0.20740746 0.17599264 0.112101406
0.1715039 0.14282317 -0.042109687
-0.02983239 -0.14933628 -0.034881696
0.019091299 -0.040175777 -0.11369932
0.17013474 -0.12562476 -0.049396154
0.2221463 0.080430344 0.08977541
-0.1326897 -0.16460933 -0.057058986
-0.12488188 -0.12199715 -0.046595577
0.1345659 0.04191448 -0.022176798
-0.20425671 -0.08753127 -0.03429251
-0.15389608 0.12210936 0.09680837
0.18251275 0.22444837 0.08859246
-0.17146595 -0.077298865 0.0040890826
0.28365543 -0.042999517 -0.091221854
-0.12989745 0.076769955 0.085247576
-0.06892198 0.08014099 -0.047079574
0.10627509 0.27228722 0.09680463
-0.0779435 0.18957463 0.14603485
0.26593584 0.11231294 0.0059058066
0.16647074 0.07461831 0.12779674
-0.15842861 0.11686393 0.103129625
-0.07011534 0.10262 0.1257217
0.13213153 -0.16574924 -0.0764899
-0.21059671 -0.21524836 -0.08172948
-0.1131212 -0.010394742 -0.09629199
0.26450506 0.020219576 0.027250981
-0.11000553 0.25390244 0.078119345
-0.018235337 0.13799708 0.16124433
-0.0075429785 0.17379013 0.14664254
-0.025825754 0.15121871 0.13128984
-0.15696856 0.16006404 0.050977923
-0.19428968 0.14274105 0.03829401
0.21574885 0.22587068 0.0798458
0.0846561 -0.031324368 -0.103515945
-0.2025942 -0.14908004 -0.060342822
0.038273234 -0.17007041 -0.012996824
0.30331638 0.09105345 -0.010507426
-0.059892353 0.18174253 0.11954193
-0.07582691 0.22751805 0.099846795
-0.06478828 -0.24452558 -0.1364946
0.28426898 0.029533885 -0.121724516
-0.09429892 -0.32718697 -0.084298626
-0.034245256 -0.031232467 -0.082385205
-0.11057777 -0.05723957 0.0067827245
-0.13631856 0.20046666 0.10709594
-0.22327106 -0.32786548 -0.12089432
0.12876 0.12561347 0.12747402
0.24495988 -0.016451651 -0.008047384
-0.13130422 -0.17924742 -0.0735637
-0.19948412 -0.3906906 -0.06530303
-0.20702705 0.17729963 0.033388764
-0.10675853 0.08241424 -0.075957
0.011504826 -0.06089433 -0.068730004
0.0855002 0.121170744 0.1277505
-0.10312315 0.14511494 0.097117685
0.2236311 0.07691509 0.08742426
-0.25735286 -0.34413087 -0.107365675
0.045563426 -0.093670204 -0.19420466
-0.022404624 0.20601025 -0.016955435
-0.058319867 0.13920724 0.13407037
0.052419227 -0.05295577 -0.13616917
-0.22897689 -0.19638513 -0.0969786
-0.10689876 0.22878593 0.06549147
0.2779144 0.20247315 0.019253539
0.14530574 -0.14566235 -0.034045372
-0.13268688 0.12064707 0.08833712
0.20959245 0.18289658 0.08991354
0.02768216 0.16389066 0.12565409
-0.012224319 -0.05944807 -0.058036055
0.10403529 0.13035259 0.10927179
0.14335424 -0.08937691 -0.010533708
0.21871175 0.17691754 0.114222065
-0.10294896 -0.34106588 -0.07850943
-0.23434633 0.06789271 0.052635748
-0.0299525 -0.13721797 -0.18129764
-0.17202781 -0.3336277 -0.086881615
-0.15840487 -0.33726013 -0.11267654
-0.05311557 0.049797174 -0.043124463
-0.1837585 0.16732547 0.07859351
-0.042190064 -0.0046779313 -0.092298
-0.08098151 -0.20140813 -0.091267526
-0.25352746 -0.07231484 -0.04560939
0.24064271 0.1864638 0.11105529
-0.10523529 -0.04632654 0.015011364
0.24189445 0.0073826034 0.053053394
0.13116047 0.045671202 -0.05208827
-0.24659516 -0.04076798 -0.009897219
-0.15819553 -0.31104803 -0.11612625
0.16616546 -0.13557006 -0.10006268
0.14943098 0.20347764 0.117062345
-0.23939353 -0.17743863 -0.16940853
-0.18982407 -0.09875864 0.002525307
0.096158005 0.16855188 -0.025926381
-0.17768876 -0.32991314 -0.11895217
-0.2081316 0.09617433 0.008899276
-0.20084599 -0.3485056 -0.10248486
0.14239481 0.19683382 0.14566547
-0.09436871 0.1483989 0.12282403
-0.18307278 -0.13434309 -0.033841245
-0.16279717 -0.13309179 -0.030459825
-0.19263045 0.03542985 0.07927526
0.26024035 0.04923931 0.030022757
-0.0794468 -0.323975 -0.10239688
-0.023982067 0.24645108 0.10413375
-0.105443195 0.067033544 0.108929165
0.07597581 0.26258916 0.052397765
0.06081642 0.15617709 0.14048445
0.10181329 0.23572567 0.13274604
0.056564443 0.21145073 0.1398112
-0.15349379 -0.20514561 -0.045060202
-0.10990097 -0.34160802 -0.11331737
0.06479729 0.2251221 0.12015125
0.26392388 0.068846345 0.058864776
-0.11582215 0.053211235 0.0651136
-0.1125097 -0.07651606 0.015144399
0.15700167 0.16479306 0.10361075
-0.042878367 0.12039422 0.12354093
0.15113209 0.18810296 0.10634282
-0.16927765 -0.2202541 -0.07541742
0.009915247 0.20182776 0.12407281
-0.049425613 0.15345155 0.14945836
0.24083625 -0.074651115 -0.042701073
-0.011983858 0.21176161 0.14738038
0.23957361 0.122433834 0.07905124
-0.17639452 0.015069226 0.057018947
-0.17191638 -0.04698824 0.04934744
-0.022522915 -0.06452879 -0.10008268
-0.029027019 0.034149513 -0.1727015
0.024357969 -0.19363384 -0.060026497
-0.21966662 0.026852 0.07909959
0.12023643 0.1137422 0.13446312
-0.1827023 -0.36261824 -0.07748463
-0.12355112 -0.11114321 0.020556329
-0.18624295 -0.31232393 -0.084145196
0.22226049 -0.023238456 0.054020006
-0.17857492 0.13593067 0.11292971
0.07442572 0.25852093 0.088554814
0.2501789 -0.077037275 -0.14261776
-0.0793858 -0.056487765 0.00040446626
0.23972765 0.12684126 0.06170329
-0.1284784 -0.21279025 -0.07071846
0.2339821 0.10349923 0.06088014
-0.14768642 -0.04567156 -0.124149606
-0.14562665 -0.094508424 -0.011829062
-0.14414293 -0.1822038 -0.035121568
0.06902849 -0.16320357 -0.023964033
0.19719541 0.023391953 0.0563619
0.27171353 0.11745557 0.023689229
0.06302352 -0.14954458 -0.19553766
0.050760966 -0.05388259 -0.10414599
-0.08433003 -0.30205134 -0.17310748
0.06253522 -0.0024902555 -0.10709747
0.08528749 0.17610753 0.14127508
-0.20155089 0.095044985 0.09326506
-0.26098 -0.33695343 -0.074763305
-0.18896584 -0.25180498 -0.054379243
-0.23525804 -0.16909376 -0.1520193
0.23434256 0.037137933 0.034641292
-0.045755286 0.26816425 0.12323167
0.1868075 -0.080930285 0.0081063565
-0.049477853 0.14347634 0.10772275
-0.17743498 0.201126 0.04299644
-0.15168887 -0.17319393 -0.0697883
-0.26961523 -0.28022185 -0.18211144
-0.057576884 -0.25988036 -0.11261778
-0.092520334 -0.26019272 -0.08984291
-0.020007337 0.23931435 0.14248598
-0.25190395 -0.1650062 -0.20463207
-0.17355083 0.004427105 -0.14638083
0.16063704 0.13507402 0.11186926
-0.24025899 -0.023970423 -0.040738158
-0.21587206 -0.30393296 -0.11899246
-0.060620837 0.047767885 -0.031857766
0.15950494 -0.17042401 -0.1132217
0.0041892687 -0.014831501 -0.093088046
0.13127632 -0.02172011 -0.08346849
-0.15313967 -0.047139928 0.049628492
0.111371 -0.015127007 -0.12996155
0.30967146 0.080008395 -0.018109893
-0.20233944 -0.07320552 -0.014338534
0.15336394 0.11590494 0.13717094
-0.0686677 0.01236712 -0.08345699
0.23342974 0.038827337 0.04819153
-0.19482091 0.18541297 0.043308374
0.15431978 0.16018395 0.11354076
-0.20024303 -0.096594706 -0.023036052
-0.14643267 -0.35136345 -0.11308807
0.12626337 -0.17221972 -0.08667487
-0.116912216 0.25968668 0.089177296
0.022512395 -0.11573356 -0.1712894
-0.09405305 -0.20173375 -0.09656667
0.2512228 0.11882351 0.092420936
0.20008643 0.007881128 0.04731393
-0.13436352 0.038070247 0.05995954
0.053601008 -0.18287627 -0.097542986
-0.16576721 -0.21415764 -0.06728634
-0.09753411 -0.26858565 -0.09133129
-0.14676188 0.053962074 0.060363542
0.065022014 0.20888577 -0.00988939
0.29583806 -0.036316913 -0.01972968
-0.24267058 -0.33518094 -0.12945886
-0.03524134 0.17910607 0.17015237
-0.21712919 0.035005696 -0.042733707
-0.05094986 -0.16361152 -0.065804616
0.012248843 -0.122904174 -0.1840694
-0.13470042 -0.30279022 -0.09085961
0.19874682 0.0869068 0.08562676
-0.09187891 0.13563153 0.1169596
0.06540497 0.21252185 0.12103391
0.27760333 0.09214778 0.0604554
-0.09790368 -0.11409777 -0.020478379
-0.033747442 0.015467088 -0.051473737
-0.086740024 0.07023904 0.12635179
-0.09843455 -0.28943115 -0.08935252
-0.19635275 -0.08193291 -0.003132809
0.06392728 -0.15124632 -0.01618473
0.10998391 0.25730067 0.12951997
0.08218369 -0.13645415 -0.2094943
0.23761736 0.14389126 0.10911458
0.17306766 0.09484658 0.11249844
0.25751272 0.033512034 0.027093785
-0.011025556 -0.18990593 -0.07400665
-0.20665213 -0.026971076 0.052555267
0.20744236 0.045077503 0.0728362
0.19787109 0.039874557 0.090840355
0.17516315 -0.08966973 -0.019810304
0.18364763 0.2082285 0.1171966
-0.20833811 -0.35032758 -0.08508161
-0.1892859 -0.2193297 -0.08539886
-0.03553249 0.116246946 0.13577563
-0.14692926 0.20753816 0.13146798
-0.018836271 -0.054293007 -0.15439227
0.19873708 0.05369443 -0.095672615
0.1420718 0.20318338 0.11144686
0.09003653 0.10368052 -0.03914512
0.059426695 0.17705393 0.124363355
-0.055163134 0.22045852 0.11978331
-0.096859396 -0.2041751 -0.070141
-0.005813876 -0.08778977 -0.1761644
-0.2115006 0.07155224 0.03923339
-0.027675634 -0.20891312 -0.11112142
-0.077516966 -0.12968674 -0.019895481
-0.13039887 -0.15427345 -0.07063455
-0.22527438 -0.014418613 0.030271541
0.12610811 0.2283376 0.0843658
0.10352204 -0.13936685 -0.039159004
0.093653604 0.16847247 0.14215542
0.0053856377 0.22039472 0.14577867
-0.1730956 -0.033610094 0.031851318
-0.14638008 -0.35434827 -0.07900816
-0.09122362 0.21718468 0.103386976
-0.13766465 -0.31853983 -0.109241426
-0.08324181 0.2573887 0.07727785
-0.0062568267 0.10281382 0.017775487
-0.14162025 -0.10913286 0.0050396803
-0.010198361 0.13333298 0.14685406
0.30057877 0.11013239 0.020980172
-0.06369131 -0.26108488 -0.24522613
-0.07789759 0.26150584 0.05969315
-0.21101205 -0.20383961 -0.075562716
0.11995445 0.18193153 0.15191114
-0.18249655 -0.02120202 0.05548734
-0.060846686 0.23908788 0.12904076
0.29060912 0.043107502 -0.0037153082
0.24596336 0.10505201 0.08898214
0.21211286 0.20000167 0.05621466
0.17179416 0.011118207 -0.08434925
-0.13211694 -0.12549143 -0.030662686
-0.05108386 -0.04485044 -0.10086721
0.19693673 -0.08123979 0.0014600932
0.25658056 -0.094601914 -0.029416138
0.1827304 0.122509904 0.122605965
-0.07199066 0.071799666 0.013692187
-0.12231099 0.09146996 0.12085447
-0.17528352 -0.02931341 0.05325163
-0.113908775 -0.19924909 -0.067771316
0.04784148 -0.18472393 -0.08543918
-0.054519396 -0.17254144 -0.09569859
-0.06380218 -0.3377269 -0.109230384
-0.2399182 -0.15443775 -0.12473316
-0.035557617 -0.03276179 -0.08154276
-0.1387583 -0.37328666 -0.07563692
-0.17233704 0.051827285 0.05719699
0.118801065 0.13538994 0.106660426
-0.21097301 -0.047669455 -0.12675422
0.050997563 -0.010641285 -0.08454393
0.037453223 -0.19792542 -0.069921024
-0.16325478 0.15655617 0.107029274
-0.19428433 -0.17564072 -0.06315596
0.11725354 0.19503129 0.11098809
0.024675133 0.18910898 0.1279817
-0.04439925 -0.19243827 -0.117344365
-0.0759445 0.0885646 0.13781351
0.052921873 -0.18172255 -0.02144699
0.05789106 0.17928433 0.009547821
-0.066162355 -0.3719413 -0.12585923
0.22141962 0.20298404 0.05704822
-0.24085498 -0.2386462 -0.2602234
0.02044939 -0.1570536 -0.031876687
0.031251382 -0.031096917 -0.10508227
0.04147527 0.03766327 -0.18467733
0.03612321 0.21342662 0.119858935
0.10541533 0.23725154 0.13697943
-0.18523629 0.11786936 0.044570774
0.044639006 -0.10121331 -0.19095585
-0.1314177 -0.37585112 -0.063720986
-0.18524015 0.11125972 0.09023511
-0.20671861 -0.023246812 0.023766654
-0.025507618 0.21406302 0.12271485
0.1806308 0.22383648 0.122359365
0.059863202 -0.021262294 -0.15369537
-0.06795697 0.20107764 0.15175381
0.253654 0.012672279 0.020405704
0.22676946 0.11776086 0.08604332
-0.1164468 -0.25906426 -0.09824303
0.21686739 -0.06707457 -0.02544406
-0.17646188 -0.19956931 -0.07891994
0.16907598 0.1263771 0.11997893
0.112591654 0.23217368 0.13688855
0.117199205 -0.04318486 -0.1516745
0.24211751 -0.04087481 -0.0021221628
-0.044202823 0.09880468 0.0016781866
-0.019541742 0.121536225 0.13007459
-0.121947624 -0.36859778 -0.09696176
0.13830315 -0.024249654 -0.084144786
0.014757695 0.2558277 0.07225768
-0.06788537 -0.14195096 -0.05729839
0.13329886 0.18687129 0.13422994
0.085169636 -0.11776373 -0.17992468
0.08708656 -0.04720423 -0.065389745
-0.105032235 0.1614198 0.10512259
-0.118467726 0.093277134 0.07173493
-0.17307551 0.026314022 0.047675516
-0.1780345 0.08296648 0.10815265
-0.19260323 -0.20982884 -0.08640281
-0.17449988 -0.2822235 -0.07878489
-0.1726591 -0.0077132885 0.056047205
-0.11697101 -0.20055823 -0.0856728
-0.1837957 -0.34245607 -0.0823998
-0.13729016 -0.09930423 0.010177328
0.19331582 -0.073411725 -0.12521735
-0.018964391 0.13295153 0.14491951
0.102668375 0.20383568 0.11703552
0.060512833 -0.12777944 -0.20571057
-0.0874004 -0.053870097 0.019100912
0.06140171 0.016938025 -0.16076523
0.20861761 0.03257209 -0.121710315
-0.106835134 -0.047974844 -0.18090014
0.024298245 -0.11824641 -0.03718671
0.3086156 0.05293458 -0.01919245
0.30885953 0.019064069 -0.022926807
-0.001828419 0.22387145 0.10362445
0.06473341 0.20143577 0.13972627
0.18487419 0.19592676 0.092372485
-0.16808486 -0.017704116 0.04354493
0.04403412 0.27450675 0.14644267
0.120737515 0.20752145 0.13808808
0.0621665 0.25185397 0.11697738
0.042133115 -0.1558907 -0.013936579
0.18378569 0.019806206 -0.120036356
-0.15744922 -0.007538048 0.058541324
-0.13238364 0.20629913 0.07687412
0.22698623 0.061702576 0.10386577
0.10901392 -0.14968756 -0.07077158
0.21667625 0.091121316 0.06703773
-0.23391335 -0.38180742 -0.11023843
-0.12282843 -0.04237178 0.053223006
0.19659477 0.19412377 0.08612238
0.20835343 -0.0050138943 0.016931035
-0.22170705 -0.074941926 -0.031208472
0.29224527 0.14649905 0.05508873
-0.10068551 0.13097568 0.13347861
-0.15026933 0.122641735 0.13657565
-0.13352174 -0.004122402 0.07939955
0.01875953 -0.15936434 -0.062871724
0.14876427 0.2138545 0.1018302
0.16431536 0.14255598 0.111013286
0.22614855 -0.039034974 0.02932998
0.11273193 -0.13567509 -0.19315898
0.06389101 -0.1656952 -0.035235543
-0.27872035 -0.2683356 -0.18979831
-0.07941141 -0.22328259 -0.08984555
-0.2563067 -0.33382043 -0.12092001
0.01321917 0.15912695 0.14533852
0.17814733 0.026137047 -0.036565427
-0.25995892 -0.22458683 -0.2803503
0.18275739 -0.16201563 -0.09573079
0.05864243 -0.019195579 -0.10858526
-0.04028064 0.10629988 0.13484745
-0.0013693526 0.24208896 0.12578975
-0.04018018 -0.11836402 -0.0009594553
-0.008449985 -0.17055115 -0.053748112
-0.23585501 -0.15077296 -0.21036911
0.050913025 -0.13679577 -0.036986634
-0.1333604 0.005988756 0.09580252
0.2292773 0.015105416 0.031175455
0.24211746 0.18127976 0.015495998
-0.17384055 0.035009474 0.0546918
0.11913998 0.22472961 0.14722802
-0.15593739 -0.065035135 -0.0043653003
-0.013587614 0.21512163 0.13400398
-0.22562195 -0.3285777 -0.08515777
0.0056911893 -0.060781438 -0.0927201
-0.24496526 -0.057305004 -0.090702035
0.21751475 0.21656746 0.08497795
-0.17492166 -0.2565 -0.10745501
0.18895367 0.2326466 0.05169549
0.2718683 0.054939527 0.05056356
-0.22353815 -0.19704235 -0.32951906
-0.043999583 0.23169921 0.14985724
-0.09500285 -0.12966548 -0.014664121
0.043694958 0.20208399 0.141304
-0.057647273 0.08344679 0.001417127
0.12084581 0.2592465 0.11200449
0.17828685 0.20406365 0.10093781
-0.03983285 -0.17521542 -0.054860707
-0.03567928 0.029730197 -0.12848154
-0.28087834 -0.20312461 -0.2857129
-0.11167125 0.06658425 0.08969593
-0.07096893 0.24460186 0.09214954
0.20491785 0.08143594 0.10224109
-0.06795759 0.18264641 0.15813076
0.2352544 0.0554104 -0.09427378
-0.118212886 -0.15301654 -0.03778844
0.16103406 0.09979503 0.10896841
0.07996166 0.29911092 0.07692895
-0.1366956 -0.22415642 -0.09822778
-0.043492045 0.044886783 -0.02223984
0.064065695 0.18341161 0.019334136
-0.06577537 0.15042892 0.14796205
-0.18036102 -0.121468574 -0.0124939
-0.122399054 -0.17716426 -0.055822056
0.25558376 -0.04457182 -0.13708602
-0.017869476 0.14275694 0.10974303
-0.2538329 -0.25556365 -0.2594118
0.21074317 0.0038279206 0.044064198
0.04830232 -0.038504515 -0.065227054
0.12365124 0.0022241804 -0.07141072
0.18693055 0.19923891 0.107634686
-0.19541374 0.12745613 0.04306541
-0.022104427 0.0050530243 -0.07531679
-0.14421909 -0.07412307 -0.14893438
0.140799 -0.12130483 -0.018326825
-0.047850538 0.08268104 -0.04503976
0.022015387 0.2101489 0.12301644
0.16501264 0.106610246 0.08892164
0.15446688 0.047413882 -0.012496946
0.007934384 0.14261231 0.15019815
0.02765723 -0.068877436 -0.12404182
-0.13692153 0.028455263 0.07489153
-0.16586591 -0.0492133 0.008916365
-0.21984088 -0.02132491 0.005645208
0.20476884 0.14967905 0.12406047
-0.05362597 -0.11715988 -0.022981064
0.19873409 0.101836964 0.06807275
0.10131591 0.09052121 -0.007520209
-0.08856692 0.11566363 0.09333326
-0.24448557 -0.06230059 -0.11125203
0.19274959 0.08161226 0.07223453
0.13123396 0.018477127 -0.0520315
-0.25243956 -0.017633498 -0.010547741
0.18984129 0.24850468 0.08257495
0.055426624 -0.06726184 -0.082616284
-0.035726525 -0.0014310261 -0.049706373
0.12027807 0.26376343 0.052091654
-0.10791201 -0.3205647 -0.08431198
-0.06330407 0.11616511 0.1163143
0.19456129 0.10967284 -0.062747486
-0.28106084 -0.27403936 -0.23565592
0.17507824 0.15688547 0.117205165
-0.0015057295 -0.1844608 -0.06764472
0.031434584 0.15211509 0.118692495
-0.12521054 0.21219741 0.026829097
-0.15608367 -0.31117833 -0.103184074
-0.103049524 0.15680496 0.10594232
0.008384894 0.1949153 0.15702964
0.18244794 0.014905743 -0.15353954
-0.039550953 -0.16093679 -0.13952072
0.23195802 0.076057665 0.063056834
0.15942594 0.19541872 0.094227
-0.118478596 -0.07562459 0.023559062
0.13504796 0.20300986 0.114090934
0.19890699 0.041608673 0.0756068
0.30368194 0.009032138 -0.02842221
-0.12892628 0.20294075 0.081776455
-0.047712285 0.27425855 0.114694536
-0.0990696 -0.011908845 0.056436434
-0.1068756 0.16220461 0.12449707
-0.24449083 0.05532971 0.024592727
0.049505703 -0.14203374 -0.060644463
0.02540608 0.22752385 0.14775802
0.113562085 -0.015774537 -0.1390661
0.115228094 -0.1719815 -0.064065136
-0.080456644 0.029117184 -0.0025448336
-0.028999474 -0.09402303 -0.17781067
-0.042077977 0.19381653 0.11585046
0.2260605 0.106791094 0.1012292
-0.03195962 0.10226567 0.125268
-0.09699038 0.06488421 -0.032478657
-0.08158874 0.12677053 0.12202168
-0.04450168 0.20382454 0.13407838
-0.2363913 -0.29982847 -0.08553209
-0.184325 -0.3617095 -0.088194974
0.26518065 0.06748671 0.033688758
-0.030591197 0.23440097 0.15650155
-0.2564047 -0.28102085 -0.20494643
-0.14914332 -0.035341624 0.08082679
-0.12050377 -0.15967138 -0.18088046
0.22099565 -0.10593666 -0.04733475
-0.1440522 0.13743025 0.11913224
-0.08178875 0.043336984 -0.061783962
0.050776824 -0.1311229 -0.18811482
0.2153429 0.1644078 0.09537747
-0.12707669 0.1643509 0.122900546
-0.12415137 0.111449845 0.10420512
-0.17762418 -0.14306858 -0.043804146
-0.029845305 -0.13296728 -0.02406082
0.21007948 -0.15486218 -0.054799993
-0.1710629 -0.058170006 0.024481757
-0.1277742 -0.27036542 -0.088653885
0.17527485 -0.11766868 -0.023246659
-0.09214566 0.13858545 0.11465622
-0.1451635 0.2058437 0.08768616
0.11385329 0.18832496 0.14882186
-0.1321346 0.08024945 0.108218335
0.11938509 0.117137 0.15682204
-0.02228669 -0.19564585 -0.08316013
0.3073342 0.073410526 0.046591338
-0.1238951 -0.34883195 -0.08244751
0.1403516 0.13976178 -0.059042368
0.27112833 -0.070815146 -0.02076622
-0.08104352 0.1356103 0.10515771
-0.106306985 0.018372808 -0.094882704
0.07486623 -0.16735098 -0.08519066
0.20296259 0.07936055 0.0758523
-0.11640947 0.089360416 0.11053945
-0.06462496 0.17434177 -0.001991713
-0.13602732 -0.13476862 -0.022653423
0.27446845 0.09747521 0.06030244
0.11352667 -0.11652671 -0.036397252
-0.03218288 -0.12631385 -0.023933478
0.107263334 0.030125668 -0.1461402
0.037869234 -0.18141869 -0.06333998
-0.17155471 -0.25215384 -0.08741764
0.09726849 0.13901621 0.14909066
-0.20587955 -0.18974636 -0.06493415
-0.011000189 0.07552183 -9.881272e-05
0.14855808 0.09202847 0.14656664
0.084196225 0.09840571 0.04066022
0.17586663 0.21301708 0.12645158
0.021601744 0.27559707 0.09231485
-0.19637927 -0.06473797 -0.004386647
-0.027278053 -0.011436125 -0.07802873
-0.105830416 0.15613016 0.13937691
0.19037382 0.16271433 0.09210384
0.07234706 -0.044055294 -0.057817582
0.09475898 0.01378828 -0.08819642
0.28499904 0.06274458 0.015759053
-0.13158487 -0.26708308 -0.09516779
0.14865988 0.12686095 -0.046502575
-0.08575284 0.10904921 0.114189655
-0.15270369 -0.09211878 -0.010199641
0.08956984 0.16182418 0.14094797
-0.12276228 -0.111537874 -0.20587587
-0.17389055 -0.13683505 -0.011931446
0.16901731 0.094196 0.11005322
-0.30243236 -0.2442353 -0.30780512
-0.15309632 -0.1693097 -0.035494484
-0.025503084 -0.0048696916 -0.051918738
0.24434957 0.1607427 0.0506761
0.18284082 0.14220293 0.09577169
-0.13731511 0.007990374 0.06701134
0.042991787 -0.20419103 -0.08266411
-0.058916755 0.15587518 0.116097346
-0.07469388 -0.3827669 -0.10687135
-0.038393475 -0.13689582 -0.058422524
0.31096303 0.022862962 -0.02321041
0.20038767 0.14479485 0.116266295
0.11508755 -0.17252362 -0.15695482
-0.10391334 0.09539785 0.096055195
-0.043790348 0.113790415 0.15018913
-0.12009177 0.21963179 0.09479921
0.23596185 -0.08700117 -0.15290757
-0.08665863 -0.19525789 -0.06794253
-0.2135985 0.10127615 0.086957194
0.15820059 -0.12797432 0.0017714618
0.104536034 0.08826673 -0.008831837
-0.022240154 -0.200058 -0.097854204
0.10280866 -0.13735822 -0.19039266
0.06198993 0.12290367 0.15478146
-0.11070296 0.17689036 0.10456179
0.03777389 0.17069067 0.1437275
0.18623947 0.06668711 0.076746024
0.059573177 -0.09563524 -0.20293581
-0.05186936 -0.37421125 -0.121675506
0.23244166 0.071059175 0.08845035
-0.02613224 0.13988082 0.15782534
-0.1580641 0.15172945 0.09447548
-0.06033352 0.062129326 0.012204726
-0.04669197 -0.03661684 -0.04239282
-0.29552156 -0.23055643 -0.30787453
0.13980702 0.14986286 0.1353549
-0.009280281 -0.0654773 -0.08416413
0.05220317 -0.13937703 -0.17047186
-0.18368888 -0.06149719 -0.016328115
0.16824579 0.13327323 0.14017014
0.24600255 0.031526 0.03725045
0.0039289705 -0.076179996 -0.06561624
0.18235165 0.18500984 0.144364
0.23742686 -0.009919877 0.009657393
-0.23851036 -0.36018082 -0.09787189
0.0354668 0.034852244 -0.13964035
-0.00025608813 0.27661622 0.09204872
-0.14520654 -0.011448451 -0.11303873
0.1834796 0.10925835 0.078789115
-0.04911703 0.20961645 0.14869338
0.119978465 -0.044171132 -0.118641265
-0.21112093 -0.20749937 -0.096985996
-0.07152323 -0.32693723 -0.1033034
0.18129271 0.18646441 0.13567927
-0.049768183 -0.0409547 -0.10466161
0.1758315 0.13246639 -0.054789018
0.2662956 0.024676783 0.04339164
-0.22071008 -0.06356372 -0.0057743303
-0.079601735 0.12112231 0.13257189
-0.16565734 0.07674462 0.09499323
-0.09328658 0.0069470336 0.056138653
-0.098764524 -0.09078195 0.017118948
0.1828498 -0.15543433 -0.11161671
0.09196175 0.14566557 0.13189316
0.09804514 -0.034125302 -0.05755674
0.104431145 0.25254357 0.14973731
0.08976896 0.18108474 0.13825911
-0.01694131 0.08649313 0.03350654
-0.16064048 0.06078427 0.06855709
0.034867894 -0.087712444 -0.19217227
-0.031619783 -0.03629381 -0.10674841
-0.16829038 -0.19294184 -0.06980866
0.13852026 0.2672303 0.12293842
-0.032886993 -0.049821403 -0.1602202
-0.1514291 -0.2365863 -0.10105119
-0.20051938 -0.040855166 -0.015095413
0.17793031 0.22588168 0.082315154
0.020225324 -0.092922285 -0.19613588
-0.04992473 -0.032749385 -0.07830552
0.13931742 -0.15208147 -0.06721099
0.10571518 0.18245961 0.16356114
0.13104217 -0.062483083 -0.08065101
-0.21847664 0.11234813 -0.027691783
0.18358749 0.06793607 0.09144557
0.18984976 -0.10530606 -0.17583533
-0.13075677 -0.33099222 -0.0916955
-0.1667006 0.14117439 0.067906186
-0.073699854 0.10169651 -0.023824546
-0.10256569 -0.08571704 0.009745811
-0.27806014 -0.25153613 -0.1896969
-0.09224076 -0.1540595 -0.047250208
-0.23396878 0.05663116 0.04350896
0.06980794 0.25872257 0.066663675
-0.061615627 0.0031370134 -0.11864018
0.15261084 0.09947676 0.09709359
0.13463776 -0.10094914 -0.059231557
-0.17515592 -0.17274658 -0.068256706
-0.21391927 -0.27325737 -0.096310064
0.2476804 -0.022611214 0.003711198
-0.10283844 -0.2865202 -0.070720166
-0.17480706 -0.09808799 -0.009735861
-0.06204765 0.16351289 0.13761649
