# .PCD v0.7 - Point Cloud Data file format
VERSION 0.7
FIELDS x y z
SIZE 4 4 4
TYPE F F F
COUNT 1 1 1
WIDTH 1000
HEIGHT 1
VIEWPOINT 0 0 0 1 0 0 0
POINTS 1000
DATA ascii
-0.20347925 0.06739089 -0.11563999
-0.13363135 0.2925774 -0.11899692
0.15938891 -0.1670454 0.16293748
-0.12118059 0.2161477 -0.0662035
0.30425078 -0.14699683 -0.04799765
0.008220005 -0.17421152 0.024029383
0.21140541 -0.20731151 0.10825425
0.23443197 -0.13812585 0.11450002
-0.12244046 0.18974774 -0.023416411
0.04347286 -0.13284007 0.17372154
-0.1395702 0.095688194 -0.07854774
0.13994475 -0.17386748 0.15831141
-0.15959609 0.038305026 -0.16201748
0.040708665 0.101202846 -0.11464173
0.27747667 -0.2096451 -0.100770205
-0.117929414 0.29431033 -0.008400226
-0.036902253 0.040132545 0.14431247
-0.00090671086 -0.13886212 0.001433475
0.17318325 -0.07915015 0.15436657
0.12992267 0.08279321 -0.19496463
0.13191378 -0.06339652 -0.16397464
0.12376329 -0.09245973 -0.12863538
-0.0047989977 -0.024145221 -0.068376794
0.11536887 0.020877317 0.16672501
-0.057273366 0.009137447 -0.2165428
0.20966202 -0.09900994 0.12331851
-0.13933918 0.25907692 0.0060817064
-0.0820159 0.021723859 -0.27529925
0.08186259 -0.16144435 0.17400104
0.13272738 -0.018701665 0.14129385
-0.18440929 0.18761002 0.011355678
-0.009032891 -0.007424231 -0.2768905
-0.03833799 -0.01068994 -0.26143503
0.2121575 -0.15848719 0.10211691
0.048310813 -0.04251708 -0.31522667
0.256492 -0.13243824 0.05048729
0.03519451 -0.17015864 0.03408882
-0.2711302 0.14031675 -0.14624241
0.23924221 -0.109409705 0.08043968
-0.14338061 0.05109385 -0.058772426
0.081832536 -0.15894464 0.17104256
-0.21421579 0.0892195 -0.043516155
0.3016521 -0.1492582 -0.119876854
-0.07340875 -0.029490579 -0.033871774
-0.28180513 0.17991242 -0.16431443
-0.25258473 0.20730366 -0.11929535
0.12092595 -0.093623705 0.1800504
0.13429192 -0.19969708 -0.19041878
0.059876923 -0.06528616 -0.33885008
-0.017414717 0.09590722 0.07345941
-0.31619868 0.08946645 -0.03772597
-0.027653668 0.13349333 -0.13531932
0.14810808 -0.192136 0.14501518
0.050958335 0.07860465 0.053960513
0.008416182 0.12530813 -0.08071163
0.12373678 -0.11163007 0.14397001
0.049883995 -0.06617288 0.15817654
0.16353983 -0.24093631 0.10036451
0.1444033 -0.17539853 -0.15711145
-0.059192088 0.066472955 0.079291515
0.19698758 -0.11859528 -0.15683171
0.06564747 -0.062067352 -0.31785873
-0.16959423 0.18854952 -0.015084241
-0.11300767 -0.042759653 0.028566126
-0.20048758 0.13819993 -0.064920165
-0.31133705 0.09364282 -0.022979708
0.009771611 -0.18748643 0.029039327
0.1853151 -0.055194855 0.11930146
-0.041530054 0.013510494 -0.22104472
0.30984908 -0.17318808 -0.06035743
0.25888038 -0.22749577 -0.034131926
0.22740601 -0.0618537 0.071153596
-0.2880448 0.15723763 -0.17674221
0.12219083 -0.09445041 -0.13168073
-0.0027711974 -0.14500493 0.114954494
0.044068947 -0.11427403 0.16587488
0.10572771 0.079672776 -0.21645726
-0.1970964 0.23001358 -0.030734917
0.08594524 -0.072346665 -0.17529713
0.13569985 -0.15044266 -0.24358954
-0.11880821 0.27795938 -0.039531037
0.0052063093 -0.0117163295 0.16941194
-0.14819725 0.177432 -0.032334417
-0.27070695 0.08291735 -0.036483306
-0.019228796 -0.17251943 0.023178136
0.21595043 -0.2098105 0.12986323
-0.13724685 0.24849516 -0.023422012
-0.17047977 0.27424076 -0.106839426
0.0038544834 -0.18582584 0.02490378
0.04685356 0.015004917 0.13587245
-0.21707065 0.09915352 -0.079284385
-0.27217394 0.10811717 -0.07254503
0.1327625 -0.10067046 0.16363686
-0.069134906 0.1005511 -0.026158188
0.14349513 -0.017541679 0.15397832
0.3026317 -0.08404253 -0.15701878
-0.23442103 0.2345002 -0.19977868
-0.16984285 0.26050162 -0.01637353
0.0036453924 -0.05433161 0.16294594
0.09020205 -0.02130014 -0.2912063
0.28851315 -0.104475364 -0.2251408
0.30489442 -0.2271992 -0.012681986
0.11139435 -0.16997133 -0.04468895
0.30912247 -0.15358977 0.04890605
-0.065072216 0.05431905 0.086026706
0.03179082 -0.06665019 -0.2893648
-0.033433054 -0.11640838 -0.030629838
0.19969493 -0.16342786 0.13353243
0.07750657 -0.077595614 -0.17396931
0.010899147 -0.05172911 0.17211944
0.27665153 -0.10252157 -0.005301366
-0.1932656 0.2206612 0.026356034
-0.02926063 0.040243145 0.11166008
0.17886348 -0.057975553 0.11801555
-0.01225231 0.048159573 0.15245247
0.02114925 0.0056250123 0.14925575
0.079075225 -0.11364211 0.16372062
0.17572291 -0.0060291225 0.11514261
0.20900968 -0.18379499 0.12341966
0.15784916 -0.08656214 0.13252644
-0.297456 0.1933639 -0.17038636
0.14390934 0.016725838 0.08060013
-0.18789454 0.1127881 -0.078135215
-0.003222106 -0.024278332 0.14743781
-0.17982757 0.12661979 -0.046584766
-0.10426345 -0.048513703 0.057031844
0.20366709 -0.029064905 -0.22425598
0.0014609266 -0.12740162 -0.013585759
0.023474459 0.12358586 -0.10272546
-0.19092004 0.04664065 -0.06199852
0.047348987 -0.18095365 -0.023620434
-0.10593152 0.053920586 0.04441014
0.12064178 -0.13530011 -0.23406021
0.24412915 -0.22045003 0.11590454
0.068781085 -0.24701346 -0.0129656475
0.13967203 -0.03691536 -0.32899338
-0.09936259 0.016551977 0.053858016
-0.20401068 0.160467 -0.047551658
0.07678655 -0.08453359 -0.16288981
0.2809941 -0.13424154 0.060837634
-0.24466692 0.15168904 -0.1537404
0.2745902 -0.19878228 0.024394812
0.029686613 -0.076152585 0.16692138
0.10112679 -0.14334995 0.1773505
0.21920872 -0.10443308 0.031181883
-0.070061736 0.15903553 -0.06262561
-0.27832586 0.17268893 -0.18632486
0.25930837 -0.10022342 -0.10951508
-0.1586084 0.20256226 -0.19191897
0.01690211 -0.09132008 0.19130376
0.17285614 -0.1796394 0.13745327
0.018524677 0.007858843 0.18767916
-0.25716436 0.19055256 -0.1751976
-0.024506094 -0.012402219 0.16546616
-0.10591027 0.059951484 0.045593638
-0.18668574 0.2615547 -0.16790919
-0.13440263 0.14802752 -0.041791428
-0.14264107 0.24710716 -0.045180246
0.057690646 -0.22237 -0.015032883
-0.23665273 0.061702553 -0.0385038
0.021711547 0.07150771 0.055267878
0.09808046 -0.07920143 -0.1433471
0.03347887 -0.0032478424 -0.2998339
-0.20773219 0.09676878 -0.043674074
-0.13712044 0.052569147 -0.011727577
-0.1575581 0.23374934 -0.18506466
0.13827792 -0.01841312 0.10859334
0.13505141 -0.08779161 0.17330357
0.17394646 -0.11853423 -0.14449266
-0.10600675 0.081051715 0.03523651
-0.09924402 0.094693795 -0.0016994419
0.07890606 0.060320288 0.07541617
-0.068784356 0.16199219 -0.08652265
-0.22931919 0.24882032 -0.17273192
-0.3056688 0.099264726 -0.13021216
0.24336356 -0.24184383 -0.019166641
-0.014184255 -0.046187256 0.16540809
0.065706365 -0.13980584 0.19210869
-0.029668514 0.16894594 -0.14556664
0.08270034 -0.0982529 0.18449935
-0.18742771 0.29995555 -0.13144185
0.16390696 -0.11143574 -0.13683265
-0.25487506 0.09423123 -0.04546471
-0.24519293 0.12252258 -0.030942293
0.01959391 -0.099844895 0.16172536
-0.09973422 0.0079158945 -0.20216267
-0.10010117 -0.020579383 0.004958343
0.23082852 -0.10330065 0.059959773
0.14624561 -0.15495074 0.17098731
0.25105736 -0.2382517 -0.024274513
0.15933318 -0.106549226 0.14504535
-0.28231436 0.10764331 -0.026180143
-0.08832692 0.24206957 -0.10146524
0.012417027 -0.11398142 0.15341945
-0.23285756 0.1462948 -0.18219383
-0.058189686 0.07639591 0.08648438
-0.10327559 0.2354242 -0.05579109
0.201284 -0.1009311 0.15018538
-0.024676763 -0.106638856 -0.020087462
0.26460674 -0.049959607 -0.15662076
0.044829603 -0.050054986 0.18099688
-0.13433065 0.051580045 -0.031024946
-0.201111 0.23770604 -0.024117008
-0.24460976 0.26029956 -0.16015731
0.055455193 -0.06508473 0.19128497
-0.09184573 0.021238046 0.08640874
0.034605473 0.10238417 -0.037318364
0.15017278 -0.11147219 0.15310791
0.13278998 -0.04775681 -0.15354049
0.17293142 -0.12849085 0.14069797
0.145341 -0.18800108 -0.17112471
0.005997721 -0.09394388 0.055684905
-0.049245052 -0.11203447 -0.009472438
-0.160369 0.31697643 -0.017650506
0.16974443 -0.18264961 0.16100293
-0.09625782 0.112431675 0.0260668
0.26100668 -0.13241552 0.12903613
-0.15992124 0.33429548 -0.12127528
0.14624482 -0.0896017 0.1625521
0.08187636 -0.0968161 0.1942976
-0.05289674 -0.02246476 -0.03904648
-0.14141014 0.2746534 0.013267322
-0.052712575 0.012533142 0.12318093
-0.1366248 0.045253504 0.038562816
-0.03283924 0.1727234 -0.096718766
0.11271221 -0.09335258 -0.1582277
-0.027191715 0.10923165 -0.0729645
0.06812763 -0.1441604 -0.002309881
0.25446692 -0.10469777 0.062688194
0.012425807 -0.10049321 0.17590196
-0.1355947 0.09705422 -0.087000586
0.07849943 0.033235848 0.06893989
-0.10457883 0.04176768 -0.054405052
0.038341 0.01659529 -0.15134111
-0.23413104 0.093106285 -0.050800122
0.073925376 -0.017545674 -0.31712428
-0.14029957 0.23072721 -0.022423195
0.06684586 -0.049319714 -0.19171968
0.13654983 -0.21640204 0.11839194
0.11109379 -0.13391338 0.14905046
0.18922321 -0.24494068 -0.04115009
0.07364159 -0.17321107 0.15864371
0.122117974 -0.0083829025 0.12719838
-0.10613861 0.21909839 -0.05334703
-0.09080648 0.064084575 0.072769664
0.1116334 -0.21405828 0.07802685
0.070240036 -0.099763 0.18468875
-0.09709592 -0.028133763 0.059083857
0.21236849 -0.07116078 0.087574735
0.10974768 -0.09155981 0.1620985
0.12984604 -0.14978129 0.15941428
0.13327698 -0.10016572 0.19906346
-0.070525095 -0.0486421 0.09202708
0.13555096 -0.09811308 -0.14317258
-0.25815 0.16040863 -0.06728423
-0.0539627 0.097721234 -0.011294195
0.09727696 -0.010353377 0.17721167
0.14825743 -0.17923707 -0.1812074
0.14702915 -0.0603273 0.1370707
0.036962718 -0.007678032 0.1558472
-0.1552754 0.23381427 0.020250643
0.1583619 -0.21046372 0.12445597
-0.17621094 0.05641993 -0.059976745
-0.19814418 0.097414285 -0.06547865
-0.017994067 -0.09842373 -0.006160115
-0.11233066 0.09960549 -0.007296086
0.1355854 -0.14251426 0.14280403
-0.28958097 0.15554683 -0.14534143
-0.040989306 0.15779795 -0.14310667
-0.055417974 -0.011010682 0.097896636
-0.19166747 0.11402392 -0.20295711
-0.16644184 0.26553038 -0.1729227
0.10221711 -0.06892136 0.19103393
-0.122085534 0.26651338 -0.01920522
-0.24024966 0.10666308 -0.07657563
0.3127063 -0.1412555 -0.0034353626
-0.1063328 0.2253903 -0.10676129
-0.12677895 0.11603565 0.002896503
-0.15644808 0.19839859 -0.006140389
-0.20788068 0.22706866 -0.011521104
0.12786753 -0.0036805826 0.12052462
-0.32544136 0.13290785 -0.104081765
0.20085536 0.009328674 -0.23484337
0.10251857 -0.15958981 0.1297616
0.0313175 -0.120728806 0.16272438
0.10711897 -0.16301219 -0.21840805
0.12085374 -0.028655503 0.12833546
0.18370183 -0.02731827 0.1003996
-0.061780825 -0.03044135 0.041776754
-0.13999006 0.26825708 -0.014500422
-0.14836706 0.16186346 -0.032227654
-0.21313453 0.08190081 -0.050963078
-0.13288245 0.24596214 -0.069732346
0.23059574 -0.21248995 0.04244935
0.053063925 -0.017568976 0.18719167
-0.21382472 0.24029131 -0.15818544
-0.24560775 0.1400648 -0.03374603
0.05936046 -0.05039605 0.15573566
0.04586371 -0.18367374 0.020914998
0.28952494 -0.08419758 -0.10072854
0.2035049 -0.24810652 0.062337574
-0.3233188 0.11596464 -0.10385087
0.19316132 0.012923102 -0.22588077
-0.084484965 0.22681066 -0.0970987
-0.13633583 0.33731204 -0.12362267
0.24396133 -0.23521212 0.080089405
0.050970208 0.081084505 0.032049567
0.050941695 -0.18238696 -0.015319214
-0.056611113 -0.1389239 -0.13175677
0.102970816 0.0056076352 0.11479003
-0.048710972 0.10236868 0.07133491
0.043048397 -0.07106504 -0.17550983
-0.17820345 0.15928417 -0.041544594
-0.2513263 0.11393333 -0.037987415
0.30545 -0.14906698 -0.0028526161
-0.038490474 -0.0942883 -0.030372199
-0.11661533 0.049894698 0.04622756
0.017103972 -0.003992727 -0.28094593
-0.08292038 0.19232267 -0.049394134
0.13855095 -0.099498175 0.17212573
0.2291403 0.002378192 -0.21694049
-0.22635862 0.12818523 -0.035349444
-0.051863804 -0.079030946 -0.042106014
0.14311402 -0.14232427 0.18596596
-0.29173064 0.07287581 -0.07418186
0.097200245 -0.062109012 0.16594693
-0.090791434 0.18112548 -0.10429273
-0.3247586 0.1542301 -0.13716824
0.12959845 -0.23000787 0.022275297
0.049924888 -0.14586882 -0.0035114747
0.044720802 0.020682245 0.17050095
0.09363909 0.0054256585 0.10139049
0.21616408 0.0010513846 -0.21084954
-0.30432233 0.10043987 -0.021985708
-0.030833503 -0.12893517 0.10178638
-0.15364231 0.15533069 -0.043718062
-0.017077824 0.019589588 -0.28441182
-0.22171551 0.20611942 -0.17842446
-0.08295101 -0.045278262 0.10501637
0.24608998 -0.1280259 0.07646096
0.091153055 -0.022598792 0.16808434
-0.056373343 -0.07577486 0.13773732
0.10384789 -0.08577073 -0.17379521
-0.18384175 0.2759634 -0.16435987
0.08732108 -0.086281076 -0.14272144
0.038113784 -0.21431124 -0.08589661
-0.30391517 0.11450888 -0.064832695
-0.010127258 -0.047609363 0.16306584
-0.022891164 0.015940106 0.13286653
-0.14261472 0.29213193 -0.02368081
0.013422616 -0.13116829 0.0046794284
0.021798667 0.050208304 0.10244518
-0.14620322 0.09757085 -0.085235976
0.04039141 -0.21005122 -0.004480089
-0.053218354 -0.12025643 0.014967169
0.04281309 -0.03961676 -0.13756502
-0.047924343 0.12703763 0.00364077
0.17178664 -0.16396469 0.1347744
-0.30770528 0.10590646 -0.1163729
0.1759805 -0.21746796 0.036894705
0.065273866 -0.10861533 0.15555145
-0.22658849 0.23923622 -0.17203182
0.052416757 -0.13006221 -0.008976726
0.0670173 0.09714958 0.057536785
-0.28529894 0.1559745 -0.1723861
-0.14973222 0.2967063 -0.11357432
0.088755116 0.008285025 0.166881
-0.0045723715 0.0949964 0.017973732
-0.20264386 0.25580856 -0.17494604
0.20117082 -0.15422823 0.15003246
0.26339608 -0.1293199 0.08933568
-0.011728331 -0.06155615 0.13182996
-0.036968693 -0.11669505 -0.031233538
-0.23289415 0.067129284 -0.044179626
-0.01531607 -0.12090868 0.028170304
0.18649003 -0.15394473 0.1377868
0.051438484 -0.041974932 0.2014907
0.09272622 -0.17967334 0.13198096
-0.08589885 0.09389824 -0.013189312
0.2850471 -0.14726184 0.094453715
0.00080481527 0.102398686 -0.11097675
-0.079320274 -0.036740247 0.12766358
-0.07169634 0.10648158 0.041249942
-0.0042922082 0.12255085 -0.030784346
0.099326625 -0.16246809 0.15960474
0.13919523 -0.21220493 0.0743173
-0.02340618 -0.00035268255 0.15227607
-0.2618267 0.07208388 -0.06391932
-0.23079948 0.2640902 -0.17628038
-0.06941033 0.1294162 -0.09684094
0.017385017 0.10063506 -0.038905174
0.04716693 -0.0119427275 -0.16705143
0.13386638 -0.063413784 0.1655662
-0.27428177 0.068824925 -0.11318534
-0.058430433 0.087520294 0.12000458
0.14057559 -0.22168383 -0.051039558
0.08163048 -0.15488762 0.15559976
-0.24993515 0.06742934 -0.026780553
-0.16956401 0.2321565 -0.05746357
0.11888718 -0.14019594 0.14417207
-0.12754337 0.20856638 -0.18003811
-0.24286649 0.113447696 -0.056255747
0.0999922 0.07531878 -0.22662394
-0.0031500387 0.14704894 -0.104947366
0.066578664 -0.034229953 0.16683201
-0.19055809 0.20160085 -0.20218249
0.124892086 -0.04108819 0.16578557
-0.21808223 0.2017806 -0.053246763
-0.07387237 0.18810283 -0.17553172
0.055922285 -0.040990688 0.19114003
-0.084817655 0.070704356 0.09288902
0.20318091 -0.05799945 0.04930266
-0.21083072 0.08577906 -0.06380376
0.10170009 -0.16487497 0.15340813
0.106032535 -0.18595938 0.056218345
0.05890681 -0.00869783 -0.30932608
-0.20384581 0.26594433 -0.13192722
0.050080165 0.1321836 -0.051384017
0.18818408 -0.08103847 0.1223583
-0.189366 0.21581063 -0.041661393
0.069896735 0.11214323 -0.24771957
-0.006354205 0.07263675 0.096584424
0.30060223 -0.17779681 0.067701854
-0.14101079 0.23583505 -0.035224784
-0.18107586 0.1662553 -0.035406016
-0.036251925 -0.14599013 -0.14110103
-0.21893084 0.22035636 -0.14283378
-0.15118618 0.17571916 -0.045270603
-0.024607135 -0.036305092 0.1500557
0.095760755 -0.045469966 -0.32654405
-0.028682375 -0.11192253 -0.02970478
-0.21928714 0.34331682 -0.194502
-0.041091826 0.037608854 -0.2654095
0.22198611 -0.23593503 0.062426906
-0.020721598 0.035002515 0.13865955
-0.24472311 0.10347627 -0.12129983
-0.11357662 0.23422168 -0.031045552
-0.12201102 0.20220213 -0.04932018
0.22657338 -0.09854787 0.09810773
0.110558875 -0.07078344 0.19691584
0.13814405 0.013977195 -0.23129953
-0.11413231 0.1841956 -0.050633613
0.048237752 -0.1552382 0.016922385
-0.22892794 0.22944365 -0.009609971
-0.0072830417 0.048697274 0.14458945
0.14996281 -0.03521652 0.11926663
-0.035645187 0.10732833 0.011158726
-0.09057994 0.02172739 0.053951018
-0.035353806 0.08642762 0.13627268
-0.05187429 -0.098325685 0.11061214
0.20590524 -0.24556468 0.022751726
-0.004206836 -0.19797507 0.026452558
-0.036477838 -0.1924174 0.01022587
-0.09915875 0.014061287 -0.24240273
0.15443638 -0.013385152 0.13269581
-0.060475145 0.1239296 -0.005391115
-0.08763758 -0.017438512 -0.06712541
0.0741108 -0.030209277 -0.30540705
-0.023083823 -0.10638667 -0.17475176
0.18989788 -0.08925302 0.16039541
0.12423998 0.08933246 -0.1825875
-0.04313671 -0.12554087 -0.15445347
0.16149601 -0.19684348 0.07855088
-0.050085917 0.15156578 -0.073385954
-0.16954297 0.24130268 -0.1453306
-0.15284765 0.074224785 -0.07221524
0.031645175 -0.13926989 0.00043971505
0.23675415 -0.17243618 0.08881997
-0.15180832 0.14972082 -0.08682675
-0.017767848 -0.122991905 -0.019364132
0.12943222 0.058934025 -0.19808844
0.13898215 -0.02820535 0.11214221
0.09656483 -0.073423475 0.1654428
-0.13543265 0.25979906 -0.00072049955
0.21140948 -0.050571688 0.09818275
0.06343259 -0.15792324 0.06573785
0.22608206 -0.17619486 0.09993625
0.19282584 -0.11912715 0.16985017
0.016076846 -0.12227658 0.15279599
0.09162566 -0.15626845 0.14825644
0.11852919 -0.077335335 -0.13504139
-0.2268579 0.08353544 -0.07290031
-0.055557694 -0.018335685 -0.1737827
0.1520916 -0.21680118 0.10622548
0.1902397 -0.23457947 0.08842129
0.051431548 0.011580851 0.14182816
0.13429661 -0.048784047 0.15422843
0.102850065 -0.04571174 0.16197298
-0.02939521 -0.014436528 -0.07170412
0.20258279 -0.12977223 0.17501095
-0.010985921 0.037988007 0.10904695
0.16440162 -0.05038933 0.14009465
0.0398354 -0.016177977 -0.28740844
0.17261595 -0.12176767 0.14823072
0.14071937 -0.15082003 0.14253215
-0.013484089 0.033450253 0.16278559
0.057055496 -0.22624367 -0.054563098
0.002762854 -0.0073436718 0.16712502
0.021462059 -0.01731206 0.19063824
-0.18462454 0.103791356 -0.063819245
-0.0017104312 -0.17745717 -0.0034685056
0.047417346 0.0056456216 0.11588575
-0.07299129 0.03575577 -0.23177356
-0.046916753 0.03584733 0.113127574
-0.26460955 0.1225394 0.009876712
-0.1109083 0.08106368 0.0401314
0.053154748 -0.17522521 -0.03533202
-0.017482176 -0.17705673 -0.017149037
-0.056952987 0.014029427 0.09547966
-0.18512346 0.14415386 -0.025934339
0.05514323 -0.23047051 -0.019091194
-0.008712429 0.12891825 0.05583974
-0.01809442 0.023924392 0.11181014
0.07651616 0.06840375 0.079608314
-0.13349657 0.31416532 -0.034224004
-0.19865581 0.11056417 -0.04257396
0.27195534 -0.111772105 -0.1521598
-0.009597183 -0.14906348 0.030461183
0.20129512 -0.14931817 -0.28845018
0.23421426 -0.16293141 0.10024248
0.18671417 -0.22606878 0.07713832
-0.007979177 -0.040256646 0.17801635
0.024924072 -0.0925617 0.12998761
-0.2257742 0.2895318 -0.18330105
-0.03025737 -0.12424383 -0.024730112
-0.1572781 0.21867448 -0.015228398
-0.155263 0.07614061 -0.09829204
-0.054767497 -0.045583528 -0.15478145
0.23258904 -0.15533066 0.11000444
0.0478805 0.0074814856 -0.17137
0.2380038 -0.16089246 0.08420242
-0.027903209 0.018452266 0.12440162
0.2521498 -0.22480054 -0.07206517
-0.15650254 0.22114217 -0.01426119
0.09783844 -0.13565533 0.15294467
-0.02004995 0.098875 -0.078031234
0.20904018 -0.12259227 0.15529032
-0.2663307 0.11680508 -0.039595425
-0.045124464 0.04117261 0.13212235
-0.27230594 0.18370786 -0.18614787
0.077663906 -0.10772618 0.20368542
0.22028442 -0.0938619 0.0447282
0.0018093049 0.062729195 0.08988457
-0.011016958 0.10748232 0.07459892
0.25163767 -0.12652658 0.09953719
-0.25893912 0.1981691 -0.16728829
0.18588209 -0.25754398 0.042242974
0.14410478 -0.016636131 0.123454764
0.025763348 -0.15942022 0.13058828
0.25341853 -0.1742544 0.096723594
0.045787994 -0.11666499 0.15321697
-0.025916632 -0.15520278 -0.17770535
-0.16885637 0.25064358 -0.18274179
-0.18234776 0.04534435 -0.09696444
-0.31010747 0.12234745 -0.1644994
0.026379287 -0.20592809 -0.13658445
0.040549774 0.0020791953 0.16492988
-0.07875396 -0.108377635 -0.031991974
-0.025487352 -0.13794938 -0.14728068
0.021430593 0.054287605 0.07708797
0.016826244 -0.004455558 0.18259333
0.22442621 -0.01968418 -0.22183251
0.08685539 -0.2384141 -0.09313986
-0.20264615 0.16877778 -0.21168941
0.2341118 -0.20079672 0.079046346
0.03657655 -0.16188775 -0.010247583
0.05801316 0.082363375 -0.11154159
0.28745496 -0.16758703 0.029774908
-0.1951958 0.17684318 0.01173213
-0.11753208 0.16674027 -0.09078595
-0.19528888 0.18597277 -0.008682127
0.0896701 -0.09647555 -0.14554481
-0.12922183 0.19290186 -0.20611544
-0.25698674 0.17266761 -0.1551854
0.072175406 -0.04743267 0.18205792
-0.10231515 0.013840011 0.07084889
-0.1105461 0.10033429 -0.034087017
-0.008553211 0.10912692 -0.12790634
-0.025113456 -0.0804829 0.073288016
0.17489386 -0.23507586 -0.0035864231
0.13458519 -0.11103709 0.16743504
-0.10244648 0.10277782 -0.055600382
-0.13917218 0.17271212 -0.06675905
0.007096527 0.043978456 0.12725227
-0.030675728 0.13404204 -0.027569493
-0.12113325 0.19998118 -0.030788893
-0.1122011 0.055684436 -0.011519695
-0.045455363 0.11115269 -0.09260447
0.24601439 -0.06905851 0.077854514
-0.27022314 0.09995181 -0.05548637
-0.10367525 0.09492689 0.02544691
-0.22006284 0.20693241 0.0061566555
-0.0068816133 0.14786743 -0.123176575
0.0009549854 -0.032852504 0.18647055
-0.15588321 0.24949898 -0.041184496
0.14359854 -0.23309934 0.023397865
0.035953775 0.123333305 0.05928579
0.26873136 -0.07840496 -0.12477957
-0.13324732 0.15672167 -0.036301237
0.0356638 0.013882389 -0.077262886
0.10843579 -0.13016644 0.16188854
-0.20358226 0.16478305 -0.0605519
0.315165 -0.16962563 0.01819226
0.090169795 -0.06606908 -0.30842933
0.15430695 -0.13899301 0.14190781
-0.25165725 0.1170124 -0.0014101706
-0.038879007 -0.115279414 -0.038264927
-0.124663875 0.07493016 -0.061815236
-0.26014856 0.10569268 -0.046892483
-0.16444482 0.22416914 0.021963796
-0.15090296 0.23882414 -0.13039973
0.22219053 -0.19466041 0.10044048
-0.012887983 0.045718685 -0.07804644
-0.04344289 -0.050750297 0.15363249
0.03788602 0.09286446 0.08061227
0.0061829146 0.078417346 0.05260208
-0.11869175 0.04129108 0.01534041
-0.09345874 0.07559459 0.060904298
-0.053990476 -0.00072275207 0.110519804
0.02440829 -0.073148474 0.19112353
-0.16341826 0.16643067 -0.022743057
-0.09535942 0.004413596 0.013065766
-0.19682619 0.1554655 -0.057138048
0.22233431 -0.159329 0.13812642
0.15238768 -0.025661666 0.12871265
0.20730129 -0.22003901 -0.123100996
0.017354453 -0.053640626 0.19751589
-0.20646271 0.33563548 -0.1663397
0.20752168 -0.14728028 0.114253275
0.2143242 -0.19536245 0.09949069
0.036347523 -0.07033463 0.15070468
-0.15941764 0.18664567 0.019211844
0.10005005 -0.11954363 0.17932586
-0.17015094 0.23440367 -0.0045999913
0.19430092 -0.11292936 0.13574724
-0.0977308 0.022250844 0.103275836
0.19389497 -0.101308994 0.13772558
0.05527676 -0.04759569 -0.28924546
0.17242366 -0.13165641 0.15406926
-0.046104234 -0.13994268 -0.07288738
0.028954571 -0.16916396 -0.14748544
-0.1083222 0.09224377 -0.037543148
0.057031494 0.0019907602 0.13637766
0.22495256 -0.1586286 0.1531878
0.28722757 -0.21252932 0.03906442
-0.021808442 -0.045465518 0.15644598
0.10178916 -0.05113784 0.16915849
-0.0642489 -0.031545162 0.12045632
-0.09137087 0.04038736 0.02472894
-0.22004682 0.051395796 -0.105321184
0.20813192 -0.16630487 0.110554956
-0.11028978 0.12234713 -0.00497567
0.08656216 0.040162526 0.08621235
0.19883972 -0.19369292 0.084078126
-0.063717194 0.0787858 0.066109665
-0.09211568 0.021070153 0.09595604
-0.15872845 0.064394474 -0.08074984
0.15949397 0.006870645 -0.22505435
-0.05829304 -0.05594058 0.088994324
-0.329669 0.12500937 -0.09926796
0.083711684 -0.0394409 0.15359582
-0.0016554542 -0.037345603 0.14138478
0.29111314 -0.1198072 -0.038455278
0.0009817573 -0.15438089 -0.17463735
-0.13653867 0.07439997 -0.09189506
-0.13963008 0.18322411 -0.025217947
0.3267971 -0.18966825 -0.019919861
-0.16609423 0.043780096 -0.12361129
-0.073109426 -0.031404305 0.14290759
-0.080838256 -0.028271819 0.034144863
-0.017714452 0.16419499 -0.12157635
0.09519134 -0.068981946 0.16932191
0.06295085 -0.031808708 -0.15615222
0.049612835 0.03356116 0.07775279
0.101868756 -0.12237179 0.17126277
0.15318589 -0.029402725 0.13437174
-0.20432392 0.1530435 -0.025740342
0.034387078 -0.13973376 -0.011181841
0.17450191 -0.0116081685 0.10892256
0.076830514 0.039858513 0.11353325
0.21470398 -0.2592576 0.012183085
0.066782646 -0.14707951 -0.008342197
0.0057689757 -0.18043348 -0.019539006
0.1213809 -0.0023393305 0.12094788
0.1300791 0.018234057 -0.21488394
-0.18147938 0.09661319 -0.05419948
0.10093201 -0.020088317 0.18992203
0.12503257 -0.17232312 -0.17607641
0.28677362 -0.18736263 -0.007151081
-0.0537983 -0.010434123 0.1479521
-0.0022740664 0.08352327 0.07222016
-0.22730154 0.14437082 -0.0018883651
0.13825637 -0.16322984 0.14555646
0.10717168 -0.11485879 0.19804963
-0.0155446315 0.02313989 0.17306449
-0.14301908 0.24544255 -0.03322098
0.20350675 -0.24629007 0.06382987
0.020022005 0.12472973 0.046102993
0.1532522 -0.09669353 -0.31651226
0.033826508 0.102846555 -0.0897568
-0.031124584 0.13331012 0.046444383
-0.014083551 -0.1280589 0.13528287
-0.118308306 0.12970662 -0.059605952
-0.17023155 0.30074462 -0.09200655
0.2572201 -0.15272084 0.068668276
0.020606717 -0.20923291 0.0065187723
-0.030486299 0.05493075 0.12734728
0.22988378 -0.24017997 -0.12037703
-0.05094646 -0.097997256 -0.0028612548
-0.23256601 0.23356783 -0.14358725
0.18412088 -0.20487869 0.1269729
0.26126885 -0.11611276 0.046679407
-0.09897811 0.0039970805 0.10730076
-0.17280006 0.058232445 -0.08701444
-0.119424395 0.27559417 -0.033847813
-0.07012429 -0.09141254 -0.07792283
0.11077786 -0.19285578 -0.04104215
-0.16492654 0.1431189 -0.067889735
0.049339913 -0.18896842 -0.14518732
-0.007745626 0.095608145 0.07507623
-0.0923538 0.09714665 -0.042114772
0.049273353 0.08350398 0.059205286
-0.0100880265 -0.15204379 -0.17073579
0.018530099 0.0131171 -0.30681
-0.13950123 0.2162662 -0.054725036
0.03875649 -0.14917852 0.071754165
0.02301358 -0.0829578 0.18744333
-0.23401865 0.3045355 -0.16120109
0.038840134 -0.19029075 0.006654235
0.12869896 -0.050999906 0.16970739
0.14594945 0.00020202497 -0.19274867
0.12594397 -0.19195038 -0.1851272
-0.24107479 0.10769798 -0.032015845
0.21671729 -0.07728326 0.066519015
0.2346139 -0.16893086 0.116519414
0.24409394 -0.16425878 0.0811309
-0.025097074 -0.1697767 0.0026228458
-0.19247739 0.0838454 -0.05029209
-0.0424265 -0.0006319416 0.14867036
0.041289434 -0.101978146 0.16980368
0.088544525 -0.046848558 -0.17812319
0.024819238 0.00930612 -0.14481007
0.2526368 -0.083202675 -0.15826681
-0.26584688 0.07051583 -0.06870885
-0.09065418 0.2142555 -0.08096808
-0.22031966 0.32621345 -0.18575835
-0.043862753 -0.0051759854 0.1401934
-0.1599537 0.10092915 -0.052172497
0.12866329 -0.08070602 0.18604037
0.010375019 0.0059229215 -0.28543958
-0.0014436077 0.06016926 0.14831734
-0.15069215 0.18299472 -0.031096283
0.037130844 -0.17695864 -0.009790881
-0.03097518 0.11150893 -0.021751007
-0.25152668 0.13844743 -0.02312393
0.25335175 -0.09864846 0.06314972
0.19439171 -0.18471693 0.11659164
-0.119895995 0.041196983 0.0632695
0.06960831 -0.16572095 0.11533336
-0.09008893 0.11055775 -0.053169806
-0.06165407 -0.011145845 0.11270919
0.18325396 -0.2023441 0.09019106
-0.012831169 -0.027838191 0.16711783
0.018867182 -0.12030161 0.027795175
0.040368456 0.065808415 0.063595235
-0.10986362 0.001953346 0.004019393
-0.23318577 0.15057898 0.0010514612
0.025926005 -0.20588118 0.008715696
0.15172869 -0.24019149 0.0489016
0.026179533 0.05040608 0.13735722
-0.1160658 0.27082908 0.0036769374
0.06849991 -0.12807916 0.13319936
0.042571716 0.038456954 0.17903438
-0.07857799 -0.12008599 -0.06756733
0.12862562 -0.2040789 0.0915479
-0.040368337 0.13238008 -0.2179032
0.09699337 -0.11650182 0.15947494
-0.061496675 0.17501305 -0.14884609
0.06404325 -0.15488242 0.06510054
-0.03366087 -0.031148123 -0.12382506
-0.121697545 0.20351012 -0.04338243
-0.30703917 0.07190919 -0.05150362
0.19302301 -0.0336431 0.12416884
-0.044969432 0.03183136 0.09559563
0.028556852 0.019833276 0.15520601
0.11107329 -0.11371938 0.15751992
-0.15115522 0.32490766 -0.12476968
-0.06967733 0.028567327 0.1338259
-0.2534914 0.08234799 -0.049489893
0.017692165 -0.15641797 0.10874048
0.039768077 -0.17378347 -0.011943132
0.105118364 -0.15390144 0.1466711
0.3111209 -0.13930148 -0.034630295
0.07344503 -0.1984994 -0.016094094
-0.2608629 0.09757361 -0.03219954
0.02062976 -0.19347306 0.01911334
-0.0057192314 -0.119309425 0.16520728
-0.08981995 0.097258985 0.03450046
0.016941128 0.09595218 0.059907928
0.10110523 -0.071719654 -0.13392791
-0.02247893 0.05398834 0.09412562
-0.05045992 0.052666556 0.09222028
0.06094834 0.054944158 0.1453209
0.1912122 -0.20670208 0.1201066
-0.1173414 0.023768663 0.018509205
0.02133768 0.11081442 0.026752017
-0.032044 -0.1704198 -0.19365917
0.029178977 0.10726533 0.02866487
0.038253408 -0.0747541 0.16802317
-0.2702639 0.10697635 -0.002407088
0.089233756 -0.074720204 0.1613156
0.1607115 -0.19754775 0.15714876
0.19277902 -0.17108104 0.13439725
0.14280735 -0.1313558 -0.10964693
0.12154943 -0.14602731 0.17085056
0.02755925 -0.19043818 0.003116745
-0.012779893 -0.011153199 0.17666492
0.061300606 -0.037364632 0.18362914
-0.27645114 0.13945107 -0.018068952
0.10348381 0.015303152 0.068708576
0.19714734 -0.14434159 0.13295877
-0.1449434 0.0914335 -0.088316746
-0.06637493 -0.05919191 0.043205127
-0.09473476 0.017787242 0.091467954
0.014584168 0.06280086 0.15629065
-0.05614886 -0.046946418 0.074725635
-0.01521029 0.08265937 0.06344878
0.20858759 -0.09634577 0.085794926
0.094529025 -0.0065204147 0.14342299
0.05804831 0.048426807 0.15552846
-0.07558259 -0.014358951 -0.2093331
0.27733004 -0.122285925 -0.04536631
0.09791266 -0.084487185 0.17463887
0.24625508 -0.12214968 0.07463793
-0.06976503 0.11858611 0.050414566
-0.2302655 0.10098567 -0.06710474
0.13334332 -0.17369644 0.113917984
0.18508206 -0.15231816 0.13908999
-0.18630457 0.05063511 -0.10008127
0.27159792 -0.14772905 0.06817883
-0.030550856 -0.05143111 0.14794528
0.034506053 0.031635176 0.1360379
-0.30593804 0.15089878 -0.16268207
-0.30535364 0.14945874 -0.11762702
-0.20998438 0.21552317 -0.13479207
-0.2135859 0.21583706 -0.050000727
-0.13590758 0.18396801 -0.194808
-0.026371785 -0.12992848 -0.0033076818
-0.11127767 0.09130041 -0.08405748
-0.33370757 0.10892837 -0.09141956
0.082904905 -0.06126738 0.16522047
0.14497876 -0.0643649 0.1342827
0.04215549 0.05498577 0.08306336
0.003552658 0.058596797 0.0397891
-0.1182929 0.07389217 0.011154232
-0.11953969 0.2227417 -0.05055418
0.0487433 -0.02584968 -0.13160343
-0.12509115 0.10393909 -0.05508807
-0.12283022 0.084908634 -0.06680726
0.25217113 -0.101306856 0.061726827
-0.15203685 0.13217509 -0.07843758
-0.12395411 0.03736584 0.036382563
0.21050993 -0.19334313 0.12980312
0.04312432 -0.20433702 -0.037673727
0.10256985 -0.052219477 -0.16015452
-0.27028403 0.17358683 -0.17917886
-0.056475554 0.05161816 -0.273155
0.14340377 -0.15141836 0.14707969
-0.04036514 0.16103788 -0.12920251
-0.041556556 0.0014778429 0.10389682
-0.16450143 0.22947103 -0.022281649
-0.2615742 0.17190266 -0.1394064
0.14481688 -0.08509656 0.16285658
0.089347824 -0.04133707 0.19379526
-0.22641748 0.27839231 -0.1351971
-0.31880587 0.13530037 -0.20884702
0.029963933 -0.02891009 0.1708337
-0.28641224 0.09375857 -0.0081496565
0.020621898 -0.049044274 -0.29032424
-0.20387207 0.08533956 -0.053306323
-0.16615102 0.11663927 -0.05250647
-0.24289721 0.10304083 -0.03208723
-0.013724864 0.15326421 -0.19752355
-0.1540263 0.32710266 -0.1395205
-0.29068035 0.11753581 -0.06547674
0.16272035 -0.050839078 0.122446485
0.14915907 0.07472643 -0.20905772
-0.082682945 0.13630137 -0.042780347
-0.033132754 -0.17611012 -0.014111472
0.24289714 -0.15322039 0.11165494
0.23330688 -0.079328746 0.029565658
-0.22807202 0.13848981 -0.022569107
-0.29119736 0.18247488 -0.18483877
-0.18942483 0.12776555 -0.06621545
0.016198702 0.1261264 -0.007022739
-0.24225418 0.11408836 -0.01064808
-0.029453797 -0.10443802 -0.007745435
-0.09198827 0.043647505 0.07613589
0.25726113 -0.13486375 0.12560801
0.22722626 -0.13959616 0.107464194
0.029753355 -0.11103299 0.009806674
-0.065246955 0.1950673 -0.08595597
-0.29030752 0.08643849 -0.04602061
0.06560755 -0.18565233 -0.018163925
-0.1326881 0.13278335 -0.093123466
-0.19155772 0.24995643 -0.03800912
0.17232716 -0.13484757 0.16127658
-0.1347563 0.13941126 -0.052310493
-0.03699689 -0.05916766 0.1080914
0.061190944 -0.02953399 -0.1537915
-0.056312237 -0.010073347 0.14490254
0.15729432 -0.12777661 -0.14090334
-0.24853976 0.12971273 -0.027054586
0.2424886 -0.24799575 0.02433456
0.052607127 -0.14390907 0.010351366
0.20738848 -0.10479204 0.13240677
0.06626296 -0.21952018 -0.17433897
0.10809387 -0.10179344 0.16237624
0.18683653 -0.0067508486 -0.19227584
0.2744481 -0.23043379 -0.017257223
0.14231637 -0.029984595 0.117441185
0.053873375 0.04236311 0.092831
-0.27440226 0.12284047 -0.1017762
-0.015065986 -0.18328704 0.009343577
-0.18072759 0.26289776 -0.061290666
0.040739495 0.052705027 -0.17750183
-0.11284728 0.056362767 -0.046813674
0.243793 -0.16384563 0.09104935
-0.060043182 0.17104901 -0.096439965
-0.012944403 -0.09754691 0.14830358
-0.17017925 0.09602057 -0.0704189
-0.17603911 0.080528446 -0.07760991
-0.19454825 0.22319715 -0.025687404
0.258818 -0.2056529 0.058487542
0.27610376 -0.13921447 0.0057615098
0.1226732 -0.03375523 0.13252841
0.063390434 -0.10067079 -0.16843452
-0.12791611 -0.013682184 0.04969011
-0.071011454 0.2122736 -0.06533446
-0.20142406 0.14442961 0.00044210666
0.038802132 -0.0008743915 -0.12651348
0.31289953 -0.18077046 0.021489158
0.08560122 -0.10844521 0.18435931
-0.0019296352 -0.02066619 -0.29515576
-0.0063161454 0.013465728 0.13110077
-0.12401359 0.31570268 -0.06905243
-0.07588219 0.124446034 -0.058269277
-0.09880715 0.013611459 0.025759138
-0.20353392 0.16022336 -0.0053910953
-0.09470856 -0.010526345 0.04064581
0.051830176 0.11218945 -0.16441661
0.051541377 0.1006805 -0.1575369
-0.121317156 0.19528097 -0.051811785
-0.019514136 0.10210261 0.08487292
0.10863665 -0.066384025 0.19324179
0.24187464 -0.1834419 0.09521652
-0.11001079 -0.0319589 0.0630708
-0.036633257 -0.10168272 -0.017900242
-0.15632224 0.23449972 -0.03088231
0.13010426 -0.111690015 0.14839086
0.10891959 -0.1521475 0.17574336
-0.058618184 0.13959889 -0.015103024
0.08506905 0.051426083 -0.21639882
-0.0111678345 -0.031979848 -0.2894006
-0.100181386 -0.13772292 -0.047001112
0.28754494 -0.2022049 0.0072641713
0.15494765 -0.18918826 0.14499247
0.19626282 -0.08347047 0.097862974
0.04031248 -0.17693819 -0.010494333
0.045565758 0.03924456 0.14509399
-0.17513312 0.17652294 -0.034849342
0.11295147 0.04373386 -0.20209788
0.1575948 -0.19874497 -0.031059986
-0.13414635 0.20340614 -0.06276218
-0.02436669 -0.03823369 0.13942832
0.034829725 0.09890666 0.023699265
0.11062309 -0.17813718 0.1286484
0.16433935 -0.055717792 0.12758456
-0.24513058 0.17876892 -0.17846222
-0.03883745 -0.12589413 -0.0032399278
-0.25415877 0.16577381 -0.20010771
0.03484033 -0.014932063 -0.32162628
0.019958774 0.037284818 0.1753733
-0.25690696 0.10162185 -0.04509629
-0.035251718 -0.1510516 0.018667892
-0.1291623 0.129365 -0.073121995
0.30116996 -0.14364175 -0.03222471
-0.22448462 0.14200298 0.0076707983
-0.025981458 0.06836074 0.13892947
-0.04180869 -0.07517244 0.12951022
-0.14034846 0.16028501 -0.07541862
0.16918042 -0.17496201 0.13986972
-0.069782905 -0.05967008 0.025595682
0.08163899 0.092948526 -0.18565018
0.10550855 -0.07401328 0.18454546
0.18496884 -0.23609522 -0.09956412
0.059019092 0.04529902 0.14675905
-0.12722567 0.22830367 -0.032073837
-0.1387495 0.16054656 -0.057768676
-0.12017362 0.053784452 -0.12087376
