# .PCD v0.7 - Point Cloud Data file format
VERSION 0.7
FIELDS x y z
SIZE 4 4 4
TYPE F F F
COUNT 1 1 1
WIDTH 1000
HEIGHT 1
VIEWPOINT 0 0 0 1 0 0 0
POINTS 1000
DATA ascii
-0.04793282 -0.09807178 0.23315935
-0.060578052 -0.13382024 -0.12782642
0.06217919 -0.081161305 0.1966468
-0.20132601 -0.11235094 0.07044704
0.05168485 0.14480127 0.04954943
0.19340591 0.06744663 -0.4852439
-0.18123434 -0.2374417 -0.086712256
0.0128751015 0.072787456 -0.42087632
-0.09292816 -0.076870635 0.190309
0.10292509 0.14668873 0.0267564
0.1896485 0.14084238 0.038755674
0.13353387 -0.04530175 0.052586243
0.19006106 0.1021347 -0.48213893
0.08458044 -0.14742662 0.032374777
-0.20686537 -0.20699927 0.045883443
0.13046783 -0.009823014 0.1515475
-0.012586413 -0.14556466 0.18535735
-0.0049256203 0.22286193 -0.28639698
0.1614494 0.15927029 0.027932297
-0.06359937 -0.026492959 0.166678
-0.23803659 -0.09503322 0.028453525
0.117100045 0.069037706 0.15759084
-0.12050919 -0.012095525 0.14103279
0.034570683 0.026843783 -0.28420284
-0.027981032 0.116448954 -0.43322736
-0.24102536 -0.15288831 0.06373304
0.039416187 0.011263322 -0.26695666
0.023588045 0.2817422 -0.4034452
0.0846817 0.105943084 0.1325517
0.14988844 0.24742486 -0.40715644
0.19661765 0.113878556 -0.4394657
-0.079964764 -0.08091362 -0.057231054
0.09325125 0.28104994 -0.41555947
-0.1702953 -0.109599136 0.12520781
0.006047862 0.26042804 -0.362384
0.15864664 0.14441645 0.09359042
-0.07137426 -0.0031842124 -0.31281897
-0.045007043 -0.17050971 0.13044511
0.17284833 0.04135774 0.13984361
0.10045817 0.17161286 -0.057039343
-0.028086163 -0.05463799 0.20714389
0.15508257 0.17100742 -0.05686503
0.11486051 0.020730138 0.18560041
0.12463425 0.06576933 -0.21943334
0.047130182 -0.11610147 0.20694995
0.056960315 0.014733392 -0.2606337
-0.0904029 0.23922016 -0.37544402
-0.12889807 0.024642099 -0.16579606
0.20276108 0.010175461 0.108457826
-0.2588081 -0.07234224 -0.056599457
0.20418075 0.17165473 -0.012141285
0.07474427 0.0630273 -0.008183494
0.13368706 -0.03014574 0.16701168
0.09494852 0.22287203 -0.3004367
0.02185887 0.06347477 0.16464487
-0.15365036 -0.120166905 0.14760637
0.09256875 0.19925311 -0.24220319
-0.19666418 -0.06751388 -0.21908717
-0.032138877 -0.12809478 0.19339417
-0.12787208 -0.03077607 0.1699048
0.15953358 0.041611083 0.15198383
-0.05499086 -0.09188424 0.22791502
-0.07778527 -0.13799751 0.17909962
0.09701265 -0.12596849 -0.0023624843
-0.013004514 0.16901433 -0.34121615
-0.15732321 -0.16198012 0.14750512
0.114356995 0.18844767 -0.39825392
0.09056333 -0.07627991 -0.00960658
0.12796302 0.18627788 -0.021502357
-0.19741039 -0.15695776 0.12966698
-0.12343295 -0.11267693 0.16862805
0.12275827 0.020888558 0.20214815
-0.21691789 -0.023317209 -0.090912774
-0.025144199 0.0062018693 0.18698046
0.03292706 0.14938992 -0.13163152
-0.13841261 -0.060835596 0.11293678
0.0036641338 -0.015675137 -0.30276242
0.16780996 0.14066641 -0.45072445
0.13157149 0.062249325 0.19189528
-0.2301879 -0.08790851 -0.025919588
0.023542922 -0.20286642 -0.022052767
0.11154444 0.022219457 -0.2647768
0.09793998 -0.082322516 0.18905622
0.04671511 0.1430698 -0.06641832
-0.003386179 0.023437811 -0.14756864
-0.26727054 -0.14922419 0.009651827
0.018498437 -0.08734782 0.21388821
0.16914557 0.18107916 -0.13365436
0.1943483 0.09812121 0.0054033925
0.106187984 0.10083737 0.072646126
-0.00761864 0.09489212 -0.41502142
0.10683155 0.07851753 0.16762945
-0.062331293 -0.20586722 0.14208177
0.07113656 0.12999336 0.095716424
0.033307925 0.08948875 0.15312245
-0.23777966 -0.12256318 -0.1074149
0.081262186 0.011467967 0.17805654
-0.078616165 -0.059176106 0.21491115
0.086924344 -0.12285697 0.118912406
0.052524466 0.03267028 -0.027263397
-0.23553748 -0.11692432 0.034323446
0.13163178 0.20623426 -0.31492475
-0.09859943 -0.22984222 0.08206737
-0.039446924 -0.07497279 -0.1377143
0.18332686 0.011919039 0.15987411
-0.00047374514 0.1172274 -0.17104019
-0.14412564 0.026456546 -0.25665897
-0.015974214 0.05508773 0.13450076
0.13335945 -0.08022446 0.13833863
-0.07360758 0.13953362 -0.4085843
-0.15559852 -0.1262763 0.14845584
0.047970034 -0.10891666 0.1910064
0.13461262 -0.030152222 0.20374434
0.15689318 -0.105757244 -0.044826906
0.12551287 0.026502121 0.17512417
-0.010565181 0.1290967 -0.16076423
-0.12812999 -0.025821356 0.11600302
0.04762243 0.18465123 -0.30457526
-0.17232114 -0.19007458 0.15371144
-0.14069295 -0.1512753 0.16652972
0.0164095 0.18689273 -0.31411627
0.15205757 0.023397544 -0.12324691
-0.031421658 0.14105487 -0.28580528
-0.23236638 -0.056563392 0.032530963
0.11976966 -0.03788796 0.18643409
-0.19284263 -0.035893887 0.06178841
-0.12517297 -0.033023644 0.14929706
0.14257988 0.022555856 0.18156005
0.23233056 0.065391496 0.04030952
-0.0010214127 -0.003885455 -0.2531259
-0.034507897 -0.09546027 0.18720007
-0.06439819 0.2346176 -0.3673149
0.082386 0.13874778 0.047429346
0.0070853513 0.07937428 0.13889001
0.1523014 -0.08810567 -0.06682478
0.20273991 0.09540832 0.058619183
-0.10229774 -0.15005381 0.19199814
-0.0190664 -0.09724435 0.21653384
0.16610444 0.11458522 0.10989547
-0.09354968 -0.17562133 0.15848652
0.024288956 0.08834935 0.12664443
0.08049649 -0.027236175 -0.44269952
-0.23997536 -0.0409449 -0.0291617
0.13311419 0.10168194 0.12800138
-0.1517858 -0.13939443 0.14624926
0.01866895 -0.004713226 -0.12372272
0.09565205 0.013864058 0.18376872
0.09595975 -0.1658393 0.0093217725
0.083064884 0.113146186 0.14332071
0.056218755 0.0303879 -0.27104297
-0.13721493 -0.039676458 -0.2645901
-0.07164582 -0.037340548 0.20961165
-0.1599071 -0.08376866 0.1478687
-0.25901988 -0.079865284 -0.03723581
0.16198422 0.14774403 -0.0053162016
-0.12352802 -0.021164231 -0.10110485
-0.25606182 -0.13676974 0.054304756
0.0075033237 0.04338355 0.19059
0.0636454 0.03532315 0.22625782
0.18463783 -0.022040326 0.08285812
0.07523802 0.10279066 0.11967212
-0.117676385 -0.22311474 0.15087257
-0.18452388 -0.141479 0.07470565
0.025555525 -0.12363983 0.1811405
-0.18121509 -0.14879529 0.13663997
0.051693592 -0.08632709 0.23003423
-0.06815161 0.16663317 -0.37909168
0.15755147 0.09732357 -0.19608663
0.029761964 0.051885013 0.13585821
0.065266415 -0.041860763 -0.12238739
-0.08368878 -0.15884873 0.16831608
0.00097606814 0.008822671 0.18642595
0.16805474 -0.017470624 0.1321583
-0.019541554 0.039462816 0.15777884
0.067239985 -0.16263936 0.0041087014
-0.1086704 -0.014124493 -0.2901395
-0.07718268 -0.011119156 0.19472265
-0.058534954 -0.10101346 0.21482533
-0.056623105 -0.19383848 0.1061165
-0.23710582 -0.12138519 0.08146663
-0.09254701 -0.029714463 0.18529314
0.03435108 -0.025950283 0.22222538
0.10175659 -0.018505389 0.18422318
0.06418854 0.02859858 -0.03901482
-0.15191907 0.0587006 -0.16397828
-0.1948111 -0.1741453 0.11682315
0.11626167 -0.09118937 -0.019215744
-0.20997182 -0.058285754 -0.21604204
0.15635079 0.09148672 -0.2228978
-0.21055187 -0.09021837 0.065404534
-0.042950004 0.07559102 -0.45134884
0.10102877 0.29608473 -0.39031553
-0.026920618 0.017675215 0.17716877
0.15273356 0.054334953 -0.16992585
-0.09655011 -0.108253025 0.22068496
0.0065236944 -0.0711133 0.23997298
0.023763293 -0.04689289 0.21677907
0.05112716 -0.1527761 0.030834332
0.09104894 -0.1516757 -0.0061049336
0.02149372 0.14263043 -0.06713461
0.085909046 0.054804046 0.17821601
0.16581658 0.05780132 0.17745373
0.055920836 0.19783528 -0.2391779
-0.14845283 -0.22132657 0.0053919037
-0.10666946 -0.13031593 0.19693823
-0.123325855 0.0781356 -0.20672302
0.06415942 -0.01687107 0.19919142
0.034039356 -0.14231941 0.13213526
-0.21964148 -0.022897253 0.019841239
-0.19011618 -0.075697534 0.09336865
-0.20606937 -0.16923974 0.063563146
-0.19344617 -0.12682728 0.10589358
-0.19360612 -0.036393333 -0.05787761
-0.04721553 -0.16284613 0.13714471
-0.21075357 -0.029008798 0.073958375
0.11406192 0.09570178 0.13609093
-0.08772073 -0.083650455 0.17878415
0.09863996 0.17920883 -0.16001594
0.046460085 0.025045928 0.22400753
0.052150916 -0.08831786 0.16935113
-0.18585247 -0.10792976 0.12954368
0.20729768 0.052526172 0.10863463
0.08128526 0.083428025 0.19586541
0.22783646 0.080034494 -0.47262883
0.19140813 0.079871744 0.07660361
-0.12192655 0.041894373 -0.27616474
-0.03548244 -0.13518666 -0.020977272
-0.08530759 -0.016979905 0.17052992
0.10704191 0.17962252 -0.08371415
0.07253166 -0.10919215 -0.14296009
0.03189957 0.16160275 -0.25277606
-0.07410534 -0.18219012 0.08270873
-0.16359818 -0.0677048 0.060565062
-0.23826948 -0.20091286 0.051200926
0.12463653 0.2658678 -0.40635118
-0.2390435 -0.18004893 -0.0322443
-0.103629954 -0.07774394 0.17595156
0.05605505 0.15002137 -0.1836455
0.027873697 0.01917098 0.21409339
0.033946447 -0.10177758 0.22707164
0.059506323 0.0071619116 -0.46084437
0.16438982 -0.024559358 0.14756352
-0.23085615 -0.13425735 0.0003533693
-0.2029441 -0.02870837 -0.10019173
-0.19798075 -0.022152506 -0.11814107
0.11142403 0.010553405 -0.44471067
0.023470236 -0.022747742 -0.14526866
0.14230883 -0.021786937 0.19730715
-0.10776467 -0.035745353 0.13639192
0.1421185 0.1872816 -0.22705147
-0.06265082 -0.035972714 0.18587618
0.015001608 0.20687373 -0.30811384
0.01151752 -0.08806274 0.21819869
-0.06363928 0.26062417 -0.40691692
0.055117834 0.17845121 -0.21951434
-0.038782172 0.13616715 -0.17046203
0.09927584 0.024537357 0.21988522
-0.04953808 -0.02465554 0.20163327
-0.17742631 -0.16035724 0.107470624
0.10277028 0.12680106 0.101517685
-0.09750986 -0.04744994 -0.26648223
0.023460556 -0.10155058 0.19475643
0.18134937 0.12576357 0.11296222
-0.10254023 -0.12679705 0.19344479
-0.21789658 0.0009335093 -0.067508005
0.00030545986 -0.14780648 0.14234908
-0.10255581 -0.2056172 0.05575994
0.013961005 0.023523161 0.13427956
0.07205583 -0.07371406 0.21342783
-0.2625938 -0.16104637 -0.10393661
0.044808537 0.0054152394 -0.08890285
0.062026314 0.14184257 0.051235903
0.08560524 0.23049785 -0.3246263
0.122717075 -0.105709836 -0.0033753878
0.051904153 -0.031275574 -0.10805698
-0.108664155 -0.033477493 0.16322808
-0.2014719 0.025505185 -0.15555866
0.12246929 0.19129588 -0.07740479
-0.26825893 -0.1709398 -0.021902889
0.119805135 0.15686537 0.05033389
0.04188917 0.07507096 0.11815929
-0.005358589 0.019618852 -0.1182253
0.014683117 -0.11613172 0.1820423
-0.085534655 -0.0151223475 0.18953502
-0.1348432 -0.1776185 0.13920598
0.08178248 -0.089104675 -0.15985821
-0.0031150365 0.08443655 0.11957142
0.090971366 0.19081953 -0.20098604
-0.010800011 0.0041950215 0.13171592
0.16217148 0.09715127 0.112726636
0.038464785 -0.088424735 -0.1723217
-0.19295141 -0.036187217 -0.12189367
-0.1201292 -0.1300022 0.18179043
0.061499357 -0.11221177 0.18791845
-0.12113641 -0.14107126 0.16988869
-0.03280798 -0.018976515 0.22839595
0.014667211 0.026123941 0.19526142
-0.19545741 -0.15713 0.14483465
-0.018701358 0.13019918 -0.16831914
0.04495257 0.02416048 0.20311128
-0.10212303 -0.1513217 0.18314284
0.07888264 0.027960803 0.18758264
-0.21285966 -0.077118404 0.0675544
0.009837065 0.07487994 0.13567857
0.07731829 0.1798627 -0.15570751
0.004634378 0.0028579894 0.19920613
0.016036943 0.15341528 -0.13582452
0.069727935 0.03151406 0.18099333
-0.05482924 -0.024379244 -0.29791474
-0.0660901 -0.08804289 0.21722148
-0.013770579 0.011541996 0.13636726
-0.2440111 -0.043617185 -0.12574643
0.12775126 0.22402005 -0.3327599
0.10827392 -0.12304805 -0.13174048
0.029435763 0.16200002 -0.08648881
0.019832794 -0.0059325467 0.22565286
-0.0540508 -0.1031658 0.18722665
0.012686359 0.29503465 -0.38083532
-0.18520394 -0.0918578 0.1416143
-0.07810211 -0.20092036 0.06743407
0.1541753 0.17434216 -0.3594064
0.1059325 0.076127164 0.18682432
0.17109132 0.13061498 -0.46762928
0.19223435 0.007004356 0.1012117
-0.0057532024 -0.080202915 0.20881279
0.09348423 0.12811458 0.025261106
0.12686333 -0.07917949 -0.024076398
-0.14807878 -0.12358924 0.17719358
-0.21982364 -0.078477964 -0.18288662
0.12332986 0.22069044 -0.29011464
0.0811386 0.07878725 0.16334428
0.04267138 0.0005855474 -0.13993958
-0.09060668 0.059339974 -0.15963505
0.029774416 0.17629817 -0.08639293
-0.07284158 -0.19522494 -0.019562183
-0.07325025 -0.020697456 0.21940269
0.15066764 0.0076527433 -0.096104026
-0.070384264 0.2351832 -0.38576192
-0.027177883 -0.11210245 0.18058746
-0.19049422 -0.09308486 0.07145631
4.4271314e-05 -0.18331632 0.12806752
-0.24776274 -0.1541264 0.031169662
0.19636992 0.159879 -0.13343884
0.14471945 -0.031321425 0.17425574
0.04400581 -0.014477051 0.19112138
-0.05916745 -0.15371506 0.20057048
-0.20077564 -0.116267085 0.13720743
0.21282741 0.0020092377 0.09554102
-0.015409863 -0.102946095 0.20306405
-0.20133255 -0.03582898 -0.12812398
0.03863448 0.08183016 0.12591682
0.10002255 0.17124747 -0.13674381
-0.10265709 -0.091135114 -0.2050106
-0.09315608 -0.07361374 0.17574453
-0.046264596 -0.05188247 0.23550405
-0.034190036 -0.15077093 0.15886462
0.06200238 0.20511581 -0.14882855
-0.074126646 -0.19823287 0.169387
0.004864256 -0.030733777 0.2273031
0.029325666 -0.076502964 0.23668073
0.17403035 0.18160512 -0.44948244
-0.1992309 -0.18781044 0.034467198
0.045340955 0.15862441 -0.05679206
-0.22325751 -0.16934381 0.043133028
0.183355 0.13789986 0.07836386
0.07052774 -0.0756932 0.059542414
-0.08610842 -0.13269162 0.1784255
0.060672197 -0.02444545 0.22858043
0.040919654 -0.026509156 0.23545776
-0.22022098 -0.059109744 -0.07159198
-0.021929035 -0.17738351 0.15838517
-0.07292622 0.17033839 -0.37502006
-0.22329761 -0.0922963 0.094005205
-0.10151146 -0.12868486 0.1736432
-0.0121001415 -0.18000078 -0.01113872
0.041151546 -0.092223525 0.22323939
0.18109612 -0.029183181 0.016929189
-0.016939953 0.18169363 -0.30860862
0.08182021 -0.06859807 0.17662919
-0.038803704 0.14147387 -0.2873727
-0.11580924 -0.1427608 0.15750441
-0.0253695 -0.037474602 0.20854384
-0.09936367 -0.10008879 0.17187911
-0.24645329 -0.11933365 0.057370882
0.0470191 0.062159255 0.1829283
0.090754524 -0.062822126 0.19998103
-0.074648224 -0.15871374 0.17351784
-0.16406602 0.066052586 -0.22834873
-0.12952872 -0.16745998 0.16499811
-0.085801974 0.08509896 -0.18845372
0.047044635 -0.119270116 0.18514836
0.17473269 0.17921144 -0.016906604
0.12874629 0.17948572 -0.2995041
-0.1670476 -0.20935933 -0.07253956
-0.087242566 -0.19043705 0.13339262
0.06520527 0.12039209 0.11860453
-0.19693688 -0.16118309 0.14069843
0.01827498 -0.21376303 -0.07866851
-0.086597964 -0.06658813 -0.24029887
0.0013160822 0.07964793 -0.44599712
0.039463736 -0.16270873 0.008218745
0.0043050875 -0.080474414 0.23880138
0.05130484 0.054395873 0.15659332
0.11971295 0.15104285 0.018150238
-0.088025644 -0.028438319 0.12213791
0.20068564 0.049813084 0.11145647
0.063352354 0.12593955 0.099113055
-0.02896353 0.1404401 -0.39171624
0.037373476 -0.09276036 0.18896978
-0.06521044 0.095899366 -0.16385971
-0.22589494 -0.09834242 -0.060027055
-0.11769999 -0.11630769 0.1578069
-0.07585735 -0.13084906 0.21588902
-0.07089811 -0.1622137 0.21036804
-0.00085253327 0.07350415 0.14090982
0.06017697 0.06874702 0.15251023
-0.13191678 -0.03479249 0.10788096
0.17330712 0.09410802 -0.44357717
-0.102838986 -0.09354605 0.2131744
0.07926628 -0.10534293 0.18098468
0.16014539 0.01916396 -0.02388943
0.039975684 -0.040259246 0.195666
0.16256602 0.17103165 0.023682903
-0.16795443 -0.20987572 -0.085365884
-0.00072868576 -0.1696665 0.17783137
-0.027879566 -0.07196622 -0.15045382
0.10140971 0.039634485 -0.2708721
0.09101849 -0.17887403 0.017821657
0.13329601 0.13620894 0.092778035
-0.11681424 -0.009660222 0.10939814
0.05724072 -0.070580326 0.20790683
0.21920577 0.090793945 -0.09940036
-0.0021624872 -0.1610061 0.01522869
-0.08582204 -0.03686368 0.14640129
-0.2305199 -0.020432558 -0.13023196
0.0713511 0.0128063755 0.19575283
0.06031759 -0.15567584 0.03899139
-0.045726866 -0.13913134 -0.05068434
-0.1714854 -0.059511166 -0.23279181
-0.11836344 -0.17950016 0.1581641
0.13231795 -0.11575151 0.014546961
0.0775798 0.26495388 -0.39349678
-0.040448606 -0.006673125 0.18699382
-0.0113526145 0.092707485 -0.33048877
-0.0212374 -0.096487746 0.19114107
0.0852052 0.23542315 -0.30366135
0.059326306 0.16038908 -0.06520102
-0.10946837 -0.22239809 0.066042975
0.03820753 0.08825419 0.12595466
-0.1491614 -0.1267179 0.15339941
0.18617386 0.11855848 0.1053461
0.1760274 0.15143402 0.04838701
0.16680738 -0.048087534 0.10884309
0.100445874 -0.05813426 -0.14203405
-0.04553248 -0.11123391 0.22351545
0.18578893 0.11842602 -0.48475996
0.09539526 -0.15236013 0.021651108
0.15405221 0.020866435 0.1763203
-0.023903362 0.015652606 -0.32101637
0.07432847 0.15946327 0.044806503
-0.102163225 -0.075064085 0.21628222
-0.0020523856 -0.12993558 0.19247368
-0.08811232 -0.097185306 0.19521214
-0.19338942 -0.19531807 0.05712073
0.047611002 0.018948492 -0.28146216
0.19057286 0.07373887 -0.13201016
-0.16852364 -0.20523249 0.1282392
0.009209701 -0.09182062 0.22755276
-0.017796403 -0.017992979 0.20594537
-0.0056057977 -0.1556906 0.021701965
-0.16606951 0.046895273 -0.17647538
-0.015714964 -0.14623944 0.20278113
-0.06482155 0.11582819 -0.23064728
-0.041918367 0.2740178 -0.38854903
0.13321412 -0.021876648 0.18506065
0.20121242 0.12637153 0.04405405
-0.17711231 -0.038560886 -0.23352273
0.03197707 0.012630996 0.2266889
0.12005611 -0.07041586 0.15438129
0.1893056 0.04753804 0.0763217
-0.16482209 -0.10063787 0.14673533
0.011120559 0.040198065 -0.144221
-0.16856149 -0.0025056414 -0.18500757
0.13998163 0.028486779 -0.0972018
-0.22406441 -0.053826984 -0.007703445
-0.16431126 -0.03790718 0.13542683
-0.18345049 -0.13792782 0.12478881
0.040399674 0.07359437 0.1545759
-0.019565396 0.19564183 -0.31382164
-0.1204528 -0.12833054 0.19811907
-0.1861201 -0.0034163608 -0.12946075
0.0749419 0.123779 0.019287553
0.21118858 0.050155625 0.051353432
0.18278262 0.13505165 0.06252691
0.00036123267 -0.13548405 0.15940866
-0.24431023 -0.10921655 -0.08074846
0.00693507 -0.12123794 0.18707953
-0.16605009 -0.06385634 0.090036415
-0.07623162 0.1241891 -0.42057022
-0.17534763 -0.1323492 0.16206677
0.09093316 0.17268516 -0.045802023
-0.06057026 -0.13792366 0.17542301
0.04388846 -0.05628116 0.20098636
0.0509064 0.09026816 0.1469902
0.04601288 0.22236413 -0.3417353
-0.04946702 -0.06014974 -0.27886033
0.019972067 -0.17792459 0.012190388
0.03217056 0.054611754 -0.13705009
0.003913612 -0.046905037 0.24435547
-0.24418749 -0.085130505 -0.0010995674
-0.077970095 0.22023652 -0.43295982
-0.01600484 0.21960263 -0.35965243
0.048617058 0.0590012 -0.01172378
-0.033684265 0.10726649 -0.392233
0.037015297 0.2221148 -0.27435064
-0.1036797 -0.023887763 0.1357269
0.14365087 0.050187435 0.12299208
0.15324378 -0.10803677 -0.020713411
0.17364821 0.016197883 0.14894496
-0.12823988 -0.048061557 0.18507023
0.10818032 0.023861414 -0.22852086
0.0981068 -0.0114343865 0.19862922
0.05205234 -0.15783906 0.022816364
-0.0019356929 -0.12229974 0.035718776
-0.003847976 -0.13998434 0.15228345
0.09026428 -0.08411592 0.15513699
0.1875883 0.12489837 -0.08525361
-0.032031152 -0.10170953 0.21154067
0.005071145 0.14579397 -0.14989169
-0.091501504 -0.021082167 0.15993138
0.09422486 0.15182632 -0.044621415
0.11307675 -0.08679838 0.16156033
-0.030636664 -0.15561152 0.02343016
0.05148925 0.047664035 -0.04124164
-0.08103772 0.053559504 -0.18918535
0.011432824 0.029692022 -0.26253834
0.22416385 0.1247814 -0.054020252
0.0114210555 0.020602738 0.21024644
0.05481145 0.21240671 -0.24601738
0.17819956 0.085869186 -0.18693314
0.03433381 0.049423695 0.17977162
0.05933774 0.29206476 -0.42453417
-0.07161264 -0.018916579 0.16463125
-0.13685039 -0.07824661 0.13359316
0.062853746 0.07329824 0.10288566
-0.06855406 -0.0118195 0.1787761
-0.22764695 -0.18574964 -0.06721757
-0.16068406 -0.07260387 -0.24846856
0.13136332 0.009064712 -0.13150409
-0.120090015 -0.09397523 -0.084926575
-0.031849906 -0.14656222 -0.038403805
0.05755775 -0.14528474 0.046795957
-0.15551959 -0.043258905 0.10569919
0.18901089 0.012212552 0.07101418
0.008265861 0.033786472 -0.11431891
-0.04644973 0.033230767 -0.32088494
-0.027252857 -0.07163957 -0.12963915
0.13876191 0.07587337 0.122658126
0.044236872 0.052565053 0.19641149
-0.036307387 -0.15214536 0.18104759
-0.047644693 -0.16542338 0.16682847
-0.13807425 -0.044423297 0.12096343
0.19260661 0.13658838 -0.076405704
0.066995375 0.015174923 -0.0718856
-0.068052724 0.21985151 -0.39223483
-0.19381739 -0.15296747 0.15450506
0.17220213 -0.017944848 0.12582581
-0.014897381 0.20506784 -0.3163288
0.1124495 0.22869368 -0.35362998
0.07427229 0.23988062 -0.34395495
-0.038794525 -0.0435764 0.21870545
0.016385188 0.035645057 0.1833612
-0.16742496 -0.020373942 -0.13725229
0.1122641 -0.054181717 0.18162893
-0.034438003 0.13031857 -0.15068917
0.024458472 0.0650302 0.16822904
-0.05892079 -0.00198947 -0.30212045
-0.029134136 -0.11615246 0.20796715
-0.1453062 -0.15825216 0.13499267
0.08588257 -0.17776203 0.02699297
-0.0016626304 0.13885479 -0.2399358
0.059814055 0.059169978 -0.05050287
-0.22413711 -0.1031733 0.045794368
-0.20787221 -0.098415695 0.059237245
0.07210813 -0.05878284 0.19440362
0.08349868 0.09164998 0.13879332
0.13572101 0.17544897 -0.072440214
-0.1664014 -0.11119032 0.16485691
0.04057494 -0.1059109 0.183391
-0.01906109 -0.12532263 0.18881083
0.034547422 -0.08010626 0.2001848
0.04813079 -0.077067524 -0.1769929
-0.022039032 0.13856754 -0.3772199
0.11952796 0.02995764 0.16390032
0.09769073 0.2046677 -0.28063932
0.13971908 0.026188727 -0.11900376
-0.19657156 -0.064727224 0.031281255
-0.16834871 -0.07116078 0.09398093
-0.05168313 0.016788835 0.124385074
0.062670596 -0.076745644 0.18340294
-0.022343414 0.16952059 -0.17992054
0.031636104 -0.022306623 0.22168088
-0.06647184 0.11001224 -0.42397928
0.12482959 -0.13758785 -0.008445371
-0.116223425 0.0018745778 0.10977509
-0.05113485 0.11666964 -0.18344356
-0.09699634 -0.08390435 0.2087615
-0.22500317 -0.06522333 0.0014620918
0.06441333 0.084547 0.1643668
-0.09803907 -0.18337193 0.15864119
-0.1781192 -0.19059014 0.0068647796
0.117716424 0.16679238 0.0071112392
0.039172176 0.03462265 -0.15359181
0.0750355 -0.010591447 0.22864072
-0.19081175 -0.0640335 0.029574966
0.21677338 0.09053026 0.06565397
0.068594895 -0.025309986 0.211748
0.16295613 0.16775711 -0.25267664
0.080744416 -0.16473816 0.03948542
-0.14512487 -0.21443789 0.023611143
0.17315349 0.11912127 -0.47083727
0.1594036 0.018765794 0.16707522
-0.17974712 0.017522043 -0.1333304
-0.15094422 -0.054843757 0.13923536
0.10777464 -0.020813577 0.2204599
-0.12683217 -0.10473802 0.17632951
-0.03774168 -0.16970186 -0.024084104
-0.04726966 -0.02027269 0.17404486
0.08207871 0.016541965 0.21327166
-0.017785957 -0.13684903 0.20646447
0.16998717 0.09676338 0.1122913
0.013781076 0.015652603 -0.30652872
0.026860038 0.26646557 -0.39462277
0.16041836 -0.13404842 -0.034298368
0.0115415035 0.17528689 -0.23267025
0.12333385 0.06469753 -0.17915615
0.0001544259 -0.00399862 0.20143823
0.14285079 -0.017981557 0.18515643
-0.0051655252 -0.15420985 0.19903864
0.15068637 0.20399444 -0.22676986
-0.059668403 -0.040507574 -0.3039221
0.13832407 0.10839682 0.11068223
0.11486381 0.06080827 -0.26797304
-0.011893291 0.15667607 -0.1539832
0.038947787 -0.06683678 0.21173212
-0.007954804 0.06975212 0.11504869
-0.11715869 -0.10512626 0.1587554
0.147457 0.017187333 0.18694378
-0.24004355 -0.01948447 -0.15746778
0.087305136 0.06422557 0.19857603
-0.25217617 -0.12333811 -0.024567464
-0.11925267 -0.082484566 0.12243493
0.0129442755 -0.0021308055 0.20242396
-0.06278624 0.18118365 -0.36959237
-0.0325613 0.19449757 -0.38407883
-0.1159564 -0.21258879 0.15215775
0.10164899 0.17008296 -0.12646304
0.09886187 -0.09185234 0.14837143
-0.2106582 -0.049228247 -0.07548035
0.07627879 0.23177868 -0.31979826
-0.096559994 -0.20835935 0.16508421
0.1922445 0.1715239 -0.15068713
-0.03851721 -0.08555027 0.23478626
0.09588763 0.15963027 0.042576674
0.18563777 0.15895613 -0.23550585
0.060549438 -0.03708726 0.20032859
0.09637588 0.1803804 -0.16396154
-0.20701347 -0.020697052 -0.11939382
0.072563045 0.0046725464 0.18841708
0.053752877 -0.15528437 0.008205541
0.081612565 0.1832957 -0.14003192
-0.0892207 -0.14322872 0.1950068
0.043899145 0.07929543 0.14089814
-0.054603156 -0.16003388 -0.005596139
0.020997688 -0.07631367 0.20299467
-0.12572561 0.068040326 -0.16442023
-0.21278374 -0.0033814157 -0.20026305
-0.008440977 -0.10657934 0.20779087
-0.030726228 0.14858459 -0.4228779
0.19337848 0.07611373 -0.1706299
0.101814434 0.057470452 -0.27403626
-0.021747077 -0.029215915 -0.2668842
-0.007937953 -0.030340781 0.23352765
0.03567597 0.11324465 0.12931438
-0.027317295 0.013318228 -0.14798279
0.08488293 0.080006994 0.18417211
-0.001657175 0.03925831 0.1591876
0.16115102 0.15340982 -0.43155736
0.043467734 -0.16177621 0.0029018687
-0.080554985 0.2678892 -0.3903015
-0.21553622 -0.047977623 -0.05088785
0.060493127 0.17998563 -0.20431021
0.073545784 0.18394853 -0.14911997
0.13223134 0.18484044 -0.45712817
-0.16821733 -0.115240626 0.17109376
-0.18554033 -0.04832156 -0.10118069
0.063542776 -0.03775888 -0.13698138
0.07449952 0.12653242 0.025532871
0.091599636 0.13660513 0.02332652
0.01908073 0.10988298 0.0945133
0.14260472 -0.0020830114 0.14090668
-0.0032921543 -0.15703396 0.14128344
0.12693703 0.106473126 0.13958614
0.15138939 0.236989 -0.44097
-0.26689395 -0.14068952 0.034905612
0.1948425 0.109092906 0.015672429
0.09402357 0.23061602 -0.29376045
0.048694443 0.09329777 0.12498294
-0.14779125 -0.057539564 0.11922689
-0.011038137 0.18402596 -0.34407115
-0.12772062 -0.007017973 0.14791708
0.08438769 0.018382212 0.17727277
0.10825252 -0.120353915 0.040605173
0.14303388 0.1886189 -0.033044938
0.07489077 -0.002599245 0.20546286
-0.15924788 -0.24151146 0.008808415
0.10767212 0.24135897 -0.4460903
0.019748585 0.1692763 -0.16196574
0.047357026 -0.031382307 0.1904868
0.046829823 0.23076797 -0.30349264
0.020874774 -0.14436501 0.04476661
-0.012485117 -0.12975016 0.018668367
0.0825662 0.30251253 -0.4052667
-0.16889365 0.01960465 -0.18483554
-0.21695 -0.18165193 0.03635077
-0.0066448487 -0.07339297 0.19837722
-0.14849624 -0.142034 0.14837816
0.05018285 -0.012000146 0.22512628
-0.08448002 -0.09676814 0.19433111
0.052202348 -0.14036089 0.02908113
-0.14753062 -0.15220644 0.12540956
0.22462852 0.037198175 0.04808323
0.045001987 -0.00050975144 0.21073158
0.1723071 -0.033290766 0.17910475
0.0039147055 0.12364469 -0.33923417
-0.055567633 0.0003035483 -0.29616714
-0.22337458 -0.046648778 -0.15081301
0.21058534 0.08227346 0.09894023
-0.17823024 -0.056152713 0.09455646
-0.09628537 -0.0366087 0.12690477
-0.20802693 -0.032897092 0.08630744
-0.1528323 -0.13090186 0.15243183
-0.12714379 0.07109429 -0.19126506
0.10171512 0.13485168 0.12609397
0.04984531 -0.06124499 0.21290933
0.09230455 -0.10548748 0.1734442
-0.2005498 -0.058504548 -0.05926905
-0.0034323356 0.19851993 -0.33271465
0.1020732 0.11682927 0.06624565
0.0770362 -0.02555635 0.2131874
0.14414999 -0.07942861 0.16578846
-0.009657128 0.06971678 -0.38947016
0.15063383 0.052213736 -0.11643994
0.18453239 0.041752674 -0.44627663
-0.22025776 -0.11596538 0.0649473
-0.07082597 0.18965074 -0.4107596
0.11407148 0.10624434 0.11366393
-0.19955365 -0.15565236 0.035087954
0.08044005 0.06156077 0.14706013
0.07103958 0.11847683 0.07734586
0.048790723 0.26311722 -0.39092526
0.108953625 -0.08134725 0.15537891
0.0074818013 0.009580521 0.21428198
0.035246667 0.036227193 0.1443495
0.03174377 -0.10568463 0.21078101
0.11565359 -0.043967426 -0.09661808
0.1993168 0.039715182 0.09309591
-0.025111288 -0.09303222 0.19202442
-0.055188067 -0.06303429 0.21355116
0.046644542 -0.050596952 0.21734385
-0.1049034 -0.15733646 0.14314647
0.047533978 -0.10574439 0.18636313
0.07430358 -0.18631849 0.034240026
-0.24836645 -0.11277561 0.033441506
-0.18649371 -0.11818175 0.0912343
0.17840916 0.15917858 -0.0050882604
0.044693574 -0.09034745 0.18386514
0.00024360295 -0.015039124 0.21122201
-0.1627415 -0.006405371 -0.24212424
-0.011819706 0.1165836 -0.41607735
0.15692885 0.08763484 -0.4518931
0.036963943 -0.09922505 0.19238986
0.082650565 0.19860049 -0.27630326
-0.013737036 0.0503052 0.16810986
-0.016721556 0.11552549 -0.16988678
0.041887496 -0.14835475 0.17884971
0.032286216 -0.10774921 0.19575237
0.1247705 0.06481249 -0.15682231
-0.17035745 -0.16858315 0.16349888
0.11600902 -0.093736425 0.1262386
0.13334848 0.18792786 -0.19935441
0.08812715 0.022256548 0.20833765
0.08593336 0.22402065 -0.2900949
-0.20598465 -0.14794691 0.066299036
-0.11068158 0.09713245 -0.15946606
-0.098607175 -0.05220638 -0.25908235
0.045483246 0.18948987 -0.14613016
0.048697196 0.20673186 -0.27616864
0.080732316 0.13975886 -0.020146621
0.09452655 0.03379405 0.16572833
0.08969988 0.17388816 -0.18090135
0.0728744 0.113839634 0.068379
-0.18817943 -0.06413881 -0.068792455
0.13479406 0.118603095 0.099548824
-0.01566114 -0.16412103 0.15604046
0.061699137 -0.09483737 0.20719098
-0.12963143 -0.11426933 0.16848932
-0.09100982 -0.006240079 0.16812938
0.053610705 -0.21463592 0.0059465873
0.058722295 0.13822487 0.042102464
0.20368323 0.12397507 -0.47019163
-0.19463563 -0.13913721 0.11417731
-0.18110149 -0.12732705 0.12463653
0.01762743 -0.12579496 0.20763923
0.06410697 -0.13862854 0.03613698
-0.0370975 0.1360289 -0.30995524
0.07228481 -0.040035706 0.19663195
-0.18775888 -0.16727974 0.09049846
-0.09532552 -0.16409938 0.16243374
0.08865444 0.05409557 -0.041214224
-0.0739618 -0.044166107 0.20398633
0.080703415 0.24346867 -0.41643322
0.18145634 0.04837234 0.12860869
-0.038793623 -0.07509605 -0.24283974
0.09867288 0.13458796 0.033589777
-0.07002715 -0.13203745 0.1863653
-0.2068399 -0.028989859 -0.0043826057
-0.090427555 0.076941624 -0.1550207
0.094038 0.2015259 -0.1322315
0.13165432 0.19981946 -0.06638227
0.17291394 0.180962 -0.44538417
0.118298516 0.051243164 0.13693956
-0.21183774 -0.060862232 0.026796617
0.0496972 0.17488652 -0.020129735
-0.15215135 -0.14920804 0.14890501
-0.09207506 -0.2117396 0.16120656
0.17919686 0.11445689 0.11408004
0.038382955 0.053862862 0.123244904
-0.26009244 -0.111287184 -0.095443025
-0.0044662384 -0.18328342 0.13677724
-0.103060104 -0.08693353 -0.25105545
0.10103666 0.07714499 0.15708423
0.1036433 0.25581655 -0.3799899
-0.052003894 0.18222593 -0.3272884
-0.19665919 -0.024583388 -0.08998492
-0.096332856 0.04278216 -0.270694
-0.004403955 -0.099941514 0.2010648
-0.18938771 -0.07626054 0.0335043
-0.0058001284 -0.12853137 0.14655572
0.18642637 0.13901164 -0.14252184
0.06715559 -0.058785915 0.19700113
-0.0625518 -0.092670314 0.23814976
0.0027746405 0.01027636 0.1958615
0.07702419 0.25620726 -0.42703402
0.019374736 -0.11735653 0.17274481
-0.14527377 -0.09886886 0.13799758
-0.01629077 -0.0022481717 -0.26915643
-0.09962859 -0.07633252 -0.2250492
0.030367728 -0.018458178 0.2227161
-0.12806064 -0.13276574 0.19110374
-0.12570582 -0.20810153 -0.14048599
0.14861248 0.20865345 -0.2894781
-0.04683811 0.19064204 -0.3551358
-0.12369309 -0.08821643 -0.21749079
-0.13985929 -0.14853723 0.16614664
0.0927813 -0.040400863 0.19052003
0.13690732 0.08073771 0.14597286
-0.031349882 -0.11241665 0.23128308
-0.085609965 -0.0017245867 0.17086051
0.10781014 0.061524976 -0.27104694
0.031191004 -0.07943193 0.22894251
0.083983295 -0.18398884 0.015186437
0.0810392 0.030338563 0.1767181
0.04522831 0.001270592 -0.27349767
0.0746996 0.0060028173 0.21062447
0.08132554 -0.009812244 0.18801488
0.18638657 0.07305027 -0.4542375
0.176653 0.04823513 0.14763503
0.076547086 0.042272232 0.15627155
0.19478723 0.011533518 0.1505659
5.162338e-05 -0.13668318 0.1770254
-0.01308404 -0.13507947 0.18382631
-0.03652285 -0.03300906 0.19719177
0.04462057 -0.018570859 0.22520623
0.046904493 0.16707465 -0.20446455
0.12800725 0.053659458 0.13332182
0.19944854 0.06403779 -0.46739277
0.066254124 0.025947083 0.17907818
0.13927653 0.13155456 0.115953766
-0.05197609 -0.11060877 0.17087452
-0.03079806 -0.071485125 -0.09757026
-0.1940943 -0.15472537 0.057992566
0.08718731 -0.048489954 0.20295061
0.14697368 -0.14564836 -0.02326167
-0.21506535 -0.029264515 0.024826735
0.1361026 0.056092165 0.15672287
0.032780703 0.0709682 0.16683426
0.06042544 0.036983695 0.19421622
0.011637043 -0.033280082 0.23878928
0.022599313 -0.16263823 0.003818532
0.18287672 0.116268195 -0.11832926
-0.12571739 -0.079716004 0.1390394
0.032897577 -0.15510213 0.015916966
-0.245346 -0.043745648 -0.019443894
0.14115222 0.041659303 0.18118118
0.12839149 0.16483317 -0.13392799
0.13459846 0.12500991 0.06573363
0.1518458 0.14648867 0.08743328
0.032831453 0.061670836 0.14823847
0.06206884 0.068029925 0.18651797
0.06005462 0.06847929 0.16199702
0.06896791 0.15557186 0.03546365
0.13882673 0.17716362 -0.18165506
0.114558496 0.1068983 0.112548456
0.18189178 0.11572244 -0.10141562
0.08092252 0.21452032 -0.16604695
-0.14725554 -0.20206295 0.079680026
-0.027274067 -0.010323257 0.20048901
-0.030624872 0.030629838 0.17659105
0.18879607 0.10218609 0.10148859
-0.18414026 -0.2299235 -0.063453086
-0.05074361 0.16283353 -0.42050934
0.03015396 -0.110660225 0.19287582
0.20479476 0.16478637 -0.01634558
0.008474246 0.009865278 0.21146007
-0.21415682 -0.010507938 -0.09595341
-0.086867206 -0.16618939 0.17444684
-0.009219192 -0.028911045 0.21913806
-0.093264185 -0.063337445 0.16618171
0.18744068 0.11224784 -0.054864895
-0.03714396 0.004021328 -0.15421186
0.054008644 0.057861913 0.15698045
-0.16445658 -0.07424969 0.069468595
-0.14105973 -0.16808403 0.11108862
-0.11809956 -0.13236704 0.15545316
-0.1894906 -0.13532688 0.1446063
-0.03188831 0.2263614 -0.4030661
0.06501376 0.25429755 -0.4138301
-0.11372217 -0.15347518 0.17689703
-0.15697944 -0.19490896 0.13723704
0.18055198 0.02890957 0.10597654
0.14699765 0.115990914 -0.3636251
-0.06650056 0.14405571 -0.39391914
-0.010594686 0.077002525 -0.20491894
-0.058469225 0.025086634 -0.31806856
-0.00088607654 0.15901253 -0.16548134
0.035941336 0.020211762 -0.07844309
-0.1714365 -0.15867911 0.1441515
0.05391419 -0.096601225 0.21356045
-0.1114769 -0.21089135 0.13021459
0.037508197 -0.011140353 0.22368559
-0.11581348 -0.05361003 0.13782655
-0.09092133 -0.19596735 0.17970082
-0.22194472 -0.06019705 -0.023059463
-0.090472355 0.110023536 -0.15900429
-0.12087716 -0.18968396 0.13535191
0.15322755 0.08352196 -0.44053233
-0.01544032 0.09713527 -0.44604492
0.028146638 0.02675398 0.21588723
-0.18752845 -0.035940353 -0.062650695
-0.029027069 0.0061579524 0.18265364
0.08857415 0.28860098 -0.40205106
0.14807758 0.08358683 0.1464279
0.093214355 -0.12784374 0.038150687
0.13136826 0.0184007 0.20737341
0.08326128 -0.0903276 -0.016239226
0.0076054153 0.020154208 -0.15368874
0.06030996 0.2639576 -0.35781083
-0.21544538 -0.041542195 -0.18287861
-0.037625216 -0.020933717 -0.29099858
0.145125 0.007178264 0.19657612
-0.22097789 -0.078543484 0.01835938
-0.18009146 0.025254035 -0.16146328
-0.10303575 -0.082377695 -0.056463916
-0.050290998 0.12604581 -0.17383842
0.051482808 -0.18215577 -0.006558634
-0.14952561 -0.22687995 -0.06021905
-0.01772479 0.017794473 -0.15859003
0.15141603 -0.035666518 0.158083
0.1721788 0.08323114 -0.16473782
-0.24373053 -0.08300012 -0.10236089
-0.038373604 -0.13274321 -0.021472039
0.13425638 0.16617525 -0.12180933
0.08425767 0.11595746 0.10204564
0.20791742 0.08272501 0.023941368
0.07313978 0.13743004 -0.004316735
0.1058295 0.1303521 0.09884063
-0.03160044 -0.19358142 -0.067874976
-0.14001575 0.050329912 -0.16141805
0.16542068 0.17067954 -0.22875388
-0.12165443 0.10626063 -0.19451295
-0.118259706 -0.036100514 0.11359736
0.07733757 0.07072756 -0.35624635
-0.120418794 -0.21829848 0.100095905
0.096830815 -0.04119981 -0.10816425
0.10964256 -0.14412622 0.008298962
0.021121759 0.2267573 -0.33262682
0.14146288 0.024176775 0.17675295
-0.016229503 0.22330466 -0.35144106
-0.18875991 -0.041557137 0.03737163
