# .PCD v0.7 - Point Cloud Data file format
VERSION 0.7
FIELDS x y z
SIZE 4 4 4
TYPE F F F
COUNT 1 1 1
WIDTH 1000
HEIGHT 1
VIEWPOINT 0 0 0 1 0 0 0
POINTS 1000
DATA ascii
-0.05981216 0.0877115 0.28225574
0.24706574 0.009333471 -0.20200971
-0.014545715 0.03962369 0.29509526
0.028820239 0.035254385 -0.3027037
-0.033508085 -0.053505253 0.2955901
0.03999678 -0.017856088 0.22612797
-0.062632725 -0.09868632 0.34043238
0.22998814 -0.1585062 -0.27171034
0.11662665 -0.11270971 -0.3000741
0.21772525 -0.040398374 -0.20882529
-0.22152962 -0.0013213195 0.27665633
-0.07827981 0.105940364 0.2177553
-0.08494813 -0.05000204 0.26064324
-0.24126112 0.054673705 0.26399198
0.2665369 0.051831394 -0.21759833
-0.26616776 0.024265543 0.25257456
-0.009905584 0.01119725 0.08303977
-0.13457452 -0.04228057 0.30507785
0.06925007 0.12096325 -0.27435985
-0.07616502 0.04302811 0.104651846
-0.037201785 -0.09503859 0.06452057
-0.2170489 -0.065467715 0.2903884
0.07457706 -0.024271738 -0.0955393
0.13333829 0.022395752 -0.24488212
0.23414741 -0.017042907 -0.21451594
-0.029198376 0.08637198 -0.35391584
0.16036516 0.06115097 -0.25527877
-0.2050553 -0.0072118803 0.3051891
-0.013724913 -0.120594725 0.24625751
0.0060603716 -0.029483197 -0.31398007
-0.103018485 -0.094177075 0.20318353
-0.12509917 0.041945733 0.30734098
-0.18315345 -0.05439201 0.29942057
-0.10106032 0.10321404 0.29993725
0.048811402 -0.10200809 -0.2832261
-0.17843337 0.009936237 0.31665155
0.03476139 -0.16791202 -0.29418647
0.08780029 0.17580408 -0.27024278
0.22286847 0.10409627 -0.25090668
0.2580673 -0.04222211 -0.21272904
0.027367087 0.07149814 -0.09540515
-0.14676881 -0.10875433 0.24457848
-0.1720513 0.0044364613 0.28521165
-0.045865938 -0.018109702 0.3268637
0.05336501 0.025727283 -0.11629948
0.189092 -0.13253045 -0.22380684
-0.23059282 0.032532904 0.2643967
-0.0035606392 0.06599723 -0.039279204
-0.24366719 -0.1050232 0.25855985
0.074224226 -0.12680945 -0.2830551
-0.2275848 -0.0031323296 0.29809982
-0.06877406 -0.11227129 0.25263217
0.27914256 -0.061162442 -0.24706478
0.239058 -0.062894 -0.21456733
0.027600277 0.04008202 -0.024136137
-0.24227284 -0.085616425 0.13248612
-0.016939422 -0.06367866 0.26437527
-0.14136516 0.094271906 0.27556995
0.10928354 0.16290699 -0.26141694
-0.2210599 -0.10406608 0.18328075
-0.022761377 0.056800973 -0.33480147
0.03827331 -0.095476404 -0.10635714
-0.08228247 -0.07455784 0.32939935
0.193552 -0.14121732 -0.24318856
0.1042823 -0.004867479 -0.2238381
0.07782115 -0.028804716 -0.139629
-0.054868735 -0.07586431 -0.3674033
-0.109037 0.10254705 0.30661714
-0.03300555 0.09472683 -0.3293832
-0.081687465 -0.023383895 0.27610096
0.0025781463 -0.024922363 -0.28192833
-0.23110649 -0.121326074 0.26446107
-0.15796459 -0.116535954 0.26414233
0.22145443 0.0020642702 -0.21187942
0.0039331513 0.070590675 0.041499827
0.12139735 -0.14571491 -0.26902685
-0.15481192 -0.14244543 0.31701854
0.11287337 0.08954079 -0.30480564
-0.22434855 -0.103452615 0.25904882
0.0346133 -0.007140505 0.2503922
-0.039958194 0.051640097 0.2736708
0.021028172 0.12030819 -0.3047634
-0.23719491 0.0759996 0.26498613
0.0912676 -0.16680723 -0.3071894
0.06615704 0.067423165 -0.19558616
-0.0075535565 0.064156346 0.03812145
0.008043697 -0.080028966 -0.034687314
-0.24721487 0.0301536 0.2761092
0.15993924 0.172801 -0.25011605
0.059694678 -0.16475815 -0.36351177
0.015268833 0.0009893927 0.2729414
-0.04945151 0.005930846 0.27611402
0.2397108 0.017351069 -0.23157337
0.03739028 0.120237954 -0.29819837
-0.16271244 0.10150514 0.3130679
0.25058773 -0.11604947 -0.22440602
0.11202876 0.046012927 -0.22351924
0.0410053 -0.13719165 -0.30045468
0.2143281 0.061046023 -0.24633238
-0.14858244 -0.03959448 0.2842135
-0.15724212 -0.0856742 0.2875777
0.14947234 -0.018624797 -0.24567138
0.026545413 0.060942218 -0.02278406
-0.06883179 0.035147227 0.10296057
-0.27008525 0.022760276 0.26624978
-0.26492104 0.015831612 0.27613276
0.22844401 -0.0029685975 -0.34950042
-0.28432834 -0.05479013 0.27022567
-0.27445984 -0.06723528 0.2336789
-0.051081073 0.038041294 0.27623588
0.031931933 0.014491677 0.22041641
0.026412591 0.11709646 -0.2962836
-0.08007698 0.11229685 0.20820901
-0.1767522 0.060744103 0.24743176
-0.056481186 -0.029996749 0.30797914
-0.08261502 0.04532247 0.19166476
-0.046274647 0.026036432 0.15094121
0.24017262 0.13238198 -0.22620077
0.2324714 0.11076881 -0.23079082
-0.08815801 0.08487456 0.31132707
0.14916985 -0.046266794 -0.28986502
-0.12026941 -0.15722 0.29534066
0.0069160885 0.041615386 0.055049933
-0.19659173 0.029363878 0.25567365
-0.030202141 -0.07735706 -0.10094132
0.042956136 0.08394474 -0.1284546
-0.22007574 -0.019012222 0.28263956
-0.01157801 -0.08072946 -0.06914898
-0.11625889 -0.12886517 0.29198346
-0.090894245 0.022915825 0.31813836
-0.15116517 -0.08945315 0.29436156
-0.21326661 0.09473688 0.25625238
0.1528422 -0.04402305 -0.22587502
0.16177252 0.0034718749 -0.24536912
0.015429463 -0.0035192 0.1092563
-0.16836427 0.098202996 0.26478106
-0.043779258 -0.05561619 -0.3597188
0.08191362 -0.03916579 -0.20663136
-0.101182446 0.041128736 0.34877956
0.2060867 -0.12900318 -0.24487068
-0.043877102 -0.13055202 -0.36712784
-0.15231292 -0.11624536 0.2771127
0.12296975 0.08398247 -0.28046077
-0.07401848 0.017478697 0.1775349
0.08454015 0.019670837 -0.07608256
0.010060698 0.00883693 0.018285505
-0.07460714 -0.087986484 0.077981025
0.25177774 -0.0013850445 -0.28410885
0.23045966 0.051203195 -0.22259814
-0.09486397 0.11893268 0.31014073
0.2112111 0.12026966 -0.25089034
-0.05133926 -0.064712085 -0.3593442
-0.011238049 0.082976185 -0.31720963
-0.09480719 0.04629795 0.33429027
0.021947458 -0.052207474 0.015816318
-0.06643147 0.072962694 0.3372626
0.23059216 -0.054096848 -0.24662133
-0.17716268 0.12299163 0.25500935
-0.26490393 -0.057117864 0.17904758
-0.12780221 0.04484623 0.29203328
-0.19008176 0.034906425 0.28238198
0.10710382 0.109832995 -0.28047618
0.24425414 0.1043335 -0.2456501
0.025659924 -0.1606301 -0.3053141
-0.091753006 0.120565034 0.18639433
0.2302625 0.024081636 -0.33493865
-0.19359197 0.04458596 0.24914564
0.15941265 -0.10863 -0.26783007
0.04654649 -0.08058945 -0.12918043
-0.07055556 0.13583347 0.18668479
-0.20667121 -0.107781455 0.23833327
-0.13753061 0.10051613 0.33201012
-0.099924475 0.045436867 0.28588712
-0.023540486 0.050110195 -0.09054318
-0.071149416 0.07276903 0.32131565
0.15952118 0.1105492 -0.27382943
-0.09054668 0.018091217 0.3539876
0.12396009 -0.16373593 -0.273265
0.19496769 0.0923008 -0.25238225
-0.03286974 -0.035206683 -0.35570368
0.0471044 0.17613797 -0.28623858
-0.054756124 0.086684264 -0.34075102
-0.20378865 -0.034339376 0.30193168
-0.18972577 -0.065678425 0.27470362
0.13082588 -0.06328611 -0.20798676
-0.07487719 0.115268596 0.23919304
0.24917993 -0.0049690036 -0.23052272
-0.040703077 0.11030634 -0.33705503
0.20126127 0.055393077 -0.35317346
0.10698977 0.027288374 -0.10165858
-0.07996865 -0.08411964 0.3135591
-0.08750598 -0.0037842714 0.34882742
-0.21800253 0.022149896 0.27846706
0.029136064 -0.0072925994 -0.030394958
-0.047872372 -0.05764483 0.3112895
-0.2467493 0.0380097 0.2504176
-0.081047475 0.044293497 0.29086766
-0.031018184 0.0798693 -0.072317645
-0.25135446 0.0755311 0.25793183
0.13011934 0.06576495 -0.2444541
-0.01884581 -0.06730317 0.27159965
-0.16500042 -0.05758497 0.30373776
-0.23720971 -0.01353098 0.26951715
-0.022904508 -0.0756399 -0.37191468
0.025201175 0.008776355 -0.004651114
-0.17195791 0.027391115 0.28592947
0.13202852 0.039576657 -0.18095662
-0.15751377 -0.16802865 0.27425793
0.23662187 -0.08453781 -0.25331238
0.061751913 -0.18659589 -0.2997009
-0.01459216 0.07562505 0.2875027
0.0036307485 -0.024880141 0.083136424
-0.047030002 -0.061584637 0.3178594
-0.05465374 0.026849503 -0.36276296
-0.1029367 -0.1190369 0.28970143
-0.24761379 0.040064003 0.24483396
-0.017085731 -0.09331575 0.26416492
0.23635487 4.911207e-05 -0.20739101
0.16479944 0.06726617 -0.2662769
-0.048448704 -0.07729467 0.3122405
0.19120052 0.1276983 -0.2389349
0.023395345 -0.003148019 -0.33739266
-0.030214855 0.0054088924 0.110513814
0.15232801 -0.093640596 -0.26371047
0.12077704 0.15130508 -0.2767241
0.120101035 0.120558746 -0.27901015
-0.09019613 -0.0734461 0.05862383
0.09764023 0.05398375 -0.19114608
-0.01786048 0.06153474 0.27909866
0.18527703 -0.18613406 -0.27281553
-0.08236267 0.09838775 0.24128222
0.080606714 -0.048678145 -0.26264802
0.14299668 0.062258765 -0.27439603
-0.16508058 -0.08726617 0.2811882
-0.16930261 -0.05529584 0.32702455
-0.14994475 -0.12448447 0.2559217
0.05354316 -0.090224646 -0.0288327
0.00020678846 -0.08177205 0.20647573
-0.16418126 0.10359268 0.26048803
0.06208607 0.0874151 -0.31947783
0.12406532 0.07233038 -0.27482983
0.07567487 -0.1815621 -0.31785503
0.15622759 0.041935086 -0.26428396
0.055027317 0.19119155 -0.30115864
-0.013088 0.06830733 -0.3170453
0.06416612 0.054286532 -0.1095158
-0.08960501 -0.14004174 0.27245954
-0.038029704 0.064488634 0.23797958
-0.027951114 0.06324813 -0.31864095
-0.18489297 0.07368735 0.30428323
-0.0317263 0.06407146 0.010812547
-0.054720696 -0.03650651 0.3265564
-0.02347054 -0.074521124 0.26126525
0.030441467 -0.050919533 -0.2851773
-0.034355417 0.119857036 -0.31219113
0.054686453 0.047851905 -0.16703206
-0.27470106 -0.008706338 0.22300494
0.031169074 0.067357495 -0.29467294
-0.050876632 -0.0006784715 -0.33216766
-0.0042453166 -0.03789061 0.035704702
0.22599153 0.05735313 -0.3279069
0.08335909 0.104832746 -0.2690773
-0.2586371 -0.09880902 0.2504891
-0.09956473 0.09588645 0.27296144
-0.20936021 0.052800152 0.20456277
-0.02366884 -0.046568297 0.2905088
-0.08621917 -0.016523357 0.31242016
0.1929907 0.02538872 -0.22824867
-0.073625445 0.007559353 0.33198085
-0.0886233 -0.117917836 0.32262045
-0.09308426 0.038576815 0.318257
-0.24826437 0.011367511 0.22818169
0.15489255 0.13899043 -0.26241347
-0.18862085 -0.11176276 0.25815806
0.11499059 -0.010277235 -0.20350601
0.0035772908 -0.04945154 0.23595148
-0.08347463 -0.079179324 0.28716105
0.09211324 0.18773243 -0.3129655
0.07192973 -0.075132824 -0.14113967
0.09386022 -0.14688376 -0.3112137
0.025735205 -0.0141397 0.1049322
0.16907014 0.12523451 -0.27825972
-0.19669144 -0.11410849 0.24541292
-0.01670845 0.08282237 0.3018398
0.18272102 0.13255405 -0.22424395
0.16051866 -0.14835544 -0.2618248
-0.030487921 0.060958467 0.26536328
0.11948139 -0.00858516 -0.09979819
0.08220435 -0.15069768 -0.3017526
-0.01175421 0.018968929 0.11507479
-0.1540443 0.051263567 0.2572419
0.07404457 0.027129637 -0.050891045
-0.0008629604 -0.034138557 0.058283683
0.025752997 -0.02076947 0.020279912
0.1686988 0.06595319 -0.23599064
-0.16051343 -0.016577652 0.29432148
0.11013351 -0.036996096 -0.14391764
-0.09864993 0.09905573 0.25099194
-0.15433495 0.0069649876 0.28878728
0.09251792 0.09797975 -0.26679608
0.0229976 -0.03335144 -0.30673012
-0.06643253 0.028818814 0.32941082
-0.011145008 -0.080860704 -0.32736394
-0.12897167 0.090034224 0.281246
0.017261263 0.022266014 0.05376838
0.17962302 0.11405853 -0.23074444
0.08507559 0.08917077 -0.26948008
0.16947447 0.16042888 -0.2262924
0.11619712 -0.120870456 -0.27132404
0.06819431 0.088021524 -0.30542976
-0.10967784 -0.0070552137 0.3154241
-0.1932157 -0.13963105 0.25999895
-0.0925527 -0.0457111 0.33861312
-0.25883532 -0.10043846 0.25839272
-0.24903677 0.025047936 0.22450213
-0.20511024 -0.085026 0.19089857
0.20939884 0.095782116 -0.24481256
-0.0067973193 0.0726885 -0.33696616
0.069602415 -0.061813712 -0.24105892
0.16388564 0.0873394 -0.24217546
0.13423815 0.0898887 -0.25909412
0.06997367 -0.03506099 -0.13880058
0.17980704 0.014319756 -0.26129502
0.15972431 0.051580105 -0.271752
0.08754043 0.019056251 -0.19246133
0.2667561 0.01279018 -0.21619247
-0.26013157 -0.051722027 0.24611938
0.2630558 -0.043193918 -0.20442785
0.207733 0.089089945 -0.23361665
0.14909266 -0.05630197 -0.28683862
-0.19367926 0.024114119 0.28452793
-0.078323565 -0.11723447 0.27919754
-0.021108178 -0.018714506 -0.33181033
-0.05039846 -0.084189616 0.2711605
-0.07837926 -0.06003682 0.3107607
0.20339091 0.04649576 -0.25623217
-0.21345332 -0.057069596 0.2838355
0.0850113 0.19063556 -0.3036822
-0.009951754 -0.0579484 0.26647136
0.011001022 0.08207445 -0.08731258
-0.004264327 0.12009116 -0.2989771
-0.04371398 0.060379792 -0.3341096
0.26444533 -0.012966532 -0.20317644
-0.022676881 0.025240434 0.3433994
-0.23670906 0.04417168 0.2133892
0.0076507954 -0.079250224 0.004256927
-0.0560677 0.08383165 0.2834256
-0.0624899 0.07010862 0.36584616
0.16884978 -0.09834391 -0.25778773
-0.16424884 0.0025454785 0.3232909
-0.084226556 -0.090531334 0.32231152
-0.044716116 -0.064611465 -0.045243867
-0.06820847 -0.12768194 0.29364917
-0.15181127 -0.083999425 0.2998347
0.2336672 0.044881776 -0.23145372
0.06114961 -0.057019673 -0.1099071
0.05850107 0.06894144 -0.14542806
-0.05620019 0.08759647 -0.37545413
0.17168908 0.14722037 -0.2517707
-0.2777381 -0.016340056 0.2359569
-0.069929965 -0.081704766 0.2770517
0.2091795 0.11973939 -0.38530537
-0.13673891 0.012417073 0.31328917
0.049028073 -0.015020568 -0.07835176
-0.022672907 -0.012489407 -0.32324162
0.11429653 -0.03372127 -0.17171584
0.10650566 -0.026428612 -0.12093633
-0.12865339 0.0005221721 0.298366
-0.051201362 -0.07364498 0.30769262
-0.15692602 0.09810424 0.28409472
0.048817508 0.07715196 -0.145141
-0.059954427 -0.07980565 -0.3546259
-0.00057786785 0.009033888 0.037393056
0.060174506 -0.030855741 -0.086385384
-0.03398184 -0.055459417 0.27380767
-0.2871124 -0.06694214 0.2422935
-0.008717895 0.1382717 -0.3354382
0.18156123 0.10368901 -0.25904104
-0.011924387 -0.05680477 0.2802098
0.04539574 0.08948555 -0.3143907
-0.17877613 -0.08150471 0.2823839
0.23770596 0.035316613 -0.3327252
0.14341097 0.056255892 -0.2668919
0.089853235 -0.17487304 -0.29860404
-0.18188396 -0.051293958 0.28675425
-0.17031547 -0.09175125 0.25677896
-0.1384345 -0.1505637 0.22961114
-0.1774782 -0.09350396 0.28719783
-0.050711937 -0.056275297 0.31442058
0.253029 -0.010720498 -0.19141074
0.0052256407 -0.001107394 0.025186734
0.05328371 0.04514994 -0.08221439
-0.17180155 -0.10706964 0.26892158
-0.17299563 -0.08362768 0.30081907
-0.12608026 0.06778618 0.3206629
0.032079503 -0.08153215 -0.3394565
-0.055160902 0.111956455 0.2515924
0.19121985 -0.13800617 -0.2588616
-0.11940738 -0.07283472 0.30241245
0.048576105 0.04977968 -0.021947147
0.20379083 0.05998789 -0.23971885
0.25942904 -0.04823516 -0.22924002
0.0014652158 -0.0035507192 0.32086924
0.037548456 0.04237978 -0.09065985
0.23160586 -0.08224207 -0.21129912
0.24337944 0.123116635 -0.25170654
-0.096014544 0.110336535 0.30290315
-0.004736552 0.07130347 -0.2982031
0.05084572 0.18285863 -0.3050272
0.010079996 -0.01660468 -0.35371178
0.016192222 0.20940094 -0.3013614
-0.11259684 0.11571207 0.240661
-0.015049856 0.01484037 0.30071568
-0.015923012 -0.13982464 0.22623439
-0.14401644 0.11328461 0.2843122
0.0347952 0.1585706 -0.30378735
-0.24606307 -0.0034514894 0.28090233
-0.03562909 -0.071122505 0.00092999905
0.014194439 -0.04722681 0.052628703
-0.17267379 -0.09355528 0.27163705
0.1940868 -0.012235894 -0.22820678
0.23661055 0.073324904 -0.27754605
-0.20191148 -0.06509149 0.27284777
-0.08738428 -0.16967681 0.21395901
-0.13683318 -0.09405024 0.3308414
-0.060205266 0.065846466 0.33019078
0.031603478 0.03601196 -0.011915852
0.22680065 0.041717976 -0.3751082
-0.2406339 -0.020408373 0.2364339
-0.042715136 0.16294108 -0.33971637
-0.027753163 0.14099526 -0.32996133
-0.060027763 0.038565826 -0.34306633
0.11660386 -0.05923283 -0.29426816
0.2702533 0.054875955 -0.21487764
-0.07561672 0.10425258 0.34600064
-0.18964851 -0.10388903 0.26594627
-0.1618679 -0.004911277 0.28082204
-0.06311176 -0.045132387 0.0066657607
-0.1463855 -0.08093412 0.30148786
-0.055798043 0.054210108 0.31081066
-0.1094738 0.11016031 0.254641
0.038112264 -0.15119015 -0.33073878
0.14849629 0.007884594 -0.2625559
0.18103917 0.06315911 -0.2679248
0.17290306 0.14379536 -0.25812638
-0.12424352 -0.045958612 0.30122805
0.1763568 -0.09754876 -0.25446838
-0.06319245 -0.090610474 0.2955323
-0.21029778 -0.030647648 0.29409885
0.2252731 -0.081960954 -0.24373493
-0.044968247 -0.07266227 0.2654847
0.12352385 -0.18579507 -0.30303356
-0.035201102 -0.088404804 -0.37657285
-0.030494895 0.039731625 -0.1923635
-0.03367498 0.036731336 0.3499337
-0.18636607 0.06665871 0.31226903
-0.2543937 -0.03361872 0.17160873
-0.19921231 -0.1329668 0.23051146
-0.20514247 0.119627096 0.19286394
0.11755684 0.03553174 -0.24502033
-0.024910843 0.018076707 -0.32753512
0.051673617 0.085687175 -0.28249323
-0.17668635 -0.014422592 0.29605785
0.040126394 -0.032930195 -0.30878967
-0.2008039 -0.039416865 0.2766775
0.06529815 0.0042739697 -0.11311858
0.1766599 -0.14665654 -0.23636355
0.20922458 0.09710853 -0.25441128
0.11369568 0.1377905 -0.2690918
0.04013193 0.14830011 -0.29802093
0.12841383 0.06940595 -0.26774165
0.15963316 0.15642942 -0.24328113
-0.031284533 -0.012917095 0.14394984
0.22655594 -0.013653804 -0.24115607
0.19080985 0.18180789 -0.26581427
0.09152532 -0.009777446 -0.14096877
-0.22141424 0.042835444 0.29133752
0.16402243 0.17837155 -0.2462302
0.2201567 0.023202658 -0.22446723
0.17938392 0.054246783 -0.25744525
0.22105424 0.07559599 -0.22776411
0.09128155 0.11829774 -0.2849657
0.2378239 -0.11021081 -0.2912556
0.11292968 -0.039408226 -0.16299668
-0.033997916 -0.011355145 -0.32398173
0.21516055 -0.07030037 -0.24702287
0.07798958 0.1238616 -0.3085483
-0.02726292 -0.03670538 0.32898664
-0.07990914 0.056101717 -0.36646372
-0.013189265 0.008687234 0.083983816
0.12351122 0.06022299 -0.26142657
0.050001726 -0.042332757 -0.24850105
0.03377434 0.004805159 -0.03187904
-0.023321629 -0.096102275 0.21953262
-0.04588314 -0.041558545 0.3607228
-0.07671721 -0.08920629 0.04587479
0.14632013 -0.09811038 -0.258732
0.068191096 -0.06887673 -0.27799565
-0.27483073 -3.3771216e-06 0.22251621
0.24991122 -0.08358863 -0.20628652
0.09951649 -0.05002025 -0.17794496
0.16955538 -0.12525432 -0.26628533
-0.1995111 -0.07626541 0.3081719
0.20091447 0.027108561 -0.21889096
-0.013166651 -0.06345608 0.14813283
0.010671091 -0.058913093 -0.09956485
0.032049283 0.06263553 -0.04393141
0.14738981 0.06663412 -0.26579267
0.15402019 0.10649027 -0.2592146
0.030938702 0.12150761 -0.3419486
0.23323284 0.0069742664 -0.20491965
0.20322484 0.038305458 -0.23005879
-0.1820177 0.06559193 0.2965133
-0.01819651 -0.08489904 0.2879151
-0.050059207 0.07216407 -0.37055376
-0.034383543 0.1277578 0.25249857
-0.023492891 -0.05701473 0.06571336
0.010528802 0.07025076 -0.22409639
-0.111478895 -0.09653343 0.3086047
0.27454704 0.009076132 -0.21845722
0.04537269 -0.045168508 -0.054862134
0.08276401 -0.13682252 -0.28899336
0.26194987 0.041691504 -0.20480645
0.14370088 0.079373606 -0.2841151
0.038602542 -0.14063324 -0.30117825
0.10069259 0.07641233 -0.2104039
0.1866205 0.14944507 -0.261178
0.041452393 -0.032234825 0.22051387
-0.03442942 -0.086164966 -0.054142646
-0.10586917 -0.13739078 0.2871522
0.059626736 0.06462503 -0.32149032
-0.14878182 -0.16234097 0.15016152
0.21142082 -0.1683 -0.24725187
0.17329502 0.08747242 -0.26540747
-0.1356045 0.10910712 0.3210741
-0.23975572 -0.0049193134 0.14694455
0.01631624 0.04805806 -0.005990069
-0.20481482 0.094983436 0.27326936
-0.26287392 -0.03355073 0.14937703
0.25284097 -0.036819395 -0.33527616
0.07269092 0.18141982 -0.28065768
-0.047855556 0.0573734 0.35022393
-0.047769424 -0.03480112 -0.32504767
-0.03869352 0.0016276267 0.14050563
-0.20176683 -0.07377378 0.29528543
0.11244217 -0.017220218 -0.112366416
0.038879115 -0.053724572 -0.05926293
-0.022465639 -0.14697848 -0.35460582
0.22147632 0.06840199 -0.22656229
0.2162388 0.09007164 -0.20752041
-0.22971846 -0.043206964 0.2733129
-0.051300224 -0.058358278 0.28315425
-0.20803499 0.057976045 0.15226778
-0.13439894 0.03412446 0.32957858
-0.20148765 -0.07372411 0.27629864
-0.18089327 -0.09492936 0.2858133
-0.14201944 -0.088303596 0.30828685
0.07822316 -0.14831574 -0.28984973
0.10724498 0.105739415 -0.2760882
-0.008516046 0.101081826 -0.33187306
-0.23462516 -0.104250334 0.28446943
0.07209702 0.081905685 -0.3015112
-0.028632665 -0.027333237 0.27667183
0.005783119 0.15673825 -0.33998254
0.2462131 0.07538703 -0.21852562
-0.20530961 -0.016086577 0.25162768
0.15593638 -0.13250348 -0.2612957
0.022307765 -0.061780497 0.08933506
-0.17889066 -0.11673003 0.27702197
0.12766665 0.13302095 -0.26875845
0.08787022 -0.12497898 -0.2830909
0.11735917 -0.033451986 -0.14116433
0.0663407 0.023710608 -0.08973278
0.12519856 -0.00066771446 -0.23152363
-0.04795842 -0.020763846 -0.32245383
0.21006137 0.077854164 -0.23255767
-0.03112458 -0.025550637 0.27346244
0.10538463 -0.007247373 -0.13215627
0.008273664 -0.1426475 -0.31038716
-0.107614435 0.10982023 0.29525593
-0.0038514403 0.011928213 0.2599996
-0.18661101 -0.14580438 0.29755098
-0.08446736 -0.010151914 0.338815
0.22817126 0.09330746 -0.23577653
0.24957137 0.07301229 -0.21093602
0.24802361 0.04245762 -0.26545778
-0.042463176 -0.08884919 0.23217058
0.09452857 -0.030666467 -0.17105965
0.03481887 0.08182058 -0.3091511
0.12462871 -0.012739386 -0.13986266
0.08001796 -0.19799028 -0.28726768
-0.16669263 0.01252359 0.28103143
-0.23778749 -0.10810249 0.23418427
0.1318956 -0.018801171 -0.16690618
-0.25450328 0.05006202 0.23696019
-0.061948832 0.0631017 0.34291676
-0.031549882 0.10138071 -0.35227954
0.07175299 -0.15515567 -0.282775
-0.15207177 -0.033533197 0.3272034
0.092533894 0.056986727 -0.28554997
-0.0028519717 0.07083066 -0.31302866
0.012253622 0.027279213 0.031218398
-0.06830391 -0.07641166 0.28585848
0.10154618 -0.005745215 -0.15639429
0.21889296 -0.029889032 -0.20666453
0.22518203 -0.15243351 -0.26786855
-0.052608356 -0.044503737 -0.37702882
-0.048071984 0.014269103 0.33010095
-0.061358362 -0.05125318 0.045796014
-0.05887887 -0.09965759 0.25663644
-0.030568937 0.026247533 0.27281561
-0.059677176 0.0730433 0.2525985
-0.19800508 -0.057221983 0.3134016
0.0005852767 -0.07176423 -0.3451452
0.10174448 -0.0075954376 -0.10709754
0.07704287 -0.024225993 -0.10204521
-0.078562915 0.020260246 0.3334007
0.06771392 -0.116798274 -0.32630375
-0.089580186 0.112991415 0.23052658
-0.05168032 -0.047576547 -0.10517386
0.014126486 -0.019307258 0.29186058
0.06176979 -0.06324865 -0.097545594
-0.17210528 0.001512106 0.3127836
-0.07377292 -0.01578509 -0.3387395
0.13700774 -0.005568128 -0.15651521
-0.15266529 0.04367058 0.3332891
-0.24889494 0.022731578 0.24031833
0.007874603 0.035085477 0.25515008
0.28850558 0.083207935 -0.22712587
-0.051178284 0.10726042 0.27262124
-0.11407879 -0.12362104 0.25012577
0.10132319 -0.1712277 -0.26414976
-0.08929289 -0.11822287 0.30025533
-0.07506166 -0.016954299 0.31328732
-0.014589009 -0.0903157 -0.31962463
0.117935486 0.0721925 -0.25998542
0.11515916 -0.035758086 -0.13151178
0.072942324 0.13628271 -0.3059032
0.0045004715 -0.023084667 -0.34895945
-0.036584415 -0.018028751 0.30155066
-0.07899346 -0.14863509 0.22123423
-0.23274678 0.086931795 0.26839384
-0.12943432 0.070354894 0.27909574
0.05723822 0.00014852812 -0.024125362
0.05912343 -0.025157282 -0.06768223
-0.09285219 -0.08233176 0.33279294
0.06129871 -0.006565131 -0.0486388
-0.099452555 -0.15233481 0.28863075
0.17310195 0.06581634 -0.27135664
0.23623487 0.04744085 -0.24626988
0.0817787 0.027673893 -0.13275595
-0.007186894 0.017877007 -0.33492094
0.19459674 -0.13033518 -0.22827448
-0.077979445 0.10844338 -0.3627287
-0.049874924 -0.075663 0.2811283
-0.06042859 0.06554287 0.28619492
0.21053532 0.05104536 -0.25817084
-0.2630764 -0.072974935 0.175874
0.21810088 0.11378969 -0.3520235
-0.25827643 -0.09055481 0.24087468
0.10198873 0.096380986 -0.28912035
-0.010798045 0.07752596 0.24807741
-0.13865183 0.025807519 0.31662986
0.0810273 -0.1617588 -0.26902115
0.09666745 -0.11188646 -0.296989
-0.036347635 -0.114419356 0.20678757
0.06055317 0.13237888 -0.3102272
0.14725184 0.17890877 -0.25715083
0.13352263 0.078326434 -0.29208565
0.07820514 -0.14667739 -0.28004697
-0.24381278 -0.047109112 0.23144002
0.07200297 -0.06769697 -0.12662297
-0.0020301777 -0.0633917 0.28072035
0.007634292 -0.001960223 0.05215341
-0.26432285 0.02078508 0.245109
0.030282129 0.121428765 -0.33353788
0.031145405 0.039377015 -0.031366475
-0.08855652 0.055613596 0.34447262
-0.007606682 -0.08133984 0.30874372
-0.1155619 -0.051900562 0.32132927
-0.22601236 -0.036387622 0.27811116
-0.16992797 0.024811992 0.27881092
0.2281498 -0.014616651 -0.21616185
-0.043760378 0.06978609 0.28091994
0.15959756 -0.053276367 -0.25802386
-0.10733835 0.08736246 0.26375914
0.0017549252 -0.0675741 0.28105766
-0.14835092 -0.026168328 0.3218509
-0.09773099 0.04423864 0.32619032
-0.024964085 0.012392638 0.33420238
0.12483166 -0.07802134 -0.20663598
-0.0286988 -0.057894126 0.3381177
0.17524256 0.037708342 -0.2276847
-0.034189828 -0.09264195 0.011923081
0.10185057 0.03280774 -0.20929474
-0.1575914 -0.08459733 0.30706713
0.2477741 0.07676035 -0.23190844
0.2338464 0.025008684 -0.23925419
-0.20822683 -0.094310395 0.24995238
-0.25358465 -0.0880246 0.22657487
-0.10137568 -0.019307308 0.32128257
-0.17137878 0.08814665 0.3069669
0.17469548 0.07346332 -0.25101784
0.0070043076 0.06334383 0.06632479
0.099807024 0.048397355 -0.20372605
-0.037340093 -0.034914892 0.26546094
-0.1891653 -0.12725087 0.2595539
-0.044620715 0.06868694 -0.34758997
0.04395459 -0.07198774 -0.08757384
-0.1643791 0.07887794 0.2755078
-0.022905912 0.061835848 -0.33270395
0.26930097 0.029844634 -0.23421907
0.260657 -0.063984916 -0.24478677
0.14312634 0.17566028 -0.2810115
-0.067213714 -0.08159322 0.018816788
0.16302565 0.09460063 -0.26361045
0.12286155 0.06944995 -0.25835332
-0.08623099 0.053305198 -0.3462589
0.027125062 -0.043599464 -0.009299705
-0.20305936 0.06201155 0.30358377
-0.03968831 -0.06796209 0.028587863
-0.059073627 0.051430177 0.09007551
0.14100899 0.15382744 -0.23473471
-0.09475825 -0.07532058 0.31552756
-0.09465335 0.12013594 0.2177396
0.2466129 0.033756893 -0.23496053
0.15814364 0.15487151 -0.24057603
0.22077684 0.016451228 -0.3742889
-0.14658855 0.05048461 0.3056187
-0.17523429 0.043696344 0.30670622
-0.13551544 0.13648592 0.2731473
0.026895063 -0.07959644 0.2536243
-0.052828237 -0.054618962 0.1383436
-0.11203856 -0.01369813 0.3398562
-0.13038686 0.123423725 0.30928916
-0.0007225133 0.087104715 0.2619918
-0.10880926 0.12082349 0.2611281
0.023910526 0.064889655 -0.02413733
-0.15501894 -0.057450965 0.3199322
-0.24155287 -0.0013981387 0.26430333
0.002593046 -0.0780512 -0.06295413
0.04989177 0.09073246 -0.31928176
-0.09534279 0.06659675 0.34962288
-0.15755107 -0.035250597 0.30840138
0.2610388 0.07916665 -0.24809656
-0.13320771 -0.038931396 0.31154895
-0.0038641787 0.06102413 -0.34528884
0.20567508 0.15677589 -0.24992657
-0.0256352 -0.074974045 0.2686288
-0.097974755 -0.05326272 0.3090645
-0.089824885 -0.09647451 0.29932758
-0.118490174 -0.046311703 0.3017921
-0.15003937 -0.05029382 0.3064906
0.25998133 -0.06264229 -0.20653377
0.24627258 -0.060143474 -0.23277943
0.2794839 0.038067736 -0.2523862
0.18144533 0.13128683 -0.2621115
0.1502399 0.13544959 -0.2570765
0.06191403 0.12443199 -0.3112693
0.23225364 0.041650936 -0.2341096
-0.101534866 -0.16045198 0.21840368
-0.16743617 0.04056828 0.3027274
-0.088622205 -0.045807384 0.3292275
0.07432504 0.04068996 -0.20143183
-0.21693237 0.06526098 0.24730574
0.0029136508 -0.104868494 0.2034905
-0.13258 -0.10249325 0.24019663
-0.14613007 -0.08403182 0.28193527
0.23669365 0.0663375 -0.21375293
-0.022482665 0.005755466 0.29409012
0.15524384 0.078480475 -0.27354464
-0.01352809 -0.051882125 -0.35072625
0.19698925 0.07598231 -0.2585932
0.23005521 0.061676666 -0.23726527
-0.2668948 -0.10225797 0.21475615
0.1433521 0.059792805 -0.2633191
-0.12946837 -0.0066113733 0.30907714
0.2522507 0.101781204 -0.23638386
-0.087185435 -0.10615577 0.30610755
0.013799884 -0.1525432 -0.33847824
-0.09914786 -0.16368121 0.23460808
0.25812918 0.086627126 -0.22974813
0.18762825 0.029848278 -0.2318612
0.071327455 -0.10228924 -0.3062558
0.005357989 0.035406865 0.048574537
0.17970185 -0.10839813 -0.25888926
-0.10126868 0.07562172 0.3082446
0.2466719 0.056917906 -0.2501955
0.069640495 0.099268 -0.30685225
0.24067661 0.05349469 -0.20587131
0.044240005 -0.029098012 -0.08843705
-0.0153442 -0.029697841 0.25889704
-0.11734837 -0.123947755 0.32670146
-0.17924093 0.04664906 0.27867454
-0.18766664 0.1188575 0.24875386
0.06776847 0.025128255 -0.06272174
0.19839112 0.05277397 -0.23855248
-0.12796453 -0.034285717 0.30877802
-0.058971442 -0.07132759 0.27467573
-0.0032000556 0.032688785 0.31604123
0.24560243 -0.0711154 -0.20781174
0.07866913 -0.15580283 -0.3251186
-0.067224264 0.056145206 0.2918042
0.1508532 0.03871737 -0.24108988
-0.055333994 -0.11628912 0.25717446
0.22798896 -0.051746637 -0.38125739
0.17604473 0.16897888 -0.2245376
0.16790314 0.19847314 -0.2825186
-0.016896449 -0.015723066 0.3046004
-0.060386974 -0.003949063 0.32122993
-0.216385 -0.057141874 0.14093995
-0.1519312 0.105430044 0.2429907
0.064547926 0.1654206 -0.30033764
0.10695294 -0.11215709 -0.29096863
0.11475929 -0.0322359 -0.2582934
0.22456571 -0.006535847 -0.25744525
-0.1512374 0.12995161 0.24586993
0.080389954 0.018745702 -0.106723
-0.004560992 0.029250083 0.29328388
-0.068459295 -0.117294446 0.24972132
0.009097992 0.0004915453 0.27490163
-0.22774436 0.07266358 0.2816106
-0.104195006 -0.16164039 0.24784131
-0.1959312 -0.067435905 0.2697645
-0.021824446 -0.0080399765 -0.3264232
0.20128675 0.11202293 -0.25716648
-0.23292123 -0.07446728 0.25049347
0.05294137 0.029895062 -0.0484678
-0.035420436 0.011069003 -0.34255967
-0.08228812 -0.11568804 0.3159871
0.009166222 -0.03741318 0.058559697
0.021079041 0.07328728 -0.30264103
0.12941709 0.086785525 -0.26316592
-0.022613944 0.0048380797 0.2878997
-0.1302751 -0.15781978 0.2316551
-0.10130603 -0.11505027 0.20900534
-0.07953063 -0.11728612 0.206862
-0.11812079 0.1209493 0.26393396
0.048719995 -0.079974495 -0.31873208
0.26096544 0.031597275 -0.18826537
0.18553591 0.10874768 -0.24540445
-0.18083575 -0.114683926 0.24505481
0.03271791 -0.15610091 -0.30699658
0.1759025 0.035033226 -0.25707674
0.04059757 -0.03464326 -0.09003824
-0.18925013 -0.026856523 0.29051268
-0.23450154 -0.0069504757 0.25037766
0.08596598 0.14947052 -0.30619437
0.11622284 0.019793443 -0.116116405
-0.046573956 -0.037495628 0.32836965
-0.22933686 -0.12434707 0.24539895
0.05842875 0.073968194 -0.30680928
0.15093179 0.16169721 -0.24414359
0.10903951 -0.025427284 -0.21336846
-0.024307596 -0.09313313 0.2954482
-0.13725333 -0.12190987 0.26365298
-0.07929312 0.05423538 0.3404394
0.13153042 -0.17446896 -0.2985291
-0.02930683 0.02562383 -0.34142432
0.04681731 -0.059966296 -0.29631463
0.018428493 -0.045604795 0.30245194
-0.17547327 0.06845485 0.29393739
-0.19793946 -0.11183891 0.205498
-0.25641173 -0.12729362 0.17975324
-0.23801042 0.08091715 0.19016008
0.03435371 0.13544616 -0.33875406
-0.02609609 -0.04727752 0.25260055
-0.09232229 -0.052757144 -0.352916
-0.039621193 -0.009572973 0.31231484
-0.04817856 -0.09652764 0.2529273
-0.20347755 -0.058878746 0.26162264
-0.24539033 -0.020206658 0.25980198
0.14996834 0.08407933 -0.2500313
-0.21497017 -0.1475312 0.27273798
-0.23484205 -0.0087366225 0.24637114
-0.21521379 -0.12216996 0.2291527
0.16796808 0.08910808 -0.23235239
0.1134675 -0.16099703 -0.28567675
0.18938762 -0.008177295 -0.23254158
0.0139624365 -0.021255614 0.040785514
0.028961793 0.097858675 -0.30974063
-0.051607203 -0.09571368 0.3256011
0.019122548 -0.03462854 0.00300678
0.20625661 -0.09120797 -0.25626916
0.07339223 -0.18485022 -0.28938004
-0.10148812 0.087413505 0.24069262
-0.2375327 -0.10611884 0.24610116
0.20112488 -0.035792317 -0.25591782
-0.053612337 -0.018564949 0.27204964
-0.19880696 -0.104628734 0.3002426
-0.13081203 -0.18393789 0.14952557
0.19947876 0.058406528 -0.2345223
0.04203637 0.052906428 -0.05080891
-0.15815142 -0.012494407 0.3171665
-0.12957808 0.16336532 0.18340231
-0.24641535 0.072212666 0.2949378
0.056660946 0.0663388 -0.19349769
-0.194753 0.039722092 0.28454715
-0.034259528 -0.055925965 0.03896934
0.2028031 -0.036430083 -0.24960947
0.23387718 0.073914565 -0.20982254
0.28233474 0.0010833563 -0.21256852
-0.08677724 -0.07655591 0.30674902
0.04441843 0.15930216 -0.30963966
0.17829332 0.13764243 -0.2799835
-0.0049959286 -0.01653733 0.06855635
0.15047409 0.1561083 -0.25029293
-0.12245473 -0.12844163 0.25669
0.19874382 0.13762191 -0.21332484
0.1686439 -0.15914519 -0.26920444
0.06125243 -0.11082106 -0.28402367
0.00958022 0.09742913 -0.30741408
-0.15900083 0.056345973 0.3018908
-0.043001708 -0.022090068 0.31907052
0.18871124 -0.013244007 -0.22086187
0.26353788 -0.0017250947 -0.24603602
0.13388194 -0.1744937 -0.30454394
-0.19965816 0.07136826 0.2644212
0.004159647 -0.07322544 0.2674097
0.0031440083 0.04697993 0.24560125
0.045181222 0.09446069 -0.33733174
0.263489 0.013675861 -0.19793499
-0.021769878 0.071515724 -0.34661126
0.1076297 0.19573022 -0.26063672
-0.06590162 0.08044293 0.3273988
0.07558049 0.09550458 -0.31692344
-0.07053302 -0.03258523 0.32148102
0.21582778 0.0050993543 -0.33660096
-0.0757704 0.014027198 0.30949768
0.03434639 -0.04366351 -0.007077382
-0.024882995 -0.00689876 0.29731947
-0.1671896 0.025728378 0.29273814
0.062466364 0.17301494 -0.31122944
0.18520373 0.17537688 -0.24960227
0.15441881 0.097193785 -0.26133347
-0.08500127 -0.02876578 -0.37094265
-0.20619278 -0.07479474 0.26551884
0.08020889 0.0017273996 -0.09748778
0.085016534 0.20309053 -0.29333293
-0.1491098 0.053513687 0.29836586
0.27547428 -0.08774744 -0.24123797
-0.12578776 -0.01446396 0.30433303
-0.033059694 0.011526155 0.35610244
0.009600288 0.093169525 -0.3209238
-0.17823195 -0.12815702 0.2880358
0.019023633 -0.15276662 -0.35018316
0.07048704 -0.072544396 -0.20782757
-0.034172248 0.0015799907 0.26635683
-0.25702524 0.08203759 0.26411012
-0.22082026 0.08525518 0.23394892
0.24581665 0.03464199 -0.23599419
-0.13576017 0.09040244 0.2937103
0.16420983 0.15926696 -0.28085595
-0.044619452 0.049004644 0.2838516
0.25619632 0.021158101 -0.33674085
0.240847 -0.039705634 -0.2347396
0.14063874 -0.16328003 -0.2524796
0.25234786 -0.034847826 -0.20390935
-0.017050834 -0.048455246 -0.16618495
0.024151368 -0.104613036 0.22214852
0.018849675 0.12747708 -0.3255459
-0.0032753989 0.0123072425 0.25134888
0.04859091 -0.04611701 -0.042095948
0.19188263 0.09331403 -0.22654277
-0.0785338 0.020040777 0.34130937
0.22644977 0.030440787 -0.25027984
-0.023010284 0.079675145 -0.35047624
0.0920645 0.13783169 -0.25810304
-0.1820092 0.052340306 0.21580991
-0.25340527 -0.12815315 0.2588669
0.07676824 0.11221175 -0.27404118
0.19900127 0.015185446 -0.2458181
-0.15464726 -0.129131 0.2877386
-0.0137561355 -0.02347697 0.30225095
0.16280365 0.10714832 -0.24947268
-0.035310984 0.075119704 0.2730675
-0.059867017 -0.02019794 -0.34267795
0.12672089 0.06763687 -0.24719892
0.016901026 -0.021228459 0.24838838
-0.016523968 -0.07557949 0.09689039
0.2533334 0.04741457 -0.18821949
0.0495584 0.0625084 -0.3179121
-0.011972899 -0.0052124835 -0.3478158
-0.16377014 0.008388348 0.2854816
0.113886595 -0.16320421 -0.31165072
-0.2160473 -0.034816578 0.27085653
-0.1075379 -0.09968707 0.31110206
-0.05773915 0.04713544 0.3110939
-0.24175473 -0.02509462 0.27175087
-0.069152705 0.0018635434 -0.3650368
-0.14878187 -0.1245957 0.30296385
-0.17043528 0.054419883 0.30723968
-0.14812517 0.03695848 0.2847359
-0.2905433 -0.026918106 0.2581379
-0.09572148 0.0841985 0.3223373
0.08563151 0.1804051 -0.29353997
-0.10645979 -0.14332467 0.30028763
-0.023633648 -0.084039375 -0.3082717
-0.14896788 -0.11249137 0.31246498
-0.13894375 0.095384285 0.30666542
