# .PCD v0.7 - Point Cloud Data file format
VERSION 0.7
FIELDS x y z
SIZE 4 4 4
TYPE F F F
COUNT 1 1 1
WIDTH 1000
HEIGHT 1
VIEWPOINT 0 0 0 1 0 0 0
POINTS 1000
DATA ascii
-0.24656427 0.043323506 -0.008628542
0.31324008 -0.10273143 0.11595104
-0.24739157 -0.08599753 -0.015228825
0.25345808 -0.100427635 0.109865166
0.26577008 -0.19759803 0.07660677
0.22743964 -0.21891083 0.014485204
0.08411727 -0.08479645 0.061849523
0.1656427 0.057140067 -0.02039022
-0.13744682 0.17273112 -0.018708557
-0.06097296 0.10726678 0.034468256
-0.2762331 0.15422374 -0.07235281
0.2878201 -0.15409696 0.11150436
-0.26383927 0.094216466 -0.07515
0.27175835 -0.07483044 0.104671724
-0.049349714 -0.19430424 0.016846826
0.27538463 -0.0670351 0.11382069
-0.26142815 0.15309371 -0.061078407
-0.00059453305 0.17561764 -0.072228275
-0.2828391 0.07998203 -0.0471004
0.14982961 -0.048829816 0.0018590061
-0.2841903 -0.029704686 -0.05776528
-0.18113837 0.036283657 -0.00097583554
-0.07015 -0.1907573 0.048663616
0.1639141 0.23824434 -0.043573406
-0.14128248 0.2627842 -0.07068024
0.110132374 0.14340463 -0.026701085
-0.1977198 -0.06078376 -0.006134106
0.26958308 -0.1095386 0.093391046
0.39206654 -0.09641822 -0.0044685025
0.19877829 -0.08786118 0.08441311
0.20254444 0.18817124 -0.069799185
0.39667243 -0.2125662 0.03931217
-0.20378116 0.12274592 -0.03407552
-0.10258121 -0.10128484 0.020735646
0.15238425 -0.1533835 0.09413384
0.058237374 -0.23857474 -0.0047144876
0.23107214 -0.17351612 0.098614804
-0.09835519 -0.20118785 0.0028908208
0.066162854 0.06482812 0.07243744
-0.07632687 -0.051693927 0.087228455
-0.25688687 0.15752856 -0.039426308
0.31883064 -0.20061184 0.058416627
-0.2363576 0.03754119 0.016075628
0.004148112 0.13048835 0.075913765
-0.10296991 -0.0144115975 0.0954834
-0.29303366 0.16916628 -0.115794145
-0.11565977 -0.106274955 0.025343278
0.05253438 0.036691427 0.11405576
0.08396483 -0.20748661 -0.0073926486
0.121797025 -0.1651258 0.084501326
0.06789264 -0.16080713 0.08377343
-0.033420794 -0.12677361 0.045809202
-0.23723516 0.21552323 -0.101650044
-0.19081725 0.07633284 -0.01789784
-0.19019961 -0.09764289 0.009708477
0.328812 -0.17184786 0.11997692
0.0023970935 0.13174467 -0.07175916
-0.28063616 0.16482894 -0.095427126
0.2056115 0.13034782 -0.05109614
0.06450301 -0.21245795 0.0005817516
0.13380836 -0.089967266 0.033404786
0.16431771 0.26372916 -0.042980473
0.17354758 0.1738526 -0.01968261
0.13904528 0.20049226 -0.064555034
0.07306827 -0.07958916 0.011719948
0.10939973 0.13568862 -0.03113451
-0.2331667 -0.12774485 -0.040090255
-0.03562373 -0.0045029335 0.14880157
0.18696922 0.14015844 -0.058641504
-0.14883304 0.01943005 0.09226679
-0.014213301 0.29466325 -0.10072473
-0.047895815 -0.17066945 0.045708414
0.13914682 -0.19515128 0.044730254
0.14107454 0.16148154 -0.059602067
-0.3406314 0.028368797 -0.08894502
-0.18963669 0.2635406 -0.11429313
0.13803162 -0.05966632 0.019266052
-0.058528274 -0.21661079 0.036989618
0.068312086 0.058872305 0.069689505
-0.19590287 -0.19218127 -0.01937369
0.041150488 -0.21882328 0.057383563
-0.2955169 0.035731424 -0.06690772
0.13613023 0.097628005 -0.011185802
-0.0059429295 -0.15356304 0.06996187
-0.21616621 -0.108860314 -0.042966947
0.3670364 -0.21131445 0.08550589
0.13480057 0.11745009 0.010183568
-0.22347744 0.17893171 -0.07751711
-0.08461674 0.22029959 -0.017425003
0.20597959 0.030650597 -0.030718017
-0.05443742 0.19103774 -0.010202168
-0.2723822 0.11991826 -0.06690834
-0.24168299 -0.17866425 -0.014296085
0.046899177 0.06311836 0.049089875
-0.21289921 0.14540072 -0.04907522
-0.29059738 0.12730627 -0.104260415
-0.11139718 -0.21382798 -0.0046283673
-0.030217627 0.12764779 0.07062768
-0.2976624 -0.021232577 -0.04093608
0.37801632 -0.1408046 0.095958486
0.19868608 0.087377556 -0.014336353
0.080103144 -0.2107485 0.0052242484
-0.19448148 0.2317071 -0.064743094
-0.29990935 0.094786696 -0.06879855
0.059757903 0.120165505 0.00010232613
0.18148899 -0.16228753 0.07748094
0.18570681 0.028072093 0.00088348484
0.23882571 -0.0634028 0.05383369
0.15659083 0.09119518 0.02454606
-0.103247195 0.102544315 -0.008243913
0.15870605 -0.19410846 0.06738063
0.11380108 0.09795486 -0.02837534
0.020362616 0.07534574 0.10682415
-0.17928335 -0.23399818 -0.054364875
-0.0854191 0.13133375 -0.054180987
0.29141802 0.012037991 -0.032442328
-0.18208866 -0.104992054 0.023572395
-0.0997375 0.0037576826 0.053383417
0.102746464 0.22267975 -0.038303763
-0.020977145 0.16444711 0.07951367
-0.20024739 -0.10172923 -0.006285738
0.23293298 0.03722169 -0.038923103
0.24778928 0.10254512 -0.023204908
0.078025214 -0.1062191 0.019664409
0.26580748 -0.17117795 0.095783964
0.08054237 0.011001695 -0.04477757
-0.03333687 -0.17185423 0.057128392
0.002333095 -0.2435157 -0.057131015
-0.13820551 0.28948277 -0.112758435
-0.26527116 0.074622795 -0.026139291
0.034337003 -0.14053892 0.049353972
-0.14168014 0.07103107 -0.015899679
-0.045897096 0.31072783 -0.07063356
0.30318686 -0.13378498 0.09046067
-0.2056683 0.13363305 -0.023788635
-0.14812323 0.008728996 0.023673577
-0.2079555 -0.13913834 0.0035537553
0.02745649 0.14645943 -0.06729999
0.1312118 -0.15435196 0.07552057
-0.19641468 -0.21014431 -0.01926619
-0.022359777 -0.25516167 -0.0173954
-0.26997384 0.12036756 -0.06131348
-0.23816943 0.06919397 -0.03161718
-0.123714134 -0.09842199 0.031122543
-0.22509743 0.20156562 -0.07493704
0.21736608 -0.14209864 0.083190314
-0.12280285 0.105294265 0.062477868
0.15372556 0.25736484 -0.050747734
0.2805742 -0.06937355 0.10647858
-0.2591299 0.19567159 -0.080417804
0.2823722 -0.15759842 0.08909566
-0.048826635 0.14874396 0.010348676
0.041610196 -0.08806496 -0.03586815
0.0682511 -0.1345703 0.07210281
-0.30945486 -0.006472749 -0.08400335
-0.07786752 -0.058727615 -0.022484744
0.09385499 -0.053555354 0.01644263
0.038633972 0.029953413 0.116936095
-0.023840306 -0.16843495 0.046419095
0.08071043 0.13638219 0.0016517036
0.26908666 -0.062082317 0.082132
0.07717008 -0.15922771 0.07269399
-0.066588275 -0.027677204 0.099130794
-0.05035816 -0.21008578 0.04628207
-0.2629744 -0.030706493 0.00013711212
-0.19958645 -0.05959043 0.008831876
0.17673014 -0.102000535 0.07892833
0.07745531 0.06567381 0.05426074
0.03790919 0.12746677 -0.044088405
0.18992575 0.075839035 -0.028343037
-0.30002347 0.024659378 -0.050577443
-0.06045504 -0.25614324 0.01854517
-0.050115217 0.13625932 0.05845361
-0.12591952 0.12137761 -0.05618606
0.17826276 -0.19691308 0.06949051
0.15258726 0.043465126 -0.023947755
-0.12698063 0.04805821 0.12631169
0.17343116 -0.19156782 0.08413037
-0.037290208 -0.149691 0.07474825
0.08452926 -0.02747911 -0.01572955
-0.052349538 0.2565779 -0.058850188
-0.29480344 0.051807493 -0.080474064
0.26049343 0.00066033157 -0.0039339345
0.20092857 0.23177518 -0.076580845
-0.24829526 -0.15625975 -0.03220728
-0.005652441 -0.03788702 0.0541283
0.21895109 0.058788113 -0.0051915315
-0.22869556 0.16953285 -0.072464235
-0.3045885 -0.12802936 -0.07896179
-0.17170468 -0.15229596 0.017744625
0.27843654 0.09122401 -0.014339472
-0.006326125 0.30473864 -0.1258238
0.41102234 -0.113364734 -0.010114455
0.39698112 -0.16728836 0.09256732
-0.18702598 -0.037887145 0.0378308
0.042003214 0.054055944 0.11140909
-0.12330156 0.12644005 -0.06701137
0.054247025 0.041739665 -0.02495504
0.1442201 0.13797595 0.0003924163
0.20588979 0.10299531 -0.041052837
0.06974255 0.06945649 0.10227628
-0.15974493 -0.046644066 -0.0058106584
-0.060980458 -0.18226121 0.045900863
-0.047921076 -0.19848865 0.04941776
0.058180377 -0.007941286 0.015481987
0.112965934 -0.2130773 -0.012051824
0.09254758 -0.02020933 -0.02286933
0.218245 -0.07130373 0.072865225
0.023541981 -0.27957362 -0.040801626
0.23742998 -0.06681136 0.073895454
-0.26631057 0.21455008 -0.12504488
0.10867564 0.16388895 -0.0017310585
-0.03237246 -0.039898515 0.10921096
0.25270608 -0.089738004 0.09512001
0.05734959 -0.014186725 0.07363324
0.24850509 -0.13473944 0.13014945
-0.013186471 -0.16226324 0.048566982
-0.10983838 0.08885288 0.037911214
-0.1887237 -0.19706644 -0.09179024
-0.06301144 0.1338916 0.058375526
0.086066045 0.27712384 -0.06454393
0.08563747 -0.0021886826 -0.013079384
-0.04571761 -0.26883066 0.01424638
0.24971794 0.14174819 -0.12126814
-0.27847257 0.029575108 -0.037152622
-0.1282856 -0.1801607 0.053670086
-0.24464844 -0.04078167 -0.005766495
0.09053065 -0.028945472 -0.02707556
-0.010475284 0.29016364 -0.09891371
0.23897427 0.09461639 -0.04419256
0.025320059 0.02093004 0.055375997
-0.23209159 0.1815215 -0.11314774
-0.18204142 0.1470855 -0.02941177
-0.08009304 0.14698479 0.09908561
0.03579391 -0.21518092 0.03313984
0.20706774 0.029182196 -0.023231318
0.17892596 -0.16801621 0.07229353
-0.050681103 0.2498915 -0.050885018
-0.030634353 0.21462466 -0.030261109
-0.24435885 0.07122209 -0.024217928
0.101237 -0.09455152 0.02088716
0.04178324 0.29495236 -0.056792222
0.11705831 -0.00044686114 -0.013782994
-0.21863036 -0.19362925 -0.050448317
0.13578995 -0.03372854 0.0057472307
-0.23747906 -0.1674049 -0.06680121
-0.066096336 -0.1257646 0.032175574
0.04548162 0.23246124 -0.03821843
-0.16337433 -0.14254504 0.03533429
-0.07544196 -0.21680818 0.009305917
-0.09540162 0.17591533 -0.028458511
0.24372852 -0.13772617 0.099932775
-0.021593122 0.21086542 -0.008081942
-0.06774753 -0.06953435 0.022466926
0.08668716 0.2633325 -0.05162516
0.048271038 0.22463545 -0.0077597396
0.3252677 -0.09947015 0.113895565
-0.08719421 -0.27186117 -0.0062993392
0.30677792 -0.085950814 0.10112092
0.08165791 0.13770859 -0.038850706
-0.28171232 0.08343225 -0.01767436
0.17653516 -0.06658114 -0.010596034
-0.20708 -0.18624575 -0.00079167297
-0.12231035 0.24224108 -0.1026978
0.06537959 -0.15436634 0.051310133
-0.26612192 0.11971786 -0.05311584
-0.06330744 0.12937735 0.043551743
-0.23586833 -0.11874532 -0.017301418
-0.11615775 0.16967495 -0.043402437
0.06611499 0.19283913 -0.007016562
-0.21838975 -0.13294116 -0.045479167
-0.26259694 0.09708428 -0.020287134
0.21669988 0.005675103 -0.023391642
-0.0025938929 -0.13170366 0.07202446
0.114016555 -0.139903 0.072971776
-0.108616985 -0.19787344 0.0070405775
-0.08597508 -0.27528766 -0.014470177
0.120711416 0.059825506 -0.014818615
0.11320988 -0.18450321 0.06348825
0.054930225 0.0060800733 0.013889305
0.25767425 -0.07854108 0.047868397
0.25848857 -0.19651799 0.09589387
-0.10568592 0.026381042 0.12800346
0.19696453 0.1402251 -0.021833612
0.24922927 -0.19366767 0.110129915
0.043867644 -0.26364705 -0.03434338
0.118304305 -0.019919563 -0.010126123
0.31435987 -0.115941636 0.1079452
0.3822722 -0.10593063 0.11185611
-0.091739886 -0.042220302 -0.00233277
-0.21492267 0.1486933 -0.007885861
-0.10266988 -0.19879755 0.041989855
0.21671736 0.12635392 -0.013767515
-0.19054742 0.09188904 -0.01329122
-0.0499221 0.11589187 -0.056628007
0.13831055 0.11330141 -0.02715219
-0.096885085 0.051560335 -0.004683064
-0.025728313 -0.17361952 0.03230133
-0.00041959196 0.111861266 0.103027955
-0.22347936 0.011119755 0.0027112467
0.07980313 0.2712705 -0.086374275
0.35263422 -0.1734686 0.11076189
-0.048955746 -0.08546994 -0.0065888995
0.3674703 -0.10671331 0.12709965
-0.036824677 0.1470639 -0.06762313
-0.062087666 -0.26136816 -0.02129138
-0.056392 -0.25528246 0.015519142
-0.12192782 -0.042940382 -0.010909159
-0.11163767 0.09414824 0.021980723
-0.20142533 0.08207937 -0.004047216
-0.26618865 0.1314161 -0.057946153
-0.26454774 0.0833776 -0.040267598
-0.10678254 -0.22662666 -0.0032448096
0.10436181 -0.21689461 0.042710073
0.04989821 0.22788401 -0.017842935
-0.19128968 -0.027011223 0.019120317
0.17159371 0.21732332 -0.05007066
-0.04513003 0.23721194 -0.05089876
-0.07600108 -0.098439336 -0.01964845
0.07086084 -0.15725482 0.06528531
0.22526428 0.13578978 -0.015389985
-0.20861803 0.04726491 -0.00915394
-0.008576523 -0.09393244 0.035863474
-0.23209693 -0.17246942 -0.023882756
0.21574256 -0.08388965 0.05155719
0.1139059 0.27108857 -0.08138722
-0.0265867 -0.08581685 -0.008913976
0.13428408 -0.060840327 0.022702726
0.29409745 -0.1329365 0.12977743
0.055755943 0.0030135578 0.11234209
0.14078476 0.103672445 0.0036005413
-0.0795679 -0.12934615 0.05813904
0.21116652 0.1243362 -0.054642666
-0.055812135 0.30936733 -0.11943582
-0.26626542 0.13249196 -0.06987353
0.09170424 0.22908606 -0.06272061
-0.120648205 0.20059952 -0.041247364
0.25324398 0.0742251 -0.008465587
0.2421983 -0.09859673 0.052416347
-0.15867983 0.11282031 -0.025653385
-0.19285256 -0.1700247 -0.02886507
-0.21114837 -0.14710642 -0.030813152
-0.19198655 0.09031353 -0.012778096
0.19655858 -0.08783814 0.037170798
-0.16111508 0.09251638 -0.046757556
-0.1543996 0.20165153 -0.06907806
0.07344209 0.028447263 -0.04553343
0.13831814 0.19611953 -0.068652734
0.26245365 -0.14418498 0.11663812
-0.12416424 0.01854662 0.08698237
0.2838556 0.021800596 -0.046764877
-0.055134438 -0.20646927 0.032716133
-0.17749697 0.03984607 -0.07659496
-0.14375563 -0.048438992 -0.02321694
-0.2141269 0.030799177 -0.02051382
-0.1589941 -0.065815955 0.013779761
-0.076194346 0.14954081 -0.06932905
0.18601288 0.1797019 -0.035498645
0.2537445 -0.05990247 0.042089697
0.26398697 0.09778676 -0.10454666
-0.028618079 -0.080298275 -0.03797835
-0.039783128 -0.15175119 0.050995573
-0.14601682 -0.15573494 0.020364324
0.21850464 0.030706773 -0.03998853
0.22531031 0.20176627 -0.049618073
-0.044575095 0.15253222 0.11331765
-0.27461365 0.006026754 -0.04777648
-0.07275613 0.1470733 -0.06743533
-0.092678286 0.022469483 0.031579267
0.007013369 0.13924542 -0.029859912
0.002494278 0.1279108 -0.019871831
-0.118780136 -0.2441172 0.010408983
-0.1428935 -0.02873926 -0.06316127
-0.13681155 -0.11345711 0.028082682
0.0445992 0.055934593 0.099848896
0.17190717 -0.19621353 0.024150033
0.054685924 -0.0034316962 -0.04607549
-0.029427659 -0.19268622 0.044802368
-0.04094096 -0.20243327 -0.018246256
0.03381734 -0.010297737 0.00043285228
0.2875622 -0.13419245 0.13766472
-0.22203916 -0.15455544 0.017283315
0.0712374 0.014399931 0.06412368
-0.020868815 -0.1448174 0.035969704
-0.038058206 -0.25907248 -0.02250618
-0.08810499 -0.0034534973 0.10467035
0.16395244 0.22005683 -0.07134866
0.12308244 -0.20648497 0.05662298
-0.078926235 0.32318106 -0.10604944
-0.1076327 -0.1535134 0.05578286
0.23769568 -0.0023004727 0.00095493393
-0.16515927 0.26188946 -0.0866875
0.15456136 -0.020185111 0.016375272
-0.22521515 0.23715639 -0.08215546
-0.08913333 0.29322127 -0.08653975
-0.14960684 -0.17156616 0.010888994
0.07980432 -0.081764646 -0.024997232
-0.19063944 0.11270981 -0.016296731
-0.26900136 0.10773192 -0.033075277
0.3118451 -0.1481212 0.11102488
-0.05547344 0.26237336 -0.057870526
0.24215907 -0.07461211 0.12059067
-0.21599828 0.04317485 -0.017222587
0.06724068 -0.24550742 -0.011604715
-0.020854153 -0.15455493 0.04050645
0.23520105 0.16392612 -0.026756534
-0.16546859 0.015605371 -0.038524143
0.18540014 0.028953731 -0.0010008551
0.0763522 -0.06504799 0.027005397
0.06791595 0.27635595 -0.08433021
-0.22052029 0.1460529 -0.039804775
0.09647738 0.14134862 -0.03830123
0.21766849 -0.18257244 0.09771697
-0.024108188 -0.25897604 -0.0132656535
0.3733917 -0.17432152 0.08727862
-0.07031901 -0.2547898 0.0052521983
0.11094374 0.2667544 -0.03860767
0.15151484 -0.121477135 0.10433613
-0.15582074 0.25721094 -0.0979579
0.011253772 -0.27517885 -0.061476316
-0.019215781 0.17360203 -0.023882883
0.0122754 0.095345505 -0.025745714
0.386329 -0.076566115 0.06494446
0.049566425 0.2900066 -0.053814728
0.050490394 -0.19166154 0.058632962
-0.30402052 0.06406486 -0.04642694
0.31398848 -0.09265218 0.07196325
-0.012149616 0.33006963 -0.11133625
-0.13360354 -0.09384341 0.016825378
0.32472453 -0.12862249 0.10476295
-0.23267613 0.18970521 -0.10587204
-0.048046514 0.2652947 -0.058702797
-0.20641838 0.26787332 -0.07778534
-0.25781506 0.08593169 -0.066185154
0.12873882 -0.24602671 -0.052946184
-0.02189174 -0.057989847 0.024524817
0.082149334 0.10215823 -0.026860999
-0.17438447 0.114442594 -0.0072624707
-0.047884356 -0.25160885 0.0035870923
-0.0137249585 0.14628813 0.080986
0.23396266 -0.07433804 0.009981393
0.22778697 0.037018605 -0.008514606
0.21868546 0.15500179 -0.03738746
0.17503291 0.07848337 -0.02718682
-0.10837978 -0.016316015 0.014717146
0.012987135 -0.058096126 0.094570875
0.00013755335 -0.16984683 0.034256976
0.0489668 -0.13193458 0.037782725
-0.12580283 0.022671605 0.12281886
-0.10081646 0.0015896414 0.074278615
-0.130148 0.1167339 0.07353517
0.21064602 -0.079737335 0.06275324
0.18494603 -0.013079028 -0.005079627
-0.012727979 -0.16458213 0.04532581
-0.23606254 -0.12301109 -0.023564883
-0.28685617 0.12708625 -0.10615941
0.105147265 -0.21129 -0.007131864
0.18604858 -0.08972833 0.0060920073
0.13243449 0.108791575 0.0026686403
0.17749348 -0.12476616 0.08716179
-0.051554557 -0.1743658 0.030380817
0.0961611 0.22836874 -0.04835587
0.021125041 0.23480457 -0.05089671
-0.13798958 -0.07323731 0.036357645
-0.20673887 -0.04251566 0.03051907
-0.16026524 0.23890863 -0.09583426
-0.30530524 0.018435296 -0.12268094
-0.017502498 0.15585703 0.06885532
-0.016254526 -0.26222262 -0.016171474
0.0051835966 -0.16977598 0.06140018
-0.06862045 -0.054524127 0.025422392
-0.14603059 0.064024694 0.017215317
0.02052541 0.21977964 -0.023103407
-0.09575708 -0.058294285 -0.015872817
0.12205232 0.25493962 -0.044853594
-0.022548206 -0.2813806 0.005313364
0.060470756 0.008907391 0.13419224
-0.009550737 -0.04009884 0.06991057
0.26239985 -0.18736045 0.108365424
0.41047415 -0.12426257 0.026907817
-0.24956203 0.18898128 -0.09846238
0.039889477 -0.14406523 0.056808915
0.12035635 0.1186231 0.0061680083
0.055012304 0.20113428 -0.042450912
-0.22261249 -0.018878195 -0.009514469
-0.13919373 0.06846785 0.08704657
0.14621088 -0.072663076 0.02516614
0.16274089 -0.005219126 0.015326741
0.2483663 0.10025062 -0.035015628
-0.22713836 0.14821501 -0.041329104
0.123071894 0.26150322 -0.082768984
-0.26562652 -0.041850626 -0.0155846095
0.22000079 -0.16398078 0.08306132
-0.1826708 0.19795851 -0.03812295
0.037737153 0.060114097 0.047953296
-0.21236436 0.083659716 -0.00927268
0.17194958 -0.08307561 -0.014807794
0.3691113 -0.06879728 0.058408696
-0.06736315 0.108471915 0.029342672
-0.06326664 -0.23809992 0.0054019806
0.11724845 0.10075137 -0.036892887
0.25279793 0.11237346 -0.058768697
0.27115232 0.050633848 -0.011902762
0.039648775 -0.10570437 0.010344779
-0.30457845 -0.0405758 -0.045757845
0.09785398 0.14718948 -0.012094623
0.2949574 -0.0560926 0.069539554
0.36259547 -0.11129604 0.08608349
0.16280673 0.19219662 -0.056521267
-0.15408891 -0.09901039 0.030311577
0.0014961101 0.27973387 -0.078460336
0.015639747 -0.2409584 0.027066851
0.11395705 -0.12087257 0.05040666
0.078233674 -0.10221194 0.040983763
-0.2774866 0.057360396 -0.04058523
-0.23058765 -0.07787013 0.02724309
0.18980475 -0.18320502 0.09312084
0.07810189 0.04574264 -0.008413945
0.19276981 -0.004165626 0.0054571773
-0.2102548 0.019248951 -0.008970126
-0.11744098 -0.027694488 0.04176875
-0.0869471 0.018415496 -0.06675549
-0.15466407 0.13619104 -0.031785488
-0.11750608 -0.11196627 0.0057840585
0.14687045 -0.13720807 0.087097645
-0.23288208 0.18668391 -0.08179419
-0.12924919 0.097814836 -0.06313071
0.023433903 -0.20536275 0.011215728
0.21320781 -0.17884696 0.09041147
-0.19026063 -0.09189685 0.024188295
0.1814712 0.20860188 -0.121804826
0.11425087 0.19564489 -0.0037034242
0.24860573 -0.036904633 -0.031527407
-0.029358247 -0.12130241 0.07320787
0.1906599 0.07969356 -0.025321018
-0.13404341 0.067734376 0.105157495
0.020230915 0.081379764 -0.06439176
0.103004456 0.1433058 -0.043420985
-0.10965647 -0.12973663 0.06198537
0.25721365 -0.18859126 0.09717929
0.23361799 -0.005743508 -0.028110212
-0.06242084 -0.08895924 0.034465984
0.1734167 0.04560505 0.0032199228
-0.13092688 0.00046762015 0.04705446
0.03820033 0.024986172 0.124262385
-0.22987731 -0.113500066 0.022247551
0.030302623 -0.19595404 0.055924803
-0.0751534 0.27338064 -0.08397291
0.20345281 -0.12616922 0.082032815
-0.26177257 0.10791022 -0.10140406
-0.019512957 0.2810529 -0.09656331
0.24361686 -0.17324317 0.12140627
0.008040911 -0.17759162 0.06600913
0.03703589 -0.2036259 0.05346705
-0.122108646 0.1491482 -0.08110913
0.23531932 -0.0658284 0.06873375
0.18908763 0.19998263 -0.07737824
-0.06244589 -0.1750205 0.047281593
0.26762745 -0.15489852 0.094528
-0.03509738 0.19208315 -0.022090014
0.22151886 -0.04378797 -0.002233063
-0.055143543 -0.1160515 -0.007387047
-0.16520786 -0.20432249 -0.014175361
0.043479595 0.039811693 0.036654294
0.18397537 0.25090083 -0.0790779
0.027872814 -0.049057364 0.044753406
0.14343126 0.09817854 0.019571116
0.06188577 0.31696275 -0.08602442
0.078568526 -0.08675241 -0.007142987
0.21261139 -0.0068085003 -0.016955148
-0.06019202 0.13753372 0.0125155235
0.14816006 0.2434745 -0.08125736
0.17109537 0.18677333 -0.05254692
-0.30072078 -0.068946846 -0.06054063
-0.047541298 -0.22654146 0.0059591313
0.15764998 0.064512275 -0.003848403
-0.093348704 0.20839761 -0.05169395
-0.10228796 0.2713622 -0.0853884
0.055208128 0.26058158 -0.037209988
-0.10142036 0.30106318 -0.06831003
-0.18757533 -0.1581928 -0.005291685
-0.27651617 -0.00949613 -0.0666865
-0.06112954 0.22533165 -0.04158364
-0.19265379 0.059833176 -0.021364762
-0.1200373 0.09300438 -0.040329527
-0.08680219 0.00051088585 -0.067390025
-0.1590661 0.088133715 -0.04786319
-0.29336688 0.12157432 -0.052801978
-0.15290542 -0.14756884 0.0141738495
0.3548734 -0.12304765 0.12242861
-0.04726197 -0.05221488 -0.005756963
-0.13286667 -0.012142754 -0.048953865
-0.24064684 -0.12818295 -0.051509652
-0.29007265 0.009876069 -0.043643583
-0.2894468 -0.081551895 -0.045415085
0.08804693 0.26818332 -0.08541104
0.05530413 0.06637752 0.109220594
-0.11813194 0.07915929 0.07953974
-0.17796034 -0.21728116 -0.014952832
-0.11599614 0.2721564 -0.0810359
0.021551391 -0.27112782 0.022578144
-0.051798828 0.13129936 0.048114177
-0.12328603 0.09952733 0.04482141
-0.030543754 -0.2178997 0.010109536
-0.1643205 -0.10039349 0.014749513
0.022580042 0.025536418 0.08759886
0.052130472 0.20630276 -0.03286565
0.035244286 -0.016118538 -0.03545522
-0.110645786 0.27387428 -0.10734052
-0.1484412 0.036444396 0.040458392
-0.26371545 -0.034136627 -0.07049173
-0.32004535 0.061322592 -0.065220416
-0.021468688 -0.27292046 -0.048205458
-0.31576738 0.09171306 -0.078900486
0.0054920428 0.1371495 0.09700752
-0.106475055 0.0019227563 -0.0018431282
-0.21581633 -0.20536102 -0.024963878
0.08372888 0.15405262 -0.013238146
0.20707062 -0.030801086 -0.018409902
0.38550246 -0.17890222 0.08931816
-0.08715695 -0.042470045 -0.02828239
0.1550639 0.24223265 -0.046933815
-0.18709902 -0.16749345 0.026249992
0.08724317 0.14261305 0.0006488168
-0.30224654 0.052180488 -0.090067714
0.041888427 -0.26715052 -0.00789613
-0.047760937 -0.102259874 -0.0055471146
0.024541447 0.12423158 0.027012283
-0.22339267 -0.08405862 0.028378021
0.15276751 -0.07977751 -0.022863798
-0.26678163 0.049827594 -0.024838751
0.3002511 -0.0963744 0.09869219
0.10230899 0.21053922 -0.033514004
0.046259686 -0.16399021 0.06130182
0.24048124 -0.047657896 0.046803292
-0.2784966 0.05619394 -0.06900888
-0.12850805 0.230351 -0.027583933
0.11568441 -0.21848321 0.03195387
0.10284289 0.033026382 -0.0040323087
-0.081602104 0.13548203 -0.07065435
-0.2574461 -0.055261143 -0.022040248
0.17616367 0.21447033 -0.049429793
0.2989492 -0.10347135 0.07675276
-0.1896418 0.18693991 -0.06451629
-0.2788926 0.034397822 -0.06103085
0.2085636 0.13862036 -0.023907773
0.29355365 -0.21880747 0.061394718
0.04969611 -0.09530524 0.04083037
-0.17919226 -0.09431469 0.027833143
0.16273803 0.23502412 -0.04361787
0.12241225 -0.032929912 0.008301374
0.075473584 -0.15038218 0.0711294
0.07645699 0.070046954 -0.052532192
-0.0381025 -0.2037855 0.06812709
0.22788544 0.08494797 -0.024184186
-0.079415776 0.091934726 -0.06121295
-0.28301847 -0.13350865 -0.0767764
0.23609045 0.18158914 -0.053375106
0.18152115 0.016725382 0.029412994
0.24463005 0.106226675 -0.04732556
0.3666725 -0.13649006 -0.022396509
-0.11975834 0.0005911854 -0.016607404
0.0614358 -0.25747812 -0.05446712
0.23171495 -0.07889064 0.020446558
0.027705984 -0.0356045 0.01908437
0.14373949 -0.110765345 0.059095915
-0.043679934 0.31529638 -0.09087824
0.066791154 -0.13796608 0.040581476
0.37904128 -0.16247475 0.082550205
0.40130338 -0.17431705 0.06916778
-0.046208326 -0.117839515 0.06625496
0.21563016 -0.042929523 0.006310313
0.29752505 0.04916622 -0.0012670502
-0.07499969 0.10297457 0.018228512
-0.06997602 -0.029300371 0.013805468
-0.14273174 0.04158347 0.025692841
0.026600642 0.28174666 -0.07473965
-0.3314535 -0.010712915 -0.046104934
-0.13247895 -0.2556947 -0.05156205
-0.28247583 -0.011979967 -0.0053977505
0.025784299 -0.007741769 -0.012816559
0.21003796 -0.1635615 0.10988716
-0.20942777 0.0049916087 -0.02078395
0.085525155 -0.055646647 0.0071782554
0.1647827 0.20059825 -0.03253494
0.046438687 -0.235356 0.0324722
-0.2012445 -0.032684214 0.022019876
-0.14279197 -0.2248043 -0.06627847
0.14784192 0.24209657 -0.071686216
0.2520098 -0.11823051 0.119433336
0.0474456 0.173088 -0.05849536
-0.11523246 0.024844943 -0.067338124
0.09865056 -0.07537024 0.025135947
0.25362644 0.06917884 -0.033589005
0.16439013 0.003093479 -0.011639751
-0.06650928 -0.17205308 0.028649239
-0.14901808 -0.23055914 -0.014673487
0.28606763 0.016806101 -0.050328445
0.0044006505 0.1710094 -0.076658204
-0.18747996 0.23591192 -0.051735718
0.24226175 -0.17083049 0.076877885
0.3816208 -0.1834962 0.06963841
-0.10531048 0.2269304 -0.061945036
0.15392904 0.009031409 0.00702085
0.14116727 0.15515184 -0.0041347262
-0.09250502 -0.10362043 0.053343628
0.29522863 -0.11273233 0.10383722
0.19361888 0.05499279 0.015665961
-0.022674298 0.14716794 0.08503822
0.0748736 0.11700416 -0.018924655
-0.30089056 0.10668417 -0.06926418
0.2879408 -0.0052199704 -0.010137679
0.30033767 -0.19839364 0.10771854
0.2710889 -0.077681705 0.08014009
-0.17808856 -0.19333334 -0.03128612
-0.16411726 0.16230506 -0.016697332
0.025180666 -0.15925959 0.054821286
0.2872025 -0.0917915 0.107151344
-0.11139827 0.15991911 -0.049335305
-0.27735034 0.06755101 -0.020216651
0.031756703 0.19526777 -0.077586666
0.097287916 0.27328125 -0.06975603
-0.2515522 -0.028619224 0.008284522
0.07099693 -0.14345321 0.071701705
0.007926863 -0.19910568 0.034973297
0.07214816 -0.18839206 0.051380657
-0.0846373 0.28375095 -0.06927095
-0.13244541 -0.17423561 0.0015000415
0.09406509 0.29431623 -0.04890863
-0.30109847 -0.11081173 -0.04599826
-0.31655747 0.06244935 -0.059750814
-0.21437442 -0.056036163 0.038701057
-0.16414459 0.21525669 -0.017934572
-0.18445408 0.13183968 -0.014613264
0.2161837 0.07837296 -0.017976845
-0.1362831 0.2728796 -0.06313904
-0.02718036 -0.13209386 0.07523425
-0.047484335 0.32304254 -0.09176427
-0.063313015 -0.24292575 0.01802281
0.30636904 -0.22085722 0.06694418
0.06639451 0.007680597 0.0137779685
-0.06493312 0.29812193 -0.15400152
-0.19575664 0.21021436 -0.08036217
0.22031102 -0.14960459 0.09782833
-0.29760706 -0.013510869 -0.04309756
0.099495985 0.05433676 -0.03182599
0.19694021 0.031431835 -0.0024032015
-0.10412001 0.02917623 -0.0037766166
0.2830144 -0.19314569 0.07656642
-0.21287933 -0.19180635 -0.0015394691
-0.08514819 -0.09236688 -0.029899448
0.15149567 -0.20877674 0.03212866
-0.05662251 -0.21902795 -0.017214673
-0.2825249 0.08293581 -0.07513896
-0.22964555 0.1781055 -0.0895033
0.017022468 0.12638964 -0.06897887
-0.10889742 -0.0046953084 0.09180468
-0.117107555 -0.25062627 0.0012785667
0.09914595 -0.13389201 0.060095087
0.06195727 -0.0924329 0.0012772448
0.035773758 0.24168783 -0.05580687
0.036668647 0.18389529 -0.027547006
0.033543937 -0.17381768 0.022301542
-0.07783502 0.10468128 -0.063562095
-0.01649664 -0.07203544 0.06544197
0.11950775 0.15950632 -0.0022937146
-0.25051543 -0.16748184 -0.059640303
-0.069737025 0.15683879 0.08928397
0.062262286 -0.19887175 0.012241068
-0.01747601 0.13717638 -0.053538688
0.20780304 0.2079992 -0.07495653
-0.009121703 0.15561481 -0.07364057
0.008489369 -0.23953485 0.031884547
0.0019878827 0.1252649 -0.046558864
-0.07597223 -0.25781178 -0.009221143
-0.038790792 -0.29003215 -0.016303843
0.11980811 0.14011602 0.005157637
0.07061197 0.2263267 -0.002802379
-0.20964618 -0.14585383 -0.049646124
0.08754178 -0.07676243 -0.0164194
-0.085957415 -0.25760323 -0.030977584
-0.10202007 -0.19923618 0.045358654
0.17519547 -0.0022468888 0.010715267
-0.10297358 0.27368242 -0.067927435
-0.062152613 0.14738017 0.05961946
0.012328054 -0.1013983 0.026649121
0.13523684 0.09832421 -0.009040771
-0.020014841 -0.0476639 0.11751132
-0.24883781 -0.13821514 -0.11748444
-0.09034797 -0.0121386945 0.0473521
0.05427664 0.019170033 0.058540575
0.14342906 -0.19589262 0.049637623
0.3956084 -0.13872333 -0.008817823
0.109231316 0.13365364 0.0043478208
-0.021816714 -0.16562182 0.025050543
0.0045792283 0.18211293 -0.038635876
-0.021219775 -0.12477782 0.054602053
-0.23669812 0.082649365 -0.016692834
-0.15132526 0.19348243 -0.055873923
-0.08546994 -0.18229613 0.024383647
0.37333027 -0.1014997 0.115111455
0.03521671 0.1901083 -0.042110078
0.19276088 0.20303792 -0.03315345
-0.052218683 -0.104808666 0.008745745
-0.12507427 -0.20589693 -0.009912879
0.15006278 0.007623593 -0.046479374
0.017558526 0.13970178 -0.057096332
-0.15516222 -0.07264839 -0.008426907
-0.13556027 -0.09206863 0.016431728
-0.12983075 0.03412954 0.11464444
0.13031188 0.2568686 -0.07682901
0.13883801 -0.0761341 0.034675248
0.10757986 0.07649489 -0.039155178
-0.24911535 0.024350427 0.006208672
-0.26079875 0.031705547 -0.003091953
0.08483006 -0.22385679 0.0067991456
-0.11293838 0.10426525 -0.068501234
-0.28942743 0.065043405 -0.06882771
0.22119297 -0.14259869 0.09796312
-0.1570167 -0.13901336 0.0043935645
-0.20163038 -0.13982806 -0.030822864
-0.26395586 0.041385394 -0.049009133
0.13408491 0.13027427 -0.014448643
0.09142116 -0.19472039 0.07292942
0.033033624 -0.1636238 0.047673285
0.12921631 0.23989673 -0.073905624
-0.11798425 0.097997084 0.11334384
-0.08580234 0.278765 -0.075306945
0.24883538 -0.15619096 0.10983839
0.042378638 0.2772713 -0.091973685
-0.22292808 -0.20457108 -0.04663815
-0.24982633 0.005518513 0.002222061
-0.29477164 -0.08633861 -0.05435092
0.18478179 0.07669295 -0.028019357
0.03467057 -0.23058216 0.010188044
0.036774322 0.08188332 0.091087915
-0.03767867 -0.223438 0.024706688
-0.090523526 -0.10981094 0.037487686
0.1387669 -0.06773855 0.004809082
0.23721665 -0.009989243 -0.027642915
-0.12392923 0.056537565 0.06806582
-0.019168757 -0.27551904 -0.019315502
0.32909876 -0.13604721 0.102370024
-0.12245954 -0.16216414 0.067022204
-0.08911654 -0.15781549 0.024780694
0.019606156 0.12132268 -0.07637833
0.050657097 0.27249476 -0.055233642
-0.18122695 0.08940345 -0.07205957
-0.21657774 0.012273894 -0.012954366
0.010915437 0.14499368 0.09073355
-0.15954903 0.029511169 0.11250037
0.15656625 -0.043592006 0.0069585694
-0.10120843 0.111670226 0.053313825
-0.017165426 -0.20416598 0.04793837
-0.21283324 0.06049734 -0.008741808
-0.091691375 -0.029060988 -0.017330911
0.039939363 0.22516246 -0.043259237
-0.25988063 -0.1006314 -0.05576566
0.18182473 -0.1101723 0.100090206
0.092776604 -0.12087228 0.050823275
-0.26020312 0.035669744 0.008635675
-0.2567631 0.13599999 -0.07867502
-0.04844675 0.22788016 -0.04601939
0.089128725 -0.18915197 0.052913893
-0.2018371 0.042102817 0.009970971
-0.10738707 -0.25932375 0.0015703364
0.18813458 0.19033326 -0.051122792
0.11908895 0.1565429 -0.013592685
-0.1266877 -0.24065667 -0.06224806
-0.32475495 0.09159454 -0.13250345
0.110075615 0.20941229 0.004520616
-0.19063498 0.026151098 -0.025634408
-0.05152015 -0.2769145 0.030732755
-0.2762686 0.06351073 -0.046031944
0.28074312 -0.13066621 0.092601225
0.16614607 -0.013711215 -0.0040262365
0.2041194 0.001857515 -0.0007494186
-0.24898 -0.07988915 -0.0137879485
-0.24581374 0.048554312 -0.015403103
0.0465528 -0.1578316 0.06668803
-0.08111574 0.16055928 0.068195455
0.04634085 -0.063280895 -0.00018144418
0.18198706 0.23200704 -0.065158255
-0.27859053 -0.11486225 -0.047905717
-0.015643766 0.30651286 -0.0810777
0.26479104 0.015340259 -0.026787302
0.15234579 -0.11984626 0.05955783
0.14614472 -0.008878114 0.012409335
-0.00550382 0.10542869 -0.044683848
-0.009900315 0.15199755 0.07462277
0.028693318 0.10049429 -0.0583858
0.18728617 0.016935445 0.0052843336
0.10749503 -0.08532812 0.0010554879
-0.045229737 0.11594317 0.07706339
-0.16762431 -0.14102149 0.02005697
0.14372155 0.022223897 0.013439366
-0.14630257 0.20929495 -0.006800693
0.3143834 -0.13067323 0.10878137
0.14206159 -0.04680824 0.0053838366
-0.17747636 0.26083633 -0.076376475
-0.35232067 -0.007824409 -0.06486021
-0.21092601 -0.0116132265 0.019771889
0.18072926 0.16987969 -0.051935673
0.17905359 -0.12960507 0.110139325
0.1380003 0.12777233 -0.02033648
-0.22561388 0.14449707 -0.07550628
-0.08824237 -0.17069057 0.025077654
-0.16143347 0.17009461 -0.046747413
-0.3273984 -0.001824082 -0.08651031
0.20437394 -0.016947225 -0.0051433467
0.03268266 0.04034626 0.025250873
-0.19135945 0.24507251 -0.0864838
-0.25031894 0.21372062 -0.07451498
-0.14639986 -0.26745006 -0.08965333
0.15500942 0.18834816 -0.0022896405
-0.2925191 0.005937275 -0.04463091
-0.1388717 -0.20114812 -0.0041288366
0.08738558 0.07767004 -0.045616295
0.08794713 -0.21916208 0.052834783
-0.17235038 0.21189381 -0.10584699
-0.25162977 -0.08715094 -0.04211922
-0.26449034 -0.12127357 -0.039538577
0.07079887 -0.23948841 -0.06868191
0.302344 -0.11596526 0.119334266
-0.26220354 0.058158413 -0.044215932
-0.2350148 -0.13465504 0.0032117574
-0.0750192 -0.21913618 -0.017981293
-0.109595425 0.11994806 -0.0013507725
-0.12095824 0.2958476 -0.06601034
-0.18428719 -0.009496491 0.019080661
-0.25370407 -0.077233635 -0.013105702
0.2177528 -0.044802617 -0.028132979
0.20379856 0.06715132 -0.044556223
0.11953501 0.026213521 -0.036540944
-0.24331626 0.20221356 -0.1387388
-0.113831446 -0.09958096 -0.043457013
0.2739245 -0.17830358 0.07450537
0.19560534 0.055366717 -0.0078117424
0.10293394 -0.17942107 0.038908124
-0.029108835 -0.28321803 -0.013545947
-0.20996946 -0.047420595 0.032664504
0.033735998 -0.24567671 -0.013106675
0.19726889 0.17392793 -0.03812058
0.15391302 0.21651195 -0.07884408
-0.16264753 -0.121486925 0.025171157
-0.055631418 -0.059052996 -0.021342987
0.3603131 -0.18519843 0.11106153
-0.32608274 0.025835764 -0.09190222
-0.2710075 0.08664504 -0.06797423
0.04878824 0.07544146 -0.057571013
-0.010801296 -0.09530237 0.028754666
-0.19787347 0.065366976 -0.039848413
0.37027135 -0.07678334 0.11397415
0.23364945 -0.09382149 0.0821205
-0.17706636 0.063962504 -0.047817867
0.09699388 0.12693523 -0.023532288
0.082180284 0.041466936 0.08641402
-0.23961644 0.15008321 -0.051534805
-0.2721319 0.04792078 -0.048437078
-0.0916492 -0.17355001 0.05635963
0.17405875 -0.04698304 0.016077967
-0.17316802 -0.16867629 0.03488151
0.21873331 -0.063834764 0.015332232
-0.31452706 -0.03347497 -0.11133273
0.007801942 -0.0107584 0.08553981
0.08416618 -0.012482553 -0.03510522
0.32767087 -0.1176489 0.12813024
0.016898924 -0.23525368 -0.01051149
-0.13432443 -0.20534879 0.015155739
-0.1746866 0.12693448 -0.039999306
0.27215528 -0.124506705 0.10972585
-0.2637315 -0.0990628 -0.030908056
-0.22216313 0.18722005 -0.072742306
-0.0841844 -0.06461353 -0.017688347
0.36111683 -0.07364088 0.097819604
0.34207276 -0.17617722 0.032939482
-0.22345814 -0.1271331 0.022803841
-0.13345122 0.043308813 0.06388849
0.24625379 -0.07575807 0.11509014
0.014295094 -0.2247499 0.040723644
-0.04587668 -0.060836777 -0.022179887
-0.33582708 0.055374056 -0.044229325
0.15292676 -0.024359414 -0.008881842
0.009650707 -0.17372586 0.042814814
-0.1330352 0.115005426 0.029612271
0.23776852 -0.066321276 0.078313865
-0.010108861 0.20784463 -0.0056216437
-0.20413092 0.2629373 -0.099563226
0.118455976 0.095743746 -0.032812368
0.21503372 0.06760663 -0.0125895655
0.3325652 -0.13679571 0.09448513
0.158706 -0.22354339 0.028522879
-0.14762361 0.10107636 -0.059567656
-0.17273958 0.17266113 -0.030129852
-0.08607768 0.31993482 -0.0814329
0.20607747 -0.06257318 -0.026931584
-0.0632185 0.14170416 0.101686254
0.062503934 0.2955662 -0.10139664
-0.12307112 0.19821735 -0.051561456
-0.20381543 -0.11447977 0.02832592
