# .PCD v0.7 - Point Cloud Data file format
VERSION 0.7
FIELDS x y z
SIZE 4 4 4
TYPE F F F
COUNT 1 1 1
WIDTH 1000
HEIGHT 1
VIEWPOINT 0 0 0 1 0 0 0
POINTS 1000
DATA ascii
-0.09773689 0.08302005 0.07470231
0.020649683 -0.03463566 -0.23160549
0.012835275 0.27511984 -0.15036875
0.012011967 -0.25830045 -0.03869979
0.13373117 0.05253837 -0.0416359
0.09133061 -0.03480037 -0.2982587
-0.10226355 0.21083078 0.039972246
-0.0027844438 -0.19884703 0.025527725
-0.079595596 0.003302894 0.12495925
0.019053161 -0.08644607 -0.4551859
-0.06651325 -0.16618435 0.042991173
-0.048037853 -0.09135869 -0.08136068
0.03305814 -0.13070562 -0.24981278
-0.07644363 -0.07267277 0.25220004
0.014283177 -0.0279565 -0.08303306
-0.07589816 -0.11118229 0.071514845
-0.08359029 0.060954582 0.106029905
0.08067261 -0.05010833 -0.15771328
-0.009373663 0.06450995 0.10544814
0.048361626 -0.07873088 0.21796058
-0.07522579 0.24487157 -0.012480911
-0.0075858203 0.1233164 0.070366606
-0.040904514 -0.035701003 0.22358184
0.06746863 -0.2452712 -0.14708662
-0.0119084 0.2223642 -0.076904744
-0.030602837 -0.06518947 0.22978893
-0.039405037 -0.03198283 0.23287906
-0.028395092 -0.115072854 0.14322886
0.062093187 -0.012304875 -0.22927174
0.023589252 0.21581842 -0.14036173
-0.04498806 0.19718115 0.012259645
0.028932989 -0.20475468 0.20677568
0.076967835 0.061282534 -0.36879408
-0.07110593 0.24766086 0.07012973
-0.08254964 -0.0614311 0.21869728
0.0149047505 0.20874158 0.012137334
0.019408649 -0.07194716 -0.09429984
0.009868758 0.03171541 0.1772394
-0.026508516 -0.068991 0.12968726
-0.061859466 -0.009933117 0.20094337
-0.045006283 0.16345307 0.054314267
0.13445 0.06941463 -0.032856766
0.11544956 0.10360536 -0.10007265
-0.05636512 0.054030374 0.12070322
0.028956242 -0.21304363 -0.33183816
0.036614545 -0.16166161 0.2662452
0.08359947 0.12556149 -0.086585455
-0.00085338496 -0.057194427 0.27489004
-0.0044968487 -0.036018163 0.2635393
0.0507349 -0.24676692 -0.23024791
-0.014826261 -0.10427187 0.25621048
-0.049683385 0.23653542 -0.053679578
0.029446129 0.12763256 -0.3952977
-0.02383743 0.26847118 -0.12808843
-0.030502882 0.16022913 -0.36351377
0.14000137 -0.01988055 -0.060461275
-0.040385675 0.22940916 -0.0040686615
0.0073213778 -0.25578448 -0.004632456
0.13588421 0.08370815 -0.22384062
-0.0045989444 -0.097074464 -0.1325517
0.12263724 -0.035369564 -0.10154618
-0.009337401 -0.24514128 -0.015783088
0.037730627 -0.16798124 0.24708648
-0.00682038 -0.28698134 -0.07347185
0.05977875 0.11873454 -0.10891868
0.053685375 -0.1233891 -0.4014315
0.08367431 -0.2116185 -0.12911864
0.03867462 -0.12544452 -0.0722285
-0.06641422 0.23948959 0.006348489
0.046735227 0.033420112 0.05585149
-0.109221 0.22778212 0.05456627
0.0369333 -0.124882445 0.2937238
-0.00961117 -0.06254643 -0.07775739
0.08913994 -0.091384016 -0.14189312
-0.106908865 0.0067910957 0.12312927
0.116358474 0.07871111 -0.08470856
0.026329158 -0.06438305 0.22731465
-0.01559784 0.16070583 0.014595179
0.04484599 0.14900647 -0.23556754
0.004410969 -0.094914675 0.2895955
-0.008853696 0.026800022 0.18773133
0.05060188 -0.023197757 -0.059389357
-0.08175986 -0.09509272 0.22415885
-0.019685859 0.110423 0.03589461
-0.038487833 -0.049228445 0.26932335
0.07105617 0.06995724 -0.036213957
-0.010385659 -0.051350817 0.25860235
0.03223563 -0.052640345 0.23364666
-0.026700998 0.05298187 0.1360494
-0.10006254 0.19145232 0.061724182
0.008214804 -0.13415694 -0.093829535
0.0014401814 -0.0443878 0.22777581
0.0025600956 -0.11841844 0.26575565
0.020525409 0.083089374 -0.11737568
0.06750609 -0.009422179 -0.09038869
0.058909036 -0.036801487 -0.10686559
-0.05903929 -0.09140148 0.09241934
-0.040322285 -0.1941584 0.053906217
0.01254948 -0.0923141 0.25941512
-0.13698666 0.17155829 0.07309773
0.0022092627 0.040054694 0.13661854
0.0150500685 -0.18075176 0.049474802
0.032226514 -0.12880024 0.26315477
-0.005225079 -0.21921547 0.05419787
0.017857036 -0.13161619 0.3165718
0.03287003 0.08391111 -0.23067848
0.08610847 -0.20560458 -0.19351469
-0.012913685 -0.11902269 0.30597487
0.041638378 -0.16231942 0.20577516
0.044173278 -0.10278518 0.22751974
0.058104273 -0.022819953 -0.05404391
-0.03563415 0.08819154 0.0989228
0.035510622 -0.100277565 0.18955465
0.0085674515 -0.2533898 -0.033062648
0.019158375 -0.25426602 -0.24389194
-0.008826205 0.093579344 0.059042603
0.03114902 -0.2501164 -0.018662818
-0.041281316 0.26786196 -0.08465296
0.16361645 0.0025693031 -0.22324932
0.004870694 0.010480067 0.21327017
0.036325615 0.006243507 -0.41688085
0.092908636 -0.22563656 -0.26433927
-0.06556276 -0.09873598 0.19902009
-0.07893717 0.022305937 0.15299797
0.00036513293 0.01626592 0.17343152
0.10886578 -0.07477353 -0.17057174
-0.04261161 0.21012947 0.05004208
-0.021017954 -0.0044358037 0.19305766
-0.012591265 -0.14333867 0.023181196
0.13624598 -0.014728694 -0.061256465
0.016595474 -0.04846706 0.2705063
0.14030866 0.0069987136 -0.22482972
0.054933213 -0.16127948 -0.090159506
-0.04002937 0.06470273 0.12793204
0.058956377 -0.29541135 -0.13320085
-0.08158147 -0.060199652 0.2108347
-0.010249969 0.22683768 -0.27034494
-0.059551217 0.16073479 0.086410284
0.015335189 -0.11484587 0.021052113
0.01928678 -0.27485138 -0.15429544
0.060269706 -0.22250392 -0.07857517
-0.010316273 0.20370564 0.018643595
-0.096033484 0.24380964 -0.03757767
-0.024379656 0.07757691 0.14212355
0.01811151 -0.19587071 -0.03449518
0.06538568 -0.100109 0.19513156
-0.0026879786 0.22847843 -0.31844375
-0.065168306 -0.1206851 0.19228195
-0.0024043284 0.0979566 0.040525645
0.123866715 0.05498804 -0.23874177
-0.045488518 -0.19118008 0.08102368
-0.038974784 -0.16525814 0.19041397
-0.04252141 0.20543821 -0.035101883
0.027382392 -0.114510484 -0.1356731
0.031789448 -0.19723284 -0.04078441
-0.09700829 -0.059006058 0.1829603
-0.08337373 0.20973897 0.057557214
-0.058550138 0.074603155 0.14223886
0.12897053 0.0856923 -0.23449627
0.050966885 -0.081697494 0.1831576
0.035411753 -0.083773285 0.14788796
-0.013389445 -0.10418509 -0.16618127
0.08935186 -0.055802535 -0.11395664
-0.06751648 0.23758593 -0.02914628
-0.071650505 0.24782501 -0.06131625
-0.015374421 0.25791052 -0.098020725
0.03423137 0.05914735 0.042086396
-0.056953806 0.06692638 0.11697231
-0.07148894 0.26211032 -0.2333518
-0.08204845 -0.16763811 0.054219566
-0.041872293 0.023140255 0.17868032
0.03286716 -0.031344756 0.042296473
0.0065631364 -0.14083053 0.1543299
-0.010450169 -0.07062362 0.27034172
0.13725547 -0.033439275 -0.21837947
0.055789407 -0.2459561 -0.24992715
0.029503632 -0.11366329 0.30518523
0.0065963017 -0.20909813 0.031561602
0.06348209 -0.062215626 0.21211998
0.13479772 0.03393503 -0.23332466
-0.072201975 -0.14059803 0.19321837
-0.11894127 0.22073984 0.04849489
-0.09249112 -0.11493121 0.18678546
0.03941532 -0.18177411 0.2537947
0.04432293 -0.13038673 0.14132608
0.0012188775 0.1486659 0.030129887
0.07744769 -0.22901146 -0.15901357
0.0122675495 -0.09565699 0.25707847
-0.02950718 0.15493333 0.04574995
-0.016273623 -0.09567673 -0.12769917
-0.07324595 0.144047 0.07514648
-0.10429021 -0.06966115 0.14776003
0.09624851 0.051731635 -0.052238096
0.005260409 -0.2155315 0.22215557
-0.03717692 -0.09340152 0.3084563
0.04119262 -0.070025444 0.18722755
-0.023366887 -0.20321886 0.24266021
-0.10422406 0.2772389 -0.1934896
-0.054164104 0.079989865 0.09065684
-0.06421425 -0.1867306 0.2425858
-0.07649141 0.11079658 0.070840344
0.051754788 -0.25800997 -0.18391548
-0.017236799 0.03276029 -0.062339738
0.06825044 -0.1714029 -0.08741198
0.09914724 -0.061548565 -0.30682537
-0.016994452 -0.03606083 0.21439922
-0.020470679 -0.16990751 0.042565413
0.06252644 -0.056518916 -0.06681858
0.085153595 -0.06683384 -0.12914951
0.021479316 0.06904415 -0.31015617
0.020440865 0.018697932 0.1585394
0.0069776373 -0.21236207 -0.028162513
-0.08484719 0.25133646 -0.018511623
0.0062408317 0.15181659 -0.17076364
-0.08914962 0.0769587 0.0804258
0.033011153 0.23037086 -0.26778406
0.07174373 -0.17270304 -0.1456114
-0.015973805 0.08027899 -0.2590952
-0.029058551 0.16649556 0.021889836
-0.079221964 0.24611163 0.007593727
-0.008415576 0.12486256 -0.3340727
0.043924924 0.072049856 -0.062538706
0.016885491 -0.120065086 -0.010265018
0.03889449 -0.11131422 0.15217952
0.04465095 0.07016337 -0.0797229
0.08200084 -0.18352461 -0.20695
0.1729966 -0.07384037 -0.16016556
-0.006536914 -0.21698536 0.20458403
-0.04562866 -0.17772399 0.20886424
-0.02075104 -0.10007009 0.28119984
0.0792957 -0.1988219 -0.099932544
-0.011696221 -0.09977463 0.29110298
0.06983423 -0.23760839 -0.2645143
0.056289855 -0.07966777 0.22644131
-0.018907875 0.17015214 0.0288425
-0.008628804 0.010146177 0.19922952
-0.098687425 0.038053922 0.096457444
-0.07022539 -0.15684621 0.25156844
0.0123134125 -0.21671264 -0.080974035
0.0765723 0.047378097 -0.057304338
-0.06950811 -0.072698995 0.16083331
-0.007675581 0.11723167 -0.19580619
0.0064487164 -0.12768441 -0.10448937
-0.066332206 0.27665988 -0.033380244
0.13036148 -0.050822783 -0.12185544
-0.019612586 -0.1174429 0.29314387
0.057517044 -0.1698446 0.23877496
0.011065118 0.20022899 -0.02670348
0.071324326 -0.044163268 -0.060465075
0.123996794 0.034557257 -0.057151847
0.043331627 0.13391899 -0.27910006
-0.07298544 -0.1561997 0.29311883
0.07762902 -0.1463791 -0.2205341
-0.050946195 -0.19696355 0.24871463
-0.07573296 -0.009424596 0.09769352
0.040493075 -0.24132316 -0.04046311
0.04011723 -0.04746244 0.1583018
0.017273428 -0.18849413 -0.045948155
0.082643054 -0.0006469072 -0.05042812
-0.07996617 0.28046322 -0.10544406
-0.03768592 0.02856067 0.16169754
-0.06516575 0.30759865 -0.17615327
-0.0473715 -0.14735724 0.25520894
-0.124917835 0.17558132 0.06004236
-0.031941812 -0.01778834 0.25782192
-0.013096689 0.01786328 0.15044355
-0.044966627 -0.0111990925 0.15958509
-0.13336523 0.076274335 0.06538118
-0.052028183 -0.024776831 0.20761684
-0.015555118 0.09347869 -0.2014128
0.079593085 -0.06317218 -0.08856031
0.07417901 -0.01007828 -0.07648889
-0.044426113 -0.01141124 0.1979809
0.02978555 0.09383193 -0.26591107
0.021012297 -0.19297749 0.0046304353
0.03595723 -0.26787266 -0.15858747
-0.055953614 -0.14933135 0.2881938
-0.008870144 0.14559144 0.06660654
0.14565434 -0.008157558 -0.200547
-0.08729225 -0.10282955 0.1650104
-0.08590597 -0.08074949 0.24419917
-0.02991988 0.26085496 -0.27554402
-0.044470638 -0.022272574 0.19799387
0.03003329 0.15786657 -0.2396753
-0.07137335 -0.012735123 0.15966254
-0.02855559 -0.29236782 -0.06273587
-0.06369122 0.21510364 0.0007676342
-0.002616964 -0.14011256 0.30517682
0.03016366 -0.11945189 0.27909663
0.18703808 -0.021316385 -0.1751557
-0.015286533 0.07774665 0.10755184
-0.01641439 -0.087798364 0.27426416
-0.008549532 0.0732447 0.08796701
-0.04680372 -0.13828565 0.27039337
0.039965767 -0.053259946 0.24830405
-0.036119852 0.12397554 0.05384314
-0.079917185 0.24433918 -0.04745424
-0.0069775255 0.23243424 -0.31772435
-0.044872764 0.25258958 -0.04222505
0.0059863585 -0.1598994 0.284247
-0.14455895 0.265293 -0.037632056
-0.045986336 0.28223562 -0.21335134
0.010705863 -0.13939573 -0.027023133
0.030054152 0.08297044 -0.08239242
0.087958604 0.06152901 -0.04359955
-0.14309894 0.19900127 0.05013611
0.020028058 -0.03403098 -0.058715302
-0.020705799 -0.07771722 0.29453656
0.16594356 -0.026753116 -0.053178664
-0.02338371 0.008114425 0.16291271
-0.051730864 -0.0029323723 0.18763539
-0.05664123 0.12837128 0.06119246
-0.045234136 0.123946846 0.06622583
0.07538103 -0.13363864 0.17724226
-0.117494 0.15156354 0.063321225
0.044191442 -0.203192 -0.0004713248
0.04324694 -0.068308026 -0.11374753
0.0543076 -0.22564064 -0.12099577
-0.00819921 -0.05991646 0.24050562
0.03172022 -0.08514583 0.011455425
-0.01034377 -0.11346677 0.29662517
0.06879371 -0.24449393 -0.21015339
-0.11740795 0.2320998 -0.057209674
0.03493006 -0.1292527 -0.38177434
-0.06013628 -0.0015118794 0.17563455
-0.13521816 0.15569204 0.04886876
-0.02843042 -0.03432701 0.25966612
0.037602935 -0.14987776 -0.15609029
-0.0714979 0.11744688 0.074748196
0.044956166 -0.037412144 -0.4194945
0.013412076 -0.24159318 -0.028293619
0.0054026395 0.029482903 -0.051723793
0.051541355 -0.0060907206 0.17370772
0.077425 0.10317606 -0.11644535
-0.08074008 0.036109276 0.1555708
0.095242806 -0.12159946 -0.27065238
0.012817613 -0.17724247 -0.017666573
0.005999608 -0.005858965 -0.2535071
0.06935082 0.16148597 -0.30610517
0.0063406555 -0.06411883 0.26059636
-0.047670603 0.12165779 0.08477126
-0.080193944 0.20013237 0.010592766
-0.065994106 -0.07425054 0.21205483
-0.0044373716 0.13695742 0.039613336
0.12539606 0.12503463 -0.14809498
-0.06153499 0.16142431 0.030790973
-0.076244324 0.28883404 -0.05070235
0.04869676 -0.046199303 -0.4476414
-0.032497466 0.06480378 -0.25856555
0.007126039 -0.10093865 -0.2835599
-0.119804725 0.0539732 0.09256569
-0.021179918 0.054543667 -0.4378
0.05688494 -0.06807801 0.19320604
-0.015155219 0.16127789 0.035528686
0.058842637 -0.16883291 0.24726288
-0.018258853 -0.076459534 0.24426608
0.09403442 -0.05329017 -0.1321777
0.1316186 0.0011723276 -0.029661156
0.038212422 -0.14960349 0.2714306
0.034108385 -0.14374754 0.28182945
0.005598679 -0.03027585 -0.25267765
-0.0671264 0.14235212 0.06860178
0.049239732 -0.13015948 -0.19516185
-0.056369253 -0.0801517 0.21938854
0.02740731 0.18071125 -0.018838141
0.027117481 -0.01671929 0.18348186
0.061023414 -0.030157244 -0.23109946
-0.0028794524 -0.25464267 -0.031031623
0.077933416 -0.025735173 -0.08709739
0.021756101 0.17718983 0.0037602023
-0.09542285 0.28730866 -0.1843367
-0.020335494 0.030307518 0.10666547
0.019356214 -0.21421531 0.20754932
-0.05995358 0.023306478 0.14507201
-0.02297645 -0.21633999 0.24212423
0.015788656 -0.07969463 0.2599381
0.018122397 -0.08143004 0.23629625
-0.077355586 -0.105580635 0.27375618
0.09422136 -0.05691252 -0.3137321
-0.09214361 0.24766931 -0.10361436
-0.00046434422 -0.061943762 -0.20420688
0.049346663 0.10831164 0.02991835
0.03696339 0.22500673 -0.11315879
0.012535446 -0.13476683 0.19266908
-0.077589594 0.038786594 0.12533906
0.11280806 -0.19031996 -0.27103484
-0.004179378 -0.24061814 -0.027938278
-0.07319314 -0.07432858 0.21770209
0.06406967 -0.16516928 -0.1385846
0.00034671047 -0.2111332 -0.10185742
-0.049560685 0.1420264 0.06358427
0.024080297 -0.068357624 -0.25187987
-0.09011423 -0.06799819 0.09387535
-0.049882628 -0.1328458 0.24745888
-0.016668182 -0.036018405 -0.42382923
-0.08445688 0.10725629 0.10198783
0.08482355 0.06839964 -0.07950741
-0.010275935 0.2519896 -0.3497103
0.030406607 0.07949577 0.08948972
-0.07340912 -0.21237724 0.052866533
0.04544575 -0.12801696 -0.4252388
-0.0040234746 0.16355453 0.049344458
-0.08960659 0.17358649 0.08739937
0.0567738 0.12593012 -0.2503375
-0.06149398 -0.010241719 0.16134323
-0.001414624 -0.03504618 0.2571875
-0.0005456054 -0.25775874 -0.21907134
-0.13440245 0.28348696 -0.10609963
0.051824816 -0.08299102 0.21643613
0.027548026 -0.030821273 0.032383814
-0.03042953 0.29536492 -0.23709531
-0.052486047 0.25549388 -0.104289256
-0.003818017 -0.28757656 -0.21823725
0.0015286303 0.026273387 0.1278669
-0.0760493 -0.06865205 0.25673446
-0.106819235 0.13177378 0.05820581
-0.010859602 0.21884024 0.0015981969
-0.088503614 -0.14239326 0.270067
-0.044868965 -0.08413904 0.27954572
0.07939466 -0.15253684 -0.18078168
-0.035620578 0.23105684 -0.09489589
0.048504416 -0.052245427 -0.4316639
-0.06404993 -0.035866883 0.24229322
0.088805765 0.026156299 -0.035973933
-0.086238004 0.14407854 0.03568331
-0.031800143 0.15343155 0.05206125
-0.09277813 -0.049268737 0.20847578
0.003799592 -0.06577615 0.2536971
0.09185143 0.0032925406 -0.25566083
0.0945257 -0.023580274 -0.09993739
0.008026012 -0.28245768 -0.12891719
-0.0031262867 -0.040020008 -0.028265698
0.037308306 0.01858609 0.09834996
-0.072133884 0.021421056 0.18331476
-0.14382954 0.18797283 0.06525242
0.009826943 -0.23453936 4.9683273e-05
-0.036685795 -0.0058312044 0.17489955
0.026931452 0.058269102 -0.08430601
-0.04481044 0.06863191 0.10520413
-0.013802705 -0.031009853 0.07205859
-0.10455661 0.18098004 0.04246749
0.14011195 0.08941715 -0.057154145
0.028694205 0.17479502 -0.17827009
0.025733136 0.0060172933 0.12708977
0.025439292 -0.11164065 -0.43255582
-0.027729716 -0.10079019 0.2852337
-0.011604739 0.08276602 -0.39351496
0.095279515 0.047965463 -0.04661525
-0.07537614 -0.009040009 0.14160673
-0.05297373 -0.10648448 0.2478953
0.17741609 0.01495667 -0.23989412
0.13129024 0.13721086 -0.17135546
-0.093811266 -0.07263846 0.09394766
-0.0043237214 0.042635195 0.17094648
0.004181468 -0.124675326 -0.17015317
-0.013124741 -0.12407733 0.29103622
-0.00879459 -0.22197096 0.07442884
0.03010139 -0.16218373 -0.40587497
0.032078177 -0.07106309 -0.08642913
-0.049775034 0.10176403 0.07797549
-0.029674415 0.26821557 -0.26284102
-0.12681003 0.2849395 -0.10164632
-0.11807916 0.1432986 0.07559182
-0.046631396 0.13933207 0.08049525
-0.05371256 0.089709684 -0.15307273
-0.084533945 0.25701854 -0.060687795
-0.08579349 -0.06464581 0.10512276
-0.006246563 0.0040070936 -0.06689679
-0.07767249 0.22190061 0.006462812
0.07255988 -0.08318843 0.23971683
0.08490517 -0.060579263 -0.1366292
0.017414983 0.1929011 -0.16217344
0.0087623745 0.075319365 -0.43489817
-0.0747689 -0.12962882 0.19179553
-0.057119016 0.30793864 -0.17769536
0.0998859 -0.13570581 -0.2644189
0.06727155 -0.1582507 -0.032145295
-0.09442158 0.09376872 0.10051556
0.084942855 -0.20161304 -0.14444794
-0.075110465 -0.030693568 0.21061653
-0.064403504 0.22925928 -0.4097523
-0.00018231172 0.18509783 0.009032717
-0.020173898 0.057481367 0.100035876
-0.10951675 0.022386879 0.12986684
-0.041333176 0.008988315 0.20383133
0.018563867 0.04874007 -0.2722534
0.023874745 -0.081441216 0.2693917
-0.021646773 0.19760412 -0.36541218
0.06401419 -0.06842723 0.2269267
0.120576315 -0.06269814 -0.15618506
-0.026826246 -0.09527982 0.16367969
-0.029809982 0.0040724087 0.19022304
0.04788065 -0.12028415 -0.20163493
-0.02088416 0.079559974 -0.4290238
-0.10122977 -0.0015203778 0.16369496
-0.0073474417 -0.045250807 -0.20184427
0.03272707 -0.1981738 0.2501983
-0.011125578 0.04125401 0.16810606
-0.055197287 -0.14379658 0.21097475
0.020459536 0.14028299 0.052456994
0.08750682 -0.16674986 -0.36484614
0.019039497 -0.18455857 0.067681715
0.026020247 -0.25756592 -0.06436644
0.042598855 -0.14079641 -0.0071730325
0.113148846 0.04191372 -0.21782522
-0.081714526 0.22937466 -0.014416927
0.020067668 -0.13821281 -0.1583753
0.025987852 -0.26043522 -0.1372889
-0.054468222 -0.059872538 0.2557214
0.07953862 -0.25179395 -0.23303086
0.020553386 -0.009566956 0.17078729
0.0581321 -0.1275531 -0.21942951
-0.114168644 0.19179554 0.06884733
-0.09793842 0.11529494 0.09975011
-0.077978216 0.20253083 0.043293603
-0.057622686 -0.13742413 0.06539623
0.11547471 -0.15405591 -0.2592529
0.0070001427 -0.0038246766 0.20359533
0.073228 -0.03890516 -0.20035641
-0.10224009 -0.09115587 0.18634005
0.001181221 0.007725336 0.21180613
0.105062984 0.104108006 -0.10790001
-0.041912783 0.14347784 -0.41737053
-0.10215856 0.123204015 0.079882674
0.0016668366 0.081615664 0.085249946
-0.0014881945 0.11501447 -0.21922277
0.05621097 -0.014247221 -0.048422985
-0.005315175 -0.16365348 0.038584433
0.11280401 -0.08602258 -0.27125835
0.037956584 0.20393322 -0.24647678
-0.05043239 0.11888919 0.074986845
0.09358322 0.07717444 -0.09502073
0.13412194 -0.020920025 -0.03214328
-0.109714344 0.20430772 0.014820066
0.03751949 0.22231519 -0.19620791
0.14783101 0.10490366 -0.10681173
-0.011187636 0.19201827 -0.0427586
0.14393005 -0.006939313 -0.23604284
-0.002059041 0.044716932 -0.22548905
0.008530514 0.05970494 -0.4535009
-0.08477003 0.0374385 0.10642888
0.10943764 -0.063295394 -0.3151795
0.07762991 0.024960084 -0.044227652
0.06775812 0.13149786 -0.09223398
0.030199444 -0.22204037 -0.2992736
0.022415848 -0.15844044 0.020564845
0.16005957 0.013260177 -0.06313962
-0.022950027 0.088909574 0.09962787
-0.040957537 -0.120638564 0.26722157
0.038690347 0.009053985 -0.050559815
0.03912287 -0.0312584 0.15707365
0.15474355 -0.04280111 -0.047327783
0.017760128 -0.044875093 0.2583458
0.10009822 -0.055074196 -0.2709312
0.010493997 -0.0779278 0.2355126
0.16324982 -0.0721441 -0.1502514
-0.039507397 -0.18464169 0.21847774
-0.036932178 -0.10264367 0.28465128
-0.08223544 -0.031615604 0.17646864
0.045046832 -0.09366881 -0.010880545
0.0017135915 0.06260764 0.108327456
0.06277494 -0.21957925 -0.12302765
0.053796228 0.19988394 -0.27016234
-0.06020274 0.016389588 0.15899262
0.044489987 -0.016701182 0.14350234
-0.03264196 0.13967684 0.020839252
0.04343416 0.18520853 -0.011629602
0.08183689 -0.13518307 -0.21078606
0.04921611 0.20270231 -0.2594393
-0.06794987 0.2252238 0.011757893
-0.0059258356 0.19870847 -0.08825088
0.006919264 -0.10580963 0.29975858
0.016283026 -0.04028924 -0.4494439
-0.01449097 0.1608074 0.012883407
-0.050957974 0.25323886 -0.09307617
-0.07632863 0.29448524 -0.11296467
0.042163823 -0.209594 -0.12639317
-0.10315875 0.27021348 -0.09478785
0.043514952 -0.21360968 -0.29614416
-0.026993873 -0.1908147 0.04870365
-0.026732188 -0.060478967 0.097088985
0.068008035 -0.0041628173 -0.23090112
-0.11983302 0.24151222 -0.024256486
-0.022166613 -0.25622907 -0.021211235
-0.11468485 0.2266115 -0.04091453
-0.02847023 0.025329228 0.12700714
-0.104773015 0.013898948 0.11942137
0.016638607 -0.066611096 0.008493895
0.09671832 0.01891772 -0.061078645
-0.0083081545 0.15857102 0.006841771
-0.017901296 0.020616483 0.106049165
-0.04046452 0.010860614 0.19863836
-0.00037463583 0.22775652 -0.0634569
-0.0051292945 0.0056007574 0.22866707
-0.03536111 -0.14224236 0.27713257
0.057875868 -0.11742166 0.25898126
0.08447266 -0.06839463 -0.10235273
-0.034114044 0.056526057 0.13877225
-0.028789638 -0.25272378 0.0011652068
-0.070776835 0.23316373 0.061820395
-0.0410323 -0.08757671 0.30027652
0.116474085 0.0045153666 -0.053800173
-0.028402653 -0.029454766 0.23795584
-0.10338964 0.094746575 0.100064695
-0.08160844 -0.06462322 0.11734378
-0.055830523 -0.17308086 0.033401754
-0.11252172 0.014067123 0.12200248
-0.042095996 -0.20340362 0.02735834
-0.06684733 -0.10609809 0.21238874
-0.03306246 -0.15058094 0.08641702
0.024055818 -0.039206162 -0.064317025
-0.071595885 0.16843258 0.06631818
-0.06621283 0.31072038 -0.13769166
-0.0950819 -0.09055973 0.23893045
-0.09169436 0.10661342 0.067426145
-0.064579405 -0.038670853 0.19081739
0.046197213 0.07387169 -0.087649286
0.011861561 -0.21185422 0.25676715
-0.054289144 -0.13876028 0.28334987
-0.028413838 0.102345675 0.123518154
-0.0069436627 0.09699919 -0.23474517
0.1043473 -0.12326737 -0.30470082
-0.06794945 -0.10920863 0.2979224
0.052666564 0.14818092 -0.34426588
-0.10687843 -0.025476396 0.13441691
0.083773926 0.0059004687 -0.072908066
-0.08664131 0.1012299 0.09263343
0.020871636 0.079035774 -0.237645
-0.06643026 -0.095012076 0.10723046
-0.050782066 0.22175701 -0.0736065
0.060475785 -0.026826654 0.24289422
0.11125249 0.08454401 -0.19669515
-0.022079445 0.16699687 0.04163211
0.117389105 -0.09352419 -0.15873048
0.064456016 -0.1315788 -0.09458106
0.10491181 -0.022590026 -0.049180817
-0.09640195 0.20397523 0.052857853
-0.0965409 0.099159695 0.10572502
0.06419358 -0.005442166 -0.051251307
-0.090105005 0.16082296 0.06878205
-0.02260391 -0.006023282 0.24199156
0.03338344 0.19758849 -0.04335275
-0.103435785 0.04573159 0.11201856
0.045777436 -0.22617643 -0.077629656
0.074065484 0.06566527 -0.07201568
0.092081614 -0.18533805 -0.368715
-0.029043796 0.26069197 -0.0692804
0.017226987 -0.19377759 0.22359304
0.045235083 0.040364046 0.18034261
-0.11509718 0.09355315 0.084542505
0.062442277 0.03156391 -0.05237431
0.11398727 -0.0079240035 -0.0853442
0.06521349 0.15138705 -0.2492118
-0.06448372 0.25844914 -0.0657166
-0.12654884 0.038946576 0.10619939
-0.027405282 -0.1909922 0.03490977
0.020274881 -0.095868655 -0.09845694
-0.040276032 -0.17827937 0.23867641
-0.048876032 0.09957916 0.10563258
0.051554464 0.17292814 -0.28365028
-0.09856219 0.1742273 0.034021758
0.0009300323 0.19819725 -0.3895553
0.06083991 -0.14636505 -0.37508443
0.07573721 -0.054376952 -0.07843365
-0.036379263 -0.047488697 0.22458494
-0.055488616 -0.018312652 0.2220903
0.06732482 0.11140974 -0.09731324
-0.002497342 0.1598117 0.026974404
0.01137841 0.12181551 -0.39501378
0.058776125 -0.19162723 -0.07483401
-0.08013107 0.12669231 0.06406127
0.09473765 -0.15451458 -0.23029704
-0.11065148 -0.0129092345 0.14519836
-0.07511419 -0.114129 0.21862087
0.18335795 -0.0110393595 -0.24074653
0.003337003 0.020819938 0.11632698
0.010374993 -0.014318041 0.22237955
-0.07953666 -0.19752972 0.045491513
0.07183465 -0.15408137 -0.043221146
0.0011636317 0.045341533 0.14285326
-0.059435967 -0.13540071 0.29630107
-0.08486601 -0.011938652 0.20331758
0.030255428 -0.0017519767 -0.09256971
-0.07866167 0.30478257 -0.07980364
-0.036873534 -0.0013864656 0.20228678
-0.06571754 -0.09848951 0.26932612
0.033054106 -0.2104073 0.0036838853
0.022780515 -0.18530117 -0.00569778
0.05788892 -0.13045487 0.27876982
0.014170455 -0.16577671 0.043596104
0.10946233 -0.14379594 -0.24001716
-0.071888275 0.25919342 -0.046605468
-0.017257364 -0.15301175 0.06198151
0.06468476 -0.19081546 -0.107704215
0.03134015 0.0576113 -0.098034814
0.0014537604 0.09083957 -0.17485812
-0.095351465 -0.059646044 0.20206815
-0.098646216 0.3024582 -0.11939674
0.021226004 -0.08141794 -0.11173217
-0.08635963 0.2653569 -0.01931645
0.070647724 0.09896337 -0.31688982
0.022656078 0.18773523 -0.048858304
-0.023351246 0.06861579 0.120059274
0.022397242 -0.008989396 -0.4350443
-0.02919491 -0.113458164 -0.114752665
0.019124208 -0.1747097 -0.0020041885
0.08688308 0.015365768 -0.04684558
0.00842261 0.24006863 -0.3921687
0.08765648 0.08705403 -0.039016012
0.007818813 0.050716344 0.15282087
-0.030412545 0.16424014 0.036732048
-0.08729419 0.16651824 0.08162749
-0.10471699 -0.03818223 0.13018943
0.035033997 -0.2014762 -0.061962225
0.010541214 -0.08039701 0.14925976
0.1599077 -0.02787579 -0.06929674
-0.062125087 0.12456451 0.07726728
0.10952607 0.0663618 -0.025163276
-0.064595915 -0.13943957 0.04981129
-0.037045985 0.18495318 -0.01588435
-0.027429216 -0.1810955 0.07465538
-0.04964374 -0.14142889 0.14616635
0.08958589 -0.051916834 -0.20866641
0.004468178 0.039629623 0.19158994
0.0101998225 0.16333777 -0.23526134
-0.010235131 -0.08997789 0.1392936
0.0006664621 -0.0391238 -0.10515915
-0.011230302 0.25728765 -0.12554537
0.031946953 -0.23448242 -0.06635526
-0.13780692 0.20506573 0.05686718
0.05102113 -0.16932413 0.2717842
0.017195815 -0.06499077 0.008858772
0.02751749 -0.049262173 -0.103814736
0.012346983 -0.009928411 0.21372682
-0.004960854 -0.14289907 0.28235868
0.037574537 -0.14868908 -0.012475676
-0.006709719 -0.2732378 -0.07249651
0.022073109 -0.08078709 -0.40709412
0.13665314 0.008141071 -0.054175183
0.00988315 -0.16397515 0.06126669
0.11522321 0.04057441 -0.04706513
-0.06950594 -0.025567075 0.21194537
-0.03396548 0.1490599 -0.40106487
0.008201744 -0.2588579 -0.11790861
-0.115077 0.28106758 -0.1730356
-0.01975994 0.14086112 0.06325815
-0.010345395 -0.10529663 -0.04665067
0.013292663 -0.16793072 0.19331501
0.06965452 -0.15723628 -0.0680965
0.056803085 -0.029387334 -0.048577722
0.03341005 -0.28242102 -0.1412259
0.09148589 0.041986194 -0.21211457
0.020084906 0.13436005 0.03659684
0.025444534 0.09170039 0.07608418
0.011586455 0.05498105 -0.40992066
0.011611622 -0.09887197 -0.34174567
-0.054627914 0.17756514 0.019878209
-0.052773435 -0.18109046 0.23137729
0.0065423828 0.27088037 -0.14775495
-0.048693653 0.15004611 0.034271203
-0.049386855 -0.07666782 0.25653794
0.007582936 0.19786246 -0.079508714
0.03540605 0.000932699 0.2068572
0.14864625 -0.009347177 -0.04415528
0.046362307 -0.09208472 0.28576162
-0.021429216 -0.21898106 0.061963458
0.006399181 -0.035903662 -0.2748921
0.08350269 -0.1957808 -0.15927216
-0.070498444 0.30731893 -0.119813256
0.021779653 0.037479494 -0.08640265
-0.02025297 -0.012143443 0.20822015
-0.053758886 0.17270762 -0.18690301
-0.014262694 -0.033965785 0.21491815
0.015338092 0.15727791 0.0068374723
0.13401568 0.032643937 -0.030616757
0.0045983456 -0.071794644 0.28983358
-0.054974638 -0.13650155 0.31383583
-0.08590856 0.08428548 0.1009962
0.039603963 0.060095135 -0.08146836
-0.12637049 0.02040726 0.13038586
-0.04987898 -0.20593216 0.049714565
-0.058084626 -0.12656116 0.20724642
-0.10184455 -0.11125724 0.109934166
-0.04951152 0.029499395 0.15551713
0.025633978 -0.2631492 -0.12954247
0.008841326 -0.11507279 0.26272658
-0.039898027 0.26256886 -0.14084202
0.029589633 -0.013256794 -0.32270235
-0.04916023 0.20666012 -0.004017962
-0.031393208 0.14848004 -0.4164018
0.017594013 -0.0035934893 -0.2842855
-0.0078013963 0.06037671 0.088883005
0.07278989 -0.14527248 -0.13239491
0.15184715 0.05426226 -0.056523837
0.14657393 0.016810415 -0.024175195
-0.07518234 0.18703207 0.0049715443
0.04228528 -0.07991741 -0.14488524
-0.045391317 -0.14328863 0.30148175
0.015216908 -0.105763994 0.3278089
-0.028006617 0.083663404 -0.09108184
-0.032419186 -0.25999683 -0.005276577
-0.052750114 -0.11030045 0.23179743
0.051012546 -0.13098218 -0.127604
0.026093615 0.100574456 -0.008553508
0.10485494 0.07521629 -0.075004324
-0.000990765 -0.09826437 0.3226759
0.060429037 0.018882388 -0.24478179
0.03993892 0.093160406 -0.081439115
0.024577213 0.09791384 -0.06511361
-0.02480813 0.19957128 -0.3568417
0.15760759 0.11048363 -0.07931022
0.08284628 0.010386059 -0.2530177
-0.08858114 0.060365397 0.10168476
-0.045588903 0.19628106 -0.013783199
-0.0015993176 -0.0948475 0.29550406
-0.07278086 -0.05652546 0.10936877
0.11186572 0.0148778 -0.21749632
0.047898438 -0.027000057 0.19320463
-0.10631531 -0.0044820695 0.109045915
0.08640016 -0.010306818 -0.071492635
0.0380329 -0.009201591 0.21928653
0.008382755 0.13651392 -0.2316752
-0.10259938 0.28228667 -0.18766691
-0.0077059325 -0.07801929 -0.08776418
-0.08627143 -0.032639846 0.13509665
-0.008375607 -0.13163579 -0.11153649
-0.101832956 -0.034402017 0.13819909
0.027450755 0.2071169 -0.35131934
-0.053613357 -0.09005444 0.22816117
0.018108658 -0.21739689 -0.02731946
-0.0071125533 -0.09771071 0.01745419
0.027684297 -0.021219004 0.09442776
0.020145873 -0.2189256 0.05475574
0.030995246 -0.29140615 -0.22074659
0.03957407 0.089675106 -0.09599334
0.072575234 -0.012015259 -0.0650138
0.040864766 -0.09000193 0.25158468
-0.022271942 -0.009618022 0.1903043
0.0023415396 0.047200423 0.16878228
-0.041040923 0.2680226 -0.23376995
-0.005626707 0.13934837 -0.39892796
0.04365434 0.14417215 -0.19480374
0.024603818 -0.22939551 -0.33022597
0.114765614 0.009162978 -0.21185514
0.05451919 -0.27514178 -0.21838409
0.03728186 -0.11954652 -0.079233564
0.021818934 -0.019016203 -0.08571996
-0.10878085 0.069928594 0.09443554
-0.093518965 0.14163475 0.071893975
0.03850918 0.20708358 -0.1838692
0.112318955 -0.029807178 -0.08367011
-0.029107254 -0.09071953 0.27582577
-0.09571166 0.09486879 0.08404474
0.20377111 0.025729947 -0.21377724
-0.092279814 -0.15201582 0.2918553
0.14200693 -0.026198413 -0.13610105
-0.005940735 0.035885267 0.12556572
-0.10274366 0.027164275 0.10418828
0.0044153356 0.013718607 0.1579218
-0.124165244 0.25373942 -0.061748303
0.15631783 -0.02111564 -0.051758472
0.034631062 0.14345358 -0.096076295
-0.04350299 -0.02133681 0.23470181
-0.0021549806 -0.0805657 0.042220164
0.0012223527 0.119541615 -0.018709496
0.18828852 0.024702258 -0.24383268
-0.05186685 0.15244472 0.083898775
-0.02675485 -0.1269118 0.29623207
-0.1267628 0.26067865 -0.07220672
-0.027626444 -0.012339565 -0.036512252
0.07747385 -0.04845767 -0.28570566
-0.07543949 -0.12197631 0.29942644
-0.0010253168 -0.00023065151 0.20698284
0.09657104 -0.18072282 -0.15740183
-0.006454079 -0.041399222 0.21669568
-0.0652349 0.26943856 -0.042650845
0.012151367 -0.18495683 -0.0073492886
-0.020281848 0.2588704 -0.27685785
0.017271085 -0.078536145 0.261438
-0.10063551 0.09934022 0.0899145
-0.07752337 0.022434717 0.12556319
-0.015391607 0.03253816 0.13961439
-0.021902088 0.11272699 -0.19156814
-0.05789645 0.18536125 0.015325717
-0.118089244 0.13085112 0.08939861
0.009634051 0.13529634 0.035929475
-0.061549835 0.29256245 -0.117911585
-0.0815098 -0.06655298 0.19924863
-0.008779814 -0.016432803 0.2160755
-0.00045838932 -0.14875768 0.03568207
-0.06920183 0.24977362 -0.0035656474
-0.10618168 -0.09876007 0.100902155
0.099667996 -0.050326426 -0.06387609
0.012353484 -0.08531735 -0.107304625
0.09514897 0.02488202 -0.07101566
0.02163652 -0.052058153 0.2662429
0.06337581 -0.118801236 0.26446232
-0.13351984 0.24870005 -0.07372584
0.072643414 -0.033000175 -0.08560041
-0.008883144 -0.0529169 0.08728265
-0.12193314 0.09232949 0.081391074
0.036757078 -0.060984075 -0.31962192
-0.00089648296 -0.22918263 0.024838546
0.15758732 0.102885716 -0.11144329
0.049857747 -0.06522227 0.20877728
-0.08819911 -0.031188441 0.0885193
-0.07869677 -0.12361219 0.09326919
0.14047627 -0.057566117 -0.09422726
0.14436977 -0.0112881875 -0.21483605
-0.047808588 0.25164416 -0.22528796
-0.010089382 0.2001122 -0.068303265
-0.11545224 0.18394579 0.043924812
-0.07419787 -0.033012252 0.1828726
0.034632653 -0.041968435 0.13661966
0.0019516894 -0.2334829 0.052520078
-0.052542035 -0.04669937 0.22918966
0.017192414 -0.12267873 0.028184826
-0.11160959 0.24418932 -0.08391243
0.07715955 0.04968263 -0.03471935
0.03726756 0.12432744 -0.28876123
0.011124167 0.25523922 -0.11389554
-0.023443095 0.15512577 -0.2686436
0.06890286 0.021334317 -0.050813694
-0.133383 0.15229525 0.07985884
-0.1113587 0.034676038 0.11447014
0.0040417896 -0.021652762 -0.44636604
-0.0033795182 -0.048350107 0.22863798
0.00028562258 0.011175635 0.13045745
-0.06535014 0.15863547 0.085126884
-0.002701963 0.02730058 0.176809
0.048673183 0.2145626 -0.1853419
-0.0055226893 0.057312027 -0.2724497
0.07269281 -0.026148604 0.15910266
0.11038275 0.06977333 -0.056773536
-0.047694843 -0.08180565 0.10646502
0.030406857 -0.10652241 0.2572303
-0.024509765 -0.05430696 -0.024644071
0.03297932 -0.16843241 -0.017670592
0.022472525 0.11720454 -0.16613369
-0.020982644 0.16573562 0.018118314
-0.057414427 -0.056970842 0.12425691
-0.08786848 0.24311686 -0.00978768
-8.3838124e-05 -0.025108678 -0.22505552
0.02208884 -0.16040604 0.06050782
0.030445892 -0.06323297 0.2236431
0.03404744 0.20522939 -0.12974927
-0.118306525 0.26423928 -0.08097047
0.10894691 0.112614594 -0.08331113
-0.056255218 -0.00871387 0.23326771
0.057456654 -0.13550705 -0.40880308
-0.09224775 0.07519947 0.10913956
-0.11149732 0.13099334 0.07142011
0.14418803 -0.039352 -0.09801645
0.03258327 -0.002827443 -0.09163586
-0.07691507 0.21764454 -0.011160528
0.043588508 0.18842015 -0.1501958
0.008970478 -0.15555106 -0.40569758
0.012761305 -0.117193915 0.29023054
-0.006260841 -0.22055274 -0.0034236012
-0.041611046 0.27861443 -0.23667462
-0.06804557 0.17170417 0.04608965
-0.062938176 -0.038264647 0.24013421
-0.040141672 0.2659813 -0.16409752
-0.018476162 -0.06865492 0.29076833
-0.036182076 -0.17831549 0.06816365
0.006357672 0.110782795 0.0074622896
0.12165213 0.0981151 -0.07697543
0.008676524 -0.26092657 -0.023307128
-0.088279836 0.2509636 -0.027813362
0.09578824 0.071734734 -0.05780248
-0.064362206 0.025740633 0.13040441
-0.015695104 0.19151622 -0.28491402
-0.13534978 0.081115894 0.07834181
-0.013702545 -0.24128354 -0.046229813
-0.01681456 0.22487915 -0.09124061
0.062017284 -0.017591078 0.18350787
0.06614747 -0.0007943306 0.16132514
0.0550457 -0.13862742 0.27636617
0.15179946 0.07673486 -0.19339763
0.111447096 -0.10930284 -0.26358786
0.029903902 -0.18435511 0.2509534
-0.011520694 -0.06821056 0.26643836
0.10309164 0.03252752 -0.025427438
0.18551178 0.0076760454 -0.19348016
-0.09303441 0.2364385 -0.034893844
-0.014541736 -0.17540734 0.06845828
0.051342297 -0.14132656 -0.12854186
0.09934791 0.073603235 -0.3250868
-0.08182439 -0.05116146 0.10382649
0.022681182 0.0630953 0.03940276
0.04473478 -0.07312993 0.16695726
-0.043700155 0.26320773 -0.0740559
0.009868364 -0.1145973 -0.071476385
-0.012159785 -0.21272904 0.07606577
0.024375387 -0.083523065 -0.04872649
-0.036582816 -0.06152529 0.24778895
0.022472229 0.09598731 -0.15141077
0.03883292 -0.13375074 -0.41118714
-0.04932778 0.23262833 0.05092019
0.02154268 -0.09680583 -0.2968101
