# .PCD v0.7 - Point Cloud Data file format
VERSION 0.7
FIELDS x y z
SIZE 4 4 4
TYPE F F F
COUNT 1 1 1
WIDTH 1000
HEIGHT 1
VIEWPOINT 0 0 0 1 0 0 0
POINTS 1000
DATA ascii
-0.051372446 -0.05870065 0.2023798
-0.20543377 0.032531183 -0.26901913
-0.036099117 0.09058908 -0.09437997
-0.23797303 -0.004981333 -0.30332655
0.1407583 -0.10323013 0.19562641
0.18792026 -0.043004327 0.17720528
0.04376842 0.090183645 0.23026721
-0.12485813 0.009405974 -0.17579776
0.044335358 -0.18404397 0.21729831
-0.11770979 0.2392327 -0.23804763
-0.0109296795 -0.029153703 0.23997955
-0.09973066 0.053937398 -0.13036962
-0.16218953 0.07967524 -0.24196777
0.16188957 -0.091366746 0.27456355
-0.20428339 0.09890581 -0.2823979
-0.0014586794 -0.091996245 0.23557003
0.04117074 -0.15999548 0.23128949
-0.18798618 0.039339144 -0.31068328
0.009975565 -0.078895606 0.22189453
0.04855963 -0.101299554 0.23303033
-0.0009839588 0.01254394 0.1981639
0.03138485 -0.0099098515 0.22691469
0.047361244 -0.19022152 0.20817147
0.14017774 -0.0988835 0.26303938
-0.069097176 0.197476 -0.297697
0.09586873 -0.17559867 0.07724786
-0.03439202 -0.01062356 0.18628576
-0.043435197 -0.15244055 0.18761992
-0.14909382 0.027780037 -0.19856307
0.013968837 0.015069316 0.21029247
0.017620554 0.016561165 0.1041915
-0.16346528 -0.04654039 -0.36929968
0.09332227 0.10794075 0.15479966
0.26214728 -0.03843774 0.10286106
-0.1593591 0.018201284 -0.26342487
0.13050778 -0.1447309 0.2688032
0.21282119 -0.16562866 0.08904414
0.14499433 -0.0001790606 0.23166026
0.094700955 -0.23769782 0.0870802
-0.043071803 -0.0065927645 0.19662225
0.22619398 -0.018684175 0.07540498
0.06610528 -0.0877057 0.26949
0.011111914 -0.14639728 0.15675999
-0.0069919433 -0.10274643 0.2177023
-0.11927608 0.006230136 -0.15487313
-0.11754832 0.06000579 -0.2054126
-0.046147827 0.032696668 -0.39212018
0.2068807 -0.002515133 0.13063288
-0.23469311 0.002466656 -0.27461252
-0.03911271 -0.19543418 0.15033747
-0.15109065 0.0959132 -0.25349566
0.15477458 -0.22001396 0.11657393
0.08077859 -0.055260163 0.26723218
0.1146265 -0.1413393 0.19920596
0.035532277 -0.23537113 0.14545374
-0.06774984 0.024082521 -0.07923198
-0.1852025 -0.03946852 -0.31924507
0.03189176 -0.027185842 0.27895296
0.27786025 0.0055505927 0.05053052
0.15419489 -0.2146726 0.069329895
0.20978276 -0.15151867 0.074388556
0.17907564 -0.13954638 0.14529516
-0.04471974 -0.23357315 0.14768328
-0.039805796 -0.17044714 0.16359493
-0.11073018 0.21246855 -0.38596168
-0.19272962 0.21403521 -0.32720804
0.038337585 -0.066231616 0.25486752
-0.082973376 0.16791587 -0.3629095
-0.1372915 0.18483089 -0.28511813
0.053124316 -0.06261604 0.23159751
0.0042328713 0.06988307 -0.13349923
-0.04215378 0.09899417 -0.12443891
0.19843096 -0.14342853 0.08946116
0.12151334 -0.029403979 0.22665222
0.21934381 -0.09783037 0.19851735
-0.091413215 0.18088269 -0.27551335
-0.03631549 0.044657473 -0.3505916
-0.14173916 0.08127376 -0.26838008
-0.013868413 0.09234707 -0.26983145
0.12172031 0.06619993 0.17516659
0.014191068 -0.15905163 0.17058675
0.057014883 -0.0016021442 0.2612445
-0.022304147 0.047679916 0.21409628
-0.105280526 0.0069801477 -0.23609504
-0.19978593 0.15510096 -0.26465422
-0.19596358 0.08026664 -0.27296767
0.08838324 -0.1260032 0.2542833
-0.16546147 0.10026992 -0.2505763
-0.0049190214 -0.13111162 0.18535179
-0.27257904 0.14855452 -0.33547458
-0.1809942 0.04991354 -0.30169952
0.14508636 -0.1816224 0.1552408
0.05914046 -0.2435411 0.07938969
0.046363767 0.003407469 0.239891
0.053181063 -0.07578948 0.2387188
0.15082793 0.07069221 0.15587018
-0.14165962 0.0013690499 -0.3305783
0.1413527 -0.07626561 0.25409526
-0.0034022932 -0.008826906 0.21314102
0.009228083 0.19818272 -0.3605903
-0.1067305 0.005985898 -0.32919744
-0.054641094 0.07964062 -0.13912001
0.07650627 -0.099685535 0.22978476
0.11709071 -0.12843895 0.2724502
0.07383646 -0.07470093 0.20799349
0.0895914 -0.08194126 0.2277656
-0.11489164 0.11938281 -0.19546133
0.105063014 0.053014923 0.20201793
0.1938337 -0.1751155 0.0795456
-0.061076842 0.07529168 -0.38792333
0.12113016 0.12162896 0.17064327
-0.065784745 0.094503686 -0.14344047
-0.26510105 0.063442394 -0.40421462
0.17216565 0.0039227204 0.17399506
0.16033159 0.09152103 0.15032795
-0.06251211 0.16981359 -0.29312304
0.0040266584 -0.15238343 0.19285287
0.06406197 -0.095515184 0.22540215
-0.08186539 0.117252 -0.2386356
0.23352009 -0.04414906 0.08413368
0.05035346 -0.18009523 0.19133146
0.2419359 -0.10239146 0.16440801
-0.26843265 0.13068654 -0.33108014
0.006124549 -0.1285907 0.16997851
-0.058697186 0.1743277 -0.3059631
0.14008398 -0.10980527 0.2427155
0.1382866 -0.013272537 0.22396247
0.05674011 -0.05111198 0.23237072
-0.1476658 0.08795002 -0.2164793
0.04402778 -0.11543855 0.24605682
0.026790783 0.0015934971 0.05987554
-0.08612548 0.21053627 -0.3828418
0.076815 -0.14981757 0.21447347
0.21406792 -0.0632291 0.1319011
0.011723591 0.121310264 -0.3242947
-0.2137078 0.17226477 -0.34354854
0.14909649 0.057164792 0.15350743
0.10318138 0.024452869 0.20553307
-0.08983504 0.22224225 -0.30373517
0.07414023 0.09046471 0.2057796
-0.26744044 0.014222476 -0.3323071
-0.1890544 0.0575324 -0.31057566
0.19944938 -0.10424531 0.23688482
0.07529145 -0.12111416 0.22578013
-0.06631687 0.033865415 -0.11672739
-0.25641954 0.018461904 -0.38887033
0.021996047 -0.11745689 0.18989141
-0.091240704 0.05196299 -0.07005867
0.138067 -0.043160487 0.25763938
0.18396115 -0.089674644 0.25377238
-0.22252843 0.044755332 -0.30248472
-0.02501323 0.112155326 -0.1512155
0.05924021 -0.07117794 0.25565332
-0.13608178 0.063090235 -0.18697818
0.17892963 0.013977638 0.11281598
-0.062320236 0.012674625 0.00020654277
0.0021773442 0.029448422 0.2553054
-0.022935934 0.08901252 -0.17576408
-0.25494143 0.07917679 -0.32084772
0.14332281 0.044265885 0.18664151
-0.25005078 0.11157826 -0.24735531
-0.24660528 0.12277489 -0.29781294
0.1750694 0.017828105 0.1738105
0.027476717 -0.19252867 0.16343883
-0.1711039 -0.06115615 -0.31669626
-0.15373959 0.008737031 -0.31189817
-0.040361505 0.03804089 0.1952407
0.13777733 -0.18862508 0.08583754
0.17621386 0.007369641 0.2070233
0.16285083 0.005355251 0.23743303
0.06828853 0.090138 0.16668478
0.024148654 0.070383996 -0.050836038
0.11376789 0.09851619 0.18898694
-0.206662 0.06548762 -0.32624772
-0.29026496 0.14487128 -0.3077428
0.04332564 -0.13867146 0.24526773
-0.08975866 -0.032817338 -0.367941
0.14551246 -0.21848647 0.05959037
-0.02640681 0.093462564 -0.39647916
0.030573143 0.08997225 -0.06150128
0.24754637 0.041762043 0.05975364
-0.14701118 0.0382103 -0.29052988
-0.11200954 -0.008066747 -0.06565215
-0.2098598 0.11493656 -0.26508746
-0.165425 0.17577986 -0.27300125
-0.0024288085 -0.1549729 0.18432194
0.1453773 -0.093130365 0.283191
0.28592458 -0.05961915 0.08578134
-0.1668096 0.059597034 -0.25946245
0.08897869 -0.13464689 0.21102656
0.16312861 -0.042329893 0.20451088
0.06607198 -0.0663134 0.24630935
-0.17790315 0.13688907 -0.26978135
-0.1052378 0.18440631 -0.3909042
0.09116233 -0.14596555 0.20316198
-0.21774921 -0.010355309 -0.37939373
0.05667701 0.09084497 0.20309626
-0.11564855 0.045533575 -0.16192855
0.014529053 0.06782347 0.21726754
0.07972534 0.039591 0.20037656
-0.12700634 0.18089268 -0.30582777
0.1999679 -0.19594924 0.10264762
-0.0030102432 -0.01859511 0.17847101
0.010003314 0.0548615 -0.3856316
0.1864206 -0.048978355 0.17356117
-0.059145544 0.06621469 -0.1123531
0.2102112 -0.14763118 0.13449833
0.17508803 -0.17641498 0.056472417
-0.057813004 0.18333896 -0.278049
-0.079166554 -0.013118552 -0.35026112
0.21913141 -0.119693734 0.05488783
0.16322143 -0.14404437 0.17127101
-0.16894609 -0.043600474 -0.30937937
0.049609493 0.019139493 0.009757481
0.14914533 0.051858418 0.15384747
0.15770453 0.02517285 0.18887763
-0.17886385 -0.030952113 -0.34534663
-0.24989504 0.16741273 -0.35203943
0.14064468 -0.15204673 0.23688352
-0.1279184 0.24826807 -0.358272
-0.09173842 0.21476078 -0.34120664
-0.070392676 0.1464868 -0.3266653
-0.21458991 0.089674994 -0.22925901
0.13325545 -0.1595989 0.21326905
-0.09927201 0.17322513 -0.29052594
0.024030775 -0.0039518313 0.19276756
0.15228133 0.035906397 0.20224132
-0.19839469 -0.06333906 -0.36062008
-0.18575422 0.15445934 -0.23039752
0.20195854 -0.1704747 0.06408685
0.14756554 -0.012328258 0.24516155
0.14666227 -0.1658233 0.18443684
-0.01712649 0.109757446 -0.35965586
-0.12927803 0.16364469 -0.257254
0.05445152 -0.10027556 0.28011787
-0.07509377 -0.028630638 -0.037535295
-0.20257735 -0.01175649 -0.3329908
-0.21248776 0.16606009 -0.25438786
-0.027893895 -0.15638778 0.16366903
-0.029684823 0.008187519 -0.40594178
0.13994724 -0.108944125 0.28362337
0.115879916 0.07561217 0.17444319
0.07847056 -0.18422744 0.13481912
0.17145327 -0.018968517 0.22040719
0.11952535 -0.054050375 0.2702334
-0.1811609 0.22502455 -0.38752395
-0.044693936 0.17328005 -0.3616157
0.13609442 -0.099196434 0.2354324
0.16325001 -0.13131988 0.24560809
0.06110216 -0.058006186 0.28835526
-0.24526359 0.01262733 -0.3233837
0.18654934 0.013239898 0.24525224
0.15105702 -0.050415706 0.24559894
-0.22402819 0.042517386 -0.3279878
-0.008259986 0.012418832 0.21551614
0.15593314 -0.19198887 0.08844259
-0.024326013 -0.022045927 0.21360148
0.16332768 0.091495566 0.15233856
0.07016312 0.04951265 0.21157217
-0.22367397 0.008286721 -0.33665136
0.005280946 -0.22608203 0.12877221
-0.15805173 0.012370239 -0.32025772
0.19138706 0.084236324 0.12058981
-0.20937248 0.07318254 -0.26711136
-0.035794705 -0.22336385 0.14105545
0.052663065 0.04194817 0.23333962
0.19199038 0.0050650267 0.22119579
0.022603868 -0.037347477 0.24580191
-0.114047274 0.12440864 -0.26301107
-0.28294063 0.079740696 -0.33765814
-0.21173534 0.17832449 -0.2768263
0.082194656 -0.19572526 0.1344348
0.096456535 -0.06244213 0.2488826
0.19640918 -0.10193218 0.20367315
-0.0033232125 -0.01602409 0.080807164
0.090452075 0.11273154 0.18734804
0.08414857 -0.19132896 0.1750758
-0.18966135 0.1208392 -0.25734246
-0.06207846 -0.08091818 0.19348705
-0.21891509 0.00071901246 -0.31497377
-0.04242697 -0.10827106 0.22349876
-0.06636633 0.01928628 -0.09306906
0.073893726 -0.0013577227 0.26061365
-0.07549584 0.17624208 -0.32391104
-0.0070775836 0.13178472 -0.34234297
0.024957724 0.08328131 -0.054605234
0.17297779 0.08139287 0.12525167
0.22694477 -0.049267 0.14618675
-0.25526506 0.081904076 -0.2599849
-0.056987524 0.006171763 0.22211865
0.23533115 -0.0016016656 0.13842057
0.1228974 -0.0015515523 0.20820013
0.03428476 -0.25526476 0.10890376
0.023846459 0.04249534 0.20791613
-0.19240205 0.056575637 -0.2827071
0.15093853 0.10705079 0.18433917
-0.05893112 -0.10217226 0.1801779
0.12370462 0.12660614 0.1612222
0.13204119 0.0069852606 0.24045612
-0.27968562 0.083936594 -0.36333725
-0.017482748 0.039538257 -0.37641728
-0.04456388 -0.11202083 0.18289587
0.12149804 -0.19540761 0.18288937
-0.08897023 0.004628951 -0.17728738
0.16037863 -0.009411363 0.21802348
0.18867502 0.02835937 0.090157144
-0.07882182 -0.12471034 0.19065793
-0.019030422 0.08015824 -0.13807584
-0.04006225 -0.031878598 0.22394751
-0.14330727 0.09230604 -0.1736803
0.17121914 -0.14646721 0.24638969
-0.011546168 0.055188607 -0.38084146
0.17032836 -0.10505904 0.18967575
0.16137859 -0.18451983 0.19313352
-0.05354708 0.031596582 -0.34868616
0.044969156 0.05543664 0.21213634
-0.012113739 0.08151044 -0.3579103
-0.15836985 0.20553555 -0.2758015
0.015329581 0.007738328 0.06286924
-0.2035646 0.013369243 -0.27372238
-0.055867728 -0.14333752 0.16783728
0.12045585 -0.13113782 0.2702934
0.108884566 -0.21108858 0.08434763
-0.061759416 -0.09082222 0.18480317
0.20268944 -0.11407835 0.15744472
-0.028059475 -0.16879994 0.14683954
0.06679906 -0.10858895 0.2379138
-0.030736554 0.0071010743 0.2576317
-0.23630147 0.1097302 -0.28871667
0.14219439 0.059449162 0.17306079
-0.09283672 0.16071182 -0.29808044
0.19774109 -0.15133306 0.23287268
0.20765316 -0.06836992 0.18159157
-0.2244358 0.16801512 -0.2906411
0.046365093 -0.083325386 0.2647267
0.0020447574 -0.068362355 0.21934488
0.06320571 -0.017778995 0.2160887
-0.21973152 0.14484368 -0.29175195
0.06193269 0.09831636 0.16944382
0.00180532 -0.046498273 0.19019349
0.14747207 -0.101256184 0.27902603
-0.08842469 -0.017524108 -0.076274455
0.22693445 -0.11246731 0.141813
0.13536195 -0.15498677 0.27391094
0.023772733 -0.07730136 0.24697399
0.12316179 -0.011760008 0.2541654
-0.25230435 0.01606764 -0.2901591
0.09726959 -0.065556586 0.2428578
0.14688344 -0.098361045 0.29383546
-0.18824981 0.027837735 -0.30923286
0.1354238 -0.1766807 0.1775339
0.04001686 -0.022009535 0.24866676
0.16292922 -0.14937454 0.18576936
0.090845264 -0.20255138 0.207779
0.01827881 0.023742365 0.19682
-0.08724729 -0.15644449 0.15955974
-0.1524505 -0.038648095 -0.36374533
0.017145874 -0.21510579 0.1497638
-0.082941905 -0.10126558 0.18581952
0.07209171 0.072004154 0.2356402
0.22530988 -0.02573377 0.17752527
-0.028159296 0.16576366 -0.31000906
0.03519651 0.0208005 0.24937885
-0.04896579 0.011540814 -0.007512135
0.043345984 0.033961177 0.21443771
-0.17801873 0.032481372 -0.31813872
0.22418897 -0.019862084 0.18137844
0.26968145 -0.07088706 0.0576222
-0.072515085 0.09190162 -0.21691453
-0.04927612 -0.026634453 0.2008951
-0.09097332 0.09163289 -0.20238814
-0.040417567 -0.15467966 0.19454959
0.11279757 -0.13250329 0.21098377
-0.2038508 0.09161361 -0.25332874
0.19404405 -0.15148051 0.0664923
0.08447928 -0.0016801066 0.23253165
-0.12781118 0.14924003 -0.2634203
-0.19202395 0.13110268 -0.2763233
0.1624249 0.07408704 0.1426812
0.094003946 0.088285476 0.17316318
-0.045666505 -0.10019285 0.18882221
0.0441027 0.016302982 0.199209
0.17483084 -0.013709077 0.21247272
-0.02966312 -0.033547476 0.056677833
0.12462888 -0.0020967217 0.19613151
-0.09878426 0.21911699 -0.31095383
-0.0070549296 0.10518227 -0.13657574
-0.056360573 0.19267246 -0.38229564
-0.06366395 0.2153646 -0.3074801
0.1523086 0.09375669 0.14934652
0.052306768 -0.17617705 0.2078205
-0.17541969 0.22343636 -0.24109621
0.076161474 -0.06262522 0.23944657
-0.11563559 -0.022712754 -0.14651988
-0.044169795 0.10208192 -0.3867907
0.24765483 -0.09763736 0.08571541
0.08572679 -0.20267951 0.14428103
-0.10350849 0.21170701 -0.2584458
-0.00962476 0.08492355 -0.20257653
0.18713193 -0.20252635 0.06191734
-0.0946389 -0.121430464 0.18785754
-0.027079394 0.0394663 -0.33134425
-0.15340415 0.18731563 -0.30984938
0.006343628 -0.149741 0.18414035
0.23493315 0.026196023 0.12519617
-0.07867062 0.1117244 -0.18600878
0.06591633 0.03955503 0.20341529
0.15480632 0.10378941 0.18301608
-0.018233545 0.055741027 0.18838102
0.04779028 -0.1746742 0.13350321
0.19938739 -0.11183648 0.16044928
-0.030323097 -0.2169091 0.113628805
-0.10621459 0.18718389 -0.29326192
-0.05523455 -0.050620925 0.19328716
-0.03815229 -0.006125601 -0.023033109
0.14209163 -0.23124574 0.059080847
-0.09164216 -0.010724643 -0.260264
-0.0054474706 -0.17109552 0.13052644
-0.16747865 0.2086485 -0.38218868
-0.04644624 0.053997442 -0.08037459
0.1952032 -0.0689506 0.17586392
0.18538596 -0.011433151 0.15862453
0.10780615 -0.019445742 0.27699947
0.2386022 -0.0018346399 0.08854228
-0.13012254 0.043049425 -0.20127688
-0.024288809 0.013464298 -0.36904627
0.1479069 -0.16083908 0.18935588
-0.06349038 0.13378663 -0.2694034
0.14703803 -0.06318993 0.2120363
-0.029390609 0.111986965 -0.36139387
-0.14194903 -0.0057544215 -0.220546
-0.10672831 0.12452658 -0.30515835
0.23530897 0.06892775 0.08469619
-0.23767361 0.18890834 -0.30237857
0.08829608 -0.12973267 0.21440585
0.14259103 -0.13223873 0.2406521
-0.013513242 0.021358741 0.187933
-0.11308173 -0.00076655304 -0.14222541
-0.045267463 -0.018813794 0.21068406
-0.15477723 0.062431045 -0.28613856
-0.067011654 0.08154387 -0.17356977
-0.20719905 -0.038724806 -0.34297937
0.08925575 0.009269919 0.24667084
-0.055517778 0.19106106 -0.37107015
0.18729946 -0.06977939 0.27948913
-0.07204941 0.015202411 -0.33879387
-0.19551153 0.20107141 -0.27644387
0.11050213 -0.108115144 0.27253845
-0.27917713 0.17261823 -0.36727434
-0.0477724 0.043150574 -0.03634504
-0.060610235 0.17036253 -0.3142479
0.10355011 -0.18325467 0.2028101
0.14831586 0.051615234 0.20493947
-0.07240593 -0.0173048 -0.07739871
-0.193406 0.1796827 -0.29633382
-0.07093639 0.00763796 -0.3793655
-0.040176354 0.03933703 0.21308824
-0.26276606 0.11854294 -0.28943095
0.09381806 0.060168464 0.21999487
-0.0076920623 0.15403791 -0.3469905
0.0053842124 0.13135996 -0.37290308
0.0486006 -0.18182634 0.2362739
-0.03116245 0.013680225 -0.38710526
-0.16790365 0.05951717 -0.2734835
0.15309054 -0.07971757 0.2641736
-0.18552178 0.18203883 -0.28830752
0.1708511 -0.15981352 0.24981152
-0.039452903 0.05516622 -0.39311886
-0.0473527 -0.056083146 0.21562581
0.03153224 -0.046208248 0.25912055
0.09198042 -0.03480255 0.28584173
0.18965423 -0.022206983 0.20706174
0.16133597 -0.16862062 0.16108854
-0.012581003 0.15846355 -0.28728467
-0.11533049 0.014629217 -0.1590486
0.13503525 -0.19666015 0.18938024
-0.105194554 -0.044936318 -0.3616589
0.0059759286 -0.21068585 0.10096528
0.06689778 0.063706204 0.18540178
0.067769065 0.036819603 0.19430591
0.11616519 -0.09936907 0.24803591
0.07026148 0.05038157 0.18592925
-0.2076176 0.10424916 -0.23691197
0.17921533 0.088762544 0.11364352
0.20737447 -0.1505426 0.09449357
0.18011647 -0.20500591 0.04063859
-0.19827648 0.17412685 -0.24480598
-0.09725106 -0.013717258 -0.08529289
0.14296235 -0.08494665 0.2558562
-0.23430629 0.12929758 -0.28399077
-0.17458679 0.07242314 -0.25786334
-0.12996694 0.18546467 -0.256986
-0.14085682 0.07049558 -0.26156196
-0.04358287 0.101455085 -0.16458172
-0.006084746 -0.040429223 0.08557622
-0.045799695 -0.16278246 0.1699995
0.029471166 0.041157383 0.23976064
-0.17669629 -0.040151864 -0.35378233
0.10569268 0.034734752 0.22009856
-0.047999196 0.10769647 -0.1026256
-0.14721173 0.18349355 -0.27088788
-0.2404779 0.019635921 -0.41005608
-0.04424278 0.1524036 -0.37104946
-0.09283193 0.19070745 -0.35271865
0.11883532 0.05364917 0.17105469
-0.13643488 0.17119755 -0.30960062
0.1449166 0.06552492 0.22486779
-0.22043063 0.055540524 -0.24311478
0.1264615 -0.043803792 0.20623213
-0.16490151 0.20421672 -0.2862688
0.12917241 -0.044509776 0.22289361
0.06433564 -0.10347451 0.24081905
0.084896706 0.00868416 0.2273124
0.046852082 0.04856072 0.14116363
0.10576118 0.056796182 0.18038048
-0.10555025 -0.029014273 -0.18963802
0.19635285 -0.1590061 0.19848958
-0.026431318 0.030137667 -0.00014678229
-0.076740764 -0.0069585736 -0.10685677
0.055689074 -0.026189744 0.21855327
0.15493596 -0.17836206 0.16000733
0.22951092 0.059554487 0.07531246
0.15327536 -0.026220648 0.22621916
-0.088290736 -0.05002373 -0.08555533
0.23489548 -0.0513179 0.07870119
-0.03803497 0.055988077 -0.1295792
0.088781305 0.025112728 0.18794453
0.044505276 0.0087164 0.05794358
0.122850485 -0.1821821 0.12944947
-0.002098949 -0.1690774 0.18134247
0.13428764 0.045518093 0.18395156
-0.11331488 -0.0098668365 -0.120716475
-0.07959445 0.09237704 -0.1112205
0.24476574 -0.039998926 0.09114012
0.1538544 -0.060057223 0.20610681
-0.20843399 0.030438669 -0.30776528
0.042862236 -0.067536145 0.26426113
0.023776453 -0.03594319 0.09712007
-0.19336118 0.10495297 -0.2767735
0.19508393 -0.10014308 0.27784818
-0.2176689 0.03747257 -0.29744092
0.119505875 -0.10188873 0.23147985
-0.0999498 -0.12632291 0.19895335
-0.029409006 -0.06127313 0.20169501
-0.18989113 0.0905652 -0.25250298
-0.09115433 0.07687905 -0.17839222
-0.17035812 0.08996113 -0.28169832
-0.07245219 0.071376406 -0.12273047
0.11599888 -0.043640405 0.24206506
0.05468711 -0.13531658 0.2592223
-0.06658366 0.1752241 -0.42643
-0.14886267 0.11315293 -0.26267442
0.14891349 -0.07013772 0.21392573
-0.20604005 0.18315054 -0.33273733
0.03059485 -0.08773092 0.26014253
0.15757062 -0.094255075 0.19907165
0.084974185 -0.17645508 0.18996234
-0.00097043416 -0.06467798 0.09320745
0.10084534 -0.04157338 0.22314662
-0.22262904 0.02807489 -0.26554656
0.2340687 -0.0691278 0.19768913
-0.07420706 0.09689307 -0.18082121
0.17208171 -0.1222411 0.24360622
0.03772898 -0.19382729 0.15807223
-0.22894683 0.03600461 -0.24112625
-0.26193672 0.09744636 -0.21281146
0.15965888 -0.071547225 0.27150226
-0.17399612 0.09627422 -0.24926381
-0.0821058 0.020473849 -0.056305993
-0.106819145 -0.0005572904 -0.16959395
0.06715426 0.056243178 0.15572938
0.1514738 -0.050985664 0.2484855
-0.04671295 -0.1823935 0.1532538
0.021729844 0.04937723 0.17175286
-0.27750725 0.07919877 -0.26222593
-0.25941774 0.025483632 -0.36941558
-0.013506015 0.051010925 0.20357797
0.15845785 -0.043176282 0.22423951
-0.0066187293 -0.120366365 0.22586834
-0.10374733 -0.009818547 -0.22859612
0.060542647 -0.08721635 0.25561708
-0.2527477 0.12211138 -0.27574185
0.0010752726 -0.19400981 0.13877109
-0.083511196 0.1935039 -0.41352794
-0.26792657 0.09060035 -0.25643864
-0.014365785 -0.13133967 0.1583392
-0.0028969946 -0.024515513 0.22068004
0.04316699 0.06895055 0.2144816
-0.030032706 0.076018564 -0.34252936
-0.011131651 -0.10953701 0.19508518
-0.04010159 -0.04817125 0.23754132
-0.14793749 0.008989232 -0.3171194
-0.2519221 0.059871804 -0.29422826
0.053795543 -0.22661173 0.13477677
0.16861892 0.053267 0.1565664
0.0041041146 -0.008114252 0.24629861
-0.20577827 0.22999406 -0.3036401
0.0891035 -0.05388311 0.2679862
0.08942116 0.038066626 0.22989768
-0.054496814 0.06726445 -0.10740733
-0.12424395 0.03780073 -0.19259427
0.035730693 -0.15132187 0.20982157
-0.16410697 0.0013739803 -0.27081963
-0.26422918 0.13974966 -0.30661154
-0.05871484 -0.011724977 -0.030506343
-0.111023515 0.029573273 -0.1611582
0.15756254 -0.115059465 0.258716
-0.06677797 0.0062125456 -0.051655773
0.14695868 -0.08695951 0.26725674
0.0027393387 -0.19092335 0.17582034
-0.016415643 0.10129622 -0.3782826
-0.2574178 0.11998162 -0.2591725
-0.096187316 -0.046595257 -0.1271674
-0.14370203 0.041196086 -0.13946028
-0.14393961 0.06493743 -0.21630636
-0.04084658 -0.009199654 0.20972602
0.19752918 -0.18121162 0.08044801
0.18259026 -0.040711917 0.22864392
-0.14590824 0.10544087 -0.27493018
0.077244595 -0.07177468 0.17775676
-0.11380589 0.20220207 -0.25945067
0.17554969 -0.033675704 0.1927257
0.17853537 -0.19881973 0.15564272
-0.058944378 0.16109861 -0.39685673
-0.03526714 0.060469817 -0.3443221
0.2660293 -0.133724 0.01744907
0.019236976 0.106750645 -0.33707163
-0.10951522 0.21316226 -0.29054692
0.15690196 -0.03549467 0.19113046
-0.06375768 0.13255778 -0.31195143
0.11370396 0.005318738 0.23517832
-0.1194084 0.018220004 -0.07615834
0.015563921 -0.17046532 0.20097467
0.23174141 -0.13946709 0.042490993
0.16133638 -0.05641668 0.26437002
0.087084144 -0.050488885 0.24636514
0.10031287 0.08368996 0.1504756
0.10952358 0.031366363 0.22871198
-0.0045765964 0.1064122 -0.3619623
0.06820003 -0.18257174 0.11611913
0.020712698 -0.06030563 0.20965353
-0.08716479 0.14070927 -0.2455953
0.24273461 -0.060284186 0.10401377
0.022196557 0.023549352 -0.36087772
-0.07801266 -0.003469702 -0.25308144
-0.1227675 -0.025681116 -0.33947673
0.2114007 0.018649628 0.099937186
-0.16469993 0.18769704 -0.23601069
-0.11881548 -0.018281357 -0.29611194
0.06617356 -0.079916365 0.22818682
0.04385036 -0.011148823 0.25920698
0.15762416 0.06526282 0.14319731
-0.18893586 0.13214876 -0.26713845
0.21883267 -0.028794812 0.20319511
0.12097957 -0.080249794 0.21242376
-0.15487945 0.12528096 -0.2564968
-0.06403965 0.09525465 -0.102734916
0.22578524 -0.15927188 0.06681922
-0.21080537 0.11728408 -0.24575214
-0.10709102 0.09130907 -0.14594162
-0.24614084 0.08913411 -0.3213332
0.026357364 0.013827633 0.17854351
-0.05733025 0.19027051 -0.31391522
-0.27153632 0.1166591 -0.36028293
-0.099910125 0.006237209 -0.32854253
0.26124564 -0.013455003 0.110394664
-0.26851478 0.061874874 -0.3963957
-0.19432597 0.057823937 -0.2729651
0.10359451 -0.00806878 0.23566563
-0.18004641 0.08708857 -0.27207667
-0.14676368 0.13446093 -0.26598784
0.03495778 -0.06388971 0.2029347
-0.0074533904 0.0960026 -0.1645277
0.23167036 -0.063091114 0.19512358
-0.13178316 0.007251499 -0.20108087
0.26147717 -0.111741565 0.07632497
0.21691212 -0.01904681 0.22645624
0.07186346 -0.22451554 0.11630231
-0.041792125 -0.080289 0.19844398
-0.008752141 -0.05663636 0.21653008
-0.06344402 0.22464421 -0.3292534
-0.08455288 0.09276094 -0.10748417
0.20866905 -0.14710751 0.05812481
-0.07190087 0.0074382275 -0.017459696
0.0032907967 -0.19225568 0.09972442
0.100424916 -0.04100946 0.24615455
0.13487321 -0.06820718 0.26560473
-0.1094376 0.17246245 -0.27493122
0.12071247 -0.043104697 0.26756853
-0.15091226 0.10295817 -0.2365796
0.034285463 -0.22059183 0.11984514
-0.15333314 0.14985037 -0.27767584
-0.23770577 0.18413709 -0.32844037
0.14104578 -0.14916052 0.2022996
0.09444001 -0.11956211 0.24378814
0.19704969 -0.018254068 0.1823247
0.20444109 -0.13389851 0.058658555
-0.15610036 0.022129858 -0.28058398
-0.08269134 0.12606172 -0.29260632
0.16671918 -0.054851465 0.1927365
0.14797811 -0.033015966 0.25167587
0.12981473 0.051162314 0.18379568
-0.21220258 0.15809122 -0.30170703
-0.02941192 -0.033177324 0.18731739
0.07397432 0.08742396 0.1929075
-0.18501492 0.19218154 -0.27874923
-0.029991057 -0.010351529 -0.3905449
-0.05958454 -0.10479736 0.1614891
-0.2382498 0.0621783 -0.21427242
0.007888774 -0.22157392 0.13765898
0.1578739 -0.025282403 0.19311818
-0.09313213 0.20808212 -0.33601835
-0.07536582 -0.07835549 0.16662563
0.063463755 0.05676409 0.22155325
0.07217175 -0.059013415 0.2289777
0.07197283 -0.20460404 0.080931015
0.23382315 0.053329375 0.102550894
-0.009181379 0.09113041 -0.38418648
0.1738096 -0.1872891 0.06365955
0.034956627 0.003897533 0.17496201
0.06815991 0.071122505 0.23494929
-0.08252183 0.21620867 -0.32365328
0.013116481 0.016395323 0.013757586
-0.19129431 -0.02072898 -0.3753635
-0.09254219 0.08290647 -0.17645249
0.17924191 -0.20940584 0.028842185
0.25953054 -0.07416801 0.0748845
0.04378594 -0.11451846 0.26860446
0.06954036 0.053811572 0.14766842
0.11945116 0.008983066 0.22318314
-0.19058469 0.23639287 -0.27815655
0.13688086 -0.15496592 0.17411202
0.051967513 -0.16619755 0.16717803
0.024378266 0.018986922 0.23650432
-0.2353764 0.022838686 -0.3131708
0.028016498 -0.1112436 0.20338766
-0.060260937 0.026132269 -0.024505904
0.08205071 -0.098929726 0.24100025
0.1545232 -0.015668776 0.23964244
0.1378513 -0.23747525 0.10546798
-0.1568851 0.04607063 -0.28031892
-0.05457013 0.10051128 -0.14550309
0.08335842 0.093112536 0.19527027
-0.02412836 -0.0957617 0.22675803
0.022096146 -0.02579662 0.23832953
0.14513187 -0.10195533 0.28737405
0.001586222 0.014650317 0.2201093
-0.06782432 -0.16304477 0.1665422
-0.07030969 -0.12932886 0.20927708
0.17483364 -0.009770561 0.25490266
-0.052348413 -0.039161205 -0.06719989
0.0077327085 0.02134659 0.19596708
0.1331353 -0.0060953544 0.20224082
-0.048994485 0.044258486 -0.04135792
-0.13978699 0.07431849 -0.1765094
-0.03163098 -0.06330135 0.2115449
0.061348967 -0.040554468 0.25374618
-0.01858928 0.142852 -0.31876916
0.17174882 -0.027964208 0.21014132
0.17284124 0.010934137 0.23116912
0.03120887 -0.09321963 0.18947734
-0.18492346 0.049438257 -0.28360924
0.050423037 -0.124940395 0.25045303
0.16722019 -0.07975875 0.18616132
0.08653286 0.090780936 0.1919057
-0.12567475 0.03476396 -0.2606014
-0.01570833 -0.05528265 0.18958811
0.2231522 -0.04778505 0.0913875
0.025079895 0.09540524 -0.37865752
-0.22289704 0.029045666 -0.2717663
-0.2200484 0.23316999 -0.3579058
-0.06464325 0.035882015 -0.06401233
-0.065248765 0.16885065 -0.28881133
-0.08200772 -0.03189802 -0.18851654
0.10878875 0.11249847 0.21983792
0.02135926 0.04181004 -0.34897125
-0.17254716 0.1445607 -0.3275157
0.09323012 -0.16485575 0.2194135
0.051441047 -0.18625578 0.18416993
-0.018095335 0.06754007 -0.039479457
0.19834307 -0.1157308 0.16145773
0.26389018 -0.06553402 0.0810363
-0.2139811 0.066004105 -0.3260666
0.1706481 -0.21350367 0.07682997
0.071446575 -0.07362572 0.253455
-0.06543153 0.0047349143 -0.3496592
-0.15085796 0.05512393 -0.17363408
0.06754053 -0.068564266 0.24546826
-0.03884632 -0.20861316 0.12842104
-0.16604951 0.020223787 -0.21873349
0.05683102 -0.17224641 0.2534593
-0.0759967 -0.14458185 0.20611496
0.05621398 -0.15025008 0.21469045
-0.062201824 -0.0112703135 -0.37401432
-0.09413009 0.12746711 -0.3159551
0.16735128 0.0518843 0.16647522
-0.016726779 -0.061282177 0.21963434
-0.1063511 0.018326841 -0.27468783
0.21683596 0.022101065 0.14724399
0.008533134 -0.08883238 0.2755266
0.044276282 0.0041001714 0.10817635
0.059501033 -0.16143332 0.21985696
0.023222324 0.05111947 -0.13080768
-0.17917806 0.21751314 -0.35303447
-0.032449424 0.084473796 -0.2581251
0.017811004 -0.15226376 0.21401753
-0.13839409 0.21202387 -0.33520913
-0.125666 0.17210135 -0.29243442
0.078800656 0.09627479 0.2092485
0.093629204 -0.15333827 0.22635919
-0.21573806 0.003917912 -0.30076364
0.16982096 0.0098678805 0.17436217
0.25732258 -0.003599913 0.1002445
-0.04592904 0.081569806 -0.17306101
-0.09302841 0.122668594 -0.23611608
-0.27457595 0.14812252 -0.33299023
-0.16049215 0.23441131 -0.34712896
0.08595948 0.014068128 0.22073351
-0.20799878 0.20511779 -0.26503822
0.096419215 -0.012382369 0.21632408
0.05783076 -0.08021847 0.24999498
0.044488534 0.042314958 -0.038539156
0.09022088 -0.16715764 0.17735347
0.028671872 -0.0224387 0.06934364
0.1467338 -0.03244399 0.22588502
0.109479524 -0.19859385 0.04216742
-0.27507746 0.049445637 -0.4071463
0.09935275 0.032029483 0.18994993
0.009259184 0.048760783 0.2100838
-0.086515084 0.073877044 -0.15871608
0.26385024 0.006097644 0.06805219
0.17080554 -0.18622725 0.11404104
0.09978291 -0.030128988 0.27742583
-0.01802043 -0.21103747 0.14067061
-0.044545665 -0.09687962 0.2028685
-0.16495372 0.17799658 -0.27902886
0.11385047 -0.09812324 0.24306098
0.053398304 -0.0744573 0.2472675
0.05255702 -0.0677949 0.21553467
-0.18754295 0.1737535 -0.2653281
0.18029435 0.090851806 0.1489275
-0.17343204 0.030437464 -0.29111403
-0.2236394 0.1351223 -0.24193959
-0.022618014 0.0813311 -0.08143722
-0.02772139 0.07665605 -0.14640087
-0.058770087 0.15316425 -0.31072354
0.0807829 0.067080475 0.19821204
-0.033871036 -0.011963216 -0.37230483
-0.07037925 0.14715247 -0.33820102
0.04759252 -0.034576923 0.25360528
-0.004311117 0.19110239 -0.35513994
-0.0807525 0.0570761 -0.17090762
-0.21940541 0.021962408 -0.30564803
0.16666892 -0.005943986 0.19843377
0.052808784 0.08252625 0.19222344
-0.04345102 -0.09647406 0.2077173
-0.087795824 0.03158481 -0.11681616
0.16667098 -0.06638825 0.25546804
-0.15954687 -0.030079788 -0.3574062
-0.15536033 -0.044443548 -0.36397362
-0.14211656 0.11648402 -0.2426401
-0.044343997 -0.025717707 0.18652402
-0.033462714 -0.14276159 0.1841013
0.07252397 -0.09864055 0.26078194
-0.03135862 -0.013275616 0.22477287
0.0042278618 -0.03895438 0.23782606
0.023095347 -0.058131933 0.21780935
-0.032386776 0.058013868 -0.33686212
-0.26450226 0.116823964 -0.30994806
0.11688492 0.09392051 0.14842796
0.019562788 0.0030496614 0.071634464
-0.14646424 0.19844122 -0.28297666
-0.015981961 0.017585373 -0.031659562
-0.012590461 0.19225033 -0.3487914
-0.29509658 0.06415503 -0.27493945
-0.029227342 0.010179011 0.22383536
-0.14459804 0.14042135 -0.25485036
0.07954771 -0.044241548 0.24046548
0.1924566 -0.07971747 0.16152275
0.009012603 -0.088869736 0.2522461
-0.23375025 0.02244176 -0.3196773
-0.12594111 0.18210742 -0.26488963
0.08160219 0.045048706 0.24413416
-0.2754341 0.03766844 -0.3256784
0.1142446 -0.11370616 0.28918293
0.19027247 -0.15754166 0.14744554
0.14645587 -0.21770285 0.14164795
0.18768641 0.093093 0.13482676
-0.09300552 0.16215286 -0.3083572
0.23636538 -0.009559447 0.106252566
-0.18566734 0.21752018 -0.3536546
0.1511673 -0.12623735 0.15593271
0.028267417 0.02137259 0.23405513
0.23167928 -0.030394556 0.099991366
0.082926035 -0.041556958 0.24967073
-0.0646204 0.20011058 -0.33189964
-0.033308193 -0.041718442 0.21143998
0.06578624 0.07209082 0.20795414
-0.17140318 0.050127264 -0.19228554
-0.1317793 0.16109076 -0.2834068
-0.011021438 -0.105912626 0.20991902
0.010380603 0.009870419 0.05471232
-0.014603462 -0.1450626 0.18900087
-0.017033994 -0.18276721 0.11607441
0.0056516086 0.05959626 0.23459576
-0.0014052724 0.05949827 0.23115103
-0.015313925 -0.08830364 0.16948679
-0.038318828 -0.14482331 0.1702956
-0.10465069 0.05985302 -0.0902103
-0.005557522 0.072718665 -0.35266972
0.08531431 0.03003752 0.24413559
0.1378989 0.010206203 0.2277124
0.048403896 -0.1902252 0.11865495
0.102867775 0.024463046 0.14044999
0.037020713 -0.08535585 0.19270636
-0.17150843 0.18018374 -0.24080175
0.115796775 0.007581884 0.27291852
0.19208696 -0.047444824 0.23175958
-0.17369531 0.08557487 -0.24070498
0.076942354 0.05996047 0.21718922
0.023818335 -0.117791146 0.13829091
-0.025322085 0.1496411 -0.30373123
-0.1271218 -0.018252833 -0.359868
0.11129197 -0.08738874 0.23500988
-0.24672793 0.12912951 -0.21763366
-0.22770481 0.11053005 -0.23570058
-0.026677152 0.056848224 -0.35604522
-0.13810703 0.085022494 -0.21500605
-0.024089513 -0.064843215 0.18676063
-0.14970213 0.047949508 -0.22701065
0.06993986 -0.06971306 0.2720157
-0.047104865 0.0032954805 -0.004715901
-0.0018978616 0.032994937 0.17523746
0.11015083 -0.19875117 0.1796131
0.23684706 -0.09738985 0.09171731
0.20023751 0.040893722 0.12852919
0.18172187 -0.061589953 0.23554152
-0.07672666 0.13474487 -0.33277413
-0.11347675 0.05462227 -0.19273473
-0.1277834 0.17187485 -0.27096498
-0.1935622 0.08105248 -0.31588516
0.10740469 -0.10069057 0.2579396
-0.05769303 -0.15570761 0.21091084
0.027661514 -0.1349671 0.24820371
-0.24618132 0.12596972 -0.21397392
-0.06085914 -0.14964181 0.1390548
0.25153464 0.05698407 0.13265741
-0.18554763 0.11371901 -0.25902933
-0.009282603 -0.101334654 0.20730206
-0.09639902 0.17868413 -0.31387624
0.05813581 0.09677772 0.1799198
-0.038807858 0.0019984648 -0.3634558
-0.23086506 -0.006401796 -0.30959103
0.1800878 -0.076937445 0.23030646
0.223637 -0.12766081 0.18825771
0.035497036 0.030442148 -0.013216154
-0.1512514 0.040253565 -0.2403829
-0.031894542 0.008462581 -0.037307467
-0.014541028 0.008812634 0.037551157
0.1753038 0.013303612 0.20579496
0.07883527 -0.11698676 0.21580061
-0.044093892 0.12028501 -0.23386925
-0.16495642 0.22847714 -0.21925834
-0.12472463 -0.035078604 -0.36153767
0.09511112 -0.107791595 0.25987467
-0.03595977 -0.0960159 0.20331389
0.09002403 0.11843701 0.14781974
0.047187913 -0.17121804 0.23593718
-0.0366992 -0.0037937907 0.20890956
0.109670766 -0.11949802 0.24142419
0.15352772 0.06390431 0.15363523
0.12470133 0.114236236 0.16217658
-0.069009185 -0.05521919 -0.03420005
-0.11379763 0.17428187 -0.31286398
-0.23463471 0.05358621 -0.25037822
-0.18231718 -0.032405693 -0.29433665
0.1815549 -0.11391857 0.2013246
0.23000477 -0.051837236 0.16700125
-0.24451375 0.059139088 -0.26445398
-0.020392008 0.14990737 -0.36801726
-0.042778455 0.11176111 -0.34609878
0.16305786 0.02842988 0.18309416
0.08470282 -0.13862965 0.2300658
-0.09503747 -0.053289894 0.21193561
-0.08569928 0.07498712 -0.13340153
-0.09811304 0.18505873 -0.2840536
0.14666091 0.02861058 0.23589459
0.1020038 -0.016443081 0.26108116
0.15535162 -0.093112335 0.2653065
-0.0136942025 -0.20035921 0.1411745
-0.13897984 -0.04992238 -0.3443439
0.16475292 -0.019319491 0.2393318
-0.054274317 0.17129727 -0.29441294
-0.111653395 -0.0050369482 -0.2948124
0.015876025 -0.14556795 0.1833294
0.036104344 -0.11760682 0.17458622
-0.25158498 0.15496565 -0.3393593
0.077123985 0.029763337 0.22912543
-0.07879019 -0.00822266 -0.3984655
0.15898079 0.028131967 0.14215665
