# .PCD v0.7 - Point Cloud Data file format
VERSION 0.7
FIELDS x y z
SIZE 4 4 4
TYPE F F F
COUNT 1 1 1
WIDTH 1000
HEIGHT 1
VIEWPOINT 0 0 0 1 0 0 0
POINTS 1000
DATA ascii
-0.19355763 0.18092032 0.10856596
-0.16835837 0.23320827 0.12975374
-0.027433598 0.24351406 0.11964891
0.2081414 -0.13394724 -0.09845495
-0.23483777 0.2328632 0.009228644
0.026606044 0.30867893 0.03721198
-0.16886464 0.29559815 0.120813936
-0.118966654 0.23706877 0.15632217
-0.019936496 0.23993455 0.07564658
0.17538168 -0.24849306 0.05946253
-0.04827009 -0.29778937 -0.07606264
-0.23320827 0.28963768 0.017929608
0.20261818 -0.21865192 0.028353851
-0.06466441 0.04562628 0.010309992
-0.13102335 0.34410113 -0.05877157
0.15287091 -0.31504846 -0.122138105
-0.17863241 0.14061314 0.08045977
-0.030107915 0.21081866 0.026984222
-0.18863821 0.16316615 0.09229169
-0.16176459 0.2548255 0.09734798
0.15177597 -0.20151031 0.02366242
0.0866922 -0.09302655 -0.027501566
-0.09071306 0.28193614 0.1162621
-0.077884264 0.23958509 0.14696069
-0.07951777 0.34000733 0.07096419
0.004241298 0.013389013 0.002171231
0.23289333 -0.16596177 0.04671039
-0.098213375 0.25232255 0.11801362
-0.053834386 -0.06545511 -0.04829169
0.121170245 -0.12699302 -0.03690408
0.080983855 -0.27742523 0.028279206
0.2664859 -0.13642237 -0.057707652
-0.000358476 0.2576811 0.036307245
0.0853855 -0.27275437 0.03471876
-0.094371945 0.3252792 0.10053862
0.041342713 -0.29563624 0.022241125
-0.28706637 0.27074608 0.052485824
0.04499186 -0.24953979 0.007159331
0.100455604 -0.29207066 0.08624106
-0.07340301 -0.2847931 -0.11738946
0.12502624 -0.25078884 0.00070589344
-0.24265794 0.21947433 0.05016872
0.026995892 -0.29814494 0.020940194
-0.022052713 0.32982552 -0.017502164
0.05594224 -0.22388564 -0.102747284
-0.19072793 0.2934127 0.043112375
-0.05864238 0.046463627 0.041255508
-0.03832533 -0.015802575 -0.00856279
-0.0058316416 0.0656379 0.010212675
0.059793495 -0.17950897 -0.0819883
0.18545365 -0.2904919 -0.02650623
-0.025298113 -0.26437783 -0.025188468
-0.17192557 0.15291427 0.03416922
0.042659704 -0.2041472 -0.23784618
0.11262225 -0.2787534 -0.004852641
-0.05463127 0.070100844 0.0032451933
0.046760634 -0.17547572 -0.017995426
-0.12068179 0.12936428 -0.03917211
-0.0673307 0.35675824 0.09331903
-0.123931855 0.2934178 0.100643635
-0.07737616 0.26675594 0.14060633
0.07062632 -0.06747818 -0.033081513
0.18244055 -0.28035626 -0.059039623
-0.09684177 0.11526249 0.015603991
0.24669054 -0.15093163 -0.049764812
-0.0661211 -0.040139515 -0.044622548
0.014913007 0.059949312 0.03753479
0.20481549 -0.11538125 -0.15658441
-0.047374494 -0.28904232 -0.07204181
0.20499091 -0.27116588 -0.058942683
-0.0648356 0.030051455 -0.019645805
-0.006929214 -0.25818598 -0.019631747
-0.0053144125 0.093921654 0.011695385
0.01756312 -0.06654028 -0.009756393
0.1414336 -0.15862441 -0.1396044
0.011375476 0.32744148 0.037125625
-0.1340329 0.33118802 0.053118963
0.030432723 -0.1357971 -0.088196635
-0.048474103 0.11308582 0.02756121
-0.0037828889 -0.25247017 -0.1642148
-0.0903136 0.10500084 0.06629798
-0.011302625 0.07106079 0.031981938
-0.12677526 0.18733437 0.13810806
0.06681531 -0.13155037 -0.013359303
-0.25428614 0.24626742 0.0896667
-0.0078595 -0.0602834 -0.03996354
-0.2528901 0.23534967 0.083837494
0.1506025 -0.16776083 -0.06270078
-0.039781045 0.19419457 -0.020080853
-0.058669295 0.37415382 0.053089317
-0.20123824 0.28752 0.06601012
0.018827919 -0.30457956 -0.15602192
-0.06942484 0.23743872 0.12388408
-0.23021871 0.2725474 0.061215468
0.23888843 -0.1825005 -0.008573601
-0.0858881 0.24912605 0.15193464
-0.058345087 0.2774801 0.14048813
-0.04871816 0.058311455 0.008044218
0.15258552 -0.27686524 -0.023894336
0.10414308 -0.18790148 -0.043399744
0.0045344764 0.07968003 0.0016687155
0.13970499 -0.10215193 -0.033784337
-0.1577337 0.19126146 0.15616883
-0.048728082 0.12083007 0.040791433
0.059256684 -0.2612673 -0.027304078
-0.025757534 0.17057128 0.01578191
-0.17359187 0.36503237 -0.0990423
-0.18606497 0.17318709 0.069218576
0.016019078 -0.08212005 -0.018162142
0.04780532 -0.2076906 -0.034547925
-0.18781984 0.16010602 0.03474008
-0.034037568 0.0841688 0.05291361
-0.1903814 0.3009698 0.08221662
-0.17227012 0.26283997 0.15821071
0.11082777 -0.20280847 -0.060549527
0.016565248 0.2937552 0.057359874
0.011268797 -0.0583394 -0.03595108
-0.03463174 -0.28674284 -0.17542087
0.043701787 -0.0022134425 0.027278783
-0.1047358 0.23079883 0.105251856
-0.06760574 -0.0038357829 -0.011367565
-0.13709022 0.1664689 0.11619062
0.024485134 0.003452596 -0.03613642
0.06227838 -0.2588621 -0.032556366
0.10453324 -0.124241464 -0.017175877
-0.047098372 0.00263826 0.017405411
-0.040569168 0.3616717 -0.028630193
-0.11354696 0.09194738 0.041244246
-0.008762377 -0.08706566 -0.060625844
-0.09536675 0.32002738 0.0048803664
-0.033870187 0.021983624 0.03023258
-0.01580114 0.11674851 0.06122997
-0.023993822 0.28318197 0.06858003
-0.05667796 0.3117095 0.12361905
0.22718892 -0.11902142 -0.07097341
-0.14696018 0.3200601 0.061430193
-0.054432448 0.31085357 0.10886888
0.15863344 -0.13711561 -0.25890765
-0.046494804 0.33659166 0.09738506
-0.2610146 0.23622248 0.038642835
-0.101422265 0.16073413 0.015432859
0.19851865 -0.27133265 0.00024248185
0.0012125219 -0.32966796 -0.08664697
0.016673217 0.07196143 -0.04438686
0.22475222 -0.16380696 -0.029485274
0.005958806 -0.043550637 -0.037155602
-0.034003314 0.27456298 -0.0127503695
-0.2661104 0.19627422 0.04991962
-0.012736828 0.23062137 0.07528111
0.0837564 -0.027383542 -0.00025242197
-0.22644264 0.2543085 0.04583461
0.028234564 -0.14613742 -0.06135799
0.09534827 -0.2658678 0.054719973
0.12791343 -0.27314076 -0.03976848
0.035834946 0.0846529 -0.025667198
0.02860272 -0.086344175 -0.00065835495
0.12953694 -0.32650614 -0.09191543
0.14647333 -0.24017689 0.037244108
-0.105128594 0.17870304 0.04932561
0.06159127 -0.28421828 -0.021238275
-0.075968444 -0.011893071 -0.06034302
-0.04207526 -0.08526129 -0.026197668
-0.10793091 0.21290177 0.13903132
0.1162606 -0.27564988 0.049241398
-0.04988435 0.2255044 0.14411867
-0.19980866 0.28181967 0.039687093
0.01229339 -0.10772874 -0.04012794
-0.11931336 0.29919177 0.09529607
-0.0072955214 0.30491683 0.07191136
-0.014372707 0.036534633 -0.005905238
-0.09964247 0.07357497 -0.0033683938
0.14596622 -0.31156507 -0.17055535
0.003181865 -0.022775223 -0.026626863
0.20546374 -0.2279712 0.020897511
-0.25436836 0.25618574 0.1252707
0.00579228 0.08482948 0.031102665
0.051870152 -0.063584365 -0.011019475
0.18829311 -0.15692517 -0.122656554
0.15997551 -0.17747998 -0.006365649
0.20742945 -0.18042932 0.02208522
-0.01204163 0.010495025 0.049284723
-0.03297177 0.066679165 0.023592673
0.16739856 -0.31865934 -0.044570386
-0.054352578 0.06535312 0.014248136
-0.0104136905 -0.2219645 -0.17389113
-0.07791125 0.056971513 -0.030923603
-0.14337747 0.3149149 0.11394545
0.0073410477 0.076783344 0.040763047
0.0017610412 -0.29984835 -0.04415868
-0.12639414 0.13909271 0.052110873
0.11869799 -0.10937302 -0.28233865
0.16033566 -0.10125255 -0.07464826
0.19217665 -0.15177415 -0.023775889
-0.12904038 0.26077107 0.14128223
0.22952433 -0.17932811 0.0074488344
0.0067884866 -0.14741504 -0.080966175
-0.04512612 0.3581049 0.06830393
0.10044267 -0.23888913 0.06436237
-0.011600139 0.0142223565 0.011451056
-0.18284531 0.17441854 0.07198761
-0.24262153 0.164387 0.07623074
-0.14228244 0.31908804 0.046039477
-0.20835285 0.23215836 0.115845166
-0.0782551 0.10702611 0.02537469
-0.02566209 0.15324108 0.06352575
-0.23101918 0.32711506 -0.06427652
0.010456711 0.05380412 0.012157895
-0.11419799 0.21346167 0.14069608
0.10347031 -0.32133713 -0.025065687
0.2621933 -0.1182422 -0.039912786
-0.097894184 0.24781553 0.15098003
0.06778258 -0.1450725 -0.0015802082
-0.18863688 0.22762243 0.105681024
-0.2085789 0.29837817 -0.07677802
-0.113019966 0.23500311 0.15057904
-0.14080063 0.3009734 0.11366012
-0.20162368 0.2795679 0.1292522
0.014832559 -0.027698314 0.0051620365
0.05840793 0.023948893 0.027345184
0.01945779 -0.22974005 -0.13176599
0.034494173 -0.23524974 -0.14735967
0.046524704 0.0115533965 -0.031603225
-0.038341645 -0.01098558 -0.015617815
0.09780005 -0.30492398 -0.15027559
0.031990502 -0.05950456 -0.01113831
0.100221865 -0.27880365 -0.08753073
-0.03378308 -0.24692267 -0.16876106
-0.06817295 0.31469405 0.1320886
-0.09882409 0.28867766 0.14860506
-0.1776738 0.19618496 0.15069497
-0.049762104 0.016074622 -0.0024561605
-0.08865101 0.10262313 0.042089883
-0.110377364 0.27390662 0.13234238
0.030490948 -0.22823992 -0.037166167
-0.21572538 0.30066353 0.08248162
0.11827402 -0.0430288 -0.035816547
0.1772336 -0.16146094 -0.051077656
0.03544521 -0.05722004 -0.020902969
0.079443574 -0.3391897 -0.08475932
0.22439574 -0.12402743 -0.16774254
-0.09321424 0.343089 0.09222681
-0.010477062 0.18394421 -0.026175968
0.1266951 -0.21250042 0.06643545
-0.19331127 0.17389272 0.11127282
0.0055139125 0.2537411 0.093102165
-0.12896451 0.10021082 -0.012459465
-0.07055113 0.321121 0.10530349
-0.1248091 0.2547462 0.13226292
0.14355989 -0.16647774 -0.06449731
-0.17432103 0.17317759 0.119172156
-0.0040197433 0.32085073 0.058585186
0.041739434 -0.020341458 -0.0229833
0.087981395 -0.111893564 -0.028257402
0.25667232 -0.22577249 -0.14637151
-0.04409043 0.32118893 0.11427782
0.03824779 -0.08555085 0.0016738429
-0.031210601 0.3755337 -0.0054605305
-0.02171399 0.12831953 0.03233542
0.20379072 -0.21795505 0.029009063
-0.16011786 0.25229144 0.1507421
-0.050802007 -0.2477295 -0.15268183
0.27153388 -0.14797802 -0.049011916
-0.0103814555 -0.13050859 -0.06446135
0.097267725 -0.115241885 -0.04170724
0.053558137 -0.17720062 -0.28227302
-0.05633538 0.20113303 0.13618407
0.20697732 -0.29305586 -0.12286003
0.00764042 -0.25081012 -0.16363664
-0.28366566 0.29099888 -0.0050386563
-0.112800725 0.13002646 -0.011812564
-0.16196598 0.15232979 -0.019337866
0.06286075 -0.17192084 -0.054746933
0.13744989 -0.24059182 0.059813913
0.025678404 -0.21370305 -0.083336435
-0.10132041 0.19328104 0.13435914
-0.118829645 0.29315346 0.11615522
-0.17098324 0.16868976 0.11386343
0.046140023 -0.31687623 -0.09351213
-0.016237792 -0.33084077 -0.06640044
-0.088369854 0.19888534 0.116982765
-0.02449239 -0.2767245 -0.061960455
-0.019903457 0.29549593 0.11184127
0.08890836 -0.30433676 -0.155427
-0.09046522 0.21711722 0.13148843
-0.029583782 -0.294441 -0.082909085
-0.022159308 -0.018315848 0.012821602
-0.063917235 0.2113887 0.09012396
0.08204748 -0.018612526 -0.043412976
-0.15695469 0.19286369 0.13790104
0.10265664 -0.06718241 -0.03757022
-0.14829059 0.3116256 0.09699369
-0.25032634 0.26686767 0.045682978
0.11343363 -0.20961101 -0.054282047
-0.09184195 0.3186246 0.091086805
0.052749068 -0.27464852 0.039346058
0.046785716 -0.19665633 -0.23721235
0.034657814 -0.10564494 -0.061938565
0.10860626 -0.28540254 -0.049336214
-0.019204097 0.16286421 -0.0055484963
0.105871245 -0.26539555 -0.02242675
-0.068509296 0.046622403 0.037900694
-0.120062456 0.30556744 0.07015907
0.03815842 0.06599954 -0.06660062
-0.04977052 0.05707245 0.023690885
0.22123955 -0.12777835 -0.119321756
-0.20038855 0.29747397 0.0073095527
0.07180906 -0.1342552 -0.037555892
-0.06625406 -0.26256552 -0.13232861
-0.061045557 0.08322071 0.008113694
-0.09617887 0.19046251 0.13538457
-0.1263209 0.3206915 0.109794274
0.15301616 -0.31939414 -0.06705316
-0.004390634 -0.101070136 -0.00043201988
-0.11499088 0.087527096 -0.0026325195
0.15375642 -0.20277046 0.061765876
0.13042356 -0.116523266 -0.05698928
0.11276717 -0.14791757 -0.2502925
-0.08952142 0.1208418 0.023394983
-0.051579714 0.024387369 -0.016131794
-0.23004857 0.22504085 0.06983579
-0.04191534 -0.03922705 -0.040040452
0.02928456 -0.21476966 -0.014638247
0.27764493 -0.19299303 -0.05453403
0.0692159 -0.084640376 -0.009850532
0.19229479 -0.22489437 0.031850804
-0.026131412 0.1636567 0.006536362
0.13407847 -0.13189186 -0.040789068
-0.24831294 0.21618022 -0.030657293
-0.18458962 0.17652768 0.105321124
-0.18021981 0.25448048 0.1259561
-0.057437163 0.2036216 0.069743186
-0.12031129 0.3333809 0.047075298
-0.24066491 0.26568183 0.066537
0.023781082 -0.18975247 -0.0831705
0.115807034 -0.31232977 -0.038728
0.016515834 -0.08402041 -0.013734183
0.020885285 -0.06738953 -0.011655764
0.055558123 0.08470551 -0.04757245
-0.05715075 0.09470972 0.008199858
0.12775211 -0.10443369 -0.039877005
0.19170165 -0.20354098 -0.020961106
-0.072823636 0.20074418 0.13199499
-0.19538142 0.24120161 0.1344727
0.23618236 -0.15641212 -0.016504275
0.028254043 -0.108336784 -0.014421254
-0.057469904 0.05818674 0.047501396
0.1607042 -0.15039507 -0.09634872
-0.018918933 0.22688168 0.119258516
0.04736886 0.057934888 -0.04845602
0.022915563 -0.052510004 0.017850984
0.11678768 -0.23561235 0.019705495
-0.031739954 -0.0857603 -0.077853225
0.0054936223 0.13973905 0.0009848101
-0.047456294 0.29107136 0.04250508
0.1209314 -0.20226793 -0.009173518
0.20429975 -0.08914657 -0.1844637
-0.005691752 0.01450756 -0.011074369
0.06189488 -0.22233117 -0.04193882
0.19152604 -0.1421395 -0.10734627
0.019814132 -0.1739911 -0.123889185
0.25146392 -0.23190121 -0.052672166
0.043593254 -0.12653759 -0.026274856
0.09827564 -0.33244744 -0.08359016
0.017990774 -0.24630222 -0.029648615
0.06954749 -0.06509948 -0.02260406
-0.00085182907 -0.21772003 -0.13182898
0.06239831 -0.31676117 0.016354667
0.06835309 -0.20667927 -0.07418914
0.23331921 -0.16932595 -0.05950851
-0.0529102 0.026535949 -0.021070294
0.19646564 -0.17889515 0.023658533
0.16622959 -0.32077265 -0.11972905
0.13513598 -0.3291231 -0.03783799
-0.01640323 -0.0060932054 -0.0041222433
-0.24790564 0.27555415 -0.0074228225
-0.060783524 0.043126978 0.015696105
-0.03274997 0.36741328 -0.0007064513
-0.1603505 0.27113053 0.16197586
-0.14326419 0.31863353 0.0067472477
-0.20482354 0.19473219 0.11601286
-0.035225283 0.18919885 0.052705366
-0.16917568 0.20789409 0.14040706
0.026672557 -0.19085424 -0.16261943
-0.114064634 0.20187275 0.09486183
0.1789738 -0.15912814 -0.11811241
0.11246787 -0.20885877 -0.006100974
-0.07716096 0.09039216 -0.013644027
0.110566676 -0.27055505 -0.029206248
-0.0028317776 -0.2189993 -0.25778833
0.12646532 -0.31267312 -0.041402742
-0.20859945 0.19988175 0.10695206
-0.0037606533 0.2574564 0.06670302
-0.25988367 0.26480982 0.04820151
0.011570881 -0.082905486 -0.013869768
0.18562901 -0.13305087 -0.14102985
0.054760233 -0.22672804 -0.0955556
-0.24308865 0.2629259 0.08344281
0.25648898 -0.13011572 -0.02213416
-0.014850349 0.2172544 -0.0024143418
-0.22371572 0.2493333 0.09063512
0.080871716 -0.16301085 -0.006504437
-0.035727464 0.30325282 0.10006126
0.23851904 -0.15562214 -0.032005455
-0.26374564 0.19158083 -0.014906103
0.029622367 -0.062735274 0.011570208
-0.046719998 0.016265694 0.0005067088
0.028056549 -0.052526005 -0.035331678
-0.08663559 0.027877277 -0.021899369
0.14134209 -0.16361533 -0.18475503
0.00040863972 0.07006621 0.03745642
-0.22072661 0.25252193 0.11733109
-0.014437576 0.16446796 -0.020030517
-0.1267114 0.29254663 0.14175214
0.089170635 -0.06188849 -0.024430498
-0.037440047 -0.075245164 -0.037543148
0.075286195 -0.10339307 -0.0025510485
-0.023442686 0.091128364 0.03152637
-0.029522454 -0.09861521 -0.052119393
-0.06886276 0.09238161 0.047041968
0.12515886 -0.22736274 0.020763831
-0.19053268 0.20380305 0.09219336
0.17841808 -0.31785703 -0.04651594
-0.13282372 0.25239632 0.14229204
-0.1729086 0.2997308 0.09368868
-0.1233911 0.23005016 0.1168965
-0.12014157 0.111754164 0.032090396
0.057101395 -0.05037328 -0.0027015477
0.18289475 -0.12539515 -0.13084127
0.030105883 -0.30058432 -0.17208666
-0.097234994 0.25091463 0.13364723
0.016976869 -0.07296461 -0.050374698
-0.013315071 -0.19113453 -0.20235857
0.08763141 -0.2872251 -0.04213718
0.046458922 -0.09715628 -0.023326902
-0.21697581 0.13460058 0.028544175
-0.05417425 0.34373334 0.06504789
0.23657301 -0.15418255 0.008713556
-0.03165395 0.19897828 0.07393551
-0.1573374 0.20567605 0.15107672
-0.102439396 0.36113662 0.025874378
-0.13316722 0.18312009 0.12206661
0.04211998 -0.30820462 -0.025194554
-0.16977781 0.24186604 0.14211908
-0.09463356 0.21912934 0.08286033
0.071050234 -0.07631318 -0.02464443
-0.047185685 0.106653325 0.038720295
-0.2532965 0.24564 0.10933914
0.0057106805 0.29556012 0.085961014
0.13432913 -0.20980538 0.008941066
-0.0023677784 -0.030098597 2.4301444e-05
0.14081563 -0.15310271 -0.05530107
0.20595263 -0.19604942 0.031056836
0.1287339 -0.13016383 -0.06798919
0.024422344 0.042836253 -0.019791722
-0.044854995 -0.23011032 -0.17549005
-0.12817681 0.29276317 0.10373938
0.23257777 -0.10254701 -0.17807075
-0.06563113 0.17600234 0.050427552
0.05590942 -0.043998286 0.0033681681
0.17368294 -0.31482902 -0.10539049
0.16397078 -0.2850436 -0.04570813
-0.16752963 0.25388235 0.121145755
-0.14114347 0.10770111 0.021068836
-0.081281096 0.38490486 0.009076965
-0.094991595 0.3571384 0.052060336
-0.15350506 0.1978226 0.14462285
-0.17906529 0.15252444 0.06471763
0.018418051 -0.2430473 -0.043834686
-0.1481514 0.29306015 0.0380917
0.024108138 -0.17897125 -0.04555435
0.0032693748 -0.30465683 -0.14599827
-0.07182833 0.21057351 0.08468039
0.05433619 0.015748775 -0.0172754
-0.15292251 0.34682202 -0.007506822
-0.10832941 0.31349564 0.14189242
-0.26076722 0.2991664 0.016823841
0.041299883 -0.19554242 -0.14718442
0.036320787 0.046174552 0.0010436664
0.1452358 -0.20639375 0.06856092
-0.096567124 0.18154785 0.13479716
-0.21822478 0.29630956 0.053521626
-0.00971496 -0.040398285 -0.019257179
-0.08867569 0.2895302 0.11776518
-0.14555341 0.23437805 0.11470097
0.103315674 -0.09079108 -0.09588209
-0.07398557 0.07454393 0.011537274
0.05633847 -0.19033827 -0.052328296
0.094699316 -0.11569019 -0.015868422
0.049716827 -0.33245575 -0.049794327
0.09257055 -0.03139246 0.0024685143
-0.12009702 0.30830118 0.1390134
-0.15606721 0.15780061 0.14239526
0.082663566 -0.050059237 -0.040714923
-0.02670441 -0.06441848 -0.025435256
-0.018400358 0.11474616 0.02575039
-0.1766628 0.2069534 0.07720971
0.007397772 -0.06567825 0.0011852687
-0.093984894 0.20938519 0.15647396
0.03711194 -0.022211095 0.014990514
-0.1151097 0.08907548 0.006355033
-0.1419036 0.1619937 0.11767285
0.016565343 0.068832174 0.009761295
0.057867568 -0.08055758 -0.041052494
0.18814498 -0.1277965 -0.23686536
0.19169995 -0.31429055 -0.11865861
0.27872324 -0.093490876 -0.079747975
0.061599143 -0.17330655 -0.07504105
0.15527736 -0.14512816 -0.11002534
-0.1555591 0.25485945 0.09872066
0.033846803 -0.23279388 -0.034856964
0.075818434 -0.1560308 -0.05044064
0.017797107 -0.3201924 -0.075813346
-0.011280866 0.21503335 0.14596044
0.15532802 -0.2571603 0.002672919
-0.041214675 0.13800098 0.05304458
-0.09985775 0.10897876 -0.003895426
-0.02989224 0.10146251 0.062130406
0.11846098 -0.27240187 -0.013626662
0.0108813085 -0.026745392 -0.007962332
0.11154781 -0.2741043 0.0044179335
-0.047634173 0.30673233 0.13074672
0.026261099 -0.039238732 0.0016320838
0.10465144 -0.13502127 -0.04365272
0.056259155 -0.21649742 -0.043294657
0.03525003 -0.28483564 0.014209342
0.14599207 -0.33624735 -0.17692773
0.21597159 -0.12729727 -0.16353732
0.093540296 -0.27874964 -0.011839482
0.07720654 -0.28603083 -0.010389473
-0.13739197 0.3029638 -0.0024170866
0.08472175 -0.100803524 -0.021236997
-0.044418767 0.25825468 0.09999943
-0.23669127 0.23650067 0.11141245
-0.091697074 0.15627716 0.058357056
0.08589533 -0.08407382 -0.044922493
-0.0632691 0.30883995 0.09030316
0.03144528 -0.20922816 -0.20291784
0.14997065 -0.23794873 -0.03122803
0.18557815 -0.12617205 -0.18967165
-0.020540811 -0.24420191 -0.09484569
-0.012515677 -0.20402144 -0.12652501
0.08151342 -0.09694736 -0.016561206
-0.05267348 0.32502553 0.10014979
0.052747555 -0.1330953 -0.022658223
0.15140319 -0.18134512 0.026075015
0.21498884 -0.1745386 -0.047256146
0.013772455 -0.004187347 0.029158441
0.17504866 -0.19305609 -0.062196534
0.2459714 -0.2462133 -0.06862564
0.09883024 -0.2878812 0.04733239
-0.15229477 0.25128415 0.15608424
-0.009160894 -0.09384623 -0.09748099
0.018507972 -0.09153821 -0.032021448
-0.014112314 0.26823092 0.02514565
-0.0872795 0.0939867 0.0006138671
0.09283599 -0.19650531 -0.03574862
-0.0455697 0.29447117 0.09867321
-0.07444199 0.34515837 0.008166119
-0.096467055 0.19598246 0.1196572
-0.23174806 0.19513045 0.090948224
-0.016410286 -0.28506276 0.0071701896
0.25446624 -0.26453638 -0.10349256
-0.035444606 -0.26872614 -0.14123319
-0.06759608 0.33578596 0.07914157
0.038587824 -0.04229248 0.009180209
0.1929733 -0.2609141 -0.17282012
0.1361863 -0.28665698 -0.037317794
0.16225749 -0.19690387 0.045568526
-0.052003343 0.10435341 0.04908976
0.017545894 -0.07927823 -0.0072228
-0.0043629203 -0.1948171 -0.16835517
-0.016282193 -0.0037493333 -0.0043808757
0.058979254 -0.32425365 0.008809776
-0.23258708 0.27259943 0.080907464
0.11486267 -0.119538926 -0.028214345
-0.062197298 -0.28369227 -0.07463332
0.22589605 -0.11045708 -0.13878062
0.020185413 -0.16008116 -0.10815186
0.2533044 -0.14600722 -0.008972087
-0.18898079 0.32408446 -0.014484402
0.15093774 -0.2119857 0.017843274
-0.050589424 0.03531501 0.00571185
-0.21944584 0.24999551 0.13077597
-0.036212746 -0.29309008 -0.066436835
0.23060916 -0.18895137 0.023372814
-0.17388564 0.27705762 0.123825856
-0.049771138 0.014679094 -0.0061449646
-0.088471875 0.18903704 0.14502294
0.10694859 -0.19585408 -0.02267624
0.2094796 -0.14504589 -0.077219136
-0.12323576 0.16974269 0.008371767
-0.081225395 0.3397276 0.14122216
-0.08926287 0.24129495 0.15235329
0.010657624 -0.2711839 0.037280284
-0.22572367 0.13828965 -0.038138475
-0.08108421 0.17170566 0.16352431
-0.24943383 0.29286414 -0.015128399
0.21696925 -0.22546968 -0.026131669
0.030029183 -0.31721464 -0.05984626
0.19478132 -0.13837832 -0.14890537
-0.18407105 0.14677855 0.10494891
0.17482181 -0.17980662 -0.1183391
0.03529817 -0.020667307 0.034196343
0.19406344 -0.17878807 0.02345469
-0.017620027 0.123476006 -0.025619911
-0.21258862 0.2560508 0.10911883
-0.2222114 0.22940716 0.09330716
0.22802602 -0.22193064 -0.16165526
0.1087075 -0.31952578 -0.056292247
-0.02683988 -0.27135596 -0.07878169
-0.06730843 -0.0076897563 -0.0072160237
-0.02717303 -0.23626703 -0.1950696
0.076226905 -0.29698223 -0.024400009
0.11491573 -0.14065728 -0.21405846
-0.004690951 -0.041419387 -0.03259625
0.06575348 -0.29180646 -0.037276704
0.032782838 -0.17341818 -0.077226415
0.012614858 -0.18717608 -0.07204559
-0.012463532 -0.20909922 -0.21203357
-0.17533238 0.28882807 0.14374827
-0.22721076 0.23573434 0.02048339
-0.012765849 0.13298227 0.03701187
0.09391946 -0.19274542 -0.023699569
0.15058194 -0.29309222 -0.021321438
0.04430375 -0.102521665 -0.0055530258
0.006791896 0.25525445 0.026808426
0.006865954 -0.1674839 -0.09246663
-0.047330346 0.119675376 0.06389268
0.025549773 0.08288405 -0.007530339
0.18580478 -0.1620263 -0.016295377
0.23453689 -0.13908298 -0.14272542
-0.004505084 0.06930933 0.03072791
0.17826115 -0.33033746 -0.12440392
0.044313215 0.04832706 -0.0022352273
-0.06802039 0.24701948 0.11433327
-0.24062984 0.28789368 0.044197217
-0.13461766 0.1701415 -0.0003580272
0.1250802 -0.30029163 -0.00017311364
-0.0014628586 -0.24956626 -0.045252252
-0.064304315 0.3024701 0.13040681
0.035736486 -0.0072076395 0.004438259
-0.1394968 0.19250414 0.03949271
-0.022583142 0.26311594 0.13884766
-0.199432 0.16395234 0.07534156
0.20830609 -0.13210844 -0.08004109
0.0451438 -0.21519747 -0.16917633
0.13790156 -0.28058326 0.02106436
0.027103014 -0.24080485 0.008306547
0.117019705 -0.1591147 -0.05521575
0.06254011 -0.19274744 -0.2717137
-0.010390122 -0.15009646 -0.09759131
0.22145218 -0.12843849 -0.0879549
-0.066102855 0.16721386 0.06006809
0.21732612 -0.14854726 -0.0408317
-0.035822753 -0.037231773 -0.07914791
-0.17036153 0.28993014 0.15084279
-0.011859959 -0.12598103 -0.07095749
-0.029925233 0.13407937 0.04582739
-0.19865082 0.16567017 0.09456335
-0.10162914 0.23217961 0.12633659
-0.13646466 0.26280212 0.12898298
-0.059868958 -0.054573365 -0.06606718
-0.17603153 0.18814772 0.10649157
0.06995297 -0.17609076 -0.037843514
-0.109889954 0.30820227 0.055107653
0.027872553 0.06512352 0.026097866
-0.04518793 0.29377908 0.0362575
-0.06374282 0.16970594 0.063841246
0.061505772 -0.34603387 -0.08553637
-0.07435469 0.11631303 0.047660664
-0.16582276 0.29646197 0.16540362
0.08270117 -0.16553988 -0.035388205
0.16571885 -0.31129396 -0.052880544
0.23084053 -0.177797 0.004629095
-0.07607652 0.10293665 0.039976187
0.1279447 -0.26800144 0.014309042
-0.26759988 0.24895516 0.0033523983
-0.034432102 0.020060647 0.028101472
0.1704423 -0.2972411 -0.0066841412
-0.00963848 -0.16040684 -0.087639
0.055377487 -0.0030989312 -0.037065748
0.081082046 -0.25053003 0.006368787
-0.22897606 0.22611791 0.05827233
0.22399366 -0.14390762 -0.0132018095
-0.18170097 0.17118496 -0.06538327
-0.14948644 0.22987555 0.12670419
0.029543765 -0.22660562 -0.016965259
0.01615854 -0.18995723 -0.070347875
0.012481184 0.29319215 0.038515687
-0.029352486 0.049025886 0.04491438
0.02608039 -0.07524467 -0.037075065
-0.054628175 0.13158204 0.06661058
0.19244352 -0.106362425 -0.2314708
0.081977 -0.32297117 -0.02400823
-0.05769758 0.3175642 0.070994735
-0.018289747 -0.0249419 0.0286325
-0.18551816 0.25168687 0.13098995
-0.0506762 -0.24430579 -0.1641676
0.1898907 -0.16264684 0.020546561
0.015037436 -0.19372246 -0.2336389
0.06651587 -0.10385245 0.0037605688
-0.03138572 -0.106663115 -0.09068385
0.18301296 -0.23696609 0.03358729
0.03985256 -0.015536289 0.030889837
-0.040516693 -0.029110588 -0.085466616
-0.09325685 0.08652076 -0.01277363
0.038519215 -0.22596818 -0.17973067
-0.056694806 0.11441249 0.048415326
0.044897772 0.021498872 -0.034844205
0.09786833 -0.08347893 0.0031489802
-0.03534949 0.0667842 0.035302922
0.18142667 -0.15374471 -0.03992434
-0.027687022 -0.03352585 -0.024321962
0.1815622 -0.2844036 -0.13731015
-0.092776485 0.22877367 0.1422512
0.011314311 -0.31977385 -0.12865677
-0.037118215 0.08348259 0.021988384
0.051120758 0.007886718 -0.03446694
0.076123945 -0.26616743 0.066296674
0.0033292442 -0.056531392 -0.0639356
-0.05126196 0.25037235 0.1368424
0.031726215 -0.032369126 0.019007482
-0.033017684 0.36924964 0.022309132
0.11824873 -0.14573461 -0.05556815
0.06505589 -0.29172263 -0.10022231
0.022246782 -0.24802381 -0.01610211
-0.19322757 0.2647511 0.13635926
-0.0069550173 -0.006649837 0.02151725
0.031958774 -0.16591197 -0.029926024
-0.10031136 0.13432017 0.034245856
-0.061739296 -0.01900824 -0.032320846
0.07034541 -0.16667348 -0.039489836
-0.12557106 0.1969738 0.0010257412
0.19507942 -0.17439406 -0.022374174
0.023312733 0.004456294 0.02080427
-0.013655854 0.0432913 0.04947821
0.019272003 -0.07759297 -0.025815047
0.1331896 -0.27336058 0.0058064354
0.06308886 -0.13520737 -0.041311614
0.033916686 -0.20630634 -0.08078073
0.113867864 -0.16169274 -0.020281585
0.06497993 -0.3272771 -0.09287205
0.111640036 -0.30865324 -0.05674155
0.016618177 0.044665996 0.02078261
0.07265348 -0.15457104 -0.033230048
-0.14173435 0.17941509 0.17275624
-0.0493906 -0.012381492 -0.045308016
-0.17713629 0.30314463 0.108723715
0.19980317 -0.14652476 -0.035350505
0.025539422 0.018653102 0.022414604
0.029999921 -0.12644908 -0.033640217
0.2508757 -0.18725453 -0.023001121
0.0042815953 -0.30614385 0.012258776
-0.028292352 -0.25273994 -0.1655425
0.16151081 -0.3503892 -0.11382995
0.019220345 -0.18671724 -0.116932504
0.20631045 -0.11705992 -0.1300662
0.070104316 -0.10102848 -0.0073264237
-0.157508 0.29172826 0.14558484
-0.041563135 0.19967742 0.13263755
-0.048849914 0.3082652 0.088866636
0.067582615 -0.3013918 -0.0071418337
-0.09218262 0.16955338 0.089186646
-0.15011366 0.302088 0.049109254
-0.26665196 0.23056704 0.041791975
0.004080058 -0.03801672 -0.010403844
-0.18271662 0.25511914 0.1161111
0.00913354 -0.21103084 -0.17062715
0.16076024 -0.1771666 0.04996694
-0.13924788 0.2932738 0.1402709
0.19059083 -0.2832744 -0.03038342
-0.049125887 0.054114178 0.015671663
0.07323097 -0.06250781 -0.049011815
-0.0127860345 0.14450824 -0.010231439
0.08682932 -0.2358721 0.026700085
-0.11009067 0.20203346 0.11897765
-0.17103009 0.32139406 -0.025007097
-0.06714249 0.24851981 0.13218918
-0.25857547 0.2496831 0.03385702
-0.105266295 0.28469372 0.13939847
0.053335886 -0.29815805 -0.05864004
0.009995958 -0.2272086 -0.115239255
-0.20678839 0.19660868 0.11821445
-0.13354436 0.27440113 0.11085436
0.1770678 -0.3378075 -0.1350774
-0.12516046 0.18235923 0.1293634
-0.077472895 0.29386762 0.1217175
-0.012766254 -0.08679214 -0.046219338
0.07747614 0.035818696 -0.07968065
0.12201161 -0.03330655 -0.080927216
0.09994648 -0.045053333 -0.045810923
-0.07809673 -0.044745285 -0.031899195
0.10122204 -0.17935407 -0.04371268
0.20121677 -0.10994267 -0.12506872
0.20578876 -0.22238165 -0.079910725
-0.21682192 0.3162816 -0.0018014581
-0.2148819 0.20798206 0.103584565
-0.11745816 0.34488735 0.029957697
0.26046893 -0.11184541 -0.055387188
-0.05598941 0.18215331 0.053162664
0.0365762 -0.11024523 -0.0092319045
0.010139239 -0.19673389 -0.09554554
-0.19716258 0.30418348 0.10219004
0.031861294 0.0067497343 0.026114121
0.18487436 -0.14700434 -0.04374612
0.015199201 -0.15618932 -0.10533728
-0.15976997 0.2834025 0.117708735
0.0013199154 -0.0671895 0.0015324058
0.12074999 -0.28141928 0.0021402726
-0.079659164 0.1795832 0.14955029
-0.14384018 0.16747573 0.14152004
-0.07811295 0.24714425 0.06633414
-0.269337 0.25822628 0.11948911
0.014706643 -0.1664949 -0.07808784
-0.24251759 0.17085955 0.04082616
0.0061127953 -0.057196405 -0.007892014
0.078661345 -0.0742085 -0.024060894
0.08593245 -0.26790068 0.021250268
0.07197246 -0.28913176 0.04506753
-0.1397242 0.28715855 0.16320018
0.08719519 -0.16772026 -0.018810838
0.08547476 -0.29944816 0.045002967
0.2384525 -0.1011104 -0.13740577
0.05711867 -0.13401103 -0.041533343
0.01851448 0.025742449 -0.020755894
-0.11261371 0.26406887 0.15288347
0.22170088 -0.22753824 -0.051356602
0.15448357 -0.24033031 -0.018814746
0.12011132 -0.17894742 -0.0388134
0.08941286 -0.06915952 -0.09639902
0.14574435 -0.25839004 -0.026884008
-0.036922622 0.26115716 0.14273721
0.25578523 -0.11557715 -0.065678075
0.06762257 -0.11608068 -0.024144616
0.02143886 -0.033459805 0.014601715
-0.1399879 0.2592128 0.13068993
0.00046032554 0.13745062 0.035309114
-0.09447335 0.19257523 0.11517309
0.21392272 -0.19152561 0.00913221
-0.03077404 0.37320408 0.016530989
-0.13383149 0.1972517 0.09658984
-0.0829417 0.17405604 0.06496094
0.13941592 -0.21759005 0.061936256
0.115586124 -0.35112765 -0.06437187
0.077306144 -0.11048797 -0.014423575
0.0419887 -0.16284059 -0.03624904
0.15936613 -0.2528427 0.029978003
0.077652715 -0.16050243 -0.033293854
0.08317573 -0.1803328 -0.037079383
-0.1527911 0.17481796 0.11670281
-0.01301144 -0.27060768 -0.09186821
0.084328175 -0.2895254 -0.012918573
-0.17911577 0.17555033 -0.0346528
-0.12335093 0.28179938 0.13239017
0.092842445 -0.21566305 -0.028648162
0.13260366 -0.10996974 -0.037919622
-0.08574415 0.27582628 0.12360552
-0.2216164 0.19195543 0.033444826
0.2110462 -0.2428414 -0.018928995
-0.0015907573 0.27206197 0.08609587
0.20906378 -0.18495752 -0.044677388
-0.0763631 0.2802017 0.11148737
-0.11080805 0.15127277 0.041639704
0.03892399 -0.19405526 -0.03746662
-0.10664726 0.06526384 -0.0002805074
0.25294322 -0.19761541 -0.043055568
-0.04482162 -0.24458869 -0.11545216
-0.18137239 0.1912898 0.15665552
-0.024215726 -0.26505613 -0.01928906
0.08451517 -0.29012194 -0.099250555
0.100492656 -0.2921626 -0.037575122
-0.08824823 0.03638232 -0.022082433
0.08047472 -0.16390541 -0.042050775
-0.031675592 -0.29188603 -0.07085105
-0.04154956 0.20705132 0.022781132
0.10462947 -0.23811036 0.008892342
-0.12663974 0.20368108 0.1540705
0.048837963 -0.019623587 -0.018934619
0.14684282 -0.34320238 -0.15668546
-0.1544505 0.20405406 0.14608486
-0.09140051 0.13640581 0.057198737
-0.04837572 0.39440376 -0.035692576
0.20916416 -0.11940354 -0.12026028
0.031083534 0.06640674 -0.019181062
-0.054108355 0.18118253 0.036548007
-0.07465901 0.00081488065 -0.031055108
-0.013510752 -0.30687422 -0.041881472
-0.0088717565 -0.22721554 -0.11010896
0.1148055 -0.12238987 -0.060628932
-0.22064434 0.28727335 0.042443268
0.21372089 -0.3246408 -0.10640839
-0.112096116 0.26207882 0.14583388
0.07048841 -0.2237269 0.019167975
-0.17667979 0.20940804 -0.10688506
-0.00042027578 -0.016056351 0.01798262
0.06145726 -0.055026554 -0.076553635
0.009196657 -0.018210622 -0.009777873
-0.03517781 0.0048201173 -0.011084445
0.075772114 -0.2968812 -0.02003561
-0.031689126 0.31034178 0.12068387
-0.030776618 -0.24700029 -0.16616434
-0.042526405 0.33246455 0.04178614
0.033670384 0.24483606 0.10036774
0.12011514 -0.28792185 -0.023113351
0.027047213 0.073113866 -0.044148915
0.022080602 -0.14671013 -0.06498032
-0.0035400093 -0.060054854 0.010969412
-0.08435449 0.07300962 0.04318066
0.07557518 -0.18353726 -0.04501697
-0.1706848 0.27317247 0.109197915
0.14296204 -0.23979485 -0.01380247
0.21117939 -0.27067876 -0.038201842
-0.08516504 0.28966528 0.1208064
-0.024566816 -0.07208096 -0.10143569
-0.061691348 -0.27430263 -0.15452634
0.11788198 -0.2755002 -0.009599316
-0.1191839 0.17362717 0.065136574
0.025592627 0.05922716 -0.010936335
0.020647664 -0.034872513 0.020252071
-0.124072336 0.36570513 -0.064586386
-0.020416433 0.11813984 0.03104988
-0.028690306 -0.2915776 -0.08402244
-0.09086797 0.2890582 0.111047186
-0.084405005 0.25109392 0.06803389
0.07918619 -0.27422917 0.083653904
-0.09989362 0.07671667 0.004425469
2.3627781e-05 0.1498713 -0.021905718
0.03698197 -0.21841258 -0.1528291
-0.17399187 0.2573914 0.12551887
0.012307267 -0.26404288 -0.08166655
-0.010033349 -0.2436241 -0.08527344
0.15433599 -0.28993693 -0.028603956
0.087848976 -0.13599458 -0.055617172
0.0115961805 0.2689126 -0.018457983
-0.012837766 0.2461229 0.10612888
0.025333097 0.106091104 -0.03563483
0.029480135 0.0139202215 -0.019692928
-0.112722576 0.32936406 0.01153144
0.10549508 -0.13480146 -0.2608889
-0.08931613 0.33157468 0.10289168
-0.20951961 0.2583978 0.10421534
0.061498657 -0.103366055 -0.032531023
0.21998277 -0.2215585 -0.014738276
-0.050910503 0.028165506 -0.012370165
-0.03929357 0.10402915 0.023283724
0.080349915 -0.3024082 -0.15739498
-0.18898563 0.27771035 0.067143954
0.08121838 -0.11517211 -0.025576457
0.05073733 -0.33684996 -0.12041473
-0.056889866 0.06437951 0.047670804
-0.023689663 -0.3031092 -0.107088536
0.068630844 -0.080122925 -0.014596028
-0.15761262 0.3014386 -0.014169555
0.0017715923 0.2689437 0.022629667
0.0666937 -0.29878965 -0.083247975
0.004332286 -0.22311485 -0.19716474
0.057950076 0.040847797 -0.036651745
-0.021954363 0.28479868 0.09744226
-0.032707438 0.24689105 0.10236185
0.11324264 -0.19195245 -0.028989846
-0.05160233 0.14885378 0.0463944
0.22944579 -0.21068595 -0.05775575
0.14009446 -0.32996866 -0.11388955
-0.036856115 0.20231543 0.12501453
0.026402138 0.2660258 0.09846156
-0.04088687 0.1748476 -0.0069014984
-0.13340646 0.330972 0.043626465
0.22866721 -0.23721825 -0.082339294
-0.16535398 0.14354876 0.1336818
0.20299347 -0.13035673 -0.06669389
-0.10583302 0.33340898 0.02379856
-0.09673707 0.21766575 0.1034917
0.16917837 -0.1499553 -0.09640439
0.0865843 -0.10168275 -0.015573809
0.009852643 -0.06446209 0.004754151
0.23810151 -0.23815583 -0.09121216
-0.09487934 0.30369994 0.116166405
0.21800359 -0.24506178 -0.05355072
0.10859753 -0.22386454 0.059160117
0.13078636 -0.11568088 -0.044723086
-0.09668581 0.393553 -0.033211477
0.04169518 -0.25364617 0.02980231
-0.020812755 -0.26531428 -0.06495105
-0.07021445 0.11709268 0.024676954
0.15354413 -0.22886477 0.060054928
-0.18026632 0.31163028 0.050432045
0.02714019 -0.0671484 0.019370794
0.050822694 0.054941442 -0.041742586
-0.038319763 -0.23991598 -0.17434867
-0.0042495904 0.25700325 -0.026950363
0.21641755 -0.11656444 -0.19771056
0.04224616 0.00892212 0.028913248
0.18950184 -0.12574206 -0.062648065
0.027620811 -0.096881814 -0.012480496
-0.05407631 0.060805928 0.011972295
0.24496493 -0.12480973 -0.12812589
0.22668009 -0.20516483 0.018986505
-0.17012389 0.24062192 0.122611284
0.20440517 -0.12772277 -0.09155129
-0.031102814 0.37429485 -0.015505235
