# .PCD v0.7 - Point Cloud Data file format
VERSION 0.7
FIELDS x y z
SIZE 4 4 4
TYPE F F F
COUNT 1 1 1
WIDTH 1000
HEIGHT 1
VIEWPOINT 0 0 0 1 0 0 0
POINTS 1000
DATA ascii
0.057586525 0.22511292 0.16169222
0.01671182 0.3265821 0.004511896
-0.033418458 0.1694164 0.021826135
-0.12302702 -0.23994938 -0.05297803
-0.04059366 0.069144 -0.008469429
0.090770915 0.2539427 0.08071205
0.22763214 -0.24180977 -0.09189993
-0.05422511 -0.34476116 -0.0021800967
-0.005821201 0.37969235 -0.054207046
0.015311683 0.101191066 -0.026741369
0.11227534 -0.17218548 -0.23900878
-0.02258873 -0.13193867 -0.032202583
-0.026671344 0.115179576 0.0008687935
-0.1560164 0.19987413 -0.106692
0.23959818 -0.25263157 -0.09122353
-0.08508081 -0.20841803 -0.17005971
-0.21715395 0.17703694 0.026183844
-0.25504273 0.20973396 0.016072249
-0.030094884 0.22657941 0.17134148
-0.051459424 0.2313417 0.10904782
-0.083995394 0.30002433 0.0618972
0.022447327 0.21444856 0.088144705
-0.045576073 -0.055838704 -0.037273407
-0.018751452 0.1502924 -0.024953049
0.07119037 0.24373846 0.11225614
-0.18249193 0.19268908 -0.049958106
0.065155216 0.25149378 -0.013118283
0.084540494 0.23901397 -0.14663316
0.10349589 -0.23013607 0.016455343
-0.14453138 0.21200857 -0.16245219
-0.012945722 0.22622018 0.17847282
0.053642165 -0.25641444 0.029280605
-0.011383568 0.22029339 0.12413263
0.030083984 -0.31329656 0.100067824
-0.08821387 0.20409632 0.18188748
0.100661 0.30688882 0.029996943
0.16668192 -0.14845945 -0.17218672
-0.062330123 0.23208486 0.04903533
-0.17073476 0.27521813 -0.06147206
0.076476306 0.29568577 0.015025516
0.1124318 -0.24453929 -0.0017054889
0.051804353 -0.17235133 -0.012261718
0.06985812 -0.28571767 0.009746134
0.15323384 -0.33109856 0.023200683
-0.20238402 0.21339108 -0.18006606
-0.10781299 0.33505076 0.02840293
0.018955983 -0.2292527 0.0493523
-0.16099764 0.31692025 0.025868943
0.01962499 0.05136505 -0.0021023306
0.21515474 -0.29014397 -0.070504725
-0.11583208 0.35153562 0.010926864
0.077594645 -0.2325844 0.07867112
-0.016314339 -0.015038103 -0.037041888
-0.15237845 0.21662639 0.04719635
-0.024745788 0.05466728 -0.0057258396
-0.12260822 0.24676162 0.036972355
-0.1052141 0.37963113 -0.031028729
-0.113041826 0.2606797 0.05729446
-0.09816401 0.37448582 0.029372333
-0.21621309 0.2174431 0.0601294
0.037331298 -0.19108175 -0.048398368
0.038474686 -0.020597551 -0.0020077953
-0.08334629 0.30727804 0.052818257
0.1477198 -0.23364693 0.004203798
0.23006153 -0.22623806 -0.08321827
0.054118607 -0.16474584 -0.048616674
-0.16741526 0.24219425 -0.15751934
0.012648469 0.2872529 0.02132076
0.071420915 -0.17243856 -0.009421862
0.12665325 -0.24782531 -0.03104283
-0.11536009 0.32126585 0.06513455
0.19737652 -0.21459693 -0.039380956
-0.15390137 0.3350058 0.04510211
-0.031769264 -0.24782982 0.022311045
0.13495815 -0.20077737 0.056021515
-0.05437397 -0.24926744 0.079940364
0.11364471 0.2427296 0.030485356
0.01906205 0.2503609 -0.19356595
-0.18261035 0.17385824 0.10745468
0.21233213 -0.22088465 -0.010537543
-0.055591114 -0.21272463 -0.032252625
-0.074126065 0.19415165 0.06757933
-0.015270411 0.20924376 0.1707666
0.025651362 -0.22825277 -0.014060517
0.016405914 -0.13343626 -0.039672144
0.13291055 -0.30183503 -0.025718853
0.21311538 -0.14315084 -0.091102585
0.130561 -0.26861405 0.06155034
-0.02501739 0.22457783 0.17556559
-0.00077023864 -0.27505952 -0.018183967
0.25125214 -0.1566908 -0.06709631
-0.012718786 -0.042389035 -0.0028470925
0.084452726 0.25490767 -0.02139828
-0.012127794 -0.1458194 -0.043309625
-0.02584778 -0.24265148 0.09772738
-0.0036168823 -0.00791954 -0.006865403
0.054852854 0.24465239 -0.03790066
0.022813361 0.2423302 0.03927922
0.2102653 -0.30856377 -0.07292731
-0.072539136 0.28187156 0.06721237
0.2124188 -0.27131075 -0.05607875
0.18990186 -0.21071918 -0.0067090937
-0.08164723 -0.22865991 -0.07373872
-0.0571077 0.35210046 -0.034417357
-0.07724949 0.3109464 0.022937462
0.19557688 -0.18607286 0.013842366
0.06654049 -0.106073216 -0.0395297
0.18820421 -0.1546372 -0.016057689
0.056900628 -0.21553436 0.0686227
0.20041156 -0.20338272 -0.009868549
-0.04845713 -0.21843578 -0.19242224
-0.1009999 0.19865896 0.1670372
-0.06611012 0.2623137 0.054683737
-0.1895442 0.16352992 0.04746677
-0.031011075 0.1996464 0.016335486
-0.18247041 0.22372939 -0.14497598
0.101540916 -0.26341212 0.011818272
-0.016707277 0.22726458 0.18310669
0.004862434 0.2829906 0.056167495
0.101660825 0.2540057 0.07989608
0.1317893 0.27121052 -0.06297659
-0.15536246 0.31558812 -0.014550072
-0.23253885 0.1599458 0.070948035
-0.04517032 -0.3080485 0.04779186
0.20659041 -0.19879198 0.04077494
-0.0980783 0.34763718 0.015073857
-0.06967282 0.23147872 -0.0031730628
-0.079313524 0.270088 0.08814185
-0.07448034 0.18146221 0.11790641
0.030664664 0.04105876 -0.0046198242
-0.05618377 0.38822597 -0.01956038
-0.14361571 0.27617782 0.0319021
-0.009508528 -0.025351606 -0.042455103
0.0607547 -0.112662256 -0.027044322
0.006400392 0.08766181 -0.02304057
0.23790644 -0.18599032 -0.06981005
0.14005665 -0.26525745 0.04293538
0.13945138 -0.2025626 -0.01985545
0.039597306 -0.25824302 -0.011243754
0.017965527 -0.21868232 0.006987515
-0.029278986 0.19123293 0.0010567028
-0.042642623 0.35807195 -0.029598381
-0.24921551 0.15183914 0.015024405
0.19428156 -0.20837982 -0.11215983
0.045624092 -0.2273447 0.084658846
0.031805225 -0.10272192 -0.013108763
-0.15463322 0.21398203 0.10454676
0.07017232 -0.21311063 -0.22666132
0.04130959 0.2406185 0.015010994
0.21733472 -0.2782162 0.010631069
-0.21616821 0.19692539 0.039874114
-0.08818527 -0.25304386 -0.09157008
-0.0076572653 -0.24706128 0.072607696
-0.012142388 0.24748617 0.15113918
0.09768421 -0.23004936 0.00013996624
-0.046581138 0.11543448 -0.05899298
0.059927404 -0.22434917 0.08311367
0.04119299 -0.22517583 0.10232806
-0.06395709 -0.2392071 0.021870771
0.020913238 0.25338453 0.020481989
0.016772946 -0.200445 -0.013151649
-0.034299485 0.25359955 0.17511275
0.1085809 -0.19414747 0.034203976
0.062515885 0.2285414 0.1474855
-0.052999407 0.16919807 0.021373315
-0.04315254 0.2530931 0.034661803
0.20932388 -0.18847524 -0.04913139
0.23613955 -0.28722376 -0.06502695
-0.055365883 -0.27045837 0.034475688
0.16006856 -0.1926314 -0.048537143
0.10327813 0.24650633 -0.12360353
-0.20802985 0.1715555 -0.043106154
0.13761571 -0.26773882 0.06480739
-0.097627826 -0.26443687 -0.026082199
-0.01243196 0.31207725 0.0064093857
0.08546196 -0.2310379 -0.026052952
-0.104065485 -0.2780558 -0.019518636
-0.11633761 0.28575265 0.04112607
-0.116091326 0.2480874 0.051910665
-0.06370507 0.2606135 0.1102588
0.08186404 0.23536877 -0.03890201
0.05251862 0.23944181 -0.14481896
-0.016226087 0.12371539 -0.023405842
0.04760258 0.24231414 0.15578799
0.0795448 -0.19999878 0.09650366
0.10701516 0.29910156 0.0465314
-0.11968104 0.23445843 0.09622993
-0.0678749 0.1702115 0.10053131
-0.040969156 0.38397563 -0.102178276
0.01708165 0.32478726 -0.010005687
0.031173116 -0.35229096 0.014468105
0.05325731 -0.3160279 0.0017668953
0.1496704 -0.2956985 -0.005100012
-0.015990656 0.2753804 0.02133436
0.0011327739 -0.28701752 0.012957965
-0.0071002003 -0.10326149 -0.02942936
-0.06301096 -0.2970833 -0.056989472
0.12072154 -0.2766197 -0.026569618
-0.10992439 -0.2592196 -0.048083134
0.10715589 -0.2654108 -0.015238588
-0.022255257 -0.047854915 -0.02814206
-0.03651383 0.12388342 -0.0021356654
-0.043799166 0.0011876435 -0.010083567
-0.095007 0.26395488 0.057950597
-0.23846897 0.17516024 0.06651812
0.02918867 -0.2998318 0.07407591
0.10594507 -0.19984345 -0.048801787
-0.061864685 -0.34262004 0.037323713
-0.10099823 -0.25418606 -0.06678579
-0.09849751 0.2108084 -0.06691621
0.11539869 0.30328757 -0.07225725
-0.07721148 0.3417643 0.005775441
0.04108413 -0.096803196 -0.021408346
-0.082437366 -0.2637709 -0.037153453
-0.1005414 0.24190024 0.043975975
-0.16248323 0.19882561 0.09498431
-0.24169579 0.14766213 0.063321985
-0.05996836 -0.23776743 0.0018200616
-0.059637863 0.34869817 0.0028077825
-0.013774568 -0.3386281 0.008004156
0.028489877 0.23139416 0.10455828
-0.04228501 0.2991167 0.052414533
-0.045218583 0.09968643 -0.03180068
-0.025892869 0.19381945 0.16481473
0.016125817 0.31681925 0.0065008835
-0.20837033 0.20850727 -0.16336143
0.056092087 -0.29315576 0.0024090249
-0.06000773 -0.21421587 -0.004787391
0.04384001 -0.18935798 -0.017875543
-0.09260616 -0.33663085 -0.055902448
-0.047712993 -0.2638082 0.10157027
-0.0011160434 0.28549492 0.042934276
-0.0006039179 0.1634998 -0.06396774
-0.12976667 0.2026687 -0.12024419
-0.054646175 0.19853076 0.059576247
-0.045469902 0.2089908 0.063063845
0.05660256 -0.04208163 -0.029014267
0.14541316 -0.2559166 0.03945092
-0.11500192 0.3381425 0.042113733
-0.004979713 -0.34093454 -0.0035048013
0.19717157 -0.14500037 -0.022677979
0.15080646 -0.25253072 0.033264674
0.01672271 -0.2809658 0.025244242
-0.088645965 0.2550316 0.09500234
0.13317467 -0.262726 -0.043159686
0.08557534 -0.16736586 -0.048816692
-0.027193265 -0.36327288 -0.14912952
-0.1497633 0.19797489 0.0049684444
-0.11173206 0.19378762 -0.07908122
0.016998649 0.3494847 -0.048884403
0.10949628 0.2652812 0.04999038
0.021003105 -0.27233782 0.00071663194
0.106131494 -0.20998746 0.09873209
0.060537647 -0.2314313 0.012539228
-0.12618734 0.24539383 0.059594095
0.05854089 -0.3325958 0.051115647
0.0732207 -0.1741236 -0.017838212
0.0941551 0.23074275 0.08256852
-0.023320403 -0.09375241 -0.059557434
0.19768634 -0.18368177 0.02341455
0.0445832 0.23050469 0.10176576
-0.105009 -0.25412288 0.06676483
0.11573421 -0.20448598 0.083638445
0.0909183 -0.21297564 0.05622016
-0.008680027 0.28393292 0.06263371
0.1920395 -0.14921214 -0.03267604
-0.034603357 0.116130665 -0.028645629
-0.02943189 0.24789318 -0.056802534
0.09135338 -0.33514696 0.056168757
0.0816721 -0.31765717 -0.031281058
0.07294835 -0.29799628 -0.028435338
-0.052396756 0.12032972 0.0055115293
0.16789708 -0.1927282 0.0018247669
-0.05660177 0.13641383 -0.00964983
0.015956344 -0.15793754 -0.052924376
-0.10046529 -0.33565784 -0.078796074
-0.010826047 -0.011154205 -0.045651156
-0.17536667 0.14664645 0.09024522
-0.15404445 0.27558646 0.04872659
0.17410232 -0.1807368 -0.09547536
0.08923227 -0.12636743 -0.048116013
-0.09206255 -0.2508997 0.062494427
0.0229261 -0.14273302 -0.0072018844
0.07643026 0.2637606 -0.1290018
-0.04397428 0.36433092 -0.06775347
-0.08301114 0.19039388 0.0007511942
-0.16738443 0.19437243 0.12917757
-0.07884689 -0.26026282 -0.09475999
0.021189835 -0.07968842 -0.004587677
-0.08439959 0.30366114 0.058213018
-0.048104953 0.1661384 0.018738747
0.041743103 0.34152338 0.032407008
0.15893084 -0.31881458 -0.107480265
-0.2128576 0.1645671 0.064629234
0.045778614 -0.08403405 -0.026414478
-0.060238753 0.24678825 0.0904172
-0.11090704 0.16757855 0.084737584
0.009673364 0.2293583 0.07624426
-0.08530285 0.21243593 0.08993142
0.07587739 -0.0798297 -0.025660321
0.03437843 -0.05753472 -0.015513684
-0.013130054 0.24305348 0.10355533
0.059477594 0.23745848 0.059511185
-0.1117296 0.38587496 -0.039690066
-0.028617311 0.27279782 0.0034761096
0.10889492 0.26019534 -0.040694006
-0.23684314 0.20084411 0.05264373
0.149067 -0.36661908 -0.06990163
-0.020204226 0.22116724 0.117097795
0.13836314 -0.34346634 -0.10487132
-0.07395973 0.38121924 -0.04897291
0.11359971 -0.34845456 -0.07891076
0.062781416 -0.13443238 -0.04655377
0.1760575 -0.16898291 0.057090964
-0.017907707 -0.0722831 -0.05329498
-0.096059814 0.11132933 -0.030085644
-0.22686899 0.14296289 0.015978513
-0.03706625 0.2389877 0.12436494
-0.065854 -0.24939369 -0.037915647
-0.059350193 0.27078572 0.064097166
-0.08358518 -0.25209734 -0.0032356104
-0.10827548 0.32296106 0.053316716
0.016064089 -0.2688361 0.016879342
0.048142288 -0.34575328 0.0036547761
0.09878974 0.22917473 0.081975155
-0.16714944 0.24987535 -0.04286213
0.08546129 -0.37331623 0.03222447
0.010294976 -0.02631955 -0.02795632
0.038140733 0.23379986 0.047322042
0.19901894 -0.14776485 0.0031247742
-0.0027670353 0.04799982 0.008778357
-0.13212869 0.26953864 0.06027787
-0.18381141 0.16998138 0.10046546
-0.014354728 -0.2959605 0.021379549
-0.11245958 0.19966653 0.06942455
-0.1423887 0.21497321 0.102130294
-0.015157574 0.19872491 0.10715809
0.15149003 -0.14290796 -0.11236841
0.026519604 -0.10250567 -0.029985372
0.21220605 -0.19261935 -0.023892421
0.02696534 0.27308887 -0.058129188
0.18087927 -0.34304574 -0.09465425
0.19083582 -0.26653296 -0.030227255
0.0017532037 0.36871338 0.036359657
-0.002423336 -0.23251922 -0.06213272
-0.0031535628 -0.043669753 -0.01582907
0.15937257 -0.21246313 0.104468144
-0.09231569 0.3366059 -0.12449499
-0.06339168 -0.2854325 -0.02810699
0.00790543 0.28623024 0.06691835
0.013999909 -0.28145206 -0.03228874
-0.050403982 0.24685323 0.14794828
-0.02585419 0.097688094 -0.0017038276
0.01173998 0.2559206 -0.0623418
0.019396808 -0.018084794 -0.021758433
-0.046927057 -0.21910892 -0.06839143
0.12832189 -0.33177027 -0.12887919
0.03908051 -0.36199182 -0.008290957
0.06339235 -0.33989543 -0.186774
0.025680624 0.1999259 0.11999623
-0.15772732 0.32660514 -0.04253314
-0.029759906 -0.21606514 -0.20501794
0.05231075 -0.27626026 -0.024164667
0.03548816 0.016021855 -0.06492043
-0.055972278 0.26895463 0.14298728
0.16895036 -0.15587525 -0.11867646
-0.20131506 0.23010989 -0.17226386
-0.036615256 -0.24123143 -0.14939561
-0.008070113 0.063049264 -0.002014777
-0.015135904 0.20413724 0.18157908
-0.13029388 0.33803463 0.044062965
0.053128608 0.24009655 -0.0058999932
-0.17608753 0.200335 0.08687476
-0.043961246 -0.22645092 0.06874928
0.18181954 -0.1792226 0.052657083
-0.12551165 0.34961683 0.008908571
-0.074490406 -0.23850043 0.023148224
0.099150725 -0.27756333 0.004622263
0.02909583 -0.22883587 0.09233322
-0.09700755 -0.25393945 0.0026752842
0.21118568 -0.2325218 -0.03733238
-0.16914397 0.17351753 0.12346502
-0.057976052 0.34899727 -0.023718921
-0.044093728 0.37167224 -0.102912895
0.19498323 -0.20767024 -0.04137959
-0.078902744 -0.32030284 -0.0741559
-0.09824309 0.29717442 0.029789165
0.18812463 -0.18600915 -0.15151788
0.12530226 -0.25054753 -0.02668076
0.15168871 -0.32936764 0.005684793
-0.018407503 0.2156299 0.13753551
-0.025393106 -0.23234911 -0.15243816
-0.069217555 -0.2464668 -0.046013087
0.11404069 -0.1473324 -0.15868987
-0.05820497 -0.29287413 -0.026332118
0.19494809 -0.16681948 0.068705715
-0.2239228 0.15192376 -0.11166138
0.037557248 -0.24139357 0.08036295
0.15656655 -0.18522938 0.048345454
-0.029457083 0.23276962 0.117991515
0.043849267 -0.22502613 -0.012596531
-0.005756864 0.36884815 -0.010327666
-0.09542938 0.22780116 0.1589599
0.024722945 -0.22016774 0.0969198
-0.07849981 -0.25170603 -0.057498056
-0.1548976 0.19166291 0.10723579
-0.17806645 0.2861381 0.004262099
-0.06380668 -0.24900326 0.046644934
-0.11485252 0.3094218 0.019047152
-0.0841333 0.22027409 -0.07427414
-0.070448555 0.1876798 0.14412656
-0.08234637 0.21544802 0.18303587
0.21318154 -0.14256792 -0.08925531
-0.056818977 0.16260087 0.011612812
0.02367679 -0.23337439 0.04733548
0.0034712388 0.22494893 0.0909901
-0.028066048 -0.23970366 -0.11990135
-0.04498786 0.1730361 0.14240862
0.08303253 -0.23632085 0.04118918
-0.015276766 0.007824343 -0.038528536
0.02046723 -0.20517142 -0.022082172
0.0018313223 -0.07138852 -0.022844706
-0.10474069 0.28484508 0.008834072
-0.13846232 -0.26799124 -0.12050314
-0.15284735 0.22007412 -0.14157565
-0.06538195 0.2566012 0.032319155
0.052435707 -0.20184506 0.12668055
0.17096186 -0.21058837 0.070118666
0.026791943 0.04781875 -0.016414205
-0.008060023 -0.21848051 -0.0149689885
0.2377101 -0.17815867 -0.05647548
0.12283307 -0.35030293 0.01614316
0.028467286 0.2921279 -0.004275403
0.08067223 -0.10333487 -0.052737683
0.114514194 0.28155208 -0.058662158
0.0033346505 -0.23235123 0.08767271
-0.18361737 0.18857615 0.109663546
-0.12017652 -0.21364164 -0.122533984
0.026569268 0.26428604 0.11556649
-0.064584 0.2126353 -0.025396913
-0.10318124 0.26386985 0.05405872
0.1729861 -0.2934493 -0.000283952
-0.035984326 0.2726435 0.06709344
-0.062654786 0.3246375 0.057452425
0.029394034 -0.19201751 -0.07048189
0.0017072904 -0.22371706 -0.061645597
0.038280074 0.025358018 -0.025510497
-0.19242142 0.17366211 0.051358044
0.20722356 -0.22724551 0.004098334
-0.014771085 -0.028173607 0.0031760884
-0.05008089 0.32180634 0.07879867
-0.096750684 -0.23224519 0.032691605
0.04625958 -0.13633093 -0.007543159
-0.15249878 0.29984364 -0.0031618294
-0.11936304 0.1696742 0.06945779
0.14376171 -0.20539391 0.056974154
-0.028115068 -0.35970727 -0.0574269
-0.15241559 0.17597896 0.018400475
0.20238034 -0.13944048 -0.06695308
0.18966518 -0.23433058 -0.030426737
-0.0591389 0.26059297 0.010072929
0.047937687 -0.22622114 0.099637784
0.13016099 -0.3199924 -0.053448413
0.20213822 -0.2512812 -0.008550883
-0.064000145 0.34280732 0.0323813
-0.068232074 -0.22370222 -0.072363175
0.08435641 -0.22596376 0.10963729
-0.17908373 0.18086332 -0.17622459
0.20927024 -0.17213604 -0.08716181
0.06630223 -0.30819404 0.05218765
-0.036652606 -0.22828545 -0.14466386
-0.057419967 -0.2552117 0.015743474
-0.048845973 0.075943485 -0.008141974
-0.08473277 0.34494507 0.05145212
0.1652371 -0.25561816 -0.0061204443
-0.13260275 0.26096222 0.062167514
-0.06488813 -0.2430145 -0.18334728
0.018227702 -0.030594613 -0.007590281
0.014926783 0.2273439 0.15553585
0.005792099 -0.15916827 -0.043070283
0.020356363 -0.17642179 -0.2142146
0.20716314 -0.3113951 -0.051671445
-0.0004163544 0.13688003 -0.020092364
0.039627515 0.29460356 0.09237914
-0.12469489 0.2682923 0.044874188
-0.18754655 0.17590754 0.012305565
-0.17500219 0.17863172 -0.12698948
0.027623156 -0.18499191 -0.050835855
0.05313313 -0.33656642 -0.011384986
-0.18183826 0.18760023 0.047716334
-0.06036117 0.28519118 0.07993147
-0.11604712 0.3006765 0.014130743
-0.04283963 0.29508913 0.07294942
0.05187741 -0.15469104 -0.019017277
-0.26178616 0.17355672 0.011926178
0.2316154 -0.23128198 -0.026722241
0.08535095 -0.2386408 0.1150814
-0.026108447 -0.2648859 0.010656127
-0.092536196 0.32961145 0.026076298
0.072711766 -0.28782448 0.011023598
-0.12172908 0.34450516 -0.0068306276
0.013840111 -0.0056646755 -0.044200454
-0.048055824 -0.24653722 0.021691332
-0.13342862 0.18964961 0.0036410512
-0.05528905 -0.22264749 -0.17325546
-0.16935728 0.17026344 0.06750566
-0.098919794 -0.24927509 -0.15771739
-0.06989598 -0.3511039 -0.05540144
0.079783864 -0.22335765 0.0900788
-0.04065087 0.11039081 -0.000894719
-0.047810428 0.2265911 0.07682433
0.06602238 -0.19471204 0.09965515
-0.11317596 0.19520111 0.03622855
0.04156861 0.012100837 -0.013075326
-0.0060137464 -0.21111783 0.0015837573
0.14457826 0.22991182 0.038910974
0.04137802 0.21432523 0.07516509
0.15202747 -0.27939016 0.08581439
0.015989901 0.06657765 -0.020708347
-0.115477115 0.23176321 0.056789417
0.11926911 0.2847048 0.030992758
0.031743493 -0.112035766 -0.043580376
0.14522038 -0.16078588 -0.14106104
-0.025855334 0.24282637 0.099121384
0.01618652 -0.21269271 0.05120304
0.009128324 0.19929892 0.1464964
-0.09572316 0.3558644 -0.010087139
-0.07150227 0.19426851 0.054383148
-0.116306774 0.26475582 0.041433264
-0.20797834 0.20696044 -0.10065284
0.050599877 0.2617473 -0.06768894
0.008183342 -0.22617573 -0.03101931
-0.11614884 -0.242639 -0.011776539
0.034019284 -0.18628205 -0.023842795
-0.2006986 0.21560176 0.026563734
0.042553015 0.048426975 -0.020131122
0.049988814 -0.31117132 0.10387872
-0.12417389 0.3072479 0.032067087
0.008395951 -0.3043342 -0.011781954
0.18958165 -0.17234308 -0.06958953
0.1597184 -0.19345884 -0.023256823
0.23990624 -0.2649849 -0.08531992
-0.19417194 0.1531808 0.07766098
-0.13692668 0.33086184 0.03569308
-0.039850935 0.065334156 -0.026654517
-0.06765687 -0.32129082 0.06346727
0.023799978 -0.20164281 0.021050194
0.21232359 -0.1462513 -0.11033464
-0.14123887 0.24797928 -0.13070062
-0.024085002 -0.21976557 -0.24213053
0.002432054 0.06854801 -0.027813962
0.064991094 -0.21425213 0.11923627
-0.023384036 0.22280736 0.07067992
-0.011201796 0.02286262 -0.01979962
-0.033245623 -0.1251122 -0.046656854
0.056275096 -0.27892148 -0.008013674
-0.13944061 -0.25717008 -0.093939
-0.008263398 -0.3682501 -0.047902502
0.020859491 -0.34007958 0.041867122
-0.083614916 0.18829891 0.16306302
0.08991227 0.28437477 -0.12931378
0.19363503 -0.30330536 -0.0012360101
0.14717518 0.26523483 -0.012614733
0.20197374 -0.2429665 -0.033701442
-0.02200187 -0.36633685 0.032756038
-0.20962332 0.22068544 0.021335032
-0.06772175 -0.27322415 0.013622939
0.010212031 -0.18681219 -0.018369576
-0.06299053 0.36976382 -0.06821373
-0.21580623 0.23379436 0.03771676
-0.04768946 0.24648991 0.097299926
-0.04140293 0.22169611 0.0852263
0.16145575 -0.16057512 -0.022007687
0.14708194 -0.2902118 0.0791518
0.14099173 -0.15776253 -0.133797
-0.09221025 0.32930273 0.028724909
0.1481057 -0.23980999 -0.032017518
0.061280377 0.24321617 -0.001327184
0.16511117 -0.17711976 0.10294796
-0.15006919 0.17597507 0.12332537
0.044119738 -0.2894655 -0.011772419
0.029039117 -0.38321188 -0.04544344
-0.06265118 0.22916648 0.040273104
-0.01927253 0.22692722 0.09023787
-0.10845298 0.16821219 0.13591239
-0.07338221 0.2097684 -0.01849671
-0.088057175 -0.25683615 -0.17393398
0.023889737 -0.14979655 -0.0498211
0.23374245 -0.27490515 0.025621654
-0.093538515 0.35565805 0.06005551
0.021317847 -0.23398739 -0.01767832
-0.060962547 -0.19843996 -0.20531899
-0.05263153 0.13920109 -0.052421432
-0.15630174 0.31870347 -0.021871885
0.03082278 -0.3443792 -0.034437
-0.115897864 0.2000078 0.13355643
0.06182107 -0.33716902 0.043404683
-0.17381835 0.18352503 0.022171456
-0.019922826 -0.19680451 -0.060668852
0.012421905 0.21968876 0.04185557
-0.01199542 0.1810429 -0.031819172
-0.029575646 0.34078795 0.016583735
0.00032918662 -0.079646714 -0.03143613
-0.14420144 0.27541885 0.07028064
-0.01377021 -0.3648062 -0.041899867
0.006507473 -0.1937934 0.046771497
-0.08707641 -0.23930971 -0.048094608
-0.16234072 0.2464307 0.07955391
-0.06484567 0.18659538 0.17318358
0.12387407 -0.33187336 -0.05148651
-0.06892359 -0.26121548 0.015277068
-0.02504467 -0.24109611 -0.025943888
0.030246053 0.033903167 -0.04869881
-0.037002474 -0.31216174 -0.17527393
0.02034593 0.07493051 -0.06147868
0.00632854 0.2973154 -0.009082341
-0.052989192 0.057084884 -0.033621393
0.096242726 -0.3336551 -0.11711133
-0.020574609 0.08663232 -0.017475445
-0.05809162 0.0379267 -0.029454568
0.06857625 0.30715215 -0.0849938
0.11992829 -0.20316221 0.03953307
-0.20109963 0.1912469 -0.045435127
-0.15812299 0.2637514 0.011444361
0.095079064 0.2451196 0.07089623
-0.038216542 -0.30179727 0.017869024
0.14873649 -0.36134183 -0.09730304
0.07466752 -0.25544614 0.0007980198
0.06607641 -0.2430441 0.011969298
0.124592125 -0.19183145 -0.11353037
0.023705242 -0.033120535 0.0022974447
0.025485752 0.09107824 -0.028771132
0.23496369 -0.19667801 -0.13055165
-0.11156668 0.21003976 0.16241954
-0.11124909 0.23491547 0.054519925
0.15552111 -0.16423437 -0.1798998
0.018430894 0.24722053 -0.12503688
0.034572795 0.23067474 0.00044889312
-0.017498054 -0.22053751 -0.18572439
0.00712375 0.0787448 -0.011676015
0.051355727 -0.23995656 0.06948542
-0.05960897 0.19192359 0.12521915
0.23208277 -0.15494074 -0.11781087
-0.0061495933 0.12759534 -0.04429888
-0.13261619 0.26235297 0.047873378
0.0678667 -0.28088567 0.09304896
0.061576307 -0.35455576 -0.16498111
0.10966841 0.2804824 -0.123731606
0.2388477 -0.27769265 -0.0862134
0.00091480254 0.15146847 -0.039326407
0.011106761 -0.21659146 0.04915674
-0.014857713 0.24958143 0.11168912
0.16678701 -0.17611894 -0.18360737
0.0757469 -0.27724245 0.06540467
0.1868074 -0.33876324 -0.029262837
-0.19885509 0.17574763 0.06821263
-0.17108852 0.17967072 0.01768448
-0.19005674 0.22801019 0.046899993
0.024511613 -0.11530472 -0.015146719
0.18057474 -0.23882823 -0.095442355
0.07149575 0.28580236 -0.10088623
-0.20792286 0.21801287 -0.050741833
-0.05084895 0.33962455 0.03407777
0.0055179093 -0.37454602 -0.0094037065
-0.08644734 -0.27594998 -0.017086782
0.049017712 0.24707443 0.12839329
0.13994993 0.2397372 0.031240065
0.22611555 -0.15466383 -0.10327671
-2.1491827e-05 0.22970511 -0.024590807
0.032503657 0.27255118 -0.076662645
0.20441617 -0.16569072 -0.034409452
-0.018667284 -0.23989202 0.025596563
0.13876723 -0.20213823 0.0923864
0.06618257 -0.21989463 0.056853563
0.13085176 -0.20422614 -0.044263758
0.21780375 -0.23533604 -0.032110635
-0.19195397 0.22110927 -0.09010658
0.057131488 0.28906703 -0.08845098
-0.19164863 0.21818106 0.022907516
-0.1247182 0.2245091 0.13040005
-0.061837073 0.37355506 0.04289185
0.026973112 0.22447662 0.14945896
-0.14513469 0.3401205 0.002606151
-0.22715487 0.14526613 -0.06309052
0.059723947 -0.27279258 -0.02074055
-0.025246173 0.043835312 -0.03164413
0.070800126 -0.32402274 0.062275104
0.1486192 -0.28989384 -0.058172397
-0.04167155 -0.34911296 -0.09103638
0.13617903 0.26865324 -0.103390954
-0.093553 0.38342464 -0.009655928
0.03586231 -0.03780922 -0.04062566
-0.028371416 -0.28549892 0.045750376
0.107142925 0.25424084 0.02255373
-0.042555936 0.36146137 0.04868803
-0.03272152 0.23180169 0.08693759
-0.009063471 0.24586828 -0.07941831
-0.009666645 0.35805756 -0.0021327154
-0.05299004 -0.23796493 -0.20250277
0.002984631 -0.10467314 -0.029885482
0.0706453 -0.24420503 0.041279912
0.21696366 -0.24888183 0.023150614
-0.02843625 -0.21765083 -0.071663804
0.20058364 -0.16464607 -0.022809442
-0.05839836 0.22434525 0.15914963
0.12959884 -0.27369532 0.051512957
-0.062355585 0.2005967 0.069982186
0.02831922 -0.20895752 0.088600785
0.07938588 0.28091678 -0.08040653
-0.16285338 0.19602142 0.15909418
0.03526012 0.25818264 0.023900941
0.053071372 -0.112540565 -0.04831434
-0.045717794 0.22682571 0.13674904
0.06594135 0.30046195 -0.09507857
0.17371626 -0.16445692 0.008726843
0.010097519 -0.07141009 -0.017238414
-0.23419718 0.15967752 -0.034154437
-0.06599292 -0.321511 0.034458987
-0.0606498 -0.21622315 0.005887506
0.15110157 -0.2855184 0.0135617405
0.14235646 -0.21441253 0.08967543
-0.118602104 -0.27158156 0.010104773
-0.020257974 0.24097687 0.04258706
-0.16596015 0.27837747 0.021294085
-0.11280969 0.29793134 0.06067306
0.13454378 -0.1951209 0.11475797
-0.018245032 0.06959607 -0.03087642
0.053450383 -0.18322802 -0.018736422
0.024424449 0.09453157 -0.041394945
0.16759406 -0.17828819 -0.09738826
-0.03267291 -0.22358474 0.047164783
-0.25479195 0.21495894 0.04755786
-0.2051091 0.17702782 -0.059936114
0.012187301 0.06320855 -0.02434072
-0.09521375 0.2934644 0.050751388
-0.021462413 -0.028690709 -0.029887373
-0.049211137 -0.3414179 -0.06937788
-0.09355965 -0.22790417 -0.04066784
0.0025687513 -0.18929026 -0.06486328
-0.06806234 0.19652452 0.18052238
0.1231603 -0.16553816 -0.03559995
0.05843249 -0.337829 0.021176802
-0.030104008 0.23688997 0.15892692
-0.0492857 0.17274813 -0.028235324
0.14600982 -0.2970907 -0.062584855
-0.05473997 -0.25861284 0.087341405
-0.06373018 0.29086465 0.046624217
0.035330676 -0.19798467 -0.18403989
0.19355233 -0.28178176 -0.06869078
-0.09740948 0.3778565 0.013900977
-0.024624562 0.07137058 -0.014459602
-0.124099635 -0.33277106 -0.055150196
0.027724069 -0.3580036 0.052332733
0.15681195 -0.23471251 0.01414716
-0.06645084 0.22628036 0.098971836
-0.09554357 0.27368706 0.10729246
0.0013862728 0.18183643 -0.016424542
0.12425253 -0.23914215 0.03762256
-0.06598835 -0.20932391 -0.051933397
0.000103091064 0.2577691 -0.03553307
0.04721951 -0.29521108 -0.0152803585
-0.07134743 0.27635765 0.016501797
-0.0072757537 0.07905744 -0.016997797
-0.052799854 0.19467753 0.07596481
-0.14613272 0.16757503 0.13695486
0.14749748 -0.16504054 -0.050264694
0.18417451 -0.22711977 -0.095667265
-0.012704606 -0.24235398 0.041563418
0.06496177 -0.1909359 0.02911843
0.0662913 0.23645857 0.040029366
0.0057222163 0.16639236 -0.013978875
0.1845871 -0.1796094 -0.0062433756
0.06465227 -0.36370766 0.026508557
0.08500656 -0.28707972 -0.033268057
-0.06109003 0.31203225 0.016952429
0.047857344 -0.21604766 0.04741068
-0.18300708 0.31593713 -0.030077994
-0.1337529 0.16109073 0.08543904
0.04457816 -0.3282183 0.072496355
0.13597418 -0.17819577 -0.046997156
-0.111783735 0.24186309 0.021124482
0.22643901 -0.15417688 0.038469777
0.20441882 -0.22814526 -0.02957674
-0.09507158 -0.25954616 -0.062159587
0.1934135 -0.24640438 -0.08298794
-0.09481201 0.13025662 -0.017887538
0.010939065 0.30234522 -0.079154156
0.088379785 -0.07614565 -0.08375383
0.017391091 -0.22930275 0.03780298
-0.12476711 0.17004912 0.06464271
-0.11315151 0.3576117 -0.03198599
0.02720068 0.22540893 -0.011099063
0.004718726 -0.0465457 -0.031129908
0.08536176 -0.22223756 0.081459336
-0.053081065 -0.24651787 -0.07877074
0.04645836 -0.23987377 0.09028245
-0.049362935 0.33172077 0.02049703
0.015288081 -0.07871202 -0.04543632
-0.013583671 0.016544938 2.9275534e-05
-0.05388935 0.13753851 0.0031989764
-0.067078955 -0.25064775 -0.0068985308
0.10496528 -0.36332515 -0.07180369
0.11086061 0.23393673 0.023650758
-0.260123 0.17579964 0.0065387352
0.14227812 -0.30083987 -0.064773194
0.0061231805 -0.20493846 -0.003930274
0.029285928 -0.21615744 0.09368995
0.12608986 0.28226146 -0.11722855
0.12669294 -0.18276624 0.022779
-0.1381081 0.31207782 0.039315816
-0.08463205 0.2549185 0.049732443
-0.11215165 0.20446569 -0.1101995
0.063599534 -0.19915901 -0.19259879
0.0063970755 -0.023433732 -0.024874793
-0.01265716 0.27521512 0.08763918
-0.014100492 0.06585021 0.0032991644
0.08944668 -0.23392461 0.102667876
-0.07001672 0.36925846 0.0084274635
0.07347401 -0.16408084 -0.18776043
-0.16911493 0.1664804 0.0071199015
0.1444409 -0.3239089 -0.039482255
-0.0015177847 -0.108059116 -0.032785967
-0.027688399 -0.34937242 -0.051987093
-0.12542075 0.27505732 0.08460849
0.010817388 -0.07117158 -0.039742466
-0.19110085 0.23292525 -0.081994124
-0.010596457 0.22254866 0.1387524
0.21740611 -0.18858148 -0.057604756
-0.20308319 0.20048553 -0.08702603
0.011798984 -0.22932962 0.0984134
-0.027150026 0.047329605 -0.015885243
0.014842959 -0.31722838 -0.049369022
-0.16712615 0.3427103 0.020618293
0.047304343 -0.20519614 0.051240176
-0.25420535 0.16086426 -0.019230565
0.16549723 -0.19496416 0.049207598
-0.024423476 0.23015085 0.09187072
0.058892593 -0.37161246 0.01551039
0.13042834 0.26441628 0.009898679
0.20710444 -0.31624764 -0.08263993
0.00018706737 -0.2620308 -0.0053836107
-0.21834347 0.1623213 0.035707153
-0.10351295 0.3139528 0.045611877
0.0132481 0.113396406 0.0016851838
-0.021249155 0.088465214 -0.023146378
-0.025279691 0.005159495 0.0078260945
0.20145568 -0.24345712 -0.01342646
0.017188167 -0.13044599 -0.028667718
0.077858575 -0.24700116 -0.0045332736
-0.208894 0.19921018 0.067009665
-0.14632793 0.20231956 0.006088004
-0.04417301 0.009793287 -0.031697016
-0.07902494 -0.30217817 -0.054629393
0.11343279 -0.24192007 0.021804966
0.05900297 0.25895503 0.10856221
0.07320576 -0.27630854 -0.017613651
-0.031240534 0.27772722 -0.057440877
-0.16186203 0.21423623 -0.15329824
-0.08534628 0.3725141 -0.042310797
0.11325549 -0.34515685 -0.066354066
-0.009334623 0.21563698 0.03594472
0.007852308 -0.18863472 -0.2211576
0.011140385 -0.12393839 -0.06949778
-0.05216196 0.09907099 -0.04051489
0.04172594 -0.33774766 -0.044425916
-0.13228229 0.2597805 0.04226005
0.030031398 -0.013336138 -0.035031535
-0.1647796 0.22726494 0.09647842
-0.14391923 0.25519386 -0.14473027
0.02733498 -0.36332375 0.009920103
-0.033044707 -0.31319508 0.048384372
-0.045368735 -0.24436438 0.04365964
-0.032162514 0.009917373 -0.013331447
-0.021679308 0.26663256 0.022144675
-0.15512612 0.30516353 0.045039687
0.056421924 -0.18441758 0.031154921
0.05391139 -0.11653386 -0.0007834666
-0.20678088 0.15886536 0.06901524
0.15967944 -0.24549142 -0.05896966
0.062404428 -0.23373856 0.059166268
0.094969094 -0.3069238 -0.015953183
0.031823155 0.331033 0.015429339
0.13064721 -0.24227734 0.009363979
0.034878016 -0.23260912 -0.030784087
0.10066795 0.23363201 0.057025585
0.1956234 -0.1700286 0.046393756
0.015392086 -0.30443594 -0.008989777
-0.10211351 0.34096715 0.004325805
0.08971507 -0.21654133 0.053222377
-0.06016942 0.32745722 0.06670981
0.111084945 0.2562832 -0.14368697
-0.14153372 0.22415425 0.078115754
-0.11506258 0.17501853 0.14759597
0.1975762 -0.13902208 -0.08639219
0.0155394785 -0.1444881 -0.0044176336
-0.0554759 0.35648996 -0.020862574
-0.1494608 0.17692803 0.14456695
-0.16481861 0.17867744 0.080279715
-0.09088085 0.26838025 0.042508166
0.029738154 -0.24795665 0.060220774
-0.19364321 0.21647999 -0.05850157
0.093402706 -0.32225776 -0.034508687
-0.074423365 -0.25483942 0.026154798
-0.14220177 0.21405935 0.08633595
-0.13387582 -0.2307028 -0.0012665852
0.14073189 -0.14331777 -0.18847261
0.09785722 0.29987222 -0.12485834
-0.061164275 0.3222621 0.036705356
-0.014199922 0.33694714 -0.029172903
0.14991203 0.2711556 -0.06027743
0.15316519 -0.31304035 -0.013476879
-0.053138938 -0.24318041 -0.11233042
-0.07446801 -0.3322187 -0.07196108
-0.21251018 0.15286945 -0.095645346
0.059903122 -0.11653409 -0.042288445
0.0049270648 -0.021941468 -0.010062577
-0.017950922 -0.21654335 0.03332186
0.03991887 -0.31770214 0.05980443
-0.17463772 0.20610386 0.027356075
-0.0005400311 -0.031736176 -0.020802092
-0.0610396 0.21611996 0.1413316
0.059241913 -0.19964261 0.12536134
0.07772368 -0.25508848 0.04416948
0.02641724 -0.20815769 -0.04784846
-0.023861876 0.25191545 0.037322763
0.025110187 0.11345234 0.00317482
-0.21698515 0.2306013 0.01577282
0.0261467 0.234279 -0.00095364184
0.034853578 -0.29395902 -0.03077009
0.008909811 0.29964846 0.016346171
0.11896185 -0.16443104 -0.116621114
0.21859643 -0.18668176 -0.050608464
0.056582935 0.25632042 -0.0033206576
0.023270039 0.27111912 0.08495797
0.032585602 -0.22857368 0.0767857
0.04520807 -0.1388305 -0.015444739
0.023227323 -0.06635506 -0.0029065623
-0.17817804 0.21538457 -0.16836038
0.21333085 -0.17139916 0.05560137
0.09782567 -0.20238769 0.08374249
-0.063913345 -0.23944184 -0.13627152
-0.19180071 0.17984152 0.1041041
-0.01770569 -0.26803446 0.0196312
-0.039239842 0.3240403 0.03321824
-0.12917559 0.17044565 -0.04069374
0.01624941 -0.23823453 -0.006772655
-0.01556714 0.12948099 -0.029997455
0.02607286 -0.056094535 -0.044186596
0.0013605399 -0.03477603 -0.026498724
0.07972058 -0.20539045 0.06880892
0.011055199 -0.32235858 -0.004345175
-0.19316752 0.26143163 -0.046961393
0.029280365 -0.32761997 -0.0071476283
-0.11856369 0.35515445 0.020832995
0.06478183 0.25795516 -0.008048588
0.11496965 0.2625725 -0.10337915
-0.23584716 0.20862171 -0.06678013
0.029840311 -0.22924955 0.12903392
0.11352443 0.27509734 0.055926397
0.13958752 -0.2575059 -0.076634966
-0.033990014 0.38099945 -0.043881662
-0.071620226 0.3942493 -0.07997334
0.036112778 -0.2995939 0.11402436
0.014872877 0.042970836 -0.026785424
0.089046195 -0.21038161 0.017771244
0.020897906 -0.3926623 -0.074762575
-0.19824035 0.2309483 0.051740166
0.08042516 -0.23891175 0.09929396
-0.050836068 0.3859786 -0.047241747
-0.09564419 -0.26673222 -0.11243305
0.12068192 -0.35505903 -0.040612653
0.103150785 -0.3243824 -0.03485899
-0.05053553 0.2629776 0.03841691
-0.042203877 -0.36871 0.004687636
-0.0133884605 -0.21228328 0.089157216
0.25574192 -0.22648567 -0.09668533
0.24563017 -0.24183005 -0.07596302
-0.19151767 0.1696242 -0.043041203
0.2032981 -0.19089514 -0.026359754
0.008666164 -0.024617882 0.0024075017
0.1974669 -0.25564125 -0.015081506
0.059246182 -0.29563418 0.0066938642
0.12549096 -0.33145404 0.042924464
0.029071573 0.2658053 -0.19011474
-0.12587282 0.17251515 0.14958787
0.002369847 -0.070584774 -0.047719117
0.022099845 -0.36296368 -0.08520231
-0.044577457 0.13044363 -0.0204606
0.21735275 -0.1961414 0.006663638
0.048574053 0.30427474 -0.061393548
0.011903912 0.27975813 0.09514977
0.055566866 0.2126546 0.13945004
-0.060008038 0.30473036 0.0579597
0.07512932 -0.17321406 -0.057925165
-0.18191713 0.2611847 -0.04025196
0.051436633 0.25783074 0.09686122
-0.2105042 0.16851671 0.033495013
-0.0379996 0.27874938 0.047063384
-0.1046657 0.22952533 0.073700495
0.08861552 -0.17492223 -0.06378906
