# .PCD v0.7 - Point Cloud Data file format
VERSION 0.7
FIELDS x y z
SIZE 4 4 4
TYPE F F F
COUNT 1 1 1
WIDTH 1000
HEIGHT 1
VIEWPOINT 0 0 0 1 0 0 0
POINTS 1000
DATA ascii
-0.0036195498 -0.081667736 -0.025573168
-0.12655662 0.23628223 0.09254647
-0.0012201556 0.2531404 0.076835215
-0.031909347 -0.3032629 0.010826957
-0.12849052 0.37954143 -0.08693909
-0.04812031 0.4059074 -0.06430561
0.0008519389 0.26705787 -0.019183341
-0.0051524495 0.16969018 -0.006209626
0.08277566 -0.17145632 -0.21264142
0.023284119 -0.08219256 -0.017931748
0.13019788 -0.17707883 0.113320336
0.0037004894 -0.0079302015 -0.0133782085
0.06754077 -0.30452958 0.04910232
-0.19184606 0.20385875 -0.014803843
-0.12519868 0.2289222 0.10574879
0.020401243 0.26661026 0.1215406
0.06240576 -0.33423868 -0.017535187
0.17575406 -0.26313704 -0.019488342
0.09406144 -0.20456414 0.09091234
-0.10974202 0.22137205 0.089018755
0.049003158 -0.30645904 0.087479755
-0.09040178 -0.21943112 0.072614245
-0.05628876 0.21964404 -0.06972061
0.0030701808 -0.099044755 0.011494926
0.086534485 -0.2792745 0.08501989
-0.057446558 0.34192294 0.032555453
-0.0348992 -0.37723032 -0.034730718
0.025399184 0.31251314 -0.09793954
-0.019819966 0.07288425 -0.009120604
-0.1066923 -0.23709914 -0.027109416
0.0172543 0.10782984 -0.023585867
0.15053067 -0.29360098 0.009171651
0.02754938 -0.21753877 0.07622298
-0.15940955 0.2548593 0.109523095
-0.17326096 0.24848367 0.07839774
-0.11014955 0.4045868 -0.071355246
-0.018911522 -0.18284208 0.03919978
-0.0017642133 -0.21999304 0.07747937
-0.18813312 0.27756438 -0.114413425
-0.008427529 -0.28845415 0.05936573
0.05559418 -0.018430686 -0.025170868
-0.18470407 0.29635617 -0.0901073
0.08120408 0.25834206 0.095681496
-0.023017604 -0.09510288 -0.026070517
-0.034736335 0.3484291 0.04709797
-0.042524286 0.3507004 -0.02095715
0.16212395 -0.30760354 0.0051507233
-0.0637042 -0.2892057 -0.04898118
0.098942876 -0.18958855 -0.027776634
0.0786693 -0.1836633 0.149889
0.098285146 0.28357804 0.017180383
0.041740887 0.24432307 -0.23855653
0.0043540597 0.029438939 -0.0064847944
0.10419118 -0.29589555 0.010202019
-0.082874596 0.2684365 0.014350007
0.009303348 0.08897423 -0.061759654
0.10147329 -0.14998585 0.11270744
0.1449754 -0.2529859 -0.034619417
0.11097917 -0.18878293 -0.08012277
0.032956406 -0.18650302 -0.20311585
0.07487304 -0.19774024 0.055996735
0.06467426 0.26697993 -0.18590733
0.15106203 -0.15063077 -0.089054264
0.059771277 -0.18025927 0.07134423
-0.080381565 0.36774787 -0.017920965
0.11743866 0.3089927 0.038856734
-0.20239685 0.26342076 0.07317482
0.02429318 0.14245681 -0.019990178
0.036221404 -0.2913681 0.1042018
0.17996925 -0.1415237 -0.12698016
-0.14400908 0.1976857 -0.20217139
-0.017236765 -0.32029375 0.01680571
-0.021763252 -0.21599115 0.10789737
-0.12385994 -0.2913216 -0.049409132
0.15463586 -0.24853645 0.06477926
-0.038107406 0.25355646 -0.020696994
0.19738808 -0.16471565 -0.0040532197
-0.17270684 0.2877935 -0.14900802
0.15552983 -0.27923316 -0.0031235311
0.011710761 0.274705 -0.011630367
-0.09675334 -0.2339845 0.06504751
-0.18226853 0.2085328 0.053014692
-0.13657333 -0.24517559 -0.10709356
-0.11560135 0.18956167 -0.19794175
-0.15137164 0.24388535 -0.017971717
-0.14552723 0.33899072 -0.014477487
0.027109876 -0.19669636 0.17183866
0.06737013 -0.28231177 0.14339158
-0.13233566 0.20120603 -0.018447371
0.03119049 -0.14055225 0.008377196
0.038443476 0.020793278 -0.02986786
-0.045504373 -0.18830565 0.12323416
-0.012602428 0.0079891095 -0.03142542
0.15474421 -0.25370055 0.10193411
0.1364425 -0.17084654 0.033098765
0.029362764 -0.21751522 0.047362667
-0.10287411 -0.23984124 0.04872885
-0.11877696 0.2462924 0.12207015
0.08975634 0.30134392 0.063458495
-0.017152525 0.11247414 -0.01982335
0.06975178 0.23342454 -0.20705192
-0.16084345 0.23727326 -0.12214246
-0.0027452235 -0.20566471 0.050066274
0.13005254 0.28517342 0.009094124
-0.009655807 -0.25436345 0.1514849
0.068099685 -0.19102946 0.011033061
0.067119114 -0.29048368 0.015880538
0.039962187 0.27808085 0.047697343
0.0013398404 0.28327957 0.115089364
-0.09568024 -0.20171545 0.048802115
-0.1470279 0.22487843 -0.24289179
-0.032955382 -0.3808047 -0.017998118
0.009204682 -0.26014307 0.083704405
-0.009779131 -0.35126138 0.037867952
-0.0153061515 -0.19442716 0.12755384
0.06384168 -0.28276965 0.14776525
0.16547318 -0.23517336 -0.034441076
-0.05955268 -0.18701486 0.061238214
0.029554611 -0.2039482 0.09861071
0.112416916 0.26576653 -0.0148860235
-0.09439986 0.38879728 0.011430205
0.02851601 -0.1287931 -0.01794329
0.18544836 -0.17485681 -0.065591045
0.06627072 0.28326675 0.0057779695
-0.20529522 0.18541037 -0.10684326
0.1537503 -0.16930912 0.061158758
-0.18705484 0.28290415 -0.0740733
0.04969748 0.2542246 -0.12956919
0.015135837 0.22229172 -0.17683749
-0.012310379 -0.19635987 -0.1261655
-0.036851417 0.1040792 -0.017528918
0.14582172 0.29307714 -0.10417934
-0.0279656 0.42468974 -0.022164468
0.06437575 -0.14218637 -0.018978206
-0.077558234 0.3143679 -0.006154383
-0.14637604 0.26546654 0.039582204
-0.14847788 0.25616997 -0.044444636
-0.18830678 0.26539764 -0.0554909
-0.13205585 -0.28512615 -0.022809146
0.14625777 -0.2958196 0.058926143
0.052148014 -0.16080652 0.057790887
-0.14764285 0.3301378 -0.05664629
-0.13177054 0.2522835 0.03855533
0.03454419 -0.22229126 0.020764245
-0.053706247 -0.30542886 -0.0036421833
-0.040604256 0.16017826 -0.03766425
0.033890754 -0.30755672 0.02529691
-0.08919437 -0.2457041 0.04161889
-0.1329259 0.22585554 -0.18180989
-0.109751455 -0.20870675 0.0806235
0.14356469 -0.19539502 0.01884363
-0.08330041 0.26581022 0.10982418
-0.048391066 -0.22093467 0.035010565
0.071446635 -0.29125616 -0.013282538
0.05136919 -0.3714422 -0.04311418
-0.058899935 0.16822664 -0.03194406
-0.0918329 0.24796839 0.049247775
0.1283208 -0.20128499 0.03870808
0.060235724 -0.26529273 0.1204831
-0.15996377 0.24121945 0.09357014
0.023497516 0.33363676 -0.087792136
0.10509827 -0.25027922 0.122000515
-0.056968533 0.25088188 0.07860814
-0.10091975 -0.21566024 -0.008689345
0.14248392 -0.17413081 0.07698225
-0.048476025 -0.23482838 0.10778813
0.17259559 -0.1356305 0.060130753
0.11282293 -0.18673353 0.12270776
-0.03898259 -0.26910144 0.14587583
0.10482835 -0.22726822 -0.020402892
-0.1295771 0.29868674 -0.00842345
-0.12626596 -0.21132527 -0.015725598
0.15795621 -0.23632714 0.085064344
-0.031091047 0.036151327 0.0013814069
-0.10075456 -0.2875498 -0.026527211
-0.028631298 0.1904737 -0.0048068915
-0.1155125 0.28941897 -0.0077893008
-0.07177331 -0.230199 0.0860109
0.030903772 0.016968941 -0.0009883689
0.00973264 -0.049946204 0.014283426
-0.23183076 0.18152152 -0.094628364
-0.08958269 -0.21362826 -0.10394024
0.092338696 -0.18399015 -0.00016464402
0.083677456 -0.24499336 0.02830213
0.091347866 -0.30792156 0.024016228
-0.042188548 -0.2318276 0.009856605
0.11701637 -0.28822646 -0.024578864
-0.14636153 0.32638812 -0.017038528
-0.0139548415 -0.040821888 -0.012697058
0.007668985 0.27886716 0.08523022
-0.025382577 -0.070488974 -0.013525773
-0.07481759 -0.20094731 0.020272788
-0.039022695 0.08518628 -0.033373788
0.062425356 0.03610891 -0.021790255
0.02144361 -0.3580284 0.018521613
-0.0046040616 -0.2774842 0.08126095
0.09708288 0.24866109 -0.22448048
-0.12076767 0.21475966 -0.16900285
-0.15783934 0.30711722 -0.051680014
-0.020061107 0.14154452 -0.01489739
0.1385415 -0.24401246 0.040235475
-0.11319308 0.20550013 -0.17210527
-0.026120499 0.41989955 -0.09071905
0.009219023 -0.15462002 -0.033289656
0.064003356 -0.3270556 0.007910285
0.09495411 0.2521247 -0.00094493804
-0.017929155 -0.23632894 0.12949812
0.1411185 -0.17664826 0.13239497
-0.041740827 0.3468067 0.019122869
0.023912774 -0.35771298 -0.057650544
-0.0075780526 -0.046416745 -0.032026995
0.10580358 0.28736222 -0.107600704
-0.020530818 0.019535352 -0.032127965
-0.12351494 0.39856607 -0.073112674
-0.1519565 0.30040655 0.0054442473
-0.12290263 -0.31265536 -0.07215672
-0.20355791 0.23052995 -0.027933031
0.0070963735 0.10930969 -0.016779955
0.11265976 -0.22547185 0.029846836
-0.23399197 0.22083327 -0.15227988
0.14699909 -0.16168384 0.016646048
-0.13665456 -0.20315766 -0.08004873
-0.010048952 -0.049040932 0.013087395
-0.023674654 -0.3605406 -0.04533607
0.17681521 -0.18528114 0.03892313
-0.004248349 0.25772694 -0.039968766
0.21828312 -0.18589365 0.013483724
0.030261796 -0.29324332 0.077578336
0.058184277 -0.18635406 0.1224136
-0.1421686 0.2129283 -0.05656184
-0.12956224 0.23144406 0.039510395
-0.07915097 0.2700684 0.12412554
0.1397499 -0.14023887 0.046714712
-0.16071822 0.19831719 -0.23185371
-0.16097404 0.19598117 0.02538757
-0.17179504 0.22991414 0.0893208
0.025531279 0.2798845 0.06661965
0.13896716 -0.18004705 0.04473308
0.07550798 -0.17457157 0.12989399
-0.10455314 0.22978505 0.14527057
0.08096315 -0.16186197 0.14176956
-0.06801541 0.1448071 -0.010106621
0.20842041 -0.1831128 -0.025773607
-0.17896019 0.24327934 0.051049024
-0.08599578 0.3777115 0.0254773
0.22142085 -0.16177458 0.038555436
0.006387645 0.33269402 -0.019053392
-0.10829596 0.24126922 0.027987879
0.21709475 -0.20956749 0.0592125
0.14939709 0.27898702 -0.09961265
0.020614928 0.024520928 -0.02508434
0.05514824 0.23534212 -0.1702313
0.020103708 0.07934345 -0.035945907
0.070154175 0.3233555 -0.14933862
0.050307468 0.27713925 0.046686236
0.09449114 0.30536428 -0.06846497
0.074071124 -0.26785108 0.025149817
-0.080547504 -0.31810006 -0.058086295
-0.18901505 0.27106848 0.07014316
0.0728523 -0.3222218 0.07480311
0.050785184 0.31567046 -0.015573256
-0.07720171 -0.23484896 0.047412544
0.06854661 0.007975259 -0.086682245
0.09561325 -0.19763096 0.04727955
0.016088607 0.017590111 -0.02599737
0.112482525 -0.25067234 0.023577075
-0.021398732 -0.216377 -0.021121101
-0.0880548 -0.31210053 -0.03265998
-0.0548837 -0.20714307 0.07468687
-0.028981362 0.10649788 -0.037838437
-0.029133983 -0.20118442 -0.082944565
-0.15645503 0.34755751 -0.051211912
-0.009662957 0.108307235 -0.036749333
0.10417631 -0.24739057 -0.0016616478
0.08378953 -0.1885302 0.1402033
0.11035181 -0.20368825 0.10440295
-0.0354858 0.3632509 0.027294192
-0.017702833 0.26615855 0.14422677
-0.17718081 0.22455603 -0.057270125
-0.020292995 -0.10992842 -0.024903854
0.020090967 -0.19357415 0.04767409
-0.027165653 -0.23325892 0.03250222
-0.075375155 0.2271138 0.049851116
0.08522038 -0.21791998 0.0150503535
0.054559752 0.2791104 0.10408269
0.026022099 0.24598779 0.05100923
0.10015644 -0.17530832 0.086174496
-0.10592446 -0.31221515 0.039833188
0.084361345 0.30783573 -0.084195934
0.13771272 -0.18873706 -0.06898681
-0.11665065 -0.21276836 0.001907571
0.075420305 0.30253762 -0.0059523317
0.0010616281 0.30223662 0.12292749
0.13736124 -0.28923878 0.06357262
-0.11211877 0.24378654 0.04122652
-0.07582869 -0.21198443 -0.0383366
-0.016935969 0.011619377 -0.013225028
0.017744938 -0.008752916 -0.02010176
-0.018766483 -0.21243249 0.07625434
0.09831452 0.30647287 0.03176216
0.011267822 -0.3147038 0.06683543
-0.037526485 0.33195117 0.027625931
-8.915534e-05 -0.31714144 0.022833478
0.15933436 -0.3233059 0.047964383
-0.006266949 0.27614793 0.024847109
-0.1739654 0.20809078 -0.16885512
0.102595404 -0.34496626 -0.021709988
-0.13172574 0.30271924 -0.009814931
0.05782669 -0.3134657 0.09678015
0.0052740313 0.37434188 -0.032859012
-0.12588225 0.37351575 -0.0485665
-0.023358962 -0.2861833 0.1386189
0.03792206 -0.31644166 0.115788065
0.066931315 -0.19066122 0.010002267
0.18996587 -0.27423412 -0.028315846
-0.044789247 -0.20884871 0.05864267
-0.056131862 0.118853174 -0.06351066
0.064623855 -0.1615704 0.00028139484
-0.06685754 0.3251645 0.026466487
0.008886222 0.31920615 0.07776143
-0.0015369335 0.33907187 -0.054825462
0.03765532 0.32307637 0.01247752
-0.075289 0.34470472 -0.04038002
0.023024244 0.37488672 -0.054865003
-0.05025114 0.3923414 -0.022214174
-0.15739745 0.33895516 -0.0228788
0.19252594 -0.31168303 -0.038565286
-0.12873355 0.3576841 -0.046659395
-0.07207377 0.2911777 0.00572197
0.041350957 -0.3130826 0.07453259
0.0659837 -0.19183882 0.06771408
-0.11203198 -0.24459259 0.082906626
-0.06986815 0.3781954 -0.009748188
-0.08478216 0.23748621 0.042861734
-0.16490857 0.24768215 -0.057023622
0.11161632 -0.33492854 -0.00053352304
0.18618959 -0.17435616 -0.039780937
-0.018339343 0.30112657 0.007942797
-0.112345 0.2173928 0.06859607
0.06651067 -0.1854288 0.070424795
0.073393606 -0.23701341 0.037884638
-0.04108104 -0.3383782 -0.03665206
0.061579 0.28886855 0.047218196
-0.119927995 -0.27364343 0.0709112
0.15022899 -0.22569934 0.08009277
0.012914719 -0.15938109 -0.0036776506
0.033953134 -0.016529657 0.01822506
-0.071170285 -0.266526 0.062197037
0.008775989 0.088114195 -0.033693567
-0.1510396 0.33309415 -0.0039235917
0.006297482 -0.28399152 0.090450116
-0.119976684 -0.20732369 -0.029074863
-0.07529148 0.30919576 0.07010739
0.09435618 -0.16136631 -0.099050306
0.06443822 0.29213312 0.037258994
0.22103372 -0.17699315 -0.03234871
0.14111173 -0.18836322 0.048025936
0.028310671 -0.20812105 -0.07058571
-0.047009345 0.1179979 -0.036817133
-0.1060874 0.3808299 -0.055061936
0.026947137 -0.03490023 -0.0147891985
-0.105298035 0.2098688 -0.043331273
0.014569567 0.0021969855 0.012093509
0.13976987 0.28963593 0.022235828
0.0055771885 -0.37612745 0.011365956
-0.046432223 0.15344258 -0.02810738
-0.111250706 0.2270544 0.08408498
0.05006752 -0.14926194 0.015064543
-0.006340525 -0.34488684 0.022759788
0.2069542 -0.24490468 -0.09482942
0.030242866 -0.36617267 0.036956057
-0.100630336 0.30145317 0.115837045
0.004870487 0.23455928 -0.036847528
0.13538617 -0.18802463 -0.037050024
-0.05375221 -0.23191679 0.028716287
-0.01447241 -0.21090178 -0.045795973
0.019353934 -0.019050878 -0.01659584
-0.03118304 -0.1802661 0.14822267
-0.0048551387 -0.21098614 0.06570441
-0.064273365 -0.24996488 0.039041582
-0.24103764 0.17641169 -0.082372926
0.022615638 -0.08884844 -0.027973684
0.03207652 -0.19605447 -0.010950828
0.041169066 -0.17990628 0.13796553
-0.008968056 0.2575321 0.14725825
-0.070771955 0.20530085 -0.051688414
-0.035300277 0.22897795 0.0028582595
-0.027981933 -0.23602672 0.01842134
-0.017825013 0.24075122 0.045154855
0.1423578 -0.16143651 0.038494866
-0.018548116 0.017349835 -0.034333378
-0.09860991 -0.20947765 0.09467699
-0.12889938 0.24630894 0.10060779
0.056165155 0.3230317 0.095624655
0.16675746 -0.24308035 0.048340682
-0.045043427 -0.20820227 0.11622487
-0.06834695 0.21135917 -0.24530381
-0.13486224 0.384265 -0.014534104
-0.23696685 0.18816304 -0.051816992
0.0064389016 0.25574005 -0.026443703
0.088421285 -0.23086287 0.01969951
0.07697929 -0.23490418 0.11194657
-0.06750144 -0.1883314 0.08658923
0.13421494 -0.1906907 -0.063326776
0.021445546 0.33229747 -0.108192965
-0.06249529 0.1777902 -0.002338948
-0.042758044 0.3593825 0.008454581
-0.23285663 0.18725072 -0.02782665
0.07846669 -0.17504966 0.112128735
0.16662316 0.27387738 -0.14609586
0.06486146 -0.16956042 0.012211952
-0.11016245 0.21766736 -0.18206203
0.044779755 0.29359028 -0.033746667
0.06760812 0.33111593 -0.06542246
0.028053705 -0.21679564 0.082340926
-0.18573354 0.26294082 -0.035916988
-0.04940898 0.35594824 -0.009915094
0.08738756 -0.17884973 -0.023131156
0.06076124 -0.24978814 0.03930991
-0.034148976 0.25462547 0.031436894
-0.12354496 0.22889382 0.05873622
0.017904665 0.2575288 0.03748784
-0.09910413 -0.2943966 0.026795963
-0.018174889 0.19651191 -0.03701278
0.099820256 -0.32457584 0.096304394
-0.094258726 0.23909573 0.0898043
0.10140301 0.33220786 -0.009810367
-0.046338014 0.09101578 -0.033004455
0.062521785 -0.17491028 -0.00979829
-0.16744086 0.18338983 -0.16860224
0.12822145 -0.19919255 -0.12377312
-0.056651194 0.26315895 0.069661595
-0.07273259 0.29915014 0.07084585
0.0016900159 -0.34700504 -0.11941242
-0.06700923 0.037237592 -0.054947224
-0.052997548 -0.19056217 0.08713155
0.0806009 0.31409472 -0.16189454
-0.039117016 0.107424155 -0.0012100082
-0.050040808 -0.2950911 0.024526455
0.09204475 0.29211152 0.0021632523
-0.110169 -0.32529852 -0.053903848
0.07907006 0.28928488 0.12218662
-0.010666492 -0.046674337 -0.017734878
0.02724167 -0.2946733 0.05804192
-0.004254404 -0.08959584 0.008099319
-0.23097375 0.22678092 -0.1632023
-0.00021279327 0.23063648 -0.019948747
0.034951597 0.27881792 0.05766015
-0.05587673 0.27641144 0.088726066
0.006021494 -0.07732068 -0.012181024
-0.104243696 0.31435022 0.0422525
-0.19369468 0.26815504 0.07182268
-0.04892677 -0.20259865 0.07457032
0.078941375 -0.081876956 -0.013207012
-0.03126314 0.1348282 0.00045513618
-0.046650957 0.4094974 -0.046533227
-0.15295039 0.213056 -0.04934037
-0.037194915 0.41352248 -0.07657661
-0.14326717 0.22770947 0.020354595
0.06828558 0.24072047 -0.1624585
0.13175803 -0.291175 -0.00081352476
-0.03339904 -0.0039540157 -0.026802089
0.16449714 -0.16308433 0.0825171
-0.08749432 0.19907376 -0.25019035
0.1554026 0.28731862 -0.09629676
0.028849334 -0.38270307 -0.0648834
-0.1264077 -0.2398352 0.01943332
-0.03164014 -0.38204154 -0.026635014
-0.012703949 -0.2658076 0.103219084
0.039536584 -0.03876359 -0.0041967593
-0.011794468 0.16822763 -0.024798688
0.015624154 0.30315527 0.06784837
-0.06897489 -0.22067471 -0.030349368
0.18303828 -0.18672091 0.024244096
-0.006691568 -0.22826713 -0.20987424
0.06707745 0.3015913 0.06061562
-0.05186009 -0.3230466 -0.07464811
-0.045974437 0.002592229 -0.044202268
-0.012411644 -0.25027472 0.11517002
-0.16603138 0.19495642 -0.059744727
-0.019338781 -0.33378887 -0.09035363
-0.025520027 -0.18612948 0.07933431
-0.0027896988 -0.36291724 0.05565051
0.047111273 0.29188815 0.0785548
-0.04221801 0.40676448 -0.05626529
-0.120982476 -0.28474203 0.08297284
-0.13291837 -0.2376143 0.0035276902
0.18073978 -0.30316344 0.021652095
0.040934164 -0.26290452 0.06444877
0.021063557 0.25745255 0.11058077
0.13145077 -0.28263542 -0.013205326
0.14203036 -0.1779396 0.004636797
0.04472973 -0.16337058 0.15999387
-0.054365378 0.37991375 -0.09580621
0.09281292 0.2741321 -0.0893739
0.08096188 0.25640085 0.1265191
-0.10732214 0.3472009 0.036466125
-0.0042906133 0.30401123 0.0019670678
0.011170748 -0.31944996 0.07998851
-0.1304953 0.37800947 -0.036239557
0.080498084 0.27223516 -0.033410326
0.03345691 -0.34030175 0.014571006
0.07811992 -0.2438745 0.15381186
0.21299565 -0.28967673 -0.06657255
0.091631494 -0.2115414 0.09696962
-0.17366283 0.21179123 0.006189568
-0.026452906 0.4155284 -0.004091288
0.19206111 -0.2366729 -0.031676307
-0.15701953 0.2612337 0.043553967
-0.059302676 0.00016269906 -0.02891344
-0.08315446 0.2959089 0.008626654
0.055413917 -0.26233184 0.021450324
0.0682399 0.3158784 -0.19188859
0.18704213 -0.14752226 -0.12884451
-0.090138935 0.38427746 -0.0153427385
-0.010069593 -0.040091068 -0.03003736
0.12838212 -0.15226814 -0.002022291
-0.038189463 -0.18927345 -0.1243255
-0.017342258 -0.030586638 -0.023906518
0.021844525 -0.20188533 0.10905537
0.08333245 0.2784268 -0.12049916
0.10906513 -0.3478693 -0.085292965
-0.033820692 -0.250114 0.033146
-0.10260749 -0.21511734 0.026264293
0.0685791 0.25387713 -0.23594567
-0.12305948 -0.3197874 -0.062212225
0.010042802 0.22263089 -0.02452286
0.08282348 -0.21941772 0.020736186
-0.068117425 -0.31082144 0.0276603
-0.050288133 0.34897265 -0.027033051
0.077850305 -0.22099416 0.1396118
-0.15152934 0.23689654 0.10452947
-6.7762456e-05 0.41171467 -0.013864265
0.01355059 0.3098949 -0.1439367
0.063102506 -0.32204342 0.07060045
-0.0053632404 -0.18043731 -0.03944334
0.19842404 -0.31015262 -0.05822753
0.07912662 -0.21450044 0.053272538
-0.24216142 0.24042204 -0.053136684
-0.020128116 -0.0074310354 -0.021848213
0.0021815028 -0.32665288 0.015105633
0.015349084 -0.033614 0.0056174095
0.248491 -0.25239572 0.0042694295
0.05342768 -0.16919905 0.08123719
-0.13742287 0.34995732 -0.0026589974
0.06351091 -0.26604187 0.09293708
-0.050141346 -0.2496215 0.06868945
0.046415936 0.012089525 -0.038597427
-0.12743956 0.34834632 -0.01868502
-0.021660155 0.24537891 -0.024784837
0.003364072 0.30674672 -0.07580837
-0.17009936 0.2740246 0.058532372
-0.08508953 -0.2889924 0.042423196
0.035450686 -0.06706715 0.0058722394
0.05681296 0.3359423 -0.09286745
0.024930434 0.042784855 -0.01025566
-0.025597572 0.102092125 -0.021894775
-0.07512599 -0.21303265 0.04123918
-0.18122634 0.24729085 0.027616275
-0.049304914 0.19555102 -0.006071252
-0.0033223506 0.1589843 -0.022650816
0.24413049 -0.25524166 -0.0036082107
-0.08182528 -0.2069203 0.050080746
-0.035120245 -0.22736533 0.11715271
0.10956625 0.26142272 0.028893763
-0.044818047 0.24654467 0.04832834
0.077450044 -0.15613222 0.15856254
0.027040763 -0.19270018 -0.20208068
0.021574274 0.34849414 -0.046901464
0.013506969 -0.058997147 -0.0062896316
0.028683627 -0.37283304 -0.06093637
0.03647704 -0.234902 0.048522554
-0.09481959 -0.26611686 0.06809531
-0.17620386 0.2534744 -0.13698937
-0.24092701 0.21432388 -0.09354429
-0.124140464 0.19202518 -0.2577021
-0.22010483 0.19046342 -0.13390116
0.16799854 -0.19277813 -0.12843984
-0.07157851 0.392528 -0.014907154
-0.05498359 0.15982023 -0.01895125
0.06286361 0.28263175 0.101451546
0.16138767 -0.18848382 0.023342237
-0.0012813604 0.1140657 -0.031744875
-0.09699834 -0.19978245 -0.015777396
-0.08405723 0.3534979 0.0059774597
0.0146587575 0.24376044 0.108187474
0.18953726 -0.2349963 -0.026428163
0.12437501 -0.269078 0.0051023117
0.058717947 -0.32778287 0.06753157
-0.08718174 0.25506988 0.021250064
0.05404576 -0.2207056 0.023823591
-0.010059397 -0.036404796 -0.021888247
0.19459346 -0.16016142 0.054117534
0.064577416 0.3123281 0.0030883607
0.014467156 0.29317504 -0.1086554
-0.22512205 0.28377494 -0.05784223
-0.10546366 0.33988926 0.0011994165
-0.14715746 0.39078742 -0.06261483
-0.005201826 -0.0059575443 -0.019522758
-0.03013755 -0.29836178 0.025604982
-0.045149934 0.4163183 -0.03137188
0.048081055 0.3016783 0.11484729
0.12251254 -0.22591709 0.03312194
-0.106724195 -0.28243652 -0.020769194
0.23356025 -0.2607092 -0.025022702
0.2033887 -0.14918897 -0.009138771
-0.0097616 -0.051120013 -0.018775847
0.038847864 -0.050692547 0.007619797
0.09675779 0.3293599 0.037902158
0.00045412217 -0.17632492 0.14666031
0.020752614 -0.19063824 -0.009826709
0.22323845 -0.16110528 0.019005189
-0.05468827 0.31141832 -0.032905728
0.0013075396 -0.17138723 0.1237321
0.20838001 -0.1616003 -0.061853666
0.0043145665 -0.19214877 0.13714242
0.06446609 -0.17797406 -0.12209592
0.18564197 -0.22634377 0.075360715
-0.088132754 -0.22292385 -0.023826905
-0.21037723 0.20897247 0.06259636
-0.040391237 0.3839293 -0.039090358
-0.0057767606 0.2645172 -0.05851389
-0.024304107 0.07222 -0.03406931
0.13262314 -0.186375 0.005300087
-0.018587528 -0.31524104 -0.0074367966
-0.14436324 0.2586992 -0.06583801
0.07785076 -0.36282524 -0.05610333
-0.066092856 0.22495666 -0.077827595
0.018481893 0.28299138 0.06716269
-0.020859325 0.08133864 0.0012705826
-0.06765611 -0.18740007 0.017987333
-0.031441204 0.3904162 0.015961027
0.01984603 -0.35936192 0.043011084
0.0549311 -0.3684304 -0.014474358
0.0027260773 -0.08035523 -0.04371745
0.034463074 -0.29668215 0.027531419
0.11671247 -0.3208025 0.015400121
-0.035133716 -0.35106713 -0.0439502
-0.007934227 0.28548318 0.1310252
0.049026392 -0.019576326 -0.007622312
-0.04647122 0.3516909 -0.06293432
-0.08033638 0.41905773 -0.08909241
0.15155292 -0.26124522 0.040304344
0.114273526 -0.19589318 0.019151416
0.12994556 -0.31574082 0.014434261
-0.18058708 0.31462437 -0.09511337
-0.19460581 0.25939158 0.037130058
0.17011227 -0.28481048 0.05217861
-0.044842117 0.37616253 -0.07233433
-0.16220284 0.19034609 -0.23519047
0.20809202 -0.24939199 -0.030110938
0.014652783 0.16610117 -0.06333545
0.013539058 -0.3490243 -0.08616094
-0.17575607 0.2648114 0.07418182
0.060980186 -0.088918366 0.00871237
0.036913313 -0.054211177 0.012786695
-0.16110173 0.22643933 0.065191746
-0.09943329 0.22736058 0.0151233785
-0.119300395 -0.27894992 -0.05211949
-0.033545665 0.15339705 -0.003826196
-0.01576939 0.35667598 0.001902828
-0.046224516 -0.3337842 0.0032188285
0.18267879 -0.19225278 -0.13382365
0.017367836 0.024987886 0.005777291
-0.12484907 0.33699468 -0.011903623
0.14351495 -0.1687426 0.08217471
-0.014197276 0.13035935 -0.010379533
-0.09145262 -0.2349345 0.013655262
0.062939554 -0.20558572 0.055380296
-0.06242899 0.24916828 0.064033486
-0.11569275 0.39778554 -0.07931403
0.025099965 -0.21554059 0.12311709
-0.0035064432 0.093371816 0.007236585
-0.095263034 -0.29373682 0.04917852
-0.07010726 -0.26551846 0.020083725
-0.034093946 0.10189408 -0.013694353
-0.016501287 0.021465736 0.00062323455
-0.12580395 0.23598322 -0.0057028006
0.08002745 -0.070238635 -0.02915351
0.0049459096 0.23924062 -0.035114188
0.17730448 -0.16021621 -0.031097272
-0.101400435 -0.20805189 0.09172975
-0.04157647 -0.23104605 -0.07410463
-0.1351522 0.20729879 -0.21067065
-0.12037676 -0.26677257 -0.02016969
-0.08695879 -0.22374159 -0.17066376
0.10556491 -0.30070674 -0.018730514
0.102848336 -0.26908836 -0.019834375
-0.017147435 0.060702242 -0.009517797
0.04470634 0.24398676 0.054856125
0.17707914 -0.14636914 0.05924619
0.03315441 0.37290773 -0.095991954
0.005593085 -0.3543131 -0.10245476
-0.09437748 -0.2295745 0.07278507
-0.017267233 0.32053924 -0.048725378
0.034813624 -0.17056663 0.067981936
0.023005087 0.25470397 0.08579386
-0.028914822 -0.18258162 0.12321346
-0.09143214 0.19013837 -0.0813605
0.18529905 -0.16931415 0.020741424
-0.053629216 0.22707947 0.037801992
-0.1153183 -0.27783826 0.042125612
0.09742399 -0.32504576 0.010258122
0.06218347 -0.21177614 -0.22041243
-0.031836048 0.38074368 -0.066318385
0.029446892 0.3233512 0.12553145
-0.12755467 0.24024284 0.068563476
-0.124885246 0.3336469 -0.010909399
0.1297822 -0.22630735 0.046616904
0.098445766 -0.21512716 0.12539113
-0.05396091 0.34518144 -0.03428446
0.0016316012 -0.24017976 0.1273904
8.348567e-07 0.32571146 -0.09650211
0.019681288 0.0875555 -0.053800877
-0.15399495 0.20469688 -0.11738276
0.0740901 0.32091203 -0.013221073
0.03295628 0.07195089 -0.047638286
0.17820944 -0.22950143 -0.04850946
-0.1205331 0.4089509 -0.03098386
-0.053615432 0.3804397 -0.12090457
-0.0026891578 -0.24982077 0.11377226
0.21215896 -0.26191264 -0.119777344
0.008230156 0.19628768 -0.035130158
0.059976824 0.32708308 -0.015704563
0.1858721 -0.25449857 -0.14030695
0.13232456 0.27943355 -0.101008974
0.044713516 0.23459464 -0.118178494
-0.07240848 0.2415456 0.094115265
-0.0055002403 0.3715552 0.029400963
-0.0814492 -0.23361458 0.0897093
-0.0668011 -0.18491143 0.05824292
0.0694161 -0.1632727 0.015097103
-0.028126528 -0.3368838 0.09152879
0.076836474 -0.1846898 0.07935433
-0.07888685 -0.26616994 0.04195812
0.10481217 0.27125576 0.07042532
-0.15752037 0.27157867 -0.00051564287
0.00089624105 0.07227417 -0.036736537
0.07743789 -0.15785597 -0.006624851
-0.04480088 0.30622795 0.0056903237
0.058867473 0.26545662 -0.045776926
-0.01477843 0.00562608 0.00906635
0.1641003 -0.18803367 0.014371451
0.13376759 -0.30524397 -0.034555804
0.06100589 -0.21158794 0.100219555
-0.20990369 0.22628841 0.0036964878
0.03212961 0.09616837 -0.04507315
0.10045754 0.29663667 0.035804838
0.094061136 -0.2963742 0.04003252
-0.054297235 -0.22106382 0.11093314
-0.013823092 -0.21072319 0.1313216
-0.02404328 -0.23631108 0.027737567
0.13614802 0.29389083 -0.043171316
-0.02922735 0.2449904 0.14437222
0.008554498 -0.32926777 0.063110135
-0.05044844 -0.19617091 0.101785906
-0.14673111 0.23483281 0.106006406
-0.046713606 -0.19212312 0.13737553
-0.13188107 0.25418863 0.09879602
0.05606316 -0.15833558 -0.006962656
0.004622059 0.1388827 -0.010929852
-0.0030677891 -0.19380063 -0.14948101
0.018429583 -0.3041374 0.0055735395
-0.045403413 0.026008377 -0.005122975
-0.03648864 0.14065783 -0.023823412
0.03329914 0.30840826 -0.12060432
0.07178975 -0.21969907 0.079835
-0.063316986 0.24727948 0.014735841
0.20688213 -0.13912097 -0.062942475
0.11467993 -0.27702367 -0.0123434095
0.04757069 -0.18096928 0.0044874363
-0.023791337 0.26555896 0.03814054
-0.14578919 0.23050666 -0.047559183
-0.04960168 0.07898358 -0.0317795
-0.11144188 -0.22815327 0.05991162
-0.059037924 0.11117333 -0.0351661
-0.10200364 -0.25582626 -0.03343605
0.014827719 -0.24178447 0.068148665
0.07593133 0.25597194 -0.2185607
-0.070454374 0.27544484 0.10067549
-0.0200375 0.26602793 -0.024651261
-0.00825091 0.27341837 0.15104692
0.054365907 -0.31101 0.10510777
-0.24884257 0.19967256 -0.01691313
0.047946423 -0.19116789 -0.012828587
-0.12870699 -0.21502212 -0.028117852
-0.0012012759 0.33251083 0.038395684
-0.07457407 -0.2838364 0.070644826
0.05183427 -0.11075979 0.0062223496
0.12090132 0.29433885 -0.031118033
-0.103526495 0.39049327 0.0011146672
-0.12927741 0.34721893 -0.022594988
0.13909344 -0.30106202 0.09161838
0.17047313 -0.16853157 -0.124580316
0.07192483 0.24505873 -0.11399439
0.06982524 -0.35006604 0.011751897
0.008106587 -0.20522115 0.13469794
-0.008509186 -0.34653372 -0.05579108
-0.04886337 0.41471633 -0.092059284
-0.12837856 -0.32419682 -0.03858965
-0.17476577 0.22698794 0.10262987
0.030147249 -0.09601409 -0.009246701
0.0061257686 0.14264344 -0.023779813
-0.053055536 -0.30866364 -0.039643735
-0.16245687 0.28580254 -0.061392784
-0.14224653 0.3383952 0.0030051954
0.01511262 -0.041823655 0.0059368545
0.027710157 -0.20424227 0.07824944
-0.12724523 0.2031965 -0.069743775
-0.025926473 0.27623278 0.11478141
0.08512886 -0.11626942 -0.04192243
-0.06211112 0.3326052 0.033190984
0.017665705 -0.35091937 -0.09594503
0.12914774 -0.25169927 0.05950642
0.22092752 -0.26023304 0.015114644
0.0072158165 0.3127516 0.12148743
-0.07215309 0.14562437 -0.047235508
0.092816055 0.2702955 -0.008690593
0.15774705 -0.16073562 0.06803025
0.048729386 -0.21546693 0.06601975
0.009186279 0.023110546 -0.023570616
0.22724141 -0.14508934 -0.041125022
0.13911682 -0.3344135 -0.006614305
0.12296602 -0.14602174 -0.017831435
0.0036733584 0.3138076 -0.039923333
0.021237504 -0.037932772 -0.008976832
-0.11300502 0.38224807 -0.037873894
0.17217492 -0.28857878 0.054283585
-0.05502469 -0.22514379 0.12062011
0.022581153 -0.17626531 -0.009875857
0.09850858 -0.18580091 0.07669572
0.0521558 -0.31340942 0.10698964
-0.038279645 -0.19148886 -0.030990532
0.04589846 -0.063467294 0.010809641
-0.026372673 0.21764836 -0.03410949
0.103972845 -0.3194336 0.0020444482
-0.05415215 -0.22002108 0.078877285
-0.06824331 -0.22306328 -0.063451394
-0.01709778 0.31396398 0.08893884
-0.0009855012 0.10465086 -0.011650135
-0.20775034 0.184981 -0.06539532
0.029809615 -0.09812108 -0.017955406
-0.1333592 -0.32776204 -0.046316613
0.13164234 -0.15662608 -0.013718048
-0.092150286 0.20653605 -0.0833106
-0.024392493 0.049764503 -0.011212789
-0.02334535 0.22557819 0.038236827
-0.0055357986 0.33984056 0.00046983504
-0.09935215 0.34612933 0.053128954
-0.033958044 0.039992154 -0.05086147
-0.07228477 -0.19250676 0.07049419
0.10965945 0.2698573 -0.0059516733
-0.007663391 -0.065769985 -0.036311537
-0.06754726 -0.30216628 -0.04420471
-0.15044586 0.28213975 -0.080351524
0.010084431 -0.17282346 0.011893437
-0.055449992 0.17836435 -0.034063958
0.14151028 -0.30859467 0.10296954
0.1776242 -0.21076858 0.065940104
-0.083345905 0.25407237 0.12349543
-0.05977587 -0.22393969 0.13435762
0.025784194 -0.09724712 -0.0018208345
0.059752777 0.25079206 0.10664472
0.07401895 -0.2737765 0.008169883
0.0036347148 0.05995398 -0.03505378
-0.010846393 0.2842781 -0.022685511
-0.15517922 0.32288206 -0.07683681
-0.02697564 0.06458397 -0.052626055
0.029586013 0.2406956 -0.063800745
-0.13994373 -0.23101197 -0.01215501
0.05291225 0.2986298 0.10667148
-0.02745811 0.24716078 0.038866244
0.070583284 -0.18874529 0.045059938
-0.04693842 -0.33214998 -0.07123467
-0.15402097 0.20757118 -0.11461663
0.04353629 -0.3565747 -0.13764983
0.007817401 -0.3218446 0.05492902
0.04048757 -0.04920918 -0.007665218
0.011896814 -0.21613494 -0.21018137
-0.042213477 0.39321598 -0.104685985
-0.09804951 -0.26325122 -0.014518346
-0.018718116 -0.18932901 -0.12332691
0.019294206 0.025862793 -0.0028626765
0.1057186 -0.17202866 0.101963006
0.15888233 0.2983773 -0.081040494
0.21245283 -0.14899269 -0.11107435
-0.0936663 0.23270331 -0.017203478
0.04783376 -0.327751 0.11834052
0.1480458 -0.18194993 0.031198496
0.053577647 0.27121913 -0.14975908
-0.008604828 0.18371327 -0.061032638
0.0721382 -0.1927599 0.14753154
0.07103306 -0.17068405 -0.010061728
-0.030543389 -0.20485921 0.15099639
-0.1943172 0.18454503 -0.070762105
-0.024081748 0.23724477 0.008375198
-0.07588226 -0.27437449 0.046576347
-0.213353 0.23924999 -0.049822543
-0.009926244 -0.18856455 -0.16529433
0.0013727776 0.25489098 0.08025414
0.010873127 0.230686 0.002691421
0.20610034 -0.21037275 0.063101776
-0.08136457 0.13432084 -0.03515151
-0.12893939 -0.2571529 -0.014055908
-0.0151657555 -0.30422845 0.087651044
-0.0025815838 0.17071463 0.0021251913
-0.10870555 0.25201303 0.10037826
-0.14065304 0.19101112 -0.27690616
-0.08380484 -0.3158408 -0.062002853
-0.06633364 -0.25543928 0.04645039
0.040969905 0.26627135 -0.07762591
0.09423527 0.31307968 0.08593932
-0.0067223283 0.33827922 -0.008337585
-0.043934543 -0.03971799 -0.049996182
0.051129706 -0.21084842 -0.167168
0.07736303 -0.33626023 0.05317711
-0.20045485 0.20208968 -0.058331966
0.18278028 0.27771634 -0.11128473
0.11149453 -0.18282574 0.04720763
0.021136498 -0.2669523 0.06814723
-0.12051658 -0.2615092 0.07440106
0.16248998 -0.16150121 -0.16738175
0.11419164 -0.3205259 0.013860383
0.13015848 -0.3198989 0.09003006
0.04746396 -0.31757075 0.08569572
-0.07435394 0.22363985 -0.23047677
-0.015142506 0.36002427 -0.0757036
-0.05725246 0.11746812 -0.041300554
-0.12859455 0.34188962 -0.0555091
0.0823601 0.31215072 -0.10074029
-0.018146362 0.09378657 -0.024967644
0.01861569 0.35784972 -0.09198834
0.054791745 0.255283 -0.066326335
0.0592634 -0.09361475 -0.021552047
-0.045152403 -0.083667174 -0.06636036
-0.22317646 0.21266195 -0.005874173
-0.08316026 0.23948789 0.11388071
0.016248224 -0.07132232 -0.036418308
0.03269281 -0.27684245 0.061557937
-0.0557056 -0.24550122 0.032689504
-0.032717902 0.40128434 -0.11921279
0.07058772 -0.32392752 0.006578694
-0.040067412 -0.22569296 -0.13788885
0.107656226 -0.25845942 -0.007647207
0.003350187 -0.26356715 0.09511661
0.12262746 -0.19446829 0.035467
-0.13079728 -0.248282 -0.15166618
0.061010394 0.27592838 0.1345066
-0.007890645 0.19340703 -0.06742061
0.09856495 -0.2700713 0.011948599
0.08554009 -0.26989508 0.05608359
-0.056979783 0.26634184 0.09888724
0.09274585 -0.26619333 0.0705965
0.026303276 -0.2839594 0.020730546
0.13521601 -0.161701 0.094876796
0.038836755 0.08234455 -0.029014817
0.11651897 -0.23066877 -0.009039439
0.18038319 -0.25476438 -0.0050234296
0.13213186 0.31398943 -0.105454765
0.03362761 -0.09568927 0.015966874
-0.009274427 -0.20573916 -0.22330387
-0.038585667 -0.22726622 -0.09212609
0.028413927 0.23215385 -0.1015187
0.22678596 -0.21344 -0.015762208
0.056429088 -0.20892899 0.0598318
-0.09617033 0.29283872 0.05539627
0.11070645 -0.15086055 -0.031796813
-0.10894895 -0.21028462 0.06281431
0.15359259 -0.2276636 0.046506148
-0.104572855 0.2597231 0.112255625
0.09650707 -0.2698559 -0.020949934
-0.009688339 0.22053306 -0.05176831
-0.10481352 -0.2254344 -0.08204464
0.048294075 -0.1570836 0.013953624
-0.0470579 -0.2177914 0.1189113
0.01749571 -0.05664247 0.012909952
0.07875829 0.2929833 0.06499575
0.09712989 -0.3050995 -0.003374824
0.04284143 -0.021713454 0.014963118
-0.009187538 -0.0056810947 -0.04918942
0.21927926 -0.15733753 -0.06711082
0.045445893 0.25833035 0.064132154
-0.047689572 -0.018942323 -0.05644995
-0.069831215 -0.3227915 0.03754053
0.007343063 0.2907158 -0.0015486352
-0.018936094 -0.1962 -0.13203229
-0.06735864 -0.24305704 0.031099917
-0.1486259 0.35970664 -0.14157686
-0.16573335 0.24601857 0.0589191
-0.10542879 0.29678375 0.048298474
0.052304104 -0.18872611 -0.0233902
-0.024449883 -0.03381613 -0.021467697
-0.009353241 -0.22699715 0.113463216
-0.0705444 -0.21502574 0.06605329
-0.05509966 -0.20332475 0.12005483
0.0027493862 0.27793944 0.012429033
-0.010862586 -0.2746721 0.13385317
0.09521449 -0.30630562 0.01967609
0.082486436 0.32733503 -0.006313817
-0.20029856 0.21120264 -0.18649009
