# .PCD v0.7 - Point Cloud Data file format
VERSION 0.7
FIELDS x y z
SIZE 4 4 4
TYPE F F F
COUNT 1 1 1
WIDTH 1000
HEIGHT 1
VIEWPOINT 0 0 0 1 0 0 0
POINTS 1000
DATA ascii
0.12073532 -0.03955605 0.17212702
-0.0872286 0.26237452 -0.17767994
0.18760946 0.037958577 0.08938155
0.19780993 -0.05498403 0.15190406
0.14579444 -0.086898394 0.1378943
0.06284722 -0.16027163 0.09759723
0.18276022 -0.20848885 0.11369508
-0.2067201 0.121883914 -0.013778503
0.20232587 -0.13923888 0.07618619
0.307794 -0.10028094 0.046482973
0.26056674 -0.20513304 0.01878769
0.21666318 -0.040368307 0.1664421
-0.18509166 0.14592281 -0.07864481
-0.2610038 0.057867438 -0.0417219
-0.09395212 0.28566864 -0.14554422
-0.2794532 0.007714629 -0.13019484
-0.322349 0.06209804 -0.09182461
0.27534878 -0.09438724 0.10457648
0.15073949 -0.20974635 0.044889756
0.2767198 -0.11302872 0.015362604
0.20084783 -0.15791996 0.12712155
0.050180938 -0.2016609 -0.01498411
-0.21623574 0.16492562 0.03087295
0.17709225 -0.1294288 0.17547134
0.028113559 -0.019557605 0.00735156
0.1849599 -0.20820348 0.11156777
-0.067169964 0.2086308 -0.20093796
-0.10693163 0.24272634 -0.09904742
0.24223322 -0.22339903 -0.0057942765
0.099464744 -0.14615807 0.10742006
-0.23703085 0.1273096 0.03213532
-0.270771 0.25989273 -0.16237271
0.09800028 -0.14969067 0.1441748
-0.2351792 0.124956734 0.04347488
0.06181155 -0.14148271 0.11720668
-0.056704428 0.23924956 -0.21509469
0.23482849 -0.24093685 -0.12856205
0.1750435 0.016006699 0.13911143
-0.283387 0.048552863 0.028574511
-0.13569623 0.27240065 -0.018391736
-0.19156879 0.19302435 -0.015989276
0.23301034 -0.11924127 0.06539952
0.06272275 -0.08716657 0.17568684
0.07853409 -0.11531676 0.11263788
0.2001432 -0.12559663 0.14924353
0.15424623 -0.10431975 0.20227376
-0.03246871 -0.0074207834 -0.053552676
0.2123387 0.03306877 0.042699333
-0.11380023 0.08578235 -0.08426971
-0.10456375 0.078025915 -0.05176457
-0.18124124 0.16227773 -0.033446267
0.017521223 0.019824456 -0.02548503
0.23969606 -0.13317943 0.1226268
-0.19177881 0.25611654 -0.10307309
0.083966546 -0.06725928 0.045447014
0.06557756 -0.15400535 0.11767878
-0.29506895 0.0048089037 -0.049365472
0.14178796 -0.24333853 0.044845898
-0.20129979 0.17667101 -0.06060017
-0.1437387 0.1892569 -0.13808377
-0.28496367 0.12056104 -0.028746454
0.11373114 -0.039513495 0.16936125
-0.05303237 0.10737119 -0.06835784
0.23145472 -0.22030386 0.026734235
0.22008076 -0.09826324 0.09664889
-0.25953138 -0.019752953 -0.13886034
0.17505488 -0.12609752 0.13316728
0.12879728 -0.27431226 -0.056125175
-0.13545844 0.30697286 -0.09741552
-0.124815576 0.15625978 -0.17403193
-0.08331392 0.031145176 -0.05712045
-0.27994618 0.05437134 -0.04574615
-0.18148963 0.122303925 -0.08849956
-0.14313284 0.21807241 0.033837646
-0.28228393 0.007992261 -0.08334324
-0.24094573 0.16192907 0.05639659
0.0924345 -0.16492176 -0.0051847356
-0.27892074 0.184008 -0.092546925
-0.2318933 0.16416511 0.04198585
0.11116115 -0.047518477 0.0045951377
-0.29282463 -0.037504498 -0.07577436
-0.14491884 0.08981261 -0.24745424
-0.29486358 0.201021 -0.07863291
-0.05917609 0.10117595 -0.067618676
0.16727978 -0.20690419 0.109897345
-0.2952043 -0.011264809 -0.07029977
0.15351668 -0.2537902 0.03980787
-0.16748264 0.10672097 -0.07826871
0.21695164 -0.104852244 0.13717717
0.066424996 -0.16046526 0.048105657
0.21548997 -0.0794864 0.16578193
-0.17155868 0.16130218 -0.117085986
0.24632807 -0.087342575 0.065106906
0.17558344 -0.017368939 -0.016537203
-0.12825099 0.25228915 -0.022001507
0.17267516 -0.18562998 0.10096091
0.13588952 -0.22876395 -0.044147536
0.18484141 -0.18120596 0.13015877
0.07447339 -0.21351275 -0.0066248267
-0.2749156 0.17631058 -0.09551679
-0.2842373 0.20293133 -0.108318396
-0.28543958 0.12688507 0.04534711
0.24748793 0.024140589 0.06963436
0.074032314 -0.18485501 0.02831799
0.181406 -0.16390063 0.10235167
-0.02284592 0.040166788 -0.024324104
-0.046767514 0.02788771 -0.030734167
0.14826775 -0.04750507 0.02567415
-0.12798162 0.2336624 -0.06044118
0.16485086 -0.16970083 0.071071796
0.10430974 -0.14153422 0.063175455
0.026075 -0.19675502 0.11906199
-0.16509242 0.10142787 -0.055681214
-0.13578974 0.08742869 -0.08345751
0.16894348 -0.09412564 0.09864461
0.1902523 -0.021041417 0.019818407
0.05690606 -0.21740746 -0.0109224245
0.13584678 -0.09436434 0.20173647
0.19221467 0.029519498 0.15677254
-0.17755936 0.11483734 -0.05669438
0.22381262 -0.09093766 0.10895765
0.050424315 -0.10626362 0.14681925
0.11692847 -0.062498957 0.116426736
-0.3205655 0.16575722 -0.10024796
0.23607816 -0.09591568 0.12283875
-0.16859122 0.27166265 -0.023061259
-0.030700535 0.061085746 -0.08994958
-0.14809786 0.12306959 -0.15500644
0.13542864 -0.019142099 0.104669176
-0.2538741 0.06630854 0.020598574
-0.2580311 0.04703014 0.004805147
-0.24659279 -0.022893194 -0.19132574
-0.13647687 0.10255436 -0.040391564
0.28809282 -0.1730119 -0.059374176
-0.24027625 0.2043144 0.046235573
-0.105571315 0.13899429 -0.09387048
-0.136729 0.07554477 -0.30737394
0.2700447 -0.16560845 0.099359505
-0.21650237 0.09388757 -0.09079334
-0.1253732 0.21744612 -0.043959625
0.07606989 -0.043630973 -0.008005011
-0.17704014 0.13508905 -0.023520581
0.17962626 -0.024383646 0.14442128
-0.17223857 0.17103839 -0.04672491
0.20251831 -0.2384491 0.021936
0.12217574 -0.1752198 0.14180462
0.10026126 -0.18536825 0.07307021
-0.17998973 0.09283724 -0.07567461
0.23928772 -0.11977016 0.109305866
0.12102104 -0.13802464 0.072195485
0.09730602 -0.15715803 0.08850742
0.2738937 -0.17504999 -0.07038811
-0.22876579 0.0450947 -0.10636782
-0.25376037 0.08756638 -0.0027522915
0.17076506 0.018939307 0.13522914
0.27564344 -0.16927949 0.058580607
0.18478535 -0.020751202 0.08363077
0.29094422 -0.11391945 0.051921032
-0.0848556 0.2495983 -0.08271857
0.060158443 -0.1767295 0.15315685
0.17427625 -0.10518012 0.1241267
0.028249003 -0.003173521 -0.043201946
0.17727925 -0.05967261 0.071708314
0.24515136 -0.12427146 0.03943467
-0.3190678 0.13240711 -0.109018296
0.09463611 -0.08828593 -0.005285964
-0.21537456 0.10395335 -0.07787816
0.096316874 -0.12851919 0.14565115
-0.17594378 0.19970442 0.0052672126
-0.2939021 0.096617 0.0047540166
0.179944 -0.1102838 0.13317539
0.1692934 -0.009983545 0.18122868
-0.14515719 0.19628216 -0.06495251
0.2221131 -0.026664814 0.049162015
0.17300971 -0.23168561 0.05344637
-0.19166848 0.055178016 -0.11419419
0.20128953 0.026258148 0.11736401
0.13560188 -0.085282095 0.079966225
0.2234735 -0.092829235 0.14945003
0.07530278 -0.22670607 -0.07337625
-0.15026146 0.1931338 -0.08013364
-0.33953452 0.13694757 -0.15930432
-0.10738176 0.21423724 -0.20389621
0.066248596 -0.06955779 0.012910947
-0.24575013 0.11746485 -0.024405181
0.2791364 -0.011936969 -0.036121644
0.2814524 -0.0068633305 0.07587099
0.32839537 -0.09754965 -0.005222515
0.16663095 -0.260344 -0.059197996
-0.13466124 0.15122093 -0.12666388
0.23576891 0.041534267 0.056827955
0.18571898 -0.14889856 0.09364997
-0.2814703 0.13001435 -0.019289333
0.12447406 -0.09904629 0.09899332
-0.23997706 0.13613874 -0.07047236
0.27103892 -0.11885326 0.047379453
0.014145631 -0.060467765 0.0014838646
0.11793938 -0.052446738 0.018827032
0.07613972 -0.18007731 0.14519565
-0.17557178 0.17209873 -0.11039411
0.27861714 -0.12247321 0.032336783
0.025660254 0.021834327 -0.0143280495
0.22181056 -0.18304874 0.13912125
0.055159163 -0.17050256 0.115989126
-0.22463363 0.15666582 0.07589834
0.04361153 -0.07842075 -0.010294569
0.08428577 -0.18121393 0.077222005
0.095696546 -0.09982978 0.12773396
-0.2702132 0.1893984 -0.082631014
-0.15629686 0.08835392 -0.07004175
-0.27078715 0.14340174 -0.08903771
0.14545164 -0.012871549 0.10640183
0.2917886 -0.14382917 0.0676868
0.13055103 -0.17179747 0.019785166
0.24510469 -0.0064080283 0.030773083
0.14393756 -0.15983075 0.111373305
0.18767688 -0.19615403 0.09250093
0.17646179 0.055881932 0.10862403
0.0679168 -0.12230613 0.14555748
0.22194424 0.022593096 0.07015756
0.26899186 -0.15448883 0.06505825
0.21911387 -0.0639329 0.11622788
0.24870667 -0.26022315 0.025418136
-0.27990413 0.010858736 0.007910809
-0.08645946 0.035798702 -0.03121103
0.2220809 -0.07731394 0.11200666
0.20230009 -0.18399973 0.10608556
0.21411587 -0.11336651 0.12674575
-0.27115726 0.25216395 -0.15617347
-0.2649147 0.14238366 0.052291993
0.32310277 -0.10374638 0.038741745
-0.09479088 0.0627633 -0.05712788
0.020742266 -0.027355256 -0.020662261
-0.024232168 -0.021488205 -0.029001432
-0.27112898 0.1592437 0.01606142
0.18016057 -0.27229232 -0.04937587
0.16530739 -0.22745897 0.058880366
-0.30981174 0.12469159 -0.008643955
-0.10471416 0.09388223 -0.06427078
0.119651526 -0.18536034 0.09992694
-0.117547035 0.20697178 -0.15061624
0.17430109 -0.17860979 0.07177834
-0.19608869 0.17765641 -0.073253974
0.090538755 -0.038499083 0.014554955
-0.18014613 0.21947283 0.020558145
-0.13786046 0.086106256 -0.03893212
-0.24839127 0.009215046 -0.17018697
-0.30956197 0.034166284 -0.043578424
0.073463164 -0.05637219 0.027976967
0.3049137 -0.058128674 0.053279612
-0.08845933 0.04879791 -0.03130462
-0.14128669 0.09763827 -0.049077433
0.26205334 -0.1791429 0.06483439
-0.26534697 0.0259014 -0.07573045
0.07746014 -0.15446007 0.089446455
-0.23892562 0.14104591 -0.03147214
-0.2794933 0.08643556 0.07151991
0.10644073 -0.08425296 0.11882821
-0.09179661 0.25531033 -0.17082544
0.28250608 -0.18671264 -0.039416634
0.063331775 -0.19715783 0.09582408
-0.18937609 0.06554836 -0.123997994
0.13282256 -0.11690214 0.15093249
-0.27485824 0.19560497 0.039480973
-0.10664352 0.028138924 -0.046776365
-0.020894501 0.026610268 -0.011680708
0.31214067 -0.03175644 -0.0757218
-0.28522718 0.08385141 0.0030509457
-0.037318543 0.073695675 -0.054611683
-0.24103083 0.08318609 -0.022657907
-0.3249719 0.14769919 -0.17811531
0.20396228 -0.09314698 0.1362301
0.24346335 -0.0021287675 0.060999196
-0.1769399 0.21461566 0.06268311
0.17084461 -0.0546186 0.06314997
-0.26914537 -0.026296796 -0.14657496
-0.24327359 0.15389448 -0.06412631
0.25409034 -0.17072554 0.09127602
-0.21837296 0.1739538 0.0039568557
0.14825244 -0.025879854 0.09846031
0.22283109 -0.13714245 0.06601024
0.18266326 -0.21874854 0.043157075
-0.030266153 -0.0018716686 -0.008603631
-0.3209593 0.09959991 0.010721216
0.084405504 -0.10266148 0.15145266
0.26858047 -0.13127944 0.034657326
0.111957714 -0.018993272 0.15122533
0.14419377 -0.047146566 0.10093745
-0.1420652 0.23471846 -0.0062722587
0.20858778 0.019243341 0.060133204
0.2873827 -0.08346772 0.0418577
-0.15204686 0.13172759 -0.063287646
-0.06300076 0.24916571 -0.1956737
-0.1314653 0.21223657 -0.074587286
0.27688164 -0.026516749 -0.004441916
0.1680064 -0.22379965 0.081378534
-0.05173502 -0.0293002 -0.028432973
-0.21545076 0.030519003 -0.16790374
0.032477558 -0.17666124 0.11500283
0.09882151 -0.17897259 -0.040763758
-0.16897276 0.13597517 -0.09825402
-0.2330169 0.11511973 -0.017838215
0.11895193 -0.24807137 0.029092465
0.1806233 -0.16364759 0.07775932
0.11536543 -0.20305829 0.14586043
-0.07060512 0.25205868 -0.17936432
-0.21570261 0.18105316 0.025905535
-0.31339726 0.02058582 -0.024934221
0.16849172 -0.2629893 -0.051576022
0.059243806 -0.17343745 0.094505265
0.24105178 -0.05382652 -0.00045786035
0.061768796 -0.24159399 0.020946769
-0.13597922 0.254543 -0.013588012
-0.26180696 0.14633434 0.036388893
0.14984207 -0.07466349 0.13704911
0.19139735 -0.21743912 0.08368985
0.054754358 -0.05502454 0.014195102
-0.093637995 0.12706392 -0.08399907
0.14754799 -0.27897227 0.033284403
-0.09377059 0.06448321 -0.030840356
0.14326778 -0.18717581 0.06500998
-0.07910567 0.2862277 -0.073141694
0.19260105 0.057706766 0.12064219
0.2387155 -0.089508824 -0.02618696
-0.32166702 0.12632313 -0.12371248
-0.31919926 0.17399348 -0.14844717
-0.14241104 0.10700687 -0.22191396
-0.011163045 -0.013002761 -0.062845856
-0.22509412 0.11191893 -0.0659473
0.10610022 -0.2455771 0.034284037
0.018200086 0.04209656 -0.010089187
0.18251301 -0.14796561 0.09827195
0.0065136286 0.026313564 -0.003922168
0.22621834 -0.052822392 0.067538664
-0.14507319 0.06176355 -0.26843643
-0.17251715 0.08837249 -0.23928519
0.19605148 -0.2602556 0.020782052
0.03870225 -0.05451065 0.0036142273
-0.12167092 0.10317512 -0.29932913
0.02705429 0.0046981233 0.019329824
0.26867938 -0.04733688 -0.017010935
0.13519967 -0.06628367 0.112635836
0.19960502 0.02829307 0.072277226
0.2146087 -0.16570218 0.13099284
0.2767142 -0.06488611 0.020467907
-0.09986012 0.2814241 -0.07267968
0.31925702 -0.07996381 0.061932404
-0.17846735 0.09728334 -0.19483554
-0.2899432 -0.02597502 -0.13684003
-0.29800388 0.15215556 -0.09215659
0.19741681 -0.22000298 0.052865107
0.014495286 -0.048110496 -0.011793354
0.067914374 -0.028614974 0.00056457246
0.21511172 -0.037738234 -0.03132825
-0.21014336 0.20001803 0.030035477
0.16102831 0.032711614 0.11029661
-0.34982532 0.101168156 -0.1551093
-0.13263236 0.22603728 -0.10726314
-0.102738455 0.18823949 -0.20057249
0.22092268 -0.086988375 0.15633924
0.00964824 0.015370221 -0.025681943
-0.28099194 0.22157271 -0.09589016
0.14344648 -0.16418418 0.07584449
-0.06999649 0.25955418 -0.18034364
0.12763287 -0.082468785 0.15656106
0.17577007 -0.18568924 0.03715785
-0.24188335 0.09459179 0.008824271
0.099016316 -0.16008863 0.11400506
-0.02201804 -0.040584154 -0.03770718
-0.18712099 0.24304192 0.005157832
0.1176725 -0.17235737 0.14031509
-0.122521535 0.13788761 -0.07384832
-0.2624257 0.21380146 -0.09765371
-0.076145485 0.057935856 -0.067295685
0.1859446 -0.25474498 -0.04233351
0.20158915 -0.012408277 0.12231063
-0.13893065 0.30262214 -0.015573633
-0.16542159 0.100826 -0.07928589
0.26848492 -0.13744298 0.003037135
0.20618077 -0.17495285 0.05212445
0.06657955 -0.061237365 0.009399048
0.10020189 -0.09880702 0.13856232
-0.25135526 0.07990336 -0.10635031
-0.1480702 0.2579223 -0.013312369
0.17141815 -0.22365543 0.13758902
0.015568828 -0.04377347 0.0077641653
0.1502371 -0.16863889 0.11298537
-0.2366324 0.127923 -0.041408855
0.070133954 -0.21839984 -0.038122047
-0.1770418 0.067518875 -0.22354534
-0.113543205 0.10448593 -0.05843726
-0.27669105 0.025470486 0.0026961423
-0.19701362 0.17118776 -0.112592846
-0.27903095 0.05384402 -0.027862256
-0.3037192 0.20867018 -0.097331665
-0.105722934 0.23187943 -0.10185222
-0.23000975 0.083472475 -0.007014812
0.21606572 -0.12662621 0.13390456
-0.28364104 0.19396228 -0.06556826
0.2296637 0.01014524 0.06634509
-0.11628389 0.23848383 -0.0869341
0.15194488 -0.1848448 0.10001628
-0.30481002 -0.011850847 -0.09072894
-0.32331407 -0.034121323 -0.029650612
0.054241057 -0.19310491 0.011316991
0.30829838 -0.08030848 -0.043538406
-0.24784835 0.07057516 -0.014320851
-0.025931248 0.06234033 -0.026859688
0.20257556 -0.04049471 0.05244982
0.2478187 -0.017338876 0.069286816
0.12682252 -0.18678468 0.105917044
-0.140155 0.2078717 0.011769701
0.11534519 -0.103332825 0.10380149
-0.18247285 0.25241834 -0.1175971
0.027896013 0.032852847 -0.040164925
0.09861961 -0.098071806 0.13056386
0.09405216 -0.110614054 0.12577224
-0.2512417 0.07785427 -0.058439184
-0.20460837 0.056056306 -0.22503684
-0.27574405 0.13342994 0.055553198
0.26492974 -0.22757432 -0.017770376
0.062396068 -0.052022513 -0.02347633
0.20686184 -0.25265148 -0.060563605
0.06974899 -0.17448238 0.1116338
0.22121245 -0.1238021 0.07033603
0.057289284 -0.19180366 0.057108454
0.20072071 -0.0020822524 0.11792434
0.27501926 -0.04710003 0.08386357
0.22451697 -0.22739044 0.07653248
0.1559701 -0.071163625 0.12271226
-0.09751406 0.1895916 -0.22889745
-0.27974877 0.21843636 -0.19574663
0.06728724 -0.21696079 0.08890371
0.15359876 -0.06267002 0.14610451
-0.26998383 0.099988244 0.018643647
0.26230976 -0.09233396 0.012604584
0.19343069 0.0050296644 0.0984753
-0.15013334 0.24972521 0.04379714
0.030479278 -0.028289061 -0.024155166
-0.22974122 0.04253966 -0.06731397
-0.30130062 0.015465828 -0.16509877
0.2080557 -0.050301433 0.12802032
-0.19531786 0.18329443 0.034141727
-0.2633763 0.14143515 -0.027184404
-0.19165292 0.2685074 -0.10673222
0.1787355 -0.03041294 0.12160126
0.11290886 -0.21436082 0.16507053
-0.19631766 0.22057725 0.051018372
0.07867792 -0.10251992 0.12896654
0.16367832 -0.12379186 0.07883909
-0.2225235 0.17714323 -0.099419594
0.102090485 -0.09356105 0.17301562
0.14361638 -0.070059136 0.13105875
0.16171654 -0.0041675917 0.08619412
-0.20616686 0.105666585 -0.07050629
0.29265827 -0.13649555 0.057194293
0.066958666 -0.042364944 -0.02803248
-0.002200932 0.024808878 -0.016226823
0.21896197 -0.20351155 0.08875693
0.29266584 0.030078212 0.09417093
0.2358799 -0.15119585 0.12577657
-0.3216877 0.1233426 -0.0661945
0.047649246 -0.009356722 0.007881492
-0.27288955 -0.017119836 -0.13252755
0.20599277 -0.015894646 -0.036866874
-0.16398448 0.22336243 -0.009096238
-0.18402232 0.19018058 -0.049239796
0.22199194 -0.07257608 0.13237938
-0.24526569 0.23609333 -0.19205758
0.19231062 -0.032072913 -0.10087102
-0.28286877 0.1991602 -0.15038237
0.20986217 -0.24597 -0.011306713
0.1367045 -0.20878567 0.15209417
-0.19433102 0.26379588 0.027197668
-0.2944073 0.23816353 -0.10951616
0.18942067 -0.0022698198 0.11819121
0.21206862 -0.068460956 0.16549563
-0.3306041 0.14301522 -0.08911622
0.14416072 -0.049610503 0.12093939
-0.28129146 0.22479999 -0.19895612
0.2654098 -0.06852613 0.042515583
-0.013368342 0.024693875 -0.033439048
-0.29924512 0.16848631 -0.09075597
-0.13934574 0.26687035 -0.019875629
0.20252462 -0.16250911 0.078182414
-0.19641326 0.2503847 -0.14780189
0.3156754 -0.07309111 0.06535928
-0.20339033 0.23771884 -0.070976645
-0.2632582 0.07264301 -0.00562149
-0.2741345 -0.043076675 -0.11100719
-0.15418416 0.10775744 -0.20968395
0.13779321 -0.2305497 -0.016992247
0.06991343 -0.18980694 0.11671587
0.1344062 -0.17147568 0.08187267
-0.23210485 0.1161723 -0.00318582
0.22238615 -0.05627469 0.13867316
-0.25030753 0.098781765 -0.0035571652
-0.002014134 -0.02303941 -0.0002004682
0.24116857 -0.14506832 0.08475744
0.050801873 -0.029663833 0.028267866
-0.17231245 0.20322916 -0.061711863
0.24056195 -0.1247381 0.14361744
-0.2426242 0.13077343 0.037469156
-0.180089 0.07220462 -0.105036944
-0.32297364 0.14993072 -0.076718815
0.17974444 -0.026298745 0.13857174
-0.24659972 0.01866275 -0.08779296
-0.104084745 0.23332614 -0.11840697
0.18313348 -0.026606712 0.03417347
0.24346495 -0.008698972 0.08897304
-0.1257288 0.12200609 -0.25078067
0.27462637 -0.029478079 -0.012050126
-0.33193496 0.13131507 -0.06138424
0.09704256 -0.17258893 0.04441593
0.21936466 -0.02277176 0.17128353
-0.06713664 0.00036191204 -0.019899528
0.07597982 -0.12073568 0.077574015
0.09288156 -0.23250575 -0.076613955
-0.20136276 0.12955508 -0.024050409
0.26165888 -0.0076588206 0.055308234
0.28606617 -0.043195847 0.087560624
-0.20411769 0.046767745 -0.18147111
0.16883206 -0.12437274 0.13041238
-0.2870183 0.07639475 -0.06878864
-0.26728752 0.16861445 -0.07741152
0.0013284935 -0.03635211 -0.04407806
0.23235092 0.036486864 -0.0587241
-0.09339851 0.23008753 -0.2159808
0.22626156 0.016863624 -0.11200981
0.10086381 -0.05510428 0.114922255
-0.10361869 0.28403556 -0.12059803
0.108124696 -0.1740457 -0.1269652
0.20549671 0.031521697 0.11189559
0.14935455 -0.070294596 0.12356588
0.16160163 -0.18777622 0.093290746
-0.2557363 0.21785682 -0.07742249
-0.11680977 0.2412832 -0.031918176
-0.1595552 0.11439145 -0.088065855
0.05532845 -0.17563845 0.10494433
-0.13808516 0.27139723 -0.091293365
0.2809529 0.03539571 -0.005674149
-0.23239651 0.1438647 0.048420493
0.24298207 -0.075032555 0.17066482
0.057865676 -0.06292247 0.009876329
-0.047720473 0.049615283 -0.015804207
-0.20725557 -0.013012996 -0.25476116
-0.12875807 0.038961872 -0.045808293
0.21427381 -0.15695749 0.10535308
-0.08088678 0.018803803 -0.016923089
0.27792427 -0.09581757 0.041921414
-0.1632126 0.24794981 0.025947042
-0.2570672 0.20070933 -0.07664552
0.16914867 -0.121978536 0.13174403
-0.048376124 -0.017124612 -0.067506626
0.087023824 -0.019586207 -0.010756881
0.16214532 -0.23369718 0.06118673
-0.12340043 0.075319365 -0.03768321
-0.06919573 0.037659638 -0.048305325
0.12572251 -0.21226242 0.1421503
-0.22023828 0.18227512 0.038723227
-0.12043829 0.24637608 -0.0036171963
-0.12681602 0.17608881 -0.1645611
0.124586634 -0.14737052 0.0933936
-0.029831517 -0.040179107 -0.06766066
0.17824332 -0.039135985 0.08317364
0.07693538 -0.0011153164 -0.0075981705
0.117161945 -0.14227946 0.050329886
-0.282371 0.2197597 -0.12534326
0.22349745 -0.19724026 0.055776514
-0.25435662 0.20902435 -0.11479136
-0.25615937 0.12696646 0.032569066
0.03063033 0.045278322 -0.052207697
-0.1338382 0.22252798 -0.054188192
-0.12548013 0.06919802 -0.061570942
0.24465553 -0.20480376 -0.04028154
0.0939092 -0.28405833 -0.06472791
-0.26838222 0.20675795 -0.0730013
0.1517669 -0.19098648 0.11670865
-0.23321557 0.09803701 -0.03208288
-0.19122215 0.12399514 -0.08572039
-0.33562005 0.09420318 -0.14665702
-0.31896466 0.0901407 -0.09114643
0.10879494 -0.023503527 0.016653493
0.18815748 -0.016536314 -0.063723676
0.14116684 -0.19482847 0.044577405
0.10370199 -0.20553894 -0.13137205
-0.10492648 0.05673189 -0.052151565
0.26253346 -0.1937437 0.07258276
0.22040278 -0.06694693 -0.12810074
-0.013427344 0.040421467 -0.04283713
-0.26976398 0.056050383 -0.101697676
0.07602425 -0.21100645 -0.06496933
0.20087542 0.033161033 0.10272379
0.05656391 -0.055481333 -0.013470865
0.19025862 -0.057030518 0.11515603
0.22925231 0.0026414534 0.060577966
0.071922876 -0.11388514 0.099458076
-0.19570012 0.14797519 -0.06801577
-0.33423883 0.17932051 -0.08999873
0.057140004 -0.016261496 -0.01955357
-0.18202515 0.14634383 -0.008635664
-0.1854716 0.262972 -0.08956131
0.15911761 -0.16363257 -0.08357556
0.0847915 -0.1643289 0.053675886
0.10345557 -0.13979313 0.114976086
-0.2797132 0.051164065 -0.021991694
0.001789307 0.026084855 0.008161678
0.09058855 -0.0686447 0.12047316
-0.11793863 0.036094047 -0.06536292
-0.042931326 0.054621097 -0.0111626815
-0.14203249 0.051121976 -0.07601916
0.11275184 -0.22358993 0.03128072
-0.21602002 0.17502347 -0.11280897
-0.106865875 0.061635584 -0.07087226
0.16439033 -0.05128456 -0.027110534
0.26219454 -0.11799747 0.08180745
-0.035576344 -0.013549409 -0.04205463
0.08169916 -0.11819853 0.12864386
0.18113889 -0.18357825 0.1370552
0.0979043 -0.21426497 0.12295361
-0.26816633 0.019862745 -0.02008689
-0.33416867 0.12730698 -0.17394839
-0.2815793 0.032032598 -0.017058682
0.0094178915 -0.040401295 -0.007819758
-0.1003292 0.2454346 -0.046306677
0.11045625 -0.15928048 0.13752243
-0.24412951 0.09218327 0.039395455
0.119297475 -0.033223037 0.18984477
-0.15813117 0.08342345 -0.09743527
0.1419208 -0.238665 0.10568982
0.24550268 -0.2053199 0.021962026
-0.19554688 0.18508454 -0.008214836
-0.30826855 0.19874136 -0.17589676
-0.240764 0.06400435 -0.09942957
0.1804181 -0.08462295 0.14379558
-0.28262228 0.15239532 -0.01969671
0.23565345 -0.17673285 0.07874087
0.2940088 -0.052922856 0.0925785
0.22219968 -0.22620909 0.10010142
0.1115648 -0.16572066 0.11081793
-0.24442834 0.27160853 -0.1655531
0.24064124 -0.11110976 0.1387389
-0.26235524 0.06539627 0.007907279
-0.2763229 -0.04642034 -0.13771954
0.12338183 -0.12726492 0.0921017
0.23448993 -0.11168438 0.07224268
0.23709217 -0.122784354 0.1440202
-0.14199528 0.20906177 0.009820103
0.27106234 -0.21833739 -0.03332572
-0.08933006 0.03574516 -0.033814628
0.08924336 -0.09383325 0.17420657
0.13601536 -0.08125555 0.104829654
-0.24383785 0.23121682 -0.18260235
-0.31107783 0.12580793 -0.14227156
0.22480415 -0.14433543 0.0751107
-0.15718235 0.14494231 -0.11145093
-0.21399659 0.15437283 0.033814535
-0.15300664 0.22421971 -0.06669993
0.114204764 -0.051656894 0.15748298
0.17681736 -0.05922346 0.034678757
0.3383196 -0.06028019 -0.018307256
0.21603799 -0.047889788 0.10824229
0.11616653 -0.06954172 0.1184335
-0.11340854 0.02470673 -0.12124433
-0.27759987 -0.035243932 -0.1790567
-0.22725597 0.106566586 -0.066087365
0.010579359 0.038261324 -0.071707115
-0.3084844 0.21484014 -0.09845484
-0.013860622 0.04855402 -0.077119194
0.24688411 0.0033144054 -0.014180754
0.29182175 -0.026266016 0.1054169
0.21011895 -0.15368964 0.12252824
-0.0726489 0.2683485 -0.1257568
0.25308657 -0.11740783 0.12670062
0.1974691 -0.02970178 0.10707356
-0.26532057 -0.018901197 -0.17034239
0.22477609 -0.18605569 0.081983104
-0.18195905 0.08720604 -0.19610275
-0.1989404 0.10217389 -0.07895969
0.13354135 -0.23719673 0.13450623
0.16234314 -0.23761573 0.029756557
0.31256992 -0.08428944 -0.0084536895
-0.16117549 0.22289506 -0.01102606
0.20887484 -0.05048358 0.06592035
0.17126773 -0.010210191 0.009104325
-0.027371012 -0.006372213 -0.07173538
0.23988381 0.039622758 -0.0065279873
-0.29102764 0.06602698 0.050166655
-0.26000544 -0.0028575354 -0.22188267
0.20660307 0.02065455 -0.019227581
-0.2708019 0.13515161 0.049517736
0.18394943 -0.213304 0.105716266
0.18367635 -0.027609784 0.10241944
-0.15413423 0.079874806 -0.18874647
-0.28529963 0.065256335 0.035280548
-0.23856808 0.14110877 0.055834442
-0.10922756 0.28133407 -0.17817067
0.043124508 0.027641973 -0.015559902
0.059353955 -0.15642346 0.1227395
0.18263789 -0.014811364 0.040915277
0.24645936 -0.055534977 0.032204356
-0.13652097 0.05107157 -0.044253934
0.07321426 -0.24860302 0.07561636
0.2583272 -0.19000262 -0.041117862
-0.07378633 0.08847694 -0.066760555
0.15631032 -0.2269481 -0.014237221
-0.2250227 0.22851136 -0.15735862
0.12815413 -0.20706467 0.10194346
0.09669535 -0.20337515 0.00021600821
-0.18952169 0.2219412 0.020453151
0.00031459483 0.0694011 -0.027755048
-0.14851533 0.2622476 -0.01665981
0.20062011 -0.09665337 0.0851954
0.12669748 -0.08009414 0.137933
0.1441243 -0.21155795 0.12393774
0.063790716 0.02465404 -0.017352222
-0.25664085 -0.017085396 -0.103646
0.16629963 -0.1162974 0.1143355
0.25774932 -0.042679608 -0.014211619
-0.232701 0.26598397 -0.09103451
0.12651923 -0.062155038 0.054899495
0.030855756 -0.22012125 0.06416298
0.2243831 -0.2277906 0.014975017
-0.2813104 0.21275324 -0.06577942
0.12651464 -0.037976205 0.1102822
-0.1864979 0.11295915 -0.18344267
-0.1051155 0.0067191147 -0.09418966
0.21986474 -0.08936017 -0.0014063746
0.12964712 -0.05492765 0.012988519
-0.1472387 0.26229152 -0.19667764
0.20602632 -0.23889215 0.010838725
0.23289387 0.006949981 -0.0884391
-0.21813084 0.008419027 -0.17158411
-0.2721827 0.081303604 0.036079813
0.034515876 -0.1970097 0.074381426
-0.31607878 0.024610396 0.035027426
-0.26545578 -0.019660069 -0.16863863
-0.2690481 0.14703561 0.058934297
0.29667976 -0.09636185 0.12365476
-0.18724497 0.07587369 -0.21300401
-0.13340692 0.1804434 -0.19218759
-0.21722296 0.1766132 -0.07658241
0.17721575 -0.27565473 -0.050938748
-0.15210986 0.2600756 -0.040893506
0.06270327 -0.19835645 0.06102194
-0.23767065 0.18674666 0.061002363
-0.22248101 0.18069568 -0.04685532
-0.24373333 -0.020318408 -0.19190109
0.26476234 0.035294283 0.08170512
0.046769224 -0.2255429 0.057712007
-0.2533391 0.15506142 0.07147672
0.19182481 -0.23533304 0.06506375
0.12481141 -0.07968689 0.045263425
-0.1809259 0.12040898 -0.04105707
-0.17373294 0.079905786 -0.11554415
-0.13494508 0.206834 -0.1835518
0.21498115 0.014100798 0.12747239
-0.17704377 0.21926841 0.032250278
0.0845085 -0.078859836 0.01693112
0.099290095 -0.09830326 0.03748757
-0.07160922 0.05294925 -0.056593373
-0.21293625 0.072947234 -0.0737974
0.040424593 -0.15300503 0.15233162
-0.31882265 0.13520405 -0.13308187
-0.30624613 0.022677494 -0.054221682
-0.15519825 0.07917596 -0.06267745
-0.1829023 0.13928913 -0.06382671
0.22287747 -0.040053703 0.06285321
-0.2581794 0.13514233 0.0692013
-0.16362245 0.16512398 -0.11363724
0.08035906 -0.0940375 0.16165408
0.21275228 -0.21341313 -0.010314582
0.23750666 -0.12719345 0.09326196
-0.22166614 0.2521016 -0.13892546
0.24956356 -0.017398424 0.08105428
0.26185772 -0.22652394 -0.008836783
-0.2729493 0.04077099 -0.037839744
-0.12606028 0.22516304 -0.11366517
0.06962151 -0.15358779 0.011903523
-0.07637595 0.17641391 -0.2866241
0.1677364 -0.08200901 0.100795016
-0.13770153 0.1430617 -0.22568211
-0.05780964 0.0044478327 -0.030596465
-0.13940886 0.13291733 -0.14165582
0.1325824 -0.19644009 0.13860859
0.21617904 -0.2609911 0.048288226
0.146102 -0.12697202 0.08918511
0.23233719 -0.20922567 0.07503607
0.3109284 -0.0348293 -0.06327913
-0.2264819 -0.013077378 -0.20159917
-0.2504326 0.19748658 -0.052144095
-0.17877214 0.23037647 -0.037604988
-0.21303254 0.13765092 0.045864172
0.18547009 -0.26574966 0.055621978
0.04978125 -0.21380985 0.105724744
-0.15644911 0.25789964 -0.07762682
-0.12210548 0.20982158 -0.091044255
0.11626767 -0.065934844 0.16608812
-0.2724292 0.19517276 -0.064078525
-0.1169618 0.03244889 -0.07359628
0.23658933 -0.18702927 0.09132822
-0.22520852 0.103820056 -0.023211222
0.17538734 -0.20180532 0.14937699
-0.3157383 0.08512988 0.027718777
-0.0045645945 -0.034825794 -0.0056988457
0.19409555 -0.09939147 0.07185495
0.21544072 -0.21838261 0.049101584
-0.036309123 0.0028959485 -0.03746056
-0.112037405 0.16179928 -0.21624966
-0.14960115 0.25741154 -0.033578206
0.21722132 -0.10511613 0.14700258
-0.10598692 0.11152099 -0.0558231
0.18086977 -0.021060072 0.018870873
-0.12246851 0.24489428 -0.10497777
0.13862917 -0.21019155 0.11670802
0.22767286 -0.06876752 0.05173728
-0.085201785 0.31347707 -0.071731634
0.08602858 -0.22805962 0.05570352
0.13176787 -0.08121878 0.115640745
-0.26561528 0.09060527 -0.04263699
-0.26832336 0.16992828 0.042319696
-0.33374375 0.10958851 -0.14432262
-0.22647297 0.060279187 -0.04794495
0.11211659 -0.028340772 -0.0055658896
-0.19581981 0.057397924 -0.19116879
-0.19224375 0.0550479 -0.21277918
-0.24529226 0.027949294 -0.092632025
0.15407085 -0.2020023 0.113861896
0.22528407 -0.05591497 0.03802257
0.14643328 -0.049793977 0.01735914
0.19427058 -0.040979356 -0.07425402
0.08507944 -0.16029784 0.038230956
0.19257021 -0.1359109 0.120193
-0.29396564 0.21640918 -0.1022949
-0.14088762 0.1351183 -0.07569734
-0.30597234 -0.027309377 -0.038408317
-0.2678526 0.053187307 0.022822697
0.06587716 -0.11225858 0.09660854
0.12660784 -0.049315017 0.118920565
0.2917395 -0.021404317 0.12693325
0.19082116 -0.12785058 0.052800648
0.11885101 -0.16783564 0.12570888
0.12346472 -0.061097994 0.068115845
-0.04214324 0.04817001 -0.047909353
-0.16488625 0.23103876 0.057062905
0.25155386 -0.12797563 0.08502052
-0.034788568 0.006325553 -0.016068919
0.30317873 -0.025365954 -0.08417088
-0.29402763 0.12589781 -0.05352059
0.1082927 -0.22340707 -0.05732218
0.102516204 -0.15427771 0.085192345
0.08265045 -0.09186433 0.009916477
-0.11785429 0.054447018 -0.047433414
0.22817422 0.0457927 0.028387703
0.07553664 -0.16714038 0.095262
0.0073245503 -0.029196365 -0.025269028
-0.2885104 0.04549669 0.03532566
-0.11143372 0.12743782 -0.06836393
0.25427702 -0.053275652 0.13291197
0.059545297 -0.03271158 -0.0002941767
-0.26414827 0.17693175 -0.09043388
0.08631122 -0.21718279 0.039806772
-0.071486466 0.24311404 -0.18537165
-0.106304996 0.20227157 -0.24629822
0.21917 0.004290048 0.0648813
0.08374938 -0.08013141 0.1669106
-0.2357855 0.13547833 0.04315662
0.2611304 0.041683465 0.058217894
0.019225819 -0.003684635 -0.03306198
0.18938304 -0.16558467 0.08210634
0.2523213 -0.12220715 0.11731866
0.082652636 -0.18486887 0.07645105
0.08711226 -0.15869656 0.091996886
-0.15978883 0.13830954 -0.15175122
-0.29014486 0.004373973 -0.14799233
-0.29452142 0.060644798 -0.08562975
0.17731911 -0.13686533 0.110599324
-0.28429735 0.24782789 -0.11251814
-0.11859204 0.12703797 -0.06362453
0.13939185 -0.06629746 0.0733953
0.27316204 -0.068529285 0.08264905
-0.26126853 0.23397194 -0.08646301
-0.29384544 0.06389345 -0.047003355
0.1517921 -0.052437503 0.094669476
-0.20638594 0.045389596 -0.15178634
-0.014743444 0.023808539 -0.0006716761
0.050069757 0.011729289 -0.02085645
0.3203839 -0.07994719 -0.017387051
0.20712861 -0.22555038 0.120752044
0.2277027 0.019719541 0.08982246
-0.2154727 0.17935266 0.01895979
0.1532001 -0.042931736 0.07477072
-0.3091697 0.08434973 -0.05622322
0.21978499 -0.24697003 0.040443506
0.24093741 -0.0011054224 0.08850497
0.0908802 -0.20766933 -0.007830026
0.1534582 -0.08329181 0.18261765
0.13458033 -0.113168135 0.056996807
0.23977205 0.04900543 0.047339853
0.24037617 -0.16987254 0.11087516
-0.115797944 0.1976498 -0.11890206
-0.18256545 0.16593331 -0.066197544
0.252451 -0.060706317 0.120382264
-0.17828304 0.20855413 0.029096285
-0.06205339 0.051491458 -0.046623956
-0.32034022 0.095883854 -0.12711094
-0.27758956 0.054134812 -0.056335937
-0.21563081 0.19252664 0.05374419
-0.22818936 0.0023358 -0.114439696
0.09921114 -0.009523573 -0.033167575
-0.33322543 0.11469684 -0.14103115
0.24349348 0.010121916 -0.018295703
0.20324191 -0.14643775 0.07025935
0.15431266 -0.20062509 0.067354575
-0.21648325 0.05447876 -0.09465487
-0.2639619 0.15343131 0.069237664
-0.17686735 0.1978778 0.018156815
0.086432144 -0.19742608 0.068254314
0.22506973 -0.07076912 0.08225191
-0.20197015 0.13089456 -0.056788098
-0.2616558 0.015831448 -0.12115533
-0.22487915 0.13391893 0.06610145
0.120814346 -0.10559777 0.15083924
0.15679261 0.011290733 0.13789888
0.21313865 -0.014821495 0.009263437
0.1444428 -0.16518608 0.107954256
-0.099161744 0.26918417 -0.1260985
0.15516941 -0.005154884 0.073947184
-0.29839316 0.11914255 -0.08964203
-0.15042268 0.22083175 0.010487886
0.22746064 -0.0020557842 -0.009331524
0.12533797 -0.1492424 0.031779677
0.2372095 -0.20119537 0.046403315
0.16794233 -0.22538973 0.0686656
-0.13205121 0.13518879 -0.26196724
-0.13991894 0.08195985 -0.28835
-0.21762632 0.08084689 -0.05235135
0.13829724 -0.02471306 0.17899299
0.23420896 -0.0814443 0.059243876
-0.12374242 0.14158437 -0.27372786
0.26125494 -0.04377091 0.08880555
0.16918275 -0.14213564 0.1767059
-0.11531403 0.14458476 -0.08741761
0.18724294 -0.27133512 -0.06501116
-0.0796467 0.07976214 -0.040831186
0.18668191 -0.030672219 -0.0924523
-0.33231953 0.15145114 -0.07053921
-0.25520325 0.08515662 -0.077541456
0.07177643 -0.122214936 0.14131704
0.19492298 -0.14851236 0.102605745
-0.22521946 0.15704717 -0.07302444
0.24555619 -0.08525856 0.1037508
-0.059422813 0.010526464 -0.032633845
-0.0218891 -0.03843678 -0.05639602
-0.25257355 0.11731856 -0.05297251
-0.12407653 0.08946029 -0.2913004
-0.1538597 0.22320609 -0.08096113
0.11009278 -0.048185956 0.093046546
-0.22235508 0.11585071 0.03202921
-0.24037929 0.121697135 0.006077317
0.106765196 -0.24550387 0.0683503
0.21527593 0.0020461201 0.038814608
0.27828982 -0.14594008 0.089237176
-0.13839062 0.16903284 -0.16691263
-0.26886263 0.025061732 0.0064111366
-0.1433393 0.21657386 -0.082128786
-0.17401011 0.10000671 -0.20015465
0.1087394 -0.19036168 0.16260487
-0.24838394 -0.00086780224 -0.1046244
-0.20113333 0.1296819 -0.09809075
-0.31879252 0.18248478 -0.10021827
-0.1388624 0.26156628 -0.043095604
-0.18040328 0.27735528 -0.10717677
0.058053147 0.00963454 -0.0037485552
0.24071062 0.03718571 -0.06517722
0.2251369 -0.12897503 0.13026762
-0.2851618 0.103644624 0.06476306
0.08782418 -0.23403504 0.053243313
0.17119268 0.0105236415 0.09793424
0.28524274 -0.0029271736 -0.0088589005
0.28276378 -0.030704565 0.077519886
0.23816158 -0.18270281 0.08035167
0.08587321 -0.092352405 0.1501022
0.10650711 -0.19534156 -0.11510118
-0.20563771 0.23494153 -0.15431425
0.30742356 -0.15086314 0.043537807
-0.14452094 0.17976362 -0.16525634
0.22922772 -0.06002498 0.14367595
0.12053113 -0.1422635 0.051710907
-0.2084024 0.11907107 -0.05560305
-0.11887758 0.13692334 -0.13755704
0.29419446 -0.0448103 0.017957928
0.16900785 -0.02471905 0.1277702
0.2469657 -0.10622884 0.0573242
0.14402 -0.22249228 0.09255009
0.10142629 -0.22644041 -0.020926258
-0.08457304 0.11258931 -0.050950058
0.23999266 0.008435889 0.07229296
-0.14304873 0.0690428 -0.08544047
0.06336469 -0.042145196 0.022501046
