# .PCD v0.7 - Point Cloud Data file format
VERSION 0.7
FIELDS x y z
SIZE 4 4 4
TYPE F F F
COUNT 1 1 1
WIDTH 1000
HEIGHT 1
VIEWPOINT 0 0 0 1 0 0 0
POINTS 1000
DATA ascii
0.37399292 0.0010351758 -0.0018369874
0.25112957 0.010544867 0.046825927
-0.1492831 0.0013665744 0.021207295
0.2543502 -0.04187776 0.03949346
-0.18545866 -0.08807906 0.12718183
0.18974423 0.0097272415 -0.2958434
-0.34920534 -0.106519885 0.013203573
-0.14653765 -0.026726134 0.005649302
-0.23317698 0.099624254 0.09157373
-0.26913357 -0.023598807 0.034439396
-0.2464777 -0.16041651 -0.05305898
-0.16906178 0.024108706 -0.008389843
-0.21250403 -0.14126436 -0.00041284863
-0.29729947 0.130338 0.06851987
-0.34470463 0.09490427 0.024180038
0.305476 0.019556751 0.07375367
-0.35811082 0.01270629 0.11727906
-0.27148497 -0.16333689 0.052490972
-0.2877106 -0.13999583 0.09078283
0.29191864 0.022816088 -0.0037781326
-0.1805493 -0.025942236 0.1603947
0.12231438 -0.011972149 -0.017420383
0.35214037 -0.0014685737 -0.00076976576
-0.035321947 -0.016992738 -0.0023861069
0.27779815 0.061445557 0.050583523
-0.20144783 0.13277167 0.049157593
0.08301138 0.01212393 -0.0053408947
-0.30149072 -0.11531514 0.072218895
-0.20092085 0.09376393 0.11206976
-0.28923762 -0.113538355 0.03567486
-0.19829586 -0.01925133 0.08121486
-0.2140746 0.102796525 -0.062275108
0.28327522 -0.005954719 0.0699615
0.20147407 0.16383958 -0.118221365
0.25928384 -0.002428385 0.102761015
-0.28351945 0.15096878 0.0263783
0.09656054 0.022359153 -0.081710026
-0.30941516 0.086201124 0.031859778
-0.36949813 0.032267135 0.0071855234
0.23896718 0.09394087 0.12686804
0.23555405 0.195508 -0.0845941
-0.24188738 0.15999998 0.029266858
0.2821926 0.06816879 0.08999089
0.26403055 -0.17057365 -0.18780328
0.2197027 -0.21762268 -0.03668453
-0.18028551 -0.050265446 0.15538293
-0.26415706 -0.0058355075 0.10849016
0.25959438 -0.1000464 -0.09944895
-0.20206416 0.14808238 0.09756642
0.35569474 0.01329304 -0.0833558
0.22926016 0.058066003 0.11667128
0.23123702 -0.022933174 -0.061405648
-0.22607116 -0.08190291 0.09907515
0.21679564 0.088495195 0.07695328
0.21784306 0.18415461 -0.08972263
-0.32412368 0.15816921 -0.10620528
-0.193823 0.11381704 0.040171903
0.25056785 0.11131005 -0.010619205
0.15477657 -0.010855402 -0.036643226
-0.17154981 -0.030164897 -0.008605101
0.23762426 0.091867834 -0.03564486
0.30397546 -0.07952281 -0.098020695
0.043453217 -0.017239211 -0.047571864
-0.21629478 -0.0071485527 -0.012080682
0.11542329 -0.020700524 -0.021705136
0.2614718 -0.14725459 -0.038324628
-0.25032225 -0.016639283 0.067168996
0.14440723 0.022355482 -0.0408496
0.06317927 0.046120364 -0.017564384
-0.17121726 -0.025625693 0.14830652
0.18259963 0.14836472 -0.24408449
-0.2083192 -0.12308902 0.0112951435
0.0267895 0.0047567515 -0.0118179675
0.216497 0.011008739 -0.15899816
-0.2824636 0.11838941 0.103420414
-0.22012216 -0.043049525 0.13360147
0.25493315 -0.0840517 0.015076407
0.30835783 -0.060919534 -0.0732906
-0.22048208 0.030874938 -0.08873279
-0.090104885 -0.015132705 -0.029535599
-0.19460075 0.0536453 0.10471304
-0.22409976 -0.121176094 0.07868896
0.118367255 -0.015048833 -0.082164615
-0.0125440145 0.015758846 0.002798216
-0.24604498 -0.16902946 0.069317214
0.21302533 -0.16259843 -0.081258744
0.26274472 -0.027664041 0.11904518
0.23404369 -0.06304548 0.12739798
0.26793745 0.097184874 0.049033105
-0.20295404 -0.0617261 0.17168835
0.045076594 -0.02385187 -0.020513114
0.21896638 0.04882212 -0.14330229
0.33351424 0.04040357 0.021622479
0.29711962 -0.1651272 -0.045668073
-0.25695246 0.024665777 0.058015164
0.07983552 0.032059208 -0.022616582
-0.26964962 -0.01328533 0.062181264
0.25737044 -0.07628676 0.12925346
0.08558911 0.039308097 -0.050974943
0.25364894 -0.06172623 -0.08392529
-0.23620386 -0.21685553 -0.060808204
0.2904773 0.09563646 -0.04978813
-0.13873152 -0.0059665055 0.020501178
0.23298042 -0.0047370233 0.042566802
-0.222745 -0.099002525 -0.030879313
-0.33672968 0.11791097 -0.09041466
0.2525393 -0.12453936 0.017595507
-0.26190686 0.009364797 0.06276556
0.23470807 -0.08916116 -0.19227988
0.28361505 0.14513643 0.067352705
-0.29555926 -0.13827324 -0.058275037
-0.013160069 -0.04178029 -0.032266684
0.23939204 0.18105137 -0.066216625
0.0688433 0.051444072 -0.035263173
0.22995047 0.07719407 -0.0527095
0.20763473 0.03816656 -0.0551711
0.33952636 0.07244837 -0.019043608
0.2986439 -0.0018299291 -0.004684194
-0.33841494 0.12604494 -0.019662492
-0.39283827 -0.058641054 0.0365722
0.28200722 -0.0582346 -0.020381257
-0.17716122 0.05607364 0.15427586
0.22974116 0.16458218 0.041367814
-0.23109427 0.053242292 0.07538865
-0.36354172 0.09774797 -0.058958597
-0.21526216 0.10919364 0.11358402
0.30339402 0.11717703 -0.0689214
0.259544 0.0831566 0.07600646
-0.1845703 -0.021126272 0.107828476
0.36304036 0.017524108 -0.0012955246
0.21703029 0.1516687 -0.024880994
0.35623536 0.05625469 -0.036555197
0.15406175 -0.028284077 -0.027212288
-0.21609996 -0.006204888 0.15461157
0.3048219 -0.03320072 -0.057405975
-0.21990527 0.10354785 -0.012803645
0.24322806 0.16089344 -0.14276125
0.28717282 -0.0020232073 -2.7288765e-05
-0.3517447 0.10751887 -0.09250954
-0.29519314 0.13289417 -0.08748253
-0.16483225 0.0031693927 0.0028493956
0.035885535 0.05233397 -0.011170462
-0.08735128 0.025594851 -0.013993537
-0.21848685 -0.10442538 0.07071998
0.26297337 0.17173192 -0.033784866
0.25758606 -0.08696691 0.04893381
-0.14585245 -0.007950465 0.001539098
-0.26089135 0.16623512 0.041930914
-0.30583462 -0.06761194 0.006651621
-0.19241086 -0.1176171 0.13271071
0.024743592 -0.00716224 -0.033248063
-0.3225232 -0.05305825 0.11201144
0.27359954 0.17337608 -0.13023694
0.07007842 -0.06029505 -0.07114275
-0.2734286 -0.095002726 0.0055876407
0.20645195 0.15935977 -0.18636248
0.3359103 0.03391918 -0.037307147
0.24626945 -0.006533872 0.04320533
-0.21847282 0.0037140583 0.076284885
0.2684691 -0.13291621 0.048456017
-0.19488166 0.027221275 0.14517742
0.27460733 -0.15369011 -0.03864649
0.28881705 0.121991016 -0.023895526
-0.10770964 -0.02065521 0.006670502
-0.2615141 -0.08384275 0.029858511
-0.35010287 0.061425097 0.07866773
0.23279046 0.069682404 0.09199776
0.2483773 0.14269413 -0.014231457
0.25185522 0.081738584 0.112141944
0.2822367 -0.03135391 0.11535326
-0.20217621 0.078259476 0.014210096
-0.21392682 0.02573124 0.11897908
-0.39165488 0.017767891 0.046490815
0.26160708 0.118736945 0.016217617
0.03765034 0.016759349 -0.052815
0.25806913 -0.084025234 0.01032473
-0.28573117 -0.13405293 0.027020296
0.093880974 0.02496618 -0.05866171
0.16577914 -0.006624393 -0.047693852
0.2896749 0.018406566 0.055919245
0.22719033 0.066305496 -0.07568613
0.02625757 0.0039532636 -0.038594175
-0.31183392 -0.072857656 0.12272405
0.35733637 0.013376016 0.012095502
-0.3015692 -0.17642516 0.01020739
0.16325666 0.028308285 -0.01635073
0.1907953 0.024266828 -0.05792809
-0.30837858 0.15950988 0.0039549083
0.24604471 0.12532473 -0.040696803
-0.3009986 -0.093175344 0.057680722
0.2535086 -0.11466793 -0.01227033
0.27510604 -0.14721017 -0.03853939
0.092822656 0.030439699 -0.02767097
-0.14872384 0.003721609 -0.01678297
0.24709079 -0.1379984 -0.1442144
0.24257347 0.05916876 0.13073237
-0.3234828 0.11083069 0.092124745
-0.28459924 0.0392221 0.043117367
-0.2840786 0.1374615 -0.010027322
0.29437956 0.054947756 0.041125987
-0.34738094 -0.10545961 0.07362672
0.21404396 -0.05145826 -0.020641224
0.07985863 0.04239217 -0.068166755
-0.18894401 -0.17613752 -0.09251536
-0.21215639 0.11083932 0.081196375
-0.33247036 0.110313565 -0.008936551
0.24866682 -0.11314499 0.058274228
-0.233991 -0.089295186 0.024655847
-0.2156198 0.009527481 0.076639675
0.35175264 -0.03700122 -0.117973745
-0.24427114 -0.0024203446 0.08154398
-0.21396156 -0.08048951 0.109264836
-0.36166516 -0.10842366 0.012701662
-0.22676307 0.16646543 -0.0005833518
0.07361843 0.0063378974 -0.0030841138
0.34072188 -0.022378689 -0.046528406
-0.32101056 0.100081086 -0.023421222
0.16268283 0.0053044246 -0.020119302
-0.21212852 -0.03965215 0.14314151
0.2597744 0.1806943 -0.12745228
-0.19497119 0.0027915945 -0.009728236
0.21405698 0.061477203 -0.06438124
0.29315457 -0.012647508 -0.054809812
0.2913081 0.14149618 -0.041356266
-0.20122586 -0.20252033 -0.052794285
-0.3282179 0.094100356 0.07959806
0.2045316 0.020278165 -0.06237847
-0.11184501 -0.0047502453 0.023466378
0.23683114 -0.1011428 -0.08616778
-0.288933 0.10980589 0.07957401
-0.39033866 0.03296993 -0.052615833
-0.26300502 -0.15680933 0.05702648
0.09918781 0.041584235 -0.052739587
0.24738166 0.11522189 -0.045690697
-0.20382278 0.13751456 0.12059798
0.2739054 -0.096829355 -0.05364607
0.32536238 -0.07864679 0.0064283013
-0.34005696 0.092954464 -0.10367109
-0.23794588 0.0023379994 0.16705267
-0.31324816 0.01960133 0.12263784
0.08485638 0.01557179 0.001623976
-0.33603367 0.07678718 0.059444614
0.21686345 -0.17215721 -0.1093042
0.0070625558 -0.036495473 -0.070554025
0.3167782 0.01443758 -0.02471237
0.21102247 0.029261803 -0.028993022
-0.21684803 0.043154545 0.16962445
-0.20038077 -0.0400522 0.0908256
0.21349628 0.19105288 -0.05202155
0.22243398 0.18869513 -0.027717354
0.27698356 0.004344588 0.070752665
-0.11616965 -0.051295787 -0.010281211
-0.2974552 0.17248811 -0.0025979662
-0.2502422 0.022207676 0.14522886
0.2662255 -0.13640857 -0.06621604
-0.21697178 0.06068588 0.051529933
0.35023513 0.044802703 -0.030242616
0.25893536 -0.05241065 -0.024876889
0.18735908 0.08899419 -0.18166156
-0.1015527 0.024721058 -0.008730091
-0.30625463 -0.006710413 0.10070274
-0.11777347 0.00013393624 -0.005629871
0.08490651 -0.03657437 -0.042819712
0.33349314 0.010779281 -0.05566018
-0.20221405 5.7678983e-05 0.021156685
0.21687514 -0.1135833 -0.12210948
-0.28726855 0.09491767 0.073397
0.3705757 -0.035975333 -0.020469168
-0.22255972 -0.13336578 0.114277944
-0.035538267 0.029617094 -0.01736301
-0.25586405 -0.05412895 0.04006528
0.25161204 -0.08332103 0.05995125
0.36177307 -0.09203494 -0.11032419
0.1129246 0.033998422 -0.035617255
0.024729054 -0.014759692 -0.030638749
0.26056248 0.083331294 0.008746468
-0.2754168 -0.05047704 0.054420996
-0.07055585 0.022216797 -0.010409456
0.34861177 0.09370123 -0.01871461
0.23965852 0.14377336 0.048702657
-0.3390128 -0.03690016 0.058597464
-0.2606997 0.10153026 0.09113452
0.28676584 0.032724038 -0.016402014
-0.35719228 0.07264505 0.08363677
0.24432774 0.0041762455 0.08761983
0.38109222 -0.05165744 -0.15863802
-0.18902591 0.15366732 0.08186806
-0.31539395 0.088485345 0.08358408
-0.18222256 -0.055035025 0.1664801
-0.26798844 -0.119908504 0.047184873
0.25860164 0.045978434 0.06878672
-0.037476335 0.026120191 -0.01816938
-0.25418797 -0.14544635 0.059723545
0.25556904 -0.0891028 -0.018307216
-0.36382484 0.06852176 0.018285071
0.30245325 -0.055709112 -0.109616034
0.36989143 0.013468429 -0.087667584
0.021882623 0.04305191 -0.0065282853
-0.210447 0.053081386 -0.017815579
-0.35605457 0.15885827 -0.09308002
-0.32873136 -0.09344964 0.02896768
0.3204156 -0.045558564 -0.10043473
0.07491465 0.019610228 -0.043255184
0.25588685 -0.023742491 -0.032996945
0.26573154 0.09486324 0.09554264
0.21793695 -0.09721674 -0.13550238
-0.090827264 -0.026900146 0.013363196
-0.30174857 -0.04211909 0.1294934
0.024241911 -0.02148464 -0.03752039
-0.20962872 -0.10923355 0.11463032
-0.3224809 0.028226921 0.10645075
0.22784309 0.2147514 -0.124600604
0.2853271 0.071134046 0.0057631168
-0.219236 0.00338634 0.090649664
-0.21815373 -0.14004919 0.11855739
0.076068416 -0.0036508 -0.031073758
-0.2198304 -0.13245554 0.057265405
0.36623606 0.024259739 -0.0709989
0.240015 -0.07773264 -0.07766835
-0.3634582 -0.09063459 0.0012537454
0.2105862 0.057031073 -0.074564494
0.24225155 0.08019901 -0.054967426
0.32945824 0.005659725 -0.05542596
-0.25311485 -0.0015841385 0.13162151
-0.033125687 0.011143282 0.0023352837
-0.31252417 0.076784246 0.07354066
0.23692353 0.14876063 -0.09976343
-0.2520787 -0.18424712 0.0345462
0.3065093 -0.0872316 -0.053698808
-0.38485047 -0.017612899 -0.089844756
-0.06367006 0.05198935 -0.05127492
-0.22256476 0.00023657303 0.017745038
0.07226929 -0.018632874 -0.018781167
0.0004178573 0.04112141 -0.012153708
-0.24448404 -0.026603935 0.10034572
-0.27991548 -0.047004707 -0.0054053916
-0.29482982 -0.04987469 0.01867101
0.23945743 0.00019471052 0.024469515
-0.35895747 0.03295616 0.068064936
0.29420677 -0.012473475 0.015924087
-0.22838725 0.057721727 -0.1091593
0.19570065 0.053049948 -0.05326115
-0.30711123 0.10938068 0.0051508476
0.23374175 0.2062962 -0.0866454
0.25883314 -0.0151348235 0.08845214
-0.21726626 -0.011931317 -0.14187208
-0.02623334 -0.018646454 -0.055678733
-0.29528722 -0.03462693 0.04425737
0.1785554 -0.02060946 -0.04648092
-0.0060699205 -0.021947494 -0.0035718188
0.1746147 0.04397024 -0.050511204
0.27423137 0.1390246 -0.10030212
0.31064224 0.11027543 0.047825843
0.2210145 0.11454398 -0.00027987963
-0.08361031 -0.021203438 0.012863604
-0.2928165 -0.014772507 0.11971758
-0.18679455 -0.15332203 -0.01512284
-0.28554198 -0.044678483 0.010258464
-0.18647654 -0.12735316 0.032889705
0.21346709 0.14791353 -0.15370324
0.13971266 -0.05028051 -0.09948632
-0.31852898 -0.020293737 0.035378736
-0.042428132 -0.021592101 -0.014470664
-0.20490722 -0.0440268 0.059412673
-0.3195694 -0.095783465 -0.017962739
0.41437152 0.031698015 -0.13614172
0.033356402 -0.04893812 -0.0439369
-0.2088835 -0.095915586 -0.16735953
-0.36984956 -0.02549432 0.064473316
0.1250591 -0.01063593 -0.05283141
0.17732005 0.07467376 -0.27546108
-0.30229533 0.010487867 0.08185549
0.24189761 -0.10979512 0.046568923
0.3299482 -0.047471754 -0.019506855
0.23881546 -0.18119273 -0.05072167
-0.2829049 -0.020280613 0.10592646
0.24067874 -0.07279613 -0.16322865
-0.1882878 -0.1702597 -0.06459814
-0.19693023 -0.10228404 0.15447663
0.25355834 0.09717999 0.11893958
0.23325425 -0.17451468 -0.11990752
0.23478265 0.16998567 -0.11955521
0.013069539 0.002387633 -0.018959742
-0.23870838 -0.14765154 0.012373897
-0.3164274 -0.14023995 -0.047497258
0.09563311 0.016070435 -0.0046822196
0.35236832 0.086119406 -0.07376768
-0.07363763 0.0026799154 -0.026451278
-0.2686805 -0.011974391 0.07636554
0.23143871 0.082928926 0.061544053
0.25604132 -0.0521357 0.009516724
-0.24856 0.12704827 0.11424806
-0.36452845 -0.01956136 0.076578915
-0.104214676 0.02377905 -0.03984762
-0.26354402 -0.10266313 0.17024602
-0.03791126 0.008697043 0.0129511375
-0.23513496 -0.06710237 -0.1377797
0.23662806 -0.06701324 0.1223067
-0.32588848 0.06762283 0.05269224
0.27133062 -0.10469057 0.05018274
-0.19212952 -0.06317015 0.10698328
-0.30052602 0.006101812 0.09185848
0.32395303 -0.080929115 -0.049398396
0.24493805 0.21159323 -0.06074244
-0.319465 0.039900824 0.11258163
0.28349718 0.07117637 0.043284737
0.04055694 0.035274588 -0.025606077
0.27762485 -0.1621717 -0.13799883
-0.21079005 0.14692524 0.035082925
0.27054542 0.11597177 0.081614256
-0.3755644 0.041157383 0.09946216
-0.22535312 0.015660537 -0.14965151
-0.32662156 -0.1600269 -0.0002229299
0.2567343 0.0042280736 0.018449098
0.40133244 -0.017912164 -0.02879725
-0.3034836 0.107519075 0.021923134
0.2777981 0.095925786 0.035518635
0.038275473 0.0054968777 -0.005048761
-0.38086537 0.07409073 -0.043724146
-0.23720239 0.0025725844 0.087839305
-0.20284368 -0.07430837 0.02534735
0.37260345 0.06174015 -0.07369792
-0.36946636 -0.010483467 0.04790524
-0.33809057 0.12142339 -0.09111132
0.2551726 -0.10475038 0.055457465
0.27724037 -0.058543466 -0.040924616
-0.15913652 -0.06597218 -0.018595953
-0.27004713 -0.078368135 0.07442823
-0.011720964 -0.04493685 -0.032199588
-0.25143498 0.07003347 0.09756907
0.2616751 0.108008705 -0.03594584
0.29642358 -0.11652546 -0.06893739
-0.39233103 -0.12837486 0.0025683725
0.27433488 0.086707294 0.034375817
-0.14001796 -0.046074938 -0.013920676
-0.34648493 -0.059384856 0.062857404
0.19374306 -0.004630876 -0.029036883
0.33690804 0.03136964 -0.008229155
-0.21996151 -0.12893526 -0.11796089
0.3824764 -0.045938082 -0.08978452
0.32219666 0.07090104 0.0016902268
0.1389623 -0.04254055 -0.046804864
0.309197 0.00047478272 -0.013261795
-0.24958561 0.008417944 0.18048295
0.010123018 -0.013908377 -0.03119712
-0.25588754 0.050691742 -0.16988073
0.2626896 -0.21207142 -0.09250415
0.21422389 0.18389091 -0.094914965
-0.2260636 -0.008762582 0.0920332
-0.13232052 -0.002276477 0.025004782
0.09458121 -0.045406375 -0.053517424
-0.21305344 -0.034065552 0.02155298
0.20755148 0.084230855 -0.29574063
0.2560404 0.17630935 0.091206044
-0.1923287 0.049245533 0.030531498
0.32820895 0.10555924 -0.044650916
-0.27951053 -0.1453829 0.05285173
0.31020218 -0.011871978 0.0695178
0.2063391 0.0080557335 -0.21820024
-0.2749863 -0.12517314 0.058500092
0.25418365 0.079643466 0.106015764
-0.29301342 -0.074190184 0.1126115
-0.14661893 0.04465027 -0.010858476
-0.31207803 0.17869882 -0.0053222924
0.31861863 0.14269978 -0.05693984
0.0061393036 -0.05037392 -0.04356324
-0.2848999 -0.08664582 0.10854786
-0.3453356 0.02367527 0.037941262
-0.2450725 0.11102983 -0.008040991
0.2498317 0.18313229 0.017060377
0.24794118 -0.17931871 -0.03544205
-0.29959026 0.022047518 0.045086797
-0.34641612 0.06109204 0.078217596
0.2794268 -0.01468372 0.017333986
0.057822917 -0.033327382 -0.029544845
-0.23702206 -0.14139514 0.046044994
0.32485896 0.11696173 -0.058244627
0.22824804 -0.028690258 0.061902095
-0.20701092 -0.05495706 0.0748343
-0.28071243 -0.17319128 -0.04675705
-0.17584208 -0.05519218 0.13479243
-0.35422406 -0.05266745 0.097612806
-0.23094487 0.10477295 0.11247731
-0.20492016 -0.030170217 0.0026004142
0.25092447 0.15351734 -0.13114877
0.21921772 0.13297403 -0.20087332
-0.03175229 0.0559353 -0.0077663
-0.15459475 8.107213e-05 -0.0039286683
-0.3306171 0.13873309 -0.09739529
-0.30181158 -0.1754996 0.059256867
-0.24823368 -0.19293003 0.05845843
-0.36060962 -0.12317023 -0.03313583
0.27743545 -0.004427613 0.0057660933
-0.25062275 -0.0071834 0.15115719
-0.2518672 0.18259734 -0.06696391
-0.28398582 -0.056216743 0.07874145
-0.36820698 -0.03762938 -0.019431878
-0.27786195 -0.06053208 0.087459974
-0.24445446 -0.11292913 0.101217516
-0.21753746 0.04275749 0.15622854
0.035655692 0.013612022 -0.036060978
-0.3173722 -0.0874097 0.09109746
0.21303882 -0.0247724 -0.028965618
-0.26160157 -0.06890201 0.020046696
-0.18895827 0.0913377 0.09044877
0.2573152 -0.10603795 -0.07556117
0.051761147 -0.032305416 -0.004703385
-0.29378065 -0.18472083 -0.016579036
-0.27789629 0.18508255 -0.00093221094
0.382529 0.06738645 -0.036432136
-0.40233672 0.044145394 -0.07981415
0.23413199 0.05707791 0.03607462
0.37699446 -0.035938803 -0.033117533
0.19096383 0.018909188 -0.055048656
0.3030733 0.0131133525 0.00589716
0.2485775 0.09127887 -0.07756048
-0.40459037 0.008429684 -0.045274016
0.2661266 -0.17454085 -0.02583786
0.26823533 -0.13435358 0.091089614
-0.2765589 -0.1846745 -0.037548043
-0.22681314 0.12681393 0.015932793
0.35964662 -0.020438498 -0.07072937
-0.29457322 -0.16209945 0.025421277
0.287958 0.026655529 0.06716577
0.28952432 0.07362561 0.01847482
0.0063821482 -0.03738492 -0.022127539
0.37536958 0.125539 -0.087372586
0.25867808 0.08756849 0.13892479
0.28830212 -0.11724668 -0.1599269
-0.024291059 -0.027603555 -0.04075707
-0.2688901 0.11088087 0.11827257
-0.27278727 0.017470079 0.0698126
0.24804401 0.06790833 0.05609161
-0.22146285 -0.16516122 0.0060391277
0.15886581 0.0037278675 -0.016274765
-0.17161801 0.025913695 -0.0009756455
-0.37203932 -0.05120489 -0.013994682
0.22572318 0.08973861 0.059797183
-0.25646445 -0.017830504 0.077195026
-0.20165268 0.030478893 0.15465891
0.33883774 0.09406136 0.018242931
-0.21219005 -0.045696806 0.055351716
-0.0028479898 -0.0053223665 0.002742631
-0.29496118 0.099357195 0.08580093
-0.24723983 -0.07391533 0.040830262
0.23647113 -0.1284441 0.06596229
-0.14276053 0.01337195 0.009654491
0.19710502 -0.07082276 -0.21314242
-0.017314294 -0.04070927 -0.024459137
-0.29677126 0.025544435 0.15919691
0.22602369 -0.15640008 -0.013909376
0.2357707 0.13564013 0.10107377
0.3848207 -0.007403251 -0.010241305
0.24914162 -0.0053016855 0.09421497
-0.015131286 -0.012992365 -0.016323538
0.23909844 0.10618308 0.05207631
-0.33788615 -0.08885876 0.024359226
0.28334576 -0.11032808 -0.08034766
-0.2868269 -0.09152465 -0.0032279682
-0.23899789 -0.1467429 -0.076196134
-0.1793683 -0.17637107 -0.0070567136
-0.22873577 -0.15958104 -0.043896884
-0.3963199 -0.06843043 -0.12569745
0.27285603 -0.16232981 -0.024859259
0.3662013 0.027513698 -0.044997465
-0.16605127 -0.05046306 -0.026974041
0.28467163 -0.12299139 -0.12075704
-0.21533659 -0.085463054 0.09785373
-0.20441544 0.08571967 0.06590361
-0.33580357 0.012755743 0.03700441
0.29756594 -0.10417617 -0.06883732
0.2253208 -0.089295484 -0.0535251
0.34229928 -0.029970113 -0.027446078
0.27014294 -0.10388734 0.07083608
-0.34725985 0.13014174 -0.08169766
-0.20233808 0.06873797 -0.018963417
-0.2129725 -0.076942235 0.110981785
-0.2357329 0.095082186 0.05673113
0.36280134 -0.028280523 -0.028249409
0.030179352 -0.01785948 -0.04435774
0.25877517 -0.11791961 0.012582028
-0.20681538 -0.032960773 0.17075421
0.21591687 -0.12265806 -0.13159321
0.2669999 -0.057131406 -0.11739679
0.23945642 -0.17509718 -0.045888815
0.2042067 0.15538274 -0.07817702
0.25613585 0.010615422 0.019850358
-0.29339963 0.1045679 0.09151763
-0.3234087 0.008321765 0.028511586
-0.2545671 -0.05888358 0.01181218
0.07486655 -0.021766208 -0.027035851
0.26020175 0.105408065 0.07519873
-0.31867316 0.14653061 0.027492762
-0.36409575 0.13854636 -0.047244865
0.2254 -0.008955595 0.013903665
0.337253 -0.055767708 -0.03812603
-0.38315004 0.01084032 -0.09817465
-0.20370741 0.10393862 -0.12953702
0.23397169 -0.18402891 -0.15921356
0.23925638 -0.18289274 -0.06300439
0.04307263 0.005273762 -0.025281414
-0.34212664 0.034870885 0.040029325
0.31205922 -0.12257523 -0.14083257
0.36378095 0.11156205 -0.14389803
-0.20773819 0.12186567 0.107633054
0.22304824 0.22912294 -0.05974815
0.35887745 0.03488919 0.012961906
0.35963988 -0.016211545 -0.015565612
-0.20984165 -0.00561012 0.08944339
-0.04254404 -0.040017564 -0.03016892
-0.23267528 -0.011130453 0.1422463
0.17584763 0.036873657 -0.02809173
-0.06797526 0.033411205 -0.029537395
0.2449063 -0.073776685 -0.06300097
0.23772088 -0.109619565 0.110132225
0.23741375 0.14194155 -0.13206993
-0.33108395 0.012774609 0.051061973
-0.16845334 -0.019304046 -0.005852666
-0.32779002 0.106425725 0.043128904
-0.0039958176 0.034766197 -0.05284793
0.36261556 -0.08465784 -0.1342362
0.18968713 -0.10007006 -0.21099083
0.20768283 0.09678835 -0.18742436
-0.20521562 0.006891426 0.0023802326
0.20870215 0.19256705 -0.1587718
0.23297374 0.14356056 -0.08285872
0.22580802 0.19016704 -0.17289954
0.32599524 -0.032800607 -0.121102944
0.22491142 0.053993966 0.0900456
-0.28162304 0.118723676 0.030930562
-0.3534314 -0.056429464 0.11798352
0.25303027 -0.039115656 0.028809493
0.23849729 -0.1643754 0.037211996
0.2261925 0.13103619 0.024059797
-0.38370684 -0.092901506 0.042902566
0.26380545 -0.13769762 -0.07855029
0.25600746 0.010052618 -0.0177587
-0.25873488 -0.023131639 0.15637447
-0.18663582 0.102747075 0.13952689
0.26686546 -0.017640073 0.10843106
0.23812371 -0.115563996 -0.1689641
-0.24120161 -0.05407114 0.027735656
-0.1769288 -0.042117983 0.0094325915
-0.19672991 0.034486696 0.1045871
-0.20750175 -0.19411762 0.04402697
-0.36139885 -0.12122546 0.009315888
0.10358032 0.0040813237 -0.015535126
0.23809512 0.13828789 -0.03197782
-0.21503858 -0.0514837 0.021629525
0.22299694 -0.16653109 -0.05826192
-0.23767191 0.011324865 0.08138816
0.26304442 -0.015325043 0.12197876
0.008679914 -0.021041494 -0.046123788
-0.29595244 -0.00889499 0.09386546
-0.23171863 0.085004784 0.07503373
-0.36759195 -0.11884474 0.038769376
-0.2599452 -0.15743636 0.059319545
-0.34893698 -0.0409166 0.018625977
0.22080013 -0.021674823 -0.18030308
0.34062442 -0.090783685 -0.11654113
-0.3388532 0.1834438 0.005729088
-0.18563403 0.035161935 0.0009741239
-0.300522 0.040974513 0.094416484
0.20188108 0.09925797 -0.08805334
-0.28889084 0.09304175 0.049531013
-0.31345564 0.0006598671 0.11606331
0.311545 -0.05681183 -0.0450892
0.025969123 0.032355998 -0.04276241
0.24914783 -0.10843618 -0.058110163
-0.2508973 0.15247108 -0.0883588
-0.18334877 -0.033569146 0.103965685
0.21010521 0.22525634 -0.057236582
-0.18854056 -0.010152835 0.15955152
0.2837258 -0.10152381 0.08016173
0.28895366 0.19038329 -0.05508089
0.24583732 0.05397501 -0.100516155
0.22793062 0.11653364 -0.011385126
0.11678307 0.032465056 -0.03589691
0.08124124 -0.05049303 -0.08298284
0.37046534 0.009236187 -0.017809115
0.08720785 -0.03743192 -0.063638605
0.35862127 -0.03489198 -0.08720772
-0.29060838 0.16136849 -0.09493272
0.29354027 0.15868318 -0.023842055
0.2112401 0.04053283 -0.25130153
0.235358 -0.0015019515 0.11429207
0.26201552 0.14309582 -0.112417646
-0.010764824 0.0317275 0.004090249
0.238068 -0.1631857 -0.032554872
-0.25614744 0.09651399 0.01132543
-0.19993415 -0.107462116 0.100297645
0.28397572 -0.04099595 -0.037838653
-0.33246204 0.015035358 0.036246866
0.30663687 -0.114689685 -0.055023246
-0.37720597 -0.06064291 -0.06920208
-0.2112577 0.024421219 0.08200164
0.3532733 -0.050835315 -0.0715791
-0.33303446 0.04105012 0.03708279
-0.20274691 -0.08055888 0.16609833
-0.10948294 0.02391502 0.010738499
-0.21603128 0.140873 0.09468736
0.2620003 -0.13344279 0.035826508
0.27926317 -0.039640926 0.008817245
0.36054015 -0.058022086 -0.07997635
-0.21920669 -0.038398433 0.02964959
0.2597703 -0.18758854 -0.08473393
0.2409668 0.10008263 -0.06907806
-0.34024125 0.105849855 -0.03952465
-0.20343827 -0.061726626 0.13838048
-0.3696934 0.0017255272 0.032899223
0.25142497 0.045386646 0.13637045
0.36352944 0.003104016 -0.036468234
-0.27337772 -0.015698843 0.15920983
-0.2049964 0.008392702 0.061583348
-0.20088175 0.039386343 -0.021141842
-0.17468362 -0.07213391 0.1534922
-0.36772537 0.035454076 -0.032838855
-0.23266956 -0.14117531 -0.06606281
0.18536511 0.1919326 -0.16540755
-0.20325388 0.13591322 0.09185382
-0.19076532 -0.029925497 -0.027496964
-0.24454725 -0.08193522 -0.07541861
-0.27446875 0.11359998 0.089527994
0.19092678 0.19088122 -0.15206678
-0.3661332 0.073193185 0.00017928501
-0.21357398 0.0035796503 0.0058277277
-0.29531875 -0.1787835 0.07644377
0.22016096 0.08833015 -0.001666983
0.21235272 0.15840188 -0.18254891
-0.2314595 -0.07724784 0.004022741
-0.19187783 -0.03476977 -8.6122534e-05
-0.19832072 -0.074063465 0.11078006
0.36735356 0.09504158 0.0020553148
-0.3071767 0.13030238 -0.0635141
-0.2398135 -0.021735158 0.0845316
-0.3531362 -0.07842017 0.030021884
-0.21271843 0.12318457 0.100413784
0.21935296 0.1161675 0.09874662
0.22470824 -0.05940918 -0.104487546
0.13672459 -0.004043725 -0.049262278
0.27381063 0.01684641 -0.040668443
0.19018239 0.17969477 -0.20317182
-0.37852636 0.07201745 0.030453553
-0.29714796 -0.048787717 0.1127018
0.22584832 0.047218055 -0.11409805
0.38391528 0.05991532 -0.032900408
-0.21803676 0.051860094 0.06127643
-0.16978328 -0.0044330354 0.015290715
0.385199 -0.021338334 -0.10675344
-0.264157 0.004350257 0.11622407
-0.18936747 -0.13399582 0.06085271
0.1631143 0.0040492215 -0.04611983
0.23813464 0.18873562 -0.00062579534
0.37612075 -0.03881738 -0.07508869
-0.3790454 0.06724002 -0.0707864
0.24726377 -0.052099485 0.008280171
0.22202258 0.017642038 -0.04213429
-0.0514994 -0.0136325825 -0.022921003
-0.18349092 -0.020914849 0.040645633
-0.18325843 -0.18555368 0.028257107
0.21977995 0.15453607 -0.102061555
-0.28516057 -0.054964487 0.06692406
-0.27597404 -0.06689548 0.04790898
-0.2998 -0.13354789 -0.025903938
0.048166923 -0.010249944 -0.0082220975
-0.2142098 -0.060231857 -0.09344236
-0.23660341 -0.14092384 -0.10404357
0.0809475 -0.029594682 -0.060342308
0.09712516 -0.01572154 -0.055294946
0.27931732 0.0121718645 0.022184484
0.35034728 0.0908482 -0.07947653
-0.27356985 -0.0301482 0.04711313
0.2752417 0.018284017 0.11998588
0.3344177 -0.018676747 -0.12655537
0.2422322 -0.07583786 -0.1572024
-0.32842836 0.0883069 0.09236447
-0.29074058 -0.18693534 -0.03473096
0.2046889 -0.015155964 -0.2602737
0.25774315 -0.10996774 0.0053886552
-0.24141863 -0.029044284 0.05365963
-0.30633947 -0.1088094 0.05370612
0.28745875 -0.025858553 -0.019936118
0.26314953 0.10543609 0.087182775
-0.024972618 0.01274159 -0.032407425
0.2869591 0.020077258 0.09877824
-0.30429715 0.014695016 0.11875233
0.32199043 0.040752064 0.01265238
0.23244435 -0.16521122 0.043904137
0.3180379 -0.0035909582 0.09090872
0.24350925 0.09956794 0.018059863
-0.33786303 -0.01174503 0.033983067
0.3467025 0.03600015 -0.022398483
0.0998176 0.03464746 -0.032159828
0.26758492 -0.01484212 0.09636257
-0.19945928 0.07029983 0.1399035
0.2525177 -0.022388132 0.023475848
0.2945777 0.11718844 0.057152405
-0.26052153 -0.123262554 0.024289899
0.2646941 -0.17952617 -0.020164369
0.40156612 -0.0173616 -0.036056608
0.27697772 -0.13446324 -0.050144646
0.22605865 -0.11412257 -0.052904353
0.32995537 -0.030341385 -0.11149111
0.26397637 0.2207238 -0.03611607
-0.3705454 -0.06909501 -0.059048202
-0.032289583 -0.05133056 -0.06434837
-0.23401895 0.13749333 0.059607916
-0.21045539 0.0714058 0.11891582
0.19817638 0.10666683 -0.09858365
-0.33681524 -0.041183364 0.015873266
0.05166356 -0.052873556 -0.072536685
-0.2273304 0.012931627 -0.15166602
-0.32030725 -0.05813325 0.034555964
-0.28095302 -0.08494917 0.12545466
0.27963296 0.079086944 0.04466648
0.2500304 -0.1486057 0.03966262
0.19727427 0.13189381 -0.05762141
0.20639499 0.032204177 -0.016328746
0.24667817 -0.065448426 -0.06768615
-0.22376364 -0.11797828 0.13260314
-0.30231902 -0.20007868 -0.040761974
0.07988561 0.023852238 -0.04729535
0.30773422 0.04318916 -0.021806035
-0.34383875 -0.03185658 9.940126e-05
0.330701 0.12616739 -0.05226285
-0.19507824 -0.003989646 0.15132613
-0.0041162195 -0.0318413 -0.05093231
0.21972232 0.12984751 0.03753765
0.07200603 0.023219123 -0.009479294
0.0692101 0.012643686 -0.0436319
-0.07035154 -0.0007825157 -0.00037307316
0.25635454 -0.10236032 7.753931e-05
0.24619044 0.17830174 -0.016475582
-0.26886672 -0.11406525 0.036782555
0.23167625 -0.07143115 -0.23471695
-0.27600577 -0.18285 0.052893765
-0.26080206 -0.088043205 0.06647125
0.27419332 0.0042606625 0.036046486
-0.24856162 0.17188899 -0.00048094144
0.30439514 0.035062652 0.111274526
-0.3639398 0.044043995 0.053151723
-0.29728296 -0.03689216 0.016763827
0.18975674 -0.02063893 -0.07517629
0.1802387 -0.03858295 -0.090108275
-0.23440629 0.018385118 -0.21119703
0.2062662 0.11269922 -0.11116359
0.37980053 -0.013161562 -0.044197123
0.23050584 0.015904825 0.09025284
0.19686626 -0.0069213007 -0.055092193
0.2271395 -0.15504079 -0.16200045
0.25878766 -0.102968715 0.030200187
-0.20971134 0.14458832 0.01925248
0.24593595 -0.1294407 0.059997488
-0.18071915 -0.19775678 0.0078689
-0.21052195 0.14490558 0.0288242
0.24661769 0.1473972 -0.04132434
0.3322884 -0.028273249 -0.10948704
-0.22814934 -0.05906793 0.020587547
-0.30098963 0.02569834 0.057186514
0.24429747 0.01873719 -0.05871895
0.3004251 0.07974465 0.086466864
0.23388654 -0.034087993 0.07516501
0.22273725 0.1531863 -0.052961513
-0.019108461 -0.0039572627 -0.012270443
0.13318838 0.027224239 -0.04201152
-0.35150114 0.0022239569 0.12717676
0.24699542 -0.19959423 -0.04186719
-0.18358538 0.055524606 0.07925671
0.22037646 0.20305285 -0.15916285
-0.22350946 -0.08597062 0.067148395
0.09222164 0.012908536 -0.00764118
-0.1818531 0.041280426 0.09073339
-0.17861539 0.13021506 0.13078064
0.22010386 0.16218284 -0.048306204
-0.31662765 -0.019844942 0.07206195
0.26019144 0.066468485 0.08704123
0.28138793 -0.1473213 -0.14062738
0.25507614 -0.08702452 0.09982547
-0.22305982 -0.083391055 0.06933159
-0.28322467 -1.952955e-05 0.05621974
0.23520322 -0.08429473 0.08168082
-0.20982534 0.14229387 0.04685004
0.25512117 0.18622734 0.01824174
0.08195252 -0.046345104 -0.05948938
-0.38906956 -0.05603809 -0.0269552
-0.039501153 0.017316649 -0.04210252
0.08186119 -0.018562423 -0.031471472
-0.2393543 -0.1246046 -0.05828778
0.20314805 0.17368086 -0.20737681
-0.09237237 0.017253553 -0.023134684
-0.21491061 0.09604795 0.057842225
0.22874163 0.095932685 0.00042526424
-0.30553955 -0.080617525 0.13509884
0.21928062 -0.021045456 -0.14168651
-0.24440555 0.020227883 0.12605266
0.23570351 0.08754506 -0.025210742
-0.16347262 -0.012118242 0.02315947
0.23169792 -0.15037929 -0.03932121
0.3607443 -0.034991927 -0.04939276
-0.0052386955 0.010129174 -0.019016176
0.19823788 -0.11539978 -0.21623145
0.24114698 -0.13530761 -0.011357425
0.27144483 0.11432765 0.08781059
0.21798733 -0.06509032 -0.05370453
-0.39136794 0.014901695 -0.114498265
-0.17105144 -0.04858978 0.110082865
-0.3676033 -0.10011745 0.10673581
0.24680202 0.1258924 0.08259725
-0.34937647 0.023044059 0.104510024
-0.096383795 0.044158034 -0.046885137
-0.22781606 -0.06945608 -0.023722019
-0.27047595 0.09508957 0.08061856
-0.22805806 0.07384078 -0.14041218
-0.3274756 -0.1585326 -0.035418224
0.26898152 0.057938606 0.120714106
0.114900485 0.008890972 -0.019805942
0.14616382 -0.023290787 -0.03516728
0.23623838 0.10689963 0.047562305
-0.3190522 0.08530456 0.05311348
0.32847327 -0.011079461 0.04413312
-0.25820237 -0.11536438 -0.011089814
-0.21390906 0.014244316 0.09146781
-0.01356981 0.018846853 -0.021936141
-0.3153841 -0.13368995 -0.024290642
-0.029338326 -0.02273658 0.007035717
0.32727134 -0.08972872 -0.107714176
-0.33461004 -0.15745912 -0.13227966
-0.30667824 -0.13142943 0.088597916
0.33708468 0.08732133 -0.05311505
-0.22200684 0.087948695 0.035107095
-0.35248253 0.014977567 0.10522115
0.28613228 -0.093013264 -0.05712514
0.24338007 -0.13920386 -0.12328287
0.2663291 -0.12203733 -0.049441602
0.010630396 0.019131375 0.0028289694
-0.23369698 -0.14810188 -0.044994544
-0.39796877 -0.05117781 -0.023761967
0.317832 0.059836403 -0.0011528499
-0.18446952 -0.0064590485 0.16286686
-0.21589911 -0.11403552 0.124142304
0.21122533 0.17182969 -0.03755504
0.23753649 0.18473262 -0.012634201
-0.2139231 0.08763129 -0.012204312
0.00635014 0.00092016254 -0.04297893
0.23050922 0.115166806 -0.010810651
-0.15585496 0.012656424 0.028872784
0.32503527 -0.026792375 -0.0035522834
-0.3401034 -0.0892373 0.10167091
-0.20619215 0.13621745 0.05076518
0.29967463 0.096408 -0.04979732
-0.28423336 -0.021922948 0.051202063
0.2630822 -0.095593974 -0.050808195
-0.041370198 0.03212083 -0.009124089
0.20291635 0.11104774 -0.10010171
-0.09551114 0.020729518 -0.005229753
-0.34235817 0.05495379 0.13120994
0.2639352 0.044289004 0.11431022
-0.3633939 0.08388603 0.075132184
-0.38433483 -0.040221963 0.06042626
0.25793758 -0.050986357 0.013190244
0.39744404 0.078943826 -0.106932275
0.24245495 -0.027935911 0.010441491
-0.07479635 0.020700555 0.013162791
-0.21216115 0.027184878 0.121409856
0.14851363 0.030404996 -0.045240086
0.23212405 -0.17474285 -0.18075928
-0.13758102 -0.01892926 0.010728773
-0.22929017 -0.1809865 0.06212578
0.3918644 0.0059974343 -0.06565189
0.24109806 -0.048307233 -0.07297725
-0.21555677 -0.1735029 0.008446026
-0.20359656 -0.007451875 0.1779487
-0.08015285 0.0104545755 -0.015461669
0.2594428 0.06733107 0.007877414
0.21848348 -0.1367245 -0.1746288
0.26946643 0.01630155 0.07718891
-0.33805782 -0.04119167 0.038309187
-0.21563417 0.0010119227 -0.13860257
-0.2722042 0.118426934 0.09383714
0.24020773 0.1151783 -0.03857752
-0.19622345 0.06286256 0.14952432
0.38402018 -0.018708006 -0.008504098
0.21561112 0.112536766 -0.24607785
0.26531768 0.07208812 0.06800351
0.20359866 0.16689906 -0.061782427
0.2711785 -0.17697111 0.014812265
-0.21953389 0.011992234 0.13151151
-0.22026533 0.09542905 -0.13497646
0.28768408 -0.106218666 0.029843358
0.26658347 -0.12815002 0.056120675
-0.20770967 0.029820528 0.119797476
-0.21289249 0.1610992 0.013381467
0.23474924 0.0066980734 0.09291319
-0.23484863 -0.08227671 0.14735988
0.07021244 -0.03991725 -0.043771997
0.2197258 0.23438697 -0.041481
-0.27444646 -0.13280165 0.044327177
0.053472936 0.02999334 -0.024331233
-0.2938546 -0.041996177 -0.011538064
-0.37595457 0.0027421 0.09991918
