# .PCD v0.7 - Point Cloud Data file format
VERSION 0.7
FIELDS x y z
SIZE 4 4 4
TYPE F F F
COUNT 1 1 1
WIDTH 1000
HEIGHT 1
VIEWPOINT 0 0 0 1 0 0 0
POINTS 1000
DATA ascii
0.029987225 -0.24338567 0.09798623
-0.02899646 -0.016833413 0.0016353125
0.11579412 -0.20711735 0.1238369
0.20015308 -0.23836592 0.073331736
-0.058856208 -0.17777213 0.15819055
0.06591056 -0.24197985 0.062124614
-0.0361326 -0.0006390234 -0.011156347
-0.15073131 -0.2630366 -0.055290367
0.064028874 -0.25851268 0.046436675
0.0189503 0.18315274 -0.042975657
-0.006492321 -0.23613563 0.15613936
0.09768467 -0.13843639 0.12028311
0.03709242 -0.04720162 0.02263412
0.01368926 0.25311562 -0.024664093
-0.11565565 -0.27513927 0.029250538
0.013801205 0.2822274 0.0628568
-0.1828558 0.2977102 -0.033361536
-0.047069743 -0.3863974 -0.031634573
0.018655749 0.31438148 0.09101075
0.015473182 -0.30868003 0.102921665
0.005296132 0.0041585295 -0.045503583
-0.11038122 -0.24435163 0.14144327
0.042445216 0.29160684 -0.06368938
-0.06832909 -0.16711143 0.08949094
0.04227058 -0.35449064 0.003263029
0.1432116 -0.16221648 0.12371093
0.18128437 -0.14766327 0.07955724
-0.14126903 0.21907024 -0.06742445
0.03341288 0.24022114 -0.20702937
-0.0836317 -0.18453315 0.1315168
-0.124494255 0.30314878 -0.08267917
0.14961328 0.29349706 -0.038982086
-0.09035949 -0.37043315 -0.032906666
-0.036793955 -0.17238043 0.12745363
0.04389872 -0.26494032 0.08457285
-0.049398046 -0.22340442 0.100607105
0.1381292 -0.28232357 -0.08995313
0.014854653 -0.15520863 0.0029656475
0.109935716 -0.22316942 0.16317959
-0.022203717 0.29723313 0.08793428
0.042254243 -0.041314527 -0.0006513569
-0.0018108818 -0.18147767 0.081741914
0.17634293 -0.21739323 0.1118653
-0.033248324 -0.17114483 0.17709108
-0.030876014 0.14334583 -0.062218186
0.0064630634 0.16164644 -0.04725598
-0.23606575 0.2630271 -0.079537235
0.054860592 0.27126753 0.07205354
-0.027064448 0.34064895 -0.020360488
0.023707215 0.06240424 -0.03232454
0.021549929 -0.2723973 0.04692234
0.16882877 -0.16773835 0.094682805
0.07394321 -0.2083573 0.07689511
-0.12757875 -0.17296574 0.07253849
0.1102352 0.30570287 -0.18267474
-0.16877533 0.28344476 0.036669724
0.09554053 -0.18623443 -0.05661804
-0.014044513 0.01574865 -0.03212554
0.008445131 0.2960802 0.03905016
-0.12475983 0.35653052 -0.045414947
0.017207593 -0.19619216 0.10705736
-0.060259063 -0.18837444 0.09390684
-0.028225606 0.36766684 -0.048599347
-0.134103 -0.2713436 0.021557894
0.18291323 -0.16955705 0.11029366
-0.0023565232 -0.29037014 0.06555039
-0.14512584 -0.33137056 0.030270986
0.11542 0.25018796 -0.22420026
0.0029320593 -0.19374196 -0.048933137
0.112151824 -0.23068921 0.15392849
-0.042018086 0.3135322 0.08818792
-0.027801095 0.22892529 -0.058818806
0.035513982 0.31371292 0.07483609
-0.0007619619 0.18219757 -0.05107909
-0.0049560997 -0.17339018 0.16990608
-0.16828115 -0.22884972 0.0446091
0.066972055 -0.26152164 0.05882897
-0.0043308386 0.2514745 -0.020306673
0.14406718 0.28446203 -0.07811351
-0.20901352 0.23069128 -0.1576424
-0.123154506 0.36128333 -0.10118831
-0.15164869 -0.2329502 0.03864039
-0.109503746 -0.29948786 0.089418806
0.044559598 -0.32208958 0.066514306
-0.023562368 -0.281833 0.090820745
0.020052768 0.11901049 -0.042994514
-0.2081211 0.26293835 0.014802562
0.019699274 -0.31929302 0.08537284
-0.04505843 0.34664717 -0.0729892
0.037469752 0.28959712 0.017508952
0.14081784 -0.23215258 -0.032193948
-0.009027785 0.022139197 -0.009736362
0.08850613 -0.29959032 0.039872527
-0.12829769 0.20635073 -0.26258317
0.034712728 -0.3123525 0.11334553
0.09200691 0.23246479 -0.21849701
-0.16803771 -0.22711124 0.025438106
-0.19777839 0.26750553 0.012728369
-0.061469592 0.17632668 -0.081987865
-0.05980333 -0.17272921 0.008739152
6.33766e-05 0.27097964 0.084929876
0.14813732 -0.16189152 0.12621246
0.16338396 -0.16194715 0.040334757
0.03586308 -0.3432016 0.07293102
-0.10040061 0.26075926 -0.023222666
0.109600626 -0.32468605 -0.026198613
-0.077713855 0.21699058 -0.06619556
0.14751214 -0.25379622 0.080930874
0.1153623 -0.18590516 -0.07339934
-0.09197899 -0.15046275 0.1352669
0.14685588 -0.27090538 0.10942118
0.14835557 -0.30633855 0.05670315
0.13024174 0.27698264 -0.19123594
-0.14674334 0.23726773 -0.11492904
0.05329843 -0.15234855 0.13567856
0.106908806 -0.20628469 0.04748583
-0.020500269 0.25721484 0.02863001
-0.10032582 0.22858773 -0.05142416
0.019829217 -0.00013272087 -0.014487743
-0.10829611 0.26565385 0.07232498
-0.15613088 -0.18904847 -0.022616899
0.039781753 0.01451071 -0.0146155665
0.039144233 -0.15230922 0.09266323
-0.009557674 0.19721037 -0.04624308
-0.01375672 0.23057902 -0.0871817
-0.14872374 0.28269804 -0.05149569
0.11297483 -0.17232627 0.021049898
-0.11972037 -0.16069238 0.13107738
0.008829056 0.10780169 -0.023436245
0.10843364 -0.23691276 -0.0005852007
0.046579644 0.28772414 -0.15515403
0.13497524 -0.2497572 -0.012102675
-0.060196124 -0.19573082 -0.018983372
-0.16905361 0.19702327 -0.21531175
0.1303174 -0.25705227 0.01428262
0.052201673 -0.12727705 0.024694325
0.05927121 0.2658791 0.05778533
0.062983386 -0.21109597 0.0633437
-0.13950595 0.3093395 -0.113263644
-0.15579388 0.17331696 -0.23735592
-0.064495295 0.28917035 -0.021740315
-0.16120917 0.24983174 -0.050279055
0.11364254 -0.2250487 0.18212195
0.18723758 -0.22027415 -0.046749294
-0.19315444 0.2866114 -0.04963485
0.12771197 0.22784859 -0.1198632
0.009332099 -0.075258255 0.013420601
-0.08571972 0.30542925 0.09376544
0.02801641 0.27754256 -0.019968636
0.077922024 -0.14105572 0.14422427
-0.124344975 0.21140324 -0.10712758
0.024594015 0.25356627 -0.08174915
0.15459198 -0.24535526 0.11221173
0.04570122 -0.084498 -0.0069026905
-0.13672261 0.27845028 -0.04509981
0.10401874 0.22887869 -0.17530899
-0.024508268 -0.0046446235 0.0014901143
0.11125574 0.28005752 -0.15676537
0.033160873 -0.15684068 0.17863168
-0.008769798 0.10906117 -0.016511085
-0.09604707 0.37202606 -0.14334139
-0.03388039 0.27904695 0.029202702
0.10521345 -0.23189583 0.016827483
-0.057177365 -0.2553916 0.117563285
-0.020741832 -0.0058534183 -0.056419104
0.17931716 -0.27201453 -0.034649678
0.050307725 -0.3299386 -0.059240617
0.17986462 -0.1744635 0.07547207
0.13521102 -0.19174461 0.061678868
-0.029921092 -0.010154396 0.016376527
0.051533706 -0.23532993 -0.17185472
-0.13775447 0.3156357 0.009223758
-0.045922067 -0.34016553 -0.01808326
-0.11328747 0.27309918 0.06022013
0.1277138 0.28231573 -0.19387537
0.03912769 0.01444828 -0.00049051904
0.026775634 0.38359442 -0.12024846
-0.036500607 -0.33706078 0.051977858
-0.0056700846 -0.15951954 0.045209605
0.07080495 -0.19033578 0.15109998
0.01985122 0.08586983 -0.08780882
-0.02459786 -0.28381324 0.111526564
0.048389208 -0.31059933 0.058528665
0.02435946 -0.30840838 0.036697514
0.10493581 0.23435718 -0.11876754
-0.039963488 0.14555351 -0.028252836
0.02342315 -0.22875169 0.089912176
0.042787097 -0.13193917 -0.0065092514
0.07574709 0.2357775 -0.22708139
0.114356615 0.25233713 -0.21455318
0.12395519 -0.2956797 -0.123156816
-0.0029582842 0.08382522 -0.017172458
-0.046008237 0.037849307 -0.00917984
0.03907494 -0.26066378 0.0686825
-0.07169406 -0.16526347 0.11760752
0.22901538 -0.28447494 0.003998454
-0.11354874 0.3596142 -0.105390996
-0.07695909 0.31899205 -0.05456215
-0.057528373 -0.31880048 0.049113885
0.1440477 0.21335572 -0.20223871
-0.048235558 0.047326777 -0.07575376
0.099566 0.2139342 -0.19851494
0.023913773 -0.23706546 0.068510816
0.008790792 0.31680787 -0.0069816834
-0.0077409134 -0.3330014 0.121599495
0.09917811 0.27468038 0.054094005
-0.07449174 0.2509117 0.06719098
-0.05707688 0.2632266 -0.018719409
0.014936544 0.28879726 -0.034681868
-0.01899976 -0.30199566 0.17115965
0.19541022 -0.27456433 -0.0012937575
0.07003921 -0.30718586 0.060627732
-0.06058003 0.22355542 -0.21247534
0.04814773 -0.23562467 0.058341064
-0.053199776 -0.23153533 0.11977684
-0.12819204 0.21854459 -0.08645757
-0.08208803 -0.3223469 0.0061200103
-0.024905887 -0.19423328 0.13440186
0.0052985223 -0.08598203 0.011287079
-0.018521354 0.16051486 -0.04029635
0.021694234 0.35040113 -0.06535437
-0.16493492 -0.26927227 0.058984455
0.019212153 -0.2427349 0.12982428
-0.039987653 0.25440723 -0.0063571455
-0.11879537 -0.24049653 -0.099702395
0.12242331 -0.30702788 0.0140981255
-0.03172869 0.32237235 0.009578432
-0.043400202 -0.14009473 -0.0030763804
-0.0032639562 -0.15200542 0.14513929
-0.0043322607 -0.13676277 -0.003552891
-0.1578779 0.2758468 -0.13484801
0.1816015 -0.25550348 -0.014301004
-0.05425575 -0.16661479 0.14657122
0.18176179 -0.18425186 0.052578986
-0.010253354 0.2924545 0.080791056
-0.21884009 0.23325774 -0.07736293
0.027939944 -0.24537292 0.110531315
-0.12175044 -0.2794891 -0.060855154
0.029967394 0.31200156 -0.08201187
0.12863529 0.19346792 -0.23471695
0.09461767 -0.28202924 0.056614544
-0.056414664 -0.1581035 0.17418608
0.039651103 0.1221637 -0.03109993
-0.04864768 0.14252424 -0.068809494
0.006993249 0.18276957 -0.09524699
0.06438085 -0.33453357 0.03262292
-0.016990267 -0.25381225 0.15689689
0.13759866 -0.24924685 -0.039647974
0.015855718 -0.24514535 0.11441207
0.029051559 -0.33359888 0.116075374
0.021068959 -0.0968727 -0.010941093
-0.037451025 -0.053875614 -0.033988893
0.06121335 -0.16336456 0.00941879
-0.015153559 0.27693707 0.0025693309
0.044744506 -0.277798 0.13680477
-0.017298384 0.29687175 -0.070715584
-0.08350448 -0.21088731 0.111413896
-0.121217564 -0.28675425 -0.073580526
0.058130544 -0.23662134 0.08052255
-0.06579089 0.29083198 -0.0147602735
0.18128209 0.27325132 -0.054739732
-0.08618209 -0.1976237 0.11899526
-0.035945795 -0.039993133 0.0013041877
0.08924571 -0.16154593 0.020986719
0.06464183 -0.22710326 0.025913557
-0.025358444 -0.17520143 0.1647232
0.17263135 -0.1569381 -0.012150643
0.023452733 0.27816442 0.031238612
-0.093299985 -0.2965099 0.023238184
-0.030393356 0.40895623 -0.13366237
0.01772466 0.3522352 -0.06668774
-0.08743422 0.26934025 0.074668445
-0.058448736 0.27727014 0.09985929
-0.007358245 -0.0657056 -0.0024398924
0.025914857 0.0728953 -0.046851434
-0.07247165 -0.17127988 -0.0154832415
-0.18792611 -0.20112297 0.0037995023
-0.07158196 0.26485917 0.009927599
0.13323805 -0.14493217 0.13593028
0.023837304 -0.04161252 -0.0052737286
-0.10508754 0.34722632 -0.045596123
0.0006517349 0.36091602 -0.033305153
0.0033052345 0.3586578 -0.123241834
0.115969665 -0.26072866 -0.11576517
0.019082291 -0.23093742 0.1685288
-0.15763626 -0.208685 0.012666328
-0.025155999 0.13559218 -0.053063914
0.06482289 -0.31499043 0.019255448
-0.059168957 0.2675938 0.022348236
-0.058210444 -0.21990772 0.06573759
-0.03649605 -0.16223352 0.06704947
-0.2125257 0.19709592 -0.14534442
-0.033779707 0.30197763 0.117325716
-0.066632025 0.2830705 0.004278325
-0.007570777 0.33539167 -0.014181435
0.012210338 0.34112749 -0.046150498
-0.18826436 0.29913133 -0.021598797
-0.04180955 -0.3460107 0.09901003
-0.118589364 0.25633284 0.09649336
-0.05472057 0.34420574 -0.04962978
-0.17030573 -0.21148938 -0.004633485
0.12803459 -0.21573852 0.078627296
0.16431348 -0.15437536 0.04405836
0.08692604 0.26193473 0.024025442
0.07960265 0.26826313 0.041618247
-0.15447894 -0.18254235 0.08438574
-0.060807496 -0.20055167 0.10186259
-0.030894484 -0.19261335 0.10791944
-0.047938768 0.38082498 -0.05465046
-0.0037261855 0.3148367 0.09303956
0.15496863 -0.16776486 0.07877316
-0.092900686 0.28123623 7.2328425e-05
0.001869215 0.3788477 -0.05653154
-0.1173431 -0.33211938 -0.057526544
-0.09614333 0.27875882 0.010631092
-0.11332907 -0.3182733 0.015933624
0.08697577 0.28856236 0.014367892
-0.07030337 -0.25654277 0.08269134
-0.032911275 -0.17902115 0.08958029
-0.13586429 -0.200127 0.06178436
-0.042468324 -0.008587447 -0.006736523
0.11942973 -0.1780889 0.039899524
-0.025529657 0.010244384 -0.04972326
0.0073274546 0.028801119 -0.04358872
0.021327375 0.28287223 0.012381348
-0.017291302 -0.23547566 0.05008464
0.039119557 -0.29200014 0.113306254
-0.117036715 0.29940796 -0.14703937
0.03595897 -0.14062047 -0.0008958745
0.06848087 0.3235076 0.032274906
0.0138449045 -0.31086665 0.025313023
0.014816717 -0.18732436 0.09064635
-0.2071334 0.2295216 -0.15079579
0.11017851 0.23976745 -0.22114214
0.073418476 -0.18803768 -0.03956457
-0.026469782 0.0941055 -0.0469812
0.021461276 -0.20907168 0.16907136
0.04883623 -0.22479849 -0.16941516
-0.040897988 -0.17913441 -0.06894198
-0.084373794 -0.30943754 0.026110455
-0.15625362 -0.2090722 -0.10440928
-0.06407955 0.20542979 -0.09129658
-0.13391656 0.3012461 -0.095717914
-0.023351382 -0.34518865 0.10601088
0.075529456 -0.34432378 0.04364525
0.020055827 0.30431083 0.11547952
0.10105309 -0.16616257 -0.03426463
-0.012626944 -0.15560928 0.16166465
0.029824402 -0.34237382 -0.03370647
0.06511321 -0.34921736 0.057084285
-0.027924117 0.3303768 0.035478693
0.032804504 -0.14573032 0.003778678
0.032219075 -0.15737198 0.1888528
0.09296922 -0.26648816 0.020299233
0.03838941 0.24756129 0.005257939
-0.025982648 0.22396725 -0.053398296
-0.11384526 -0.20335783 0.078577206
-0.07359698 0.2093375 -0.15657735
0.076272435 0.27541283 0.064469956
-0.0077330978 -0.17497678 0.19768053
-0.039917566 -0.21890384 -0.13041306
-0.03869775 0.14818189 -0.036206014
0.17121817 -0.14760092 0.057410903
0.09825304 -0.21222581 0.11755102
-0.09020122 -0.22828734 0.11510958
0.060600054 -0.22935078 0.06914381
-0.053226165 -0.1775327 0.15530047
-0.020408357 0.18120795 -0.03368909
0.06671571 -0.16504243 0.037925035
0.042897344 -0.30762932 0.15421297
-0.061962225 -0.18690886 0.09588541
0.13733657 -0.28225836 -0.07723883
0.17080268 0.27224195 -0.03797566
0.08008376 -0.13502891 0.09975361
-0.06326596 -0.35224688 0.012740025
0.06333481 0.27114803 0.015355674
0.0056381845 0.1861021 -0.042695384
-0.07024066 -0.23902646 -0.13420184
-0.14948297 0.27572924 -0.12597552
0.09406318 0.25237292 -0.1149322
0.018289769 -0.31909463 0.024316592
-0.05540623 0.22781672 -0.039308522
0.030255927 -0.16684219 0.16781262
0.09580868 0.21332987 -0.25037065
0.07386065 0.25718084 -0.121168435
-0.14973609 -0.20764638 0.06766857
0.011623755 -0.35720506 0.010882664
-0.113838404 -0.29393592 0.1199742
-0.0109046735 0.1841336 -0.05501907
0.022842377 0.29248247 -0.061392277
-0.14200765 -0.2919774 0.053075667
0.02191389 -0.3250053 0.11312551
-0.019156482 0.122111514 -0.0550943
-0.02930337 0.018102685 -0.037226286
0.026052626 -0.09590324 0.007916614
0.107185625 0.2184316 -0.2634739
0.15608746 -0.16305926 0.09208399
-0.16983792 0.19307394 -0.25596386
0.00046634724 0.23989223 -0.030936154
-0.08265825 -0.1889111 0.117458604
-0.060999863 0.25059804 0.07206362
0.047747847 -0.18196206 0.06346321
-0.09699017 0.21006352 -0.24133195
0.08496155 0.2864302 -0.010241978
-0.13000321 -0.20836689 0.03267252
0.18534411 -0.1982325 0.08521846
0.032923568 0.32908908 -0.026992388
0.03359334 -0.3175093 0.050191686
0.036370877 -0.22086711 0.06610344
-0.15554331 -0.22881058 0.045854002
0.027152631 -0.3242041 0.04823581
-0.058975223 0.2434372 -0.02255633
0.07335761 0.21981184 -0.22814709
-0.10668409 -0.29462734 0.056816712
0.15820074 0.21694945 -0.16232334
0.13898349 -0.23614296 0.029961528
0.03564146 0.24693541 -0.14006937
0.03394719 -0.33700302 0.01859719
-0.03317558 0.37489268 -0.10528842
0.0718682 -0.261728 -0.008763073
0.017599655 0.27677798 -0.05524838
-0.10305345 -0.20979361 -0.10035886
0.16455445 -0.194152 0.039919205
0.10634606 -0.1657366 0.15477794
0.0822421 -0.23885423 0.08838164
0.14910454 -0.16735415 0.098459035
-0.11723497 0.20271352 -0.250797
0.052094724 -0.3562779 0.03722967
0.16208917 0.24755122 -0.13321257
-0.15029132 0.27863073 0.024112595
0.18812081 -0.17157196 0.0011425747
-0.025100997 -0.16552229 0.17314711
0.007370114 -0.024347773 0.0066136196
0.046799492 0.2811827 0.069219396
0.10120212 -0.2503779 0.006739089
0.013047006 0.36336672 -0.12690203
-0.0770213 -0.31197715 0.065979876
0.0021373723 0.205075 -0.07069655
0.00019732835 -0.29100406 0.0956923
-0.067013346 0.17396498 -0.30597195
0.05881898 0.38177478 -0.099177256
-0.0076473276 0.29322258 -0.016847476
0.007746165 -0.23352781 0.07207568
-0.08783823 0.34449577 -0.040049534
-0.13710663 -0.19694626 0.012532962
0.14017397 -0.19448183 -0.027075559
-0.19421847 0.18740277 -0.1741348
-0.04112759 0.12121757 -0.08310038
0.20266546 -0.18069474 -0.04242316
-0.17205577 0.27111518 -0.04681057
0.020376781 -0.1489057 0.088517234
-0.024752581 0.22333294 -0.04659564
0.037207976 0.24220806 -0.032021385
-0.032512814 0.2536982 0.012228362
0.026473867 0.30596292 0.059813477
0.027653247 -0.15459315 0.08674135
-0.12488145 -0.245298 0.05626083
0.048028853 -0.13010843 0.014757654
-0.042511333 0.40408614 -0.031501334
0.037450437 -0.060438257 0.0076102377
-0.19354874 0.25030693 -0.14854832
0.10748207 0.25214887 0.00252115
-0.08131842 -0.2959287 0.022404933
-0.10599014 -0.28198647 0.03962256
-0.04270148 0.22208849 -0.05009062
-0.018878749 -0.2352568 0.17651537
-0.10901718 0.26688236 -0.06355669
0.044183873 -0.1885523 0.12009842
0.05522887 -0.18017092 0.06020617
-0.010622042 0.3880895 -0.06701528
0.09149403 0.24927063 -0.100707486
-0.009871162 0.067132644 -0.023273014
0.10603471 0.26318526 -0.16293004
0.019924536 0.29759967 -0.11249011
0.1454921 0.25606468 0.026239699
-0.010263772 -0.16264033 -0.0082456395
-0.006547298 0.010281148 -0.024712069
0.002545062 -0.01690446 -0.015837653
0.0015620951 0.2907838 0.04925311
-0.09855238 0.32169953 -0.034172248
0.046434287 0.26926658 0.08697092
0.008765373 0.27685422 0.07844169
0.03625775 0.29849893 -0.014364131
0.11790578 -0.14858916 0.12666246
-0.14261034 -0.31234145 -0.008518233
-0.023736186 0.26843658 -0.04429795
-0.05977926 0.3610347 -0.061678167
0.13874772 -0.2640428 -0.026158512
-0.0045006373 -0.045916904 -0.0039847214
0.016847853 -0.3084969 0.06921012
0.02728183 0.3588576 -0.08631976
0.003417721 -0.26744455 0.117820516
-0.011337217 0.21491931 -0.047628134
-0.0830527 0.3268469 0.018073723
0.003179737 -0.2273453 0.12598945
-0.029258616 0.38014075 -0.019471534
0.13223432 0.28618056 -0.032887954
-0.019235073 -0.31348228 0.07728643
-0.10980202 -0.29306483 0.115510926
-0.16391318 -0.27991077 0.031073064
-0.016029412 -0.29564837 0.104547895
-0.21398757 0.2253376 0.0016695933
-0.028893437 -0.35725802 0.09772629
-0.004712957 0.048256665 -0.04553678
0.07676533 0.3257254 -0.006636338
-0.11787839 0.3126313 -0.13419798
0.11005127 0.1984435 -0.27191076
-0.21667653 0.24710055 0.0047293394
-0.032547116 -0.20409593 -0.11882326
0.0030176125 -0.1515732 0.03520807
-0.053339634 -0.20486496 -0.015287799
-0.05795916 -0.32245508 0.1067057
-0.059578706 0.32178882 -0.054944675
0.09164312 0.20954558 -0.14708436
-0.0115190875 0.06388168 -0.024535187
-0.12440896 0.24242169 -0.12714168
0.008931378 -0.25610843 0.18208694
0.06327726 -0.2671715 0.032826476
0.08244456 -0.16914724 0.095403425
0.13625932 0.21106878 -0.22642802
0.032278486 -0.21249612 0.049806163
0.032040775 0.064266734 -0.022596171
-0.012582715 0.07371901 -0.017906409
-0.010824297 -0.23047535 0.16199149
-0.08977202 0.20599225 -0.13155498
0.012292082 -0.24568158 0.08580792
-0.023251323 -0.14952844 0.1601972
-0.07810177 0.23119083 -0.09913351
-0.0033320817 0.26854745 0.026257224
0.040092327 -0.015988208 -0.03844947
-0.10217782 0.28975606 0.00033798334
-0.0908744 0.38300163 -0.07070235
-0.040113755 0.36304694 -0.05933977
-0.15439117 0.29887095 -0.06255795
0.11347618 0.28737974 0.0030236423
-0.08598439 0.35681814 -0.07586377
0.13926426 0.2307921 -0.17399482
0.0041058655 -0.21761464 0.1772224
-0.062451556 -0.29401988 0.05736428
0.011237615 0.34787267 -0.06452345
0.06901161 0.27010578 -0.004202946
-0.13798894 0.27045134 0.051485483
-0.013445787 0.3388813 -0.04399054
-0.115457624 0.21715216 -0.051314715
-0.12418655 0.25119573 0.012401424
0.099551804 0.19868323 -0.18525735
-0.2170789 0.23197185 -0.06698993
-0.19125381 0.21132138 -0.07827653
0.036355186 0.28722507 0.09627837
-0.16388084 0.24168023 -0.15278253
0.11807415 0.20415471 -0.2347679
-0.15601476 0.2644343 0.021344494
0.19839852 -0.18606383 0.052664947
0.026199043 0.26650926 -0.11159472
0.0078642145 0.0014030584 -0.01657241
-0.045505244 -0.0007970632 -0.048194394
0.14398912 -0.13947551 0.13123548
-0.19682616 0.23171516 -0.14527546
-0.17933485 0.17973408 -0.21666566
-0.0036821056 0.02918452 -0.017524758
-0.036296748 0.13957049 -0.061761286
-0.08056982 -0.15189226 0.11797603
-0.010282006 0.12767847 -0.043467294
0.17519231 -0.20866887 0.05672152
0.07788949 -0.19817041 0.12513165
-0.07669109 0.34507698 -0.04630554
-0.024384193 0.28594112 -0.045768358
-0.09630165 -0.1686213 0.06696964
0.0050008073 0.11465639 -0.03600118
-0.11302575 -0.2885226 0.028765049
0.08727557 -0.36588123 0.0069679935
0.10168241 -0.27279344 0.14551319
0.056849457 0.017362116 -0.003369303
-0.11701566 0.38219833 -0.12400893
-0.1384053 0.25305125 0.056866195
-0.11348054 -0.29426122 0.04092631
-0.02616826 -0.11088931 -0.010264589
0.063271195 -0.16529803 0.16102242
-0.01704929 -0.34072435 -0.032886077
0.038029227 -0.0026317427 -0.040043175
0.01316652 -0.33661848 0.05887214
0.06862101 0.2951086 -0.16561064
0.0134792905 0.2891267 0.09899799
-0.11223864 0.29019532 0.055912066
-0.078487106 -0.17665343 0.033091385
-0.0010646316 -0.028481353 -0.01639088
-0.059143655 -0.22700033 0.007213858
0.0030667668 -0.0069463314 -0.0058497684
0.07284617 -0.24479209 0.0952093
0.00043626776 0.23297852 -0.15185258
0.1662531 0.23534292 -0.18431535
-0.18275563 0.27875227 -0.04081081
0.027336314 -0.26211476 0.058457464
-0.051726 -0.25766435 0.07487487
-0.074105605 -0.3434031 -0.0058527403
-0.0003102893 -0.018890394 -0.007421844
0.13033666 -0.31350723 0.058451317
0.026972136 -0.16860563 0.113498524
-0.19037645 0.25428322 0.020241167
0.010450384 -0.15786558 0.17042848
-0.10307225 0.18747443 -0.20532912
-0.055373367 -0.20490262 0.051892735
0.018473698 0.36266795 -0.03097548
-0.013752115 0.04883582 -0.043499105
-0.08907509 -0.19338228 -0.07082596
0.012482436 -0.15652855 0.036114533
0.042152293 -0.18364602 0.08849612
-0.16543838 0.27715755 0.06221052
-0.12392961 0.28096637 0.065125294
-0.04086593 0.03149623 -0.06873268
-0.10271514 -0.27185717 0.025681743
0.11158563 0.22805978 -0.14405502
-0.19123343 0.21744078 -0.096810676
-0.04051583 -0.31387764 0.01844589
0.12654391 -0.2173273 0.011213766
0.14912373 -0.27904865 0.11366927
-0.052623145 0.14151023 -0.04302175
0.08756757 -0.17556693 0.106949136
-0.16455634 -0.1747432 0.010083183
-0.13879733 0.25758436 -0.04826075
0.0701281 -0.14473374 0.058534216
-0.14535064 -0.19255966 0.047839995
0.10795781 0.23870604 -0.13212313
0.17856748 -0.24301793 -0.004082768
-0.012248498 0.26913452 -0.023129877
0.093162954 -0.27949014 0.12557666
0.19626464 0.2684454 -0.08213008
0.08308795 -0.25269124 0.06292974
0.0039633596 0.0041404665 -0.022545617
-0.12655628 -0.24723382 -0.065924354
0.013778632 0.29095727 -0.06708092
0.07752173 0.2837463 0.06780175
-0.014705325 0.23620906 -0.056086846
-0.08133493 -0.20128518 0.11898176
-0.05515386 -0.16983427 0.067139894
0.18076938 0.23795578 -0.12553085
-0.12822695 0.24639453 0.014187795
-0.024539616 0.08308898 -0.018957205
0.052116666 0.32073104 -0.093230255
-0.11267018 0.22825533 -0.18069397
0.030575125 -0.14434125 0.008303887
0.12487016 -0.2147727 0.014079438
0.056877952 0.2785193 -0.077503785
-0.061530873 0.24449654 -0.12297173
0.0012972275 -0.19850002 0.06925581
-0.19500683 0.21428066 -0.07458068
-0.11050574 0.2888247 -0.004787381
0.007014692 0.16864364 -0.082133174
-0.10321573 -0.32070562 0.085178055
0.10435718 -0.21508357 0.026308028
-0.14631908 -0.16668227 0.07999257
-0.0036761796 0.3165991 0.10219063
-0.041249197 0.14413676 -0.062111404
0.0028705804 -0.3626764 0.037755504
0.03851804 0.11416178 -0.08873392
0.0496867 -0.27479422 0.00782445
0.1333185 0.25762907 0.01268095
-0.13215204 -0.20440097 0.010059804
-0.0036522946 -0.24909632 0.09186977
-0.13332374 -0.2820212 -0.046352547
0.1003385 -0.15324156 0.12380436
0.15199925 0.23765889 -0.07308398
-0.08479336 0.2278893 -0.023186103
0.060095314 -0.3006364 0.0944288
-0.0041313134 0.17095649 -0.04095753
0.026962291 0.10390849 -0.027825398
0.0003107509 -0.31665254 0.11740809
-0.09629468 -0.20912449 -1.97823e-05
0.09644741 -0.19659188 0.11306784
-0.041477058 -0.28239575 0.099540986
0.12513228 -0.25851768 0.120698854
0.1518559 -0.24714144 0.007028495
-0.017320942 -0.19481924 0.03489026
0.12642585 -0.24444415 -0.023328068
0.03006984 0.33492184 -0.08060072
-0.025715427 -0.09588275 0.025190895
0.0649319 -0.1752597 0.12725623
-0.031124387 0.12258992 -0.040252265
-0.03749791 -0.23177217 -0.10250847
0.014387836 0.12994853 -0.031140802
0.116391115 -0.14405712 0.12408683
0.0010974199 -0.29644346 0.11388452
0.07414373 -0.17735481 -0.063068405
-0.12757447 -0.1995678 -0.06389197
-0.08083144 -0.27217036 0.11494456
0.17748377 -0.19688943 0.07126974
0.053170923 0.26449716 0.0015433356
0.032419834 -0.31001794 0.061949693
-0.00935863 -0.056763675 -0.014122753
0.04321754 0.17971157 -0.06369601
-0.19709878 0.23872986 -0.15413052
-0.102546945 0.28000852 0.06595159
-0.022796586 -0.15105847 0.12481449
-0.046328142 -0.2515131 0.0571226
0.12237532 -0.25374654 0.043116685
-0.14245416 0.21511318 -0.098510236
-0.050109796 0.043227945 -0.045595955
0.038263783 0.07439667 -0.058274508
0.13086858 0.25045395 -0.07443018
0.18157035 -0.29151088 0.017773746
-0.14322193 -0.18689367 0.054626536
0.032086194 -0.10746637 -0.019101625
-0.0039751045 0.2386558 -0.010458443
-0.04618762 -0.2742201 0.022008603
-0.105105005 0.29059643 0.10276913
-0.013811521 -0.22846222 0.15201743
0.028847672 0.078504376 -0.033668976
0.019075302 0.17039461 -0.06558439
-0.102749534 -0.25734508 0.095023125
-0.112161964 0.31284156 -0.037768334
0.04474366 0.19742815 -0.18482178
0.03823307 0.16692285 -0.05885734
-0.025551079 -0.17782538 0.16317235
-0.13558403 -0.30897102 0.002571838
-0.03718333 0.28719375 0.0346469
-0.01958709 -0.04223053 -0.01863793
-0.015036236 0.09555245 -0.030933993
0.19234258 -0.2138923 0.07206563
0.020421512 0.09484842 -0.04060728
0.19754519 -0.24288645 0.10486605
0.001275279 -0.24507068 0.15839085
0.034769405 0.09243233 -0.039735883
-0.21704395 0.2261615 -0.07054041
0.08762875 -0.27117372 0.12078343
0.07007503 -0.15593304 0.15752378
-0.13536261 0.35666868 -0.112589434
0.062116753 0.3567939 -0.09989946
-0.023182184 -0.25228056 0.061792217
-0.045203064 -0.24056399 0.08112463
-0.027226208 -0.19556238 0.105155796
0.0751755 0.32044494 -0.14288837
-0.0909298 0.25393367 0.07665336
0.027776226 -0.30346859 0.073144294
0.09815227 -0.26722303 0.026118873
0.08654892 -0.20914358 -0.0037743503
-0.016224932 0.12497628 -0.024967004
-0.075243 0.17258762 -0.061289214
-0.17522873 0.18185633 -0.17680617
0.018817144 -0.15027408 0.19675574
0.011608541 -0.010216948 -0.0374453
0.06261869 0.29096988 0.039861698
-0.2056164 0.22879961 -0.10603037
0.11332109 -0.18711849 -0.08581917
-0.1381633 -0.30530554 0.038291533
0.088981494 0.27243918 0.045486756
0.08189928 -0.2520037 0.06356612
-0.022833278 0.36920264 -0.06872677
-0.15178888 0.24794729 -0.055719685
-0.035603717 -0.16237195 0.1592766
-0.0089097675 0.38085613 -0.07236463
0.10851575 0.28249073 -0.0011661185
0.17130582 -0.15849459 0.07047251
0.0024749239 -0.34327483 0.1256287
0.10933586 -0.27068657 0.044973765
0.056165483 0.20309155 -0.24870846
-0.020321712 -0.3411944 0.014213729
0.025695357 0.28413272 0.03454397
-0.028488325 -0.15765314 0.15316406
0.12598996 -0.18527675 -0.02629312
0.06692902 0.3121727 -0.15148701
0.07853726 -0.18301298 -0.06696263
0.04010256 0.27530226 0.06648157
0.08194751 0.2860487 -0.025776666
0.010494302 -0.20146899 -0.15228581
0.20838632 -0.21595207 0.0820388
-0.016199442 0.27719387 0.08315327
-0.116226286 -0.33565354 0.008707989
0.051655825 0.06964769 -0.066952
-0.06301797 0.24884269 0.02825417
-0.01815241 -0.3219568 0.07054248
0.07721187 0.24972452 -0.14904845
-0.09343463 -0.25327033 0.121282674
-0.14490657 -0.2663392 0.04750015
-0.047031052 0.06346254 -0.02606121
0.13221076 0.31601772 0.054366674
0.011188134 -0.17653617 0.18729885
-0.12283458 0.27858555 0.101774946
-0.017370535 0.3660001 -0.14924395
-0.13319741 0.25445297 -0.08007724
-0.018882953 -0.047753297 -0.009047674
0.038701627 0.044508874 -0.019112246
-0.1789169 0.21929553 -0.13999218
0.03422751 0.28070357 0.04656752
-0.009109882 -0.18005632 0.07384634
-0.015898002 0.20292063 -0.06415546
-0.05624154 -0.18939927 -0.011731631
0.0955684 -0.16165124 -0.021703761
-0.00035019123 -0.3058975 0.1266776
0.1668029 -0.24762039 -0.026646776
0.13003601 -0.15603194 0.087076455
-0.094970755 -0.23830497 0.11986083
0.18833022 -0.22731683 -0.055896897
-0.060639028 -0.33168915 -0.048827007
0.0037686913 0.2831559 0.0302946
-0.04334602 0.37383693 -0.050280586
-0.044970017 -0.22367854 0.029202495
-0.053883992 0.25486118 0.033994015
-0.042180702 -0.18772857 0.15160488
-0.0088849515 0.2036791 -0.07136563
-0.060782567 -0.33978504 0.069370635
-0.009705951 0.057227805 -0.0360088
0.0006553231 -0.18674867 0.043886077
0.09376751 0.2997196 0.08753545
-0.012156491 -0.19121087 0.10144442
-0.06783861 0.21215318 -0.190496
-0.077323645 -0.2519305 0.010415134
0.0018980866 0.055465464 -0.007896792
-0.11804539 -0.26063108 0.13590237
-0.055096924 -0.19892146 0.073780715
0.05514319 -0.3409697 0.04484033
-0.107808664 0.23237059 -0.05495435
0.083211124 0.24095902 -0.05287121
0.028126808 -0.25799364 0.06202756
0.0049923314 -0.2431575 0.11261171
-0.16014123 0.29351205 -0.07958479
0.06588777 0.29024488 -0.062263846
0.17006887 -0.18088537 0.06831445
-0.0077194637 -0.2762241 0.081668705
0.16850805 -0.20907986 0.06154986
-0.17419346 -0.27875164 0.042120412
-0.067873254 -0.1358914 0.16689636
0.0011957634 -0.01198648 0.0074949437
-0.14835127 0.26496592 0.071702205
0.02271352 0.27043578 0.029183127
0.06343995 -0.068230174 -0.040864315
0.031801954 0.37638274 -0.110145345
0.040956635 -0.2142218 0.05086408
0.15725902 -0.1959297 -0.055434797
0.15742445 0.21525854 -0.19418679
0.06280367 0.2943388 0.0006953285
-0.02968969 -0.16304897 0.118244395
0.18835743 -0.2086884 -0.06370354
-0.03294349 0.10509863 -0.018936228
0.07686119 0.32913813 -0.07837085
-0.0045007267 0.34316394 -0.11372096
0.06410055 0.23362143 -0.23823534
0.004836911 -0.18440366 0.185394
-0.11683662 0.2720541 0.032289766
-0.17066641 0.24999219 0.013607995
-0.014781365 -0.1964323 -0.09611762
0.022935085 0.015864635 -0.011604596
-0.07692972 0.37604523 -0.06945577
0.15189517 0.28348324 -0.06201569
-0.12982231 0.28769785 -0.157464
-0.03584565 -0.24613611 0.07495921
-0.014254678 0.26233068 0.076555826
0.07977624 -0.33436596 0.049024925
0.03684268 0.061069526 -0.029604854
0.10569774 -0.21724425 0.050154656
0.0025749959 -0.15449744 0.19108847
0.068846695 -0.26336914 0.1706922
0.063324735 0.29384893 0.056817636
0.20626594 -0.17707795 0.049455874
0.0729803 -0.29001078 0.13511366
-0.10575474 0.3004786 -0.064938
0.03318387 0.28458995 0.034164853
0.06850546 0.2865674 -0.017672015
-0.02777492 0.36595237 -0.089969136
-0.046277784 0.0646649 -0.065753475
0.15333594 -0.19149941 0.011916267
-0.10835377 -0.23870258 0.031820565
0.057115596 -0.09552279 0.0031872992
-0.0016100478 -0.2500667 0.09712209
0.07045662 -0.2618179 0.034808323
0.00281909 -0.36450863 0.028968295
-0.13275102 -0.18195687 -0.03411504
0.05460304 0.21512821 -0.2645213
0.025899189 -0.27559155 0.123063736
-0.030595895 0.1842695 -0.053671606
0.1321575 0.30210027 -0.087312244
0.04370332 -0.15726894 -0.02514581
0.16994107 -0.17935388 0.069276065
-0.06433685 -0.3384105 0.06086398
-0.15320477 -0.26165518 0.01903699
-0.076998994 0.22336973 -0.12755574
-0.06931721 -0.32721418 0.059819266
-0.15251833 0.25493044 0.041549806
0.13675079 -0.2235204 -0.16399258
0.00552526 0.13871531 -0.05756336
-0.07889074 0.19412862 -0.20704444
0.027414642 0.21606305 -0.23674998
0.12753871 -0.24600233 0.08205023
-0.23330438 0.19863208 -0.11851403
-0.19907305 0.26396284 -0.04685047
0.123724416 -0.29766148 -0.06898607
0.005714228 0.30011895 -0.046101768
-0.0067118984 -0.29258114 0.06217649
0.099725254 0.22517216 -0.0816361
0.041058213 -0.2989779 0.06901987
0.03794944 -0.12787262 -0.02625473
0.13021024 -0.18984883 -0.06376412
0.10117592 -0.23761337 0.17771842
-0.025769405 -0.23279409 -0.06961318
0.16344814 0.23974578 -0.17788057
0.081772275 -0.19544514 0.14099213
-0.027443405 0.41423038 -0.11836638
-0.15079148 0.21200514 -0.1994133
0.13185379 -0.14813383 0.15700737
0.16956691 -0.17504776 0.05862374
0.009916082 0.29123953 -0.00016348904
0.013559099 0.27796927 0.05555315
0.026484078 0.07374561 -0.0561166
0.07126601 -0.16173884 0.0031362276
-0.016878255 -0.17693244 0.15903728
-0.03964097 0.20325263 -0.07880205
0.0073094186 0.268041 0.034959428
-0.20479664 0.23554184 -0.08865996
0.19158071 -0.19637363 -0.026742227
-0.05491599 -0.26992986 0.057728916
0.076235525 -0.32037196 0.06744575
-0.20211369 0.2451127 -0.0037064361
-0.17353949 -0.20399809 0.07419853
-0.008201408 0.3719252 -0.056392077
-0.011507209 -0.17692603 0.13160907
-0.0054677436 0.16407289 -0.06783374
-0.1437973 -0.17962256 0.07974985
0.018649051 0.328497 -0.17438021
-0.0011085519 0.28952226 0.019971102
0.026618194 -0.34968984 0.061877646
-0.092480265 -0.2595224 -0.048638385
0.023398621 -0.067108355 0.0021162534
-0.22436728 0.26411167 -0.027962254
-0.14433758 -0.24674919 -0.052858982
0.024057351 -0.1600846 0.024168547
-0.00934144 0.31654745 -0.061398685
0.09728666 -0.36246404 -0.047308713
-0.064274594 0.24951153 0.07845755
-0.025073519 -0.17342505 0.16182595
0.1578865 0.2558451 -0.20527488
-0.08640567 -0.20573346 -0.05870943
-0.0084866155 0.3213327 -0.0116266245
-0.07776976 0.32845005 -0.05629301
0.07115013 -0.26313946 0.051345706
-0.037565693 0.37463754 -0.029551614
-0.1276697 -0.3327396 0.004231283
0.15602358 0.2331225 -0.1584422
-0.021091184 -0.14748435 0.16986693
0.18358544 -0.22712938 -0.0485251
-0.01847314 -0.005223821 -0.025997961
0.16139093 -0.1709763 0.0907875
-0.12798236 -0.30803904 -0.060501903
0.0603445 0.28031248 0.077135846
-0.055747654 0.3961942 -0.08416962
-0.17257184 0.23141009 -0.09616431
0.12740873 0.24314612 -0.12951496
-0.035896167 0.14267343 -0.025979327
0.03403674 -0.27925897 0.05372368
-0.045478966 -0.33124286 -0.032151904
-0.06102314 -0.1927545 0.11866541
0.14671981 0.25663272 -0.1770509
0.10687206 0.28030002 0.01579389
0.04363617 0.33814648 -0.091486506
0.11297231 -0.3108276 -0.017298749
-0.16218685 0.1737758 -0.2306595
0.022176556 0.17912465 -0.05036706
-0.0061277556 0.017375477 -0.016359579
0.16639788 -0.22659706 0.043202665
0.1792891 -0.21076283 0.038996287
0.08814693 0.32017827 -0.09953411
-0.22579423 0.25808594 -0.013336933
-0.15878092 0.22169249 -0.20747212
0.11089658 -0.2192725 0.03892611
0.041749675 -0.0006260583 -0.045460816
0.023703076 0.12205827 -0.065071955
0.09508394 0.26953626 0.012261288
0.10330844 -0.21611966 -0.08355705
-0.13252378 0.2461069 -0.039262813
-0.18733923 0.2190948 -0.15863422
-0.040542204 0.2824588 0.0095046535
0.020357264 0.2495946 -0.028287156
0.009599593 0.25321838 -0.0062412387
0.09834231 -0.3225151 -0.041258644
0.0722819 -0.3271231 -0.123607874
0.15826438 -0.17639475 0.015632182
0.044930458 0.18463564 -0.10132162
-0.051563226 -0.21346292 -0.14812079
0.057634745 -0.3020023 0.11420473
-0.010603539 -0.22294953 0.16483939
0.0726116 0.3373754 0.009924931
-0.07201859 -0.18221194 -0.075213596
0.06438372 0.32003823 -0.097144224
-0.018284287 -0.17920598 0.15669811
-0.065412916 0.30688155 -0.0029342335
0.011196665 -0.24915075 0.11506061
-0.035008404 -0.16380055 0.19684805
-0.14668927 0.3260368 -0.08479661
0.16676189 -0.254463 -0.004110992
-0.07080564 0.29328337 -0.0014003168
0.11875003 0.22742945 -0.1801733
0.074807204 0.2633766 0.032027174
0.025394386 -0.2587381 0.1222737
0.087832384 -0.15457578 0.14854147
-0.032128762 -0.044121403 -0.017536793
0.13735573 -0.13460183 0.13207206
-0.0603887 -0.18856713 0.07650431
0.14494881 -0.2810376 0.07261918
-0.020584242 0.23046023 -0.05098212
0.09469189 0.27376226 -0.020348214
-0.033244886 0.10801289 -0.030201249
0.12129324 -0.2393368 0.06304273
