# .PCD v0.7 - Point Cloud Data file format
VERSION 0.7
FIELDS x y z
SIZE 4 4 4
TYPE F F F
COUNT 1 1 1
WIDTH 1000
HEIGHT 1
VIEWPOINT 0 0 0 1 0 0 0
POINTS 1000
DATA ascii
0.07196024 -0.009013472 0.15699962
-0.20315264 0.02584858 -0.26761267
-0.21406943 -0.013223327 -0.23891549
0.1798883 0.036225356 0.1537674
0.22775632 0.13045214 0.1533617
-0.0033410678 0.042623203 0.17415038
-0.12125207 -0.16489305 -0.25172657
0.14852093 -0.06669787 0.10378984
-0.25748268 -0.19347998 -0.103797026
0.11895863 -0.0301346 0.13614807
0.007864089 0.11208577 0.14054784
0.11653688 -0.06864861 0.16926357
0.113769114 0.20803867 0.14059651
0.07358698 0.02331405 0.2239573
-0.29740483 -0.0066246805 -0.1785419
0.12583853 0.14315435 0.19797133
-0.11420071 -0.25123832 -0.17289053
-0.22898535 0.014073797 -0.21899287
-0.2411662 -0.1096915 -0.13117208
-0.044484917 0.11215392 0.18467101
-0.20304088 -0.018907726 -0.20153621
0.015661294 -0.042222667 0.23955525
-0.15017432 0.009120101 -0.30233476
-0.27549288 0.0074751503 -0.20877966
-0.23933187 -0.17625855 -0.12576056
-0.07407741 0.12678881 0.19083375
-0.1383494 -0.07915789 -0.19633886
-0.048780464 -0.091836445 -0.33526736
-0.049748402 0.024305059 -0.14754178
0.2453009 0.039062895 0.018889928
0.06536185 -0.0060565635 0.17386785
-0.06569755 -0.073482975 -0.32813543
0.09772315 0.063573666 0.18196765
0.0042219805 0.21281825 0.06534291
0.13381723 -0.056993313 0.12689877
0.14102857 0.182886 0.08452833
-0.16233847 -0.034672197 -0.22506778
-0.086439736 -0.14423461 -0.2570325
0.07200109 -0.06758442 0.16954124
-0.044963453 -0.11064602 -0.3334648
0.22737567 0.0348467 0.19172536
-0.042083688 0.0971199 0.18262504
-0.23170547 -0.15237601 -0.10250878
-0.2887351 -0.107204795 -0.26895577
-0.16224961 -0.17466635 -0.20527363
0.19151323 0.21924183 -0.0070628054
0.12257312 0.1530198 0.19180706
-0.050569512 -0.24514915 -0.20713098
0.153726 0.044162486 0.24160713
-0.19447815 -0.26887867 -0.28462252
-0.30520695 0.009479303 -0.1890129
0.011598035 0.013173221 0.01175861
0.1140848 -0.013402941 0.14902782
0.10668959 0.009616512 0.14260979
-0.02149871 -0.040047426 -0.06881604
0.01454501 -0.1630821 -0.31521606
-0.0967708 -0.08460744 -0.23834157
0.017165825 0.26736116 0.08740347
-0.118997514 -0.2269903 -0.16376473
-0.27757597 -0.1853137 -0.16523147
0.154127 0.16440691 0.09843148
0.22246477 -0.10344819 0.09328284
0.2391622 0.033768833 0.025680114
0.19304188 0.16071783 0.16179346
-0.17251977 -0.08635076 -0.19332361
0.023098964 0.046885338 0.16850936
0.2605473 -0.013510432 0.018327987
0.109482676 0.030296888 0.1733554
-0.18944149 -0.06364232 -0.1688988
-0.006280944 0.081678696 0.15656075
0.07986848 -0.060917992 0.18786263
-0.09082945 -0.26364607 -0.19533555
0.23186535 0.04223416 0.09344599
-0.028612694 -0.021600038 -0.03839718
0.09101616 -0.064611144 0.17553303
0.19811739 0.06131358 0.15897334
0.19577198 0.1434701 -0.02977442
-0.26465693 -0.2310768 -0.2812824
-0.23528522 -0.13546208 -0.16983537
-0.21188113 -0.115312085 -0.14994146
0.15835792 -0.021869984 0.07268414
-0.1237856 -0.28170514 -0.155651
0.25714254 -0.033687226 0.05691417
-0.04204185 -0.27246624 -0.1907574
0.03407259 -0.019556236 0.18510966
-0.1938735 -0.033092722 -0.25107673
-0.17907427 -0.2544128 -0.1478724
-0.15060109 -0.27213553 -0.16159344
-0.067216106 0.13268524 0.18110155
-0.017132793 0.2121155 0.06827935
-0.051967103 -0.060542636 -0.0679214
-0.15760306 -0.26122716 -0.18099737
0.18910126 0.1737763 0.030294495
0.084732 -0.04126274 0.12921944
0.13973258 0.038094725 0.11737038
0.12393901 0.21132354 -0.02024301
-0.015573098 -0.072478935 -0.35812292
-0.2557299 -0.01819478 -0.16759722
-0.22846036 -0.1633197 -0.14521433
0.008853626 0.106821656 0.1406559
0.2214329 -0.04486031 0.07232009
-0.22509284 -0.15993373 -0.13987693
0.18264514 0.12416266 0.19203779
-0.040561967 -0.060637027 -0.3071997
-0.22554407 -0.07132563 -0.16439143
0.11593916 0.0414464 0.20517103
0.2196612 0.060443282 0.0068792976
0.14540303 0.06609952 0.1933706
-0.26356375 -0.046095185 -0.1755679
-0.15607952 -0.056983557 -0.16179115
-0.2727299 -0.21608652 -0.1671569
-0.017716868 -0.046534117 -0.3588476
0.050304834 0.12702051 0.18466674
0.04529578 0.15127586 0.14672245
-0.079612665 -0.2791241 -0.20127557
0.101463296 0.08564758 0.19406798
-0.29765806 -0.0031308595 -0.17649098
-0.27236712 -0.22114447 -0.18795167
-0.21749324 -0.21422918 -0.10457864
0.12807712 0.18183294 0.18123555
-0.094297394 -0.16421679 -0.21518813
0.10999463 0.16908224 0.22769123
0.24276735 -0.018974796 0.073039666
-0.09588867 -0.12765437 -0.22964102
-0.044770036 0.07731666 0.21317397
-0.20952143 -0.07826539 -0.18307425
-0.012760105 0.15520056 0.1487623
-0.071902275 0.18243705 0.13633749
-0.1810286 -0.056655433 -0.22824565
-0.0049962723 -0.0065510045 0.20773394
0.22254862 0.12289881 0.017463986
-0.2415621 -0.13813451 -0.15251654
0.005153215 -0.03600846 -0.03932522
-0.060791623 0.16860077 0.17208801
-0.21552797 -0.17598344 -0.13013238
0.12546456 0.22781515 0.085007034
0.09389591 -0.068820134 0.1848051
0.18280667 0.081872456 0.22194335
0.15981403 0.06012553 0.11362993
0.13302381 0.0164362 0.14427623
0.103347786 -0.0117305955 0.1539162
-0.20535897 0.045388635 -0.25922325
0.005174247 0.207644 0.10909467
0.22733125 -0.026295613 0.07370883
0.016057482 -0.13232917 -0.32362732
-0.15471871 -0.20624119 -0.14131089
0.20146044 0.11352093 0.16110292
-0.14356534 -0.11056495 -0.19089185
0.08799064 -0.03870483 0.17762615
-0.0396837 0.06494782 0.20555879
0.07669833 -0.042286232 0.1685338
0.061122313 0.21270251 0.11075889
0.002978083 0.24300686 0.114331715
0.13233691 -0.0028135478 0.11112139
-0.18220735 -0.04219818 -0.24188456
-0.20510706 -0.11728504 -0.14304483
-0.14685315 -0.14129438 -0.2052385
0.07076486 -0.03091389 0.17705275
0.23341693 0.01863029 0.081082575
0.032179758 0.18549933 0.08700568
0.065977305 0.019857176 0.23393655
-0.313334 -0.09976793 -0.22374435
0.10262136 -0.087503284 0.16660264
0.19394091 -0.03304684 0.08195751
0.20305167 0.18074378 -0.016908204
-0.0008369069 0.03153532 0.16620703
0.03199099 0.013709394 0.16412137
0.13025801 0.09926135 0.20994575
0.1526607 0.070669845 0.15771823
0.08726377 0.10673381 0.19238895
0.2454066 0.03503065 0.06839852
0.21521734 -0.104373835 0.12029493
-0.024616113 -0.06510253 -0.096371286
-0.14635015 -0.20594978 -0.18060179
-0.23434661 -0.18029927 -0.11865702
0.051922653 0.2149668 0.07313692
-0.16932932 -0.19370475 -0.1566957
0.1503673 -0.121816635 0.116803356
0.17375731 0.065722555 0.19431585
-0.039451856 0.22498538 0.10274535
-0.2838007 -0.17513548 -0.22090267
0.066078804 0.017292041 0.21455958
-0.25264055 -0.06658175 -0.17826135
0.03122982 -0.010198972 0.20198143
-0.15612312 -0.2414011 -0.14220332
-0.034707893 -0.04171563 -0.0582914
-0.17777403 -0.27323607 -0.28229007
0.26684958 -0.005170796 0.039162472
0.2664303 0.035092056 -0.01108501
-0.14691567 -0.1944421 -0.18843326
0.14137079 0.11134117 0.19923876
0.27671346 0.105808936 -0.010623002
-0.014684597 0.13617902 0.17837442
-0.1916926 -0.20439744 -0.14557509
-0.08578354 0.038223334 -0.3723954
0.0156112565 -0.17667662 -0.30540052
0.2068264 0.1515885 0.18128629
0.058652803 -0.0011177539 0.18449254
0.06600808 0.02020493 0.22097157
0.046982642 -0.05845804 0.20634355
-0.11180896 -0.036283523 -0.09291844
0.18929134 0.120957404 0.033646278
0.11684182 0.13559899 0.17920989
0.100859135 0.13001953 0.17776173
-0.04852447 0.14731242 0.18030319
-0.048782606 -0.061095588 -0.107390694
0.09164924 0.11418337 0.20812772
0.062899634 0.096139714 0.19854385
0.1975887 0.18212242 0.15411447
-0.2591411 -0.16778573 -0.10725051
0.12315594 0.18981676 0.025917556
0.15497585 -0.021100622 0.11895655
0.16051075 0.09796785 0.063752845
-0.2595857 -0.15736425 -0.2737052
-0.22687827 -0.0965845 -0.16655202
0.12012755 -0.0062548853 0.11952251
0.17487745 0.023259832 0.1289341
-0.11528298 -0.02026976 -0.27257735
0.2439025 0.009676512 0.058638405
0.14489165 0.2232321 0.038160335
0.1317975 0.14539002 0.13783167
-0.116089486 -0.20029543 -0.17759603
-0.27221343 -0.19688943 -0.16032498
0.07669147 -0.008407114 0.23281409
0.009459429 0.16946259 0.15549244
0.0018295689 0.22799534 0.10438972
0.05986281 -0.045917768 0.15383631
-0.24449725 0.0042154603 -0.20547283
0.17958647 0.1807299 -0.048043303
-0.25276482 0.0027648336 -0.24579567
0.24149616 -0.054391813 0.086637475
0.039608832 -0.013154106 0.0074178656
0.10675681 0.11307367 0.19284667
-0.21272838 -0.04056046 -0.20519389
-0.1957636 -0.027320148 -0.24859767
0.1202974 0.18798845 0.070017375
-0.059310786 0.13698086 0.16396952
-0.10434253 -0.15380436 -0.19507113
0.19729504 0.044737283 0.036359027
-0.054028314 0.07613444 0.17616735
0.027403887 -0.050864417 0.19771285
-0.096936464 -0.052912407 -0.098242655
0.11876465 0.15263256 0.18741912
0.117630355 0.22063003 0.15333264
-0.18139485 0.04298545 -0.26877806
0.10589762 0.18641135 0.11650609
0.10647512 0.18963821 0.19497706
0.016498877 0.08541418 0.20208783
0.022420304 -0.15664366 -0.30142954
0.17662857 -0.026995057 0.104041725
-0.07163979 -0.27011013 -0.20369142
-0.2655531 -0.13714936 -0.14251883
-0.13385105 -0.014035796 -0.2216222
0.13968669 0.19289877 0.11327578
-0.23267588 0.03247145 -0.2427696
-0.053319436 -0.091511376 -0.089859314
-0.11104022 -0.24910967 -0.15500449
-0.08882036 -0.024044672 -0.16593526
0.15938409 0.19068275 0.1527944
-0.026199562 0.031064782 0.21676463
0.14029972 0.09941968 0.22105311
-0.027063109 -0.06255085 -0.1325046
0.17258263 0.028439313 0.14563875
-0.24284604 -0.13615423 -0.15992792
0.14568508 -0.028444001 0.11078302
-0.15491053 0.050038867 -0.32510003
-0.28834355 -0.1412148 -0.09954375
0.19545014 0.1700734 -0.04675336
0.19448066 0.14515394 0.18236391
0.1855025 -0.065843865 0.1308306
-0.15765348 -0.19063549 -0.14572076
0.18626542 0.05807247 0.14180198
0.16979031 0.13456129 0.20272012
0.06057766 0.05436459 0.14009947
0.04487982 0.16482991 0.17606221
0.027529918 -0.05296839 0.21148145
0.17210548 -0.024402222 0.07262372
-0.05016939 -0.22883633 -0.18980674
0.14050554 0.1611244 0.06922551
0.16381156 0.15227915 0.11125478
0.040592417 0.16474742 0.11589057
0.22510773 0.06250925 -0.014624492
-0.2664955 -0.1180146 -0.11219012
-0.073847674 0.023669913 -0.1057326
0.23094916 0.03864114 0.03181735
-0.021719627 0.0207019 0.21586737
-0.24814886 -0.033081017 -0.19097774
-0.31236923 -0.12880401 -0.1577154
-0.07847872 -0.2609522 -0.16384909
-0.0015264222 0.10138479 0.16269033
0.12394569 0.18184924 -0.014883602
-0.22291121 -0.021394677 -0.23610461
0.13047911 0.09999943 0.22456335
0.18073878 0.0021932635 0.10311495
-0.15664835 -0.07977986 -0.14966689
0.057993907 0.26334843 0.036609728
-0.11284586 -0.14547342 -0.21120422
-0.28799465 -0.05866823 -0.14734381
0.015791297 0.17154521 0.10274509
-0.23479918 -0.0026320522 -0.22017233
-0.13353147 -0.06793033 -0.15100577
0.031064237 0.1978368 0.10219109
0.11945105 0.06040513 0.19625686
0.09834651 -0.03428962 0.15924704
-0.026491331 0.08691588 0.15125549
0.13295501 0.10501645 0.2165219
0.13310285 0.2287276 0.004771285
-0.2723143 -0.11107064 -0.14020656
0.17667796 0.17712569 0.059897125
0.2429832 0.08450772 -0.01844282
-0.18843216 0.027153812 -0.26663423
0.06265838 0.23087625 0.0362277
-0.16270499 0.052746195 -0.33210185
-0.12814645 -0.17388946 -0.20454
-0.12592952 -0.11389596 -0.24568224
-0.18023641 0.01159992 -0.238523
-0.029720316 -0.25871542 -0.22030935
-0.0013612403 0.18037063 0.08776374
-0.25267878 -0.06710248 -0.15459557
0.123392954 -0.10666769 0.18789057
0.12216613 0.20612612 -0.0031934753
-0.020280173 0.029894866 0.20058884
0.19478844 -0.011969205 0.10191328
0.18877992 0.036905233 0.1746356
-0.19950831 0.09001074 -0.2787375
-0.19114505 0.06446025 -0.3053879
0.17125414 -0.045140132 0.11154517
-0.017767 0.08036601 0.19299427
-0.13463677 -0.17727068 -0.20965107
-0.18112594 -0.02201238 -0.24422543
-0.21786235 -0.184229 -0.1391612
-0.20965376 -0.26560226 -0.20362864
-0.002684837 0.06264898 -0.056132387
0.057756335 0.08866316 0.16929683
0.1633116 0.15490822 0.19226162
0.01578321 0.016144749 0.15781362
-0.050620373 -0.26341784 -0.31374624
0.13563465 0.037380014 0.17699738
0.108457685 0.10019535 0.18331438
0.05974013 -0.0008453452 0.17774002
0.105269074 -0.0033254824 0.13387397
0.1325633 0.2290512 0.005569893
0.05105011 -0.042858284 0.2281933
0.17192471 -0.073183276 0.105591245
0.07258212 0.20231755 0.13293529
-0.06500716 -0.10043946 -0.107477985
0.04993544 0.06266478 0.20480888
-0.20288494 -0.26607537 -0.2930146
0.23274058 0.019064063 0.026010258
-0.22295515 -0.015460256 -0.18017243
-0.14314458 -0.27190748 -0.25263187
0.11218967 -0.019230133 0.16163479
0.0632666 0.07122415 0.19314061
0.08440349 0.24402265 0.05823973
-0.03997138 0.00057527376 -0.046843838
0.17907906 0.13356434 -0.024165193
-0.05674849 -0.27324578 -0.21617353
-0.124199264 -0.094991334 -0.17076027
0.013278884 -0.014276254 0.2229376
-0.20344953 0.005686116 -0.23891687
-0.1602215 -0.1903825 -0.1741333
0.12314787 -0.09722854 0.1562259
-0.1615558 -0.09839406 -0.20889956
0.017402887 0.036065385 0.16326217
-0.2515828 -0.24881364 -0.23750675
-0.026777292 -0.16203769 -0.28597072
-0.078417145 -0.12905385 -0.28362498
-0.011708586 0.19895354 0.08042625
-0.20493336 -0.18242769 -0.12849097
0.11089544 0.076653495 0.21089786
-0.14373 -0.20513193 -0.18822731
-0.08427962 -0.2834346 -0.23530029
-0.071151435 -0.2473189 -0.16508566
-0.039662864 0.049037796 0.1964662
0.030534977 0.0013308827 0.17850184
-0.10404995 -0.07255721 -0.15743425
-0.26360402 -0.038400255 -0.17247823
0.15589944 0.08319902 0.22588775
0.20393462 -0.04954015 0.12174596
0.034193438 -0.03268459 -0.04329133
0.063795544 0.06621369 0.15665114
-0.044456642 -0.25781482 -0.20736815
0.013077025 0.2146637 0.09595472
0.095005065 0.0066182003 0.12564075
-0.053612053 -0.04458858 -0.31357408
-0.0502134 -0.21088383 -0.34027374
0.18176559 0.123738006 0.058596723
-0.23932534 -0.24427095 -0.24484015
-0.24275444 -0.21637124 -0.1665031
0.07697507 0.22162597 0.039478358
0.04605747 -0.039121557 0.17774647
-0.059297815 -0.08734878 -0.15300125
-0.052984945 -0.27616298 -0.19681509
0.04845823 0.106619835 0.21767607
-0.0010088498 0.0630218 0.2063709
0.15100943 0.20235784 -0.026957517
0.09512014 0.06524909 0.1498796
0.19085789 -0.016179224 0.07601242
-0.01782875 -0.18115051 -0.2646507
0.00070660113 0.06654387 0.19254322
-0.02470709 -0.15336668 -0.28941843
-0.25331905 -0.111446254 -0.115679175
-0.24581069 0.039010476 -0.2048438
0.113274306 0.22691691 0.05042764
-0.026889933 0.18193552 0.1722242
0.06302995 0.22600847 0.091256194
0.18172704 -0.0420717 0.09237712
0.02717189 0.05351757 0.18505797
0.1727284 0.12756109 0.1888487
0.024444629 -0.005434493 0.18270046
0.16178118 0.0142083755 0.10361928
0.0351884 0.15790127 0.1692328
-0.22287585 0.06712344 -0.24844885
0.025096195 0.23197913 0.10563177
0.1944295 0.021534504 0.10780623
0.13024837 -0.06632489 0.16822368
0.21567912 0.11726566 0.06594372
0.11880404 0.17913571 0.13207619
0.15404177 -0.059419762 0.16363333
0.13414618 0.18537071 0.19774932
0.05259437 0.06506163 0.17035203
-0.19362812 -0.17865153 -0.13929541
-0.16366507 -0.2184135 -0.14112768
-0.19222823 -0.210502 -0.12224632
0.08172669 0.019955812 0.18751973
-0.15927851 -0.03472386 -0.2658902
0.2005772 -0.080902584 0.08947976
0.14882424 0.19039185 0.20179291
-0.12984595 -0.15903555 -0.19115902
-0.1347343 -0.23762096 -0.15823407
-0.05157437 -0.01564257 -0.091571115
-0.13939953 -0.27895322 -0.28285965
-0.12711552 -0.21948072 -0.18562047
-0.11248769 -0.28873867 -0.17321916
0.2441042 0.09930359 0.13003598
-0.16945377 -0.2629517 -0.1909167
-0.18052779 0.08536097 -0.2717508
0.021752775 0.07079722 0.18431592
0.08469282 -0.032866172 0.14948066
0.2158688 0.15134923 -0.029181115
-0.03401771 -0.048151772 -0.32431945
0.17163853 0.038132474 0.0578104
0.008844059 -0.057890367 0.20105946
0.04094543 0.023520911 0.1530858
-0.11444843 0.015335496 -0.33418092
-0.23343837 -0.19331114 -0.32319894
-0.20592909 -0.16710903 -0.15680397
-0.047799923 0.19523212 0.10242967
0.061565917 -0.02155431 0.21284561
-0.24378377 -0.14793241 -0.3362435
0.14932916 0.020816276 0.17020835
0.031075323 0.07915944 0.22418939
-0.08070451 -0.050379008 -0.13359804
0.15136772 0.14548229 -0.02473163
-0.012785022 0.008333198 0.21118587
0.04181672 0.17594212 0.14698619
0.22107999 0.10279793 0.16280724
0.060020585 0.2585101 0.051281147
0.08470176 0.2671079 0.007244493
-0.0018290008 0.10754124 0.18722853
-0.19022413 -0.041321635 -0.20459414
0.16766421 -0.09148678 0.118758336
0.25201678 0.07335657 -0.0037125791
-0.28069106 -0.10107118 -0.14721872
-0.022660509 -0.046062477 -0.052165728
-0.2701228 0.025395278 -0.22344671
0.07415469 -0.030534854 0.17907058
0.04879988 0.2050896 0.033828024
-0.21540311 -0.044978146 -0.20217654
0.18553491 0.08227722 0.21656889
0.119258285 0.11943418 0.21723206
0.04934178 0.27732545 0.022097776
0.11846991 0.046120346 0.20301707
0.010994767 -0.012146706 -0.031344336
-0.21091308 -0.24375685 -0.24701655
0.2245972 0.06393442 0.19278295
0.13338782 0.023064798 0.1544376
-0.123944566 -0.08478589 -0.18495464
-0.046996802 -0.16501592 -0.28874597
0.15502974 -0.081410035 0.15020745
-0.05064139 0.20781898 0.1116084
-0.03258212 -0.0028804312 -0.029292628
0.14073744 0.14726882 0.19766779
0.22062413 -0.07801058 0.11334718
0.15202595 0.03479804 0.13271701
0.16061592 0.10022367 0.20704938
0.031611048 0.03992967 0.19207321
-0.025420906 0.13909523 0.15104148
0.16224878 -0.00040111956 0.090457715
-0.0016553506 -0.041783355 -0.051902767
-0.03543199 0.100909926 0.14452475
0.20088625 0.16641553 0.13074423
0.041876215 -0.03360678 0.20530176
0.18906015 0.096081145 0.18230335
-0.064438984 0.0869675 0.20146516
-0.008164374 0.12609339 0.13362436
0.17440046 0.095235564 0.19960304
0.053878874 0.07315858 0.19172102
-0.17713313 -0.25471854 -0.3021326
-0.2689473 -0.21943325 -0.20619087
-0.27297696 -0.14788043 -0.11761531
0.1887487 0.034816414 0.16688596
0.13818885 0.21791615 0.17123622
-0.16743799 0.010164267 -0.29348236
0.12540409 0.122371994 0.21435559
-0.26660123 0.035342515 -0.2494413
-0.22666143 0.025843645 -0.26677787
-0.088097796 0.14267717 0.13716015
-0.2131018 0.019004865 -0.23234588
0.013879357 0.01314325 0.026571209
0.17307904 0.12557727 0.19643916
-0.059645537 -0.064481415 -0.15239896
-0.049979966 0.15510185 0.18386911
0.16080914 0.06060978 0.2199501
0.013495006 0.027023356 0.18230204
0.17333302 -0.047016848 0.122079514
-0.088930614 -0.15920025 -0.2426746
0.10421853 0.005791129 0.2033937
0.08017689 -0.069929056 0.20241158
-0.06576968 -0.25904483 -0.31487694
0.035929035 0.1511353 0.1595663
-0.06798656 -0.2349135 -0.35297775
0.13373263 0.049754534 0.18749444
0.18095206 0.059957527 0.19324407
0.1910218 0.03791785 0.0478971
-0.20917457 0.02742321 -0.2718538
-0.13617566 -0.24180368 -0.15536414
0.17265697 0.1057765 0.14784223
-0.011875682 -0.013067929 -0.009455282
0.13351893 0.01907411 0.10145103
-0.053024225 0.20552753 0.09218651
-0.21898088 -0.036322776 -0.20946819
-0.068648554 0.030032372 -0.35369563
0.2593883 0.096335545 -0.031872198
-0.104312606 -0.22134688 -0.20010266
0.05159509 -0.031112147 0.20953315
-0.19241096 -0.13201663 -0.21068192
0.23105091 0.025570212 0.077336475
0.02260031 0.0690857 0.19215111
0.24540006 0.072405554 -0.004491516
-0.21273182 -0.029982062 -0.1921821
0.028127313 -0.0326318 0.20698152
0.19675204 0.085501134 0.15262696
-0.27328515 -0.0369761 -0.19322713
-0.13444598 -0.19918124 -0.15717396
0.12923749 0.15113191 0.20057595
0.26633632 -0.018340822 0.008583878
0.15565412 -0.027144643 0.10224672
0.19395721 -0.025418893 0.07928731
0.15006429 -0.12120486 0.14170498
0.15430647 -0.07352629 0.11177635
-0.28575486 -0.110653095 -0.30065477
0.22850928 0.09762743 -0.0046824636
0.022075854 -0.14237826 -0.28891882
-0.2602216 0.00092443195 -0.36071444
-0.18364911 0.051712196 -0.28092226
0.022784503 -0.01244124 -0.012320334
0.1886882 0.09146826 0.06319277
-0.06312517 -0.11301617 -0.23699181
0.18503287 0.063216485 0.1842069
0.002049811 0.18978004 0.08343323
0.0016675644 0.032250814 0.009373017
0.057211075 -0.044482376 0.19559996
0.1957502 0.12654103 -0.0046900646
0.07222292 0.15969379 0.18138437
0.23612072 0.14323518 0.14170395
0.049398933 0.19226168 0.16919239
0.08770117 0.21942157 0.011595138
0.055115726 0.15374878 0.11880667
-0.25076574 -0.17707139 -0.26597837
-0.26825246 -0.09730968 -0.16752785
-0.2026048 -0.16513285 -0.14055568
0.017563775 0.2465336 0.08080594
0.028068759 -0.008394694 0.19517413
-0.16692297 -0.11450586 -0.20157462
0.02349111 0.09739291 0.13536653
0.22252007 0.07133098 0.05983303
-0.20734489 -0.09913808 -0.16448556
-0.118557915 -0.03705608 -0.29845265
0.21878086 0.1615478 0.12212199
0.04757952 0.0862989 0.19000408
0.21218666 0.075351 0.022115948
0.18751435 0.016976941 0.050259978
0.09670364 0.13948357 0.2048788
-0.23016784 -0.13811877 -0.13106133
0.13279675 -0.0063150506 0.13941003
-0.2934998 -0.19715774 -0.21813968
-0.0017888949 0.13745713 0.17449765
0.07445342 0.07877025 0.24087733
0.06095772 0.01724343 0.21585256
0.08621645 0.261412 0.009825301
0.12098795 0.08546521 0.19468255
0.20406774 -0.120227404 0.11499592
0.26756248 0.03495896 0.05870716
0.0801664 0.041115016 0.13507406
-0.09022684 -0.27849334 -0.2422739
0.23349161 0.082088575 -0.02048114
0.08138078 0.094720684 0.21678671
0.020393463 -0.015343545 0.1760346
0.007295608 0.111131765 0.12984961
-0.21648227 -0.12413294 -0.16441439
-0.1605963 -0.0014294039 -0.26101822
-0.18395683 -0.21715274 -0.113977775
0.01243385 -0.059475683 -0.06618938
0.01847665 0.05208731 0.17730919
0.20021479 0.18573473 0.022739375
-0.07663449 -0.030623691 -0.0918398
-0.17993087 -0.2350554 -0.23986289
0.27375603 0.010018332 0.071543016
0.22827831 0.10065225 0.17510153
0.0013312122 0.20078567 0.10096198
0.16632172 0.044330746 0.082521565
0.030883754 0.11249851 0.14105184
-0.25883904 -0.09506701 -0.18093558
0.06816131 0.047353707 0.15196274
0.00222016 0.025590962 0.17667834
0.04558032 0.21593235 0.1330038
-0.115326636 -0.10593048 -0.17299439
-0.027875355 0.12871316 0.20593351
0.06024264 0.02898805 0.17127615
-0.17225249 -0.025010113 -0.21778709
0.19909725 0.038871977 0.13435446
0.19339398 0.08325424 0.19863988
-0.120003246 -0.1451429 -0.18298888
0.122851595 -0.101330146 0.17057352
-0.11174251 -0.034100868 -0.19525592
0.25347915 0.070272766 -0.01635489
0.06978497 0.0729416 0.16868478
-0.09136244 -0.093025334 -0.16873996
-0.087637946 -0.028727027 -0.11838833
0.060512364 -0.073414676 0.18089469
0.087073594 0.07073516 0.19388156
0.027050048 -0.049741123 0.20154044
0.039930705 0.15778235 0.15390764
0.114186786 0.22786039 0.13851497
0.015232819 -0.029910568 0.016482892
-0.04226308 0.0025784844 -0.039785665
0.1809992 0.19548652 0.018576073
0.07180824 0.03048713 0.15213273
-0.102602094 -0.23479986 -0.19619691
0.14894453 0.020414347 0.21215184
0.15083943 -0.0054673855 0.1396571
0.12554128 0.20085563 -0.014929749
-0.18995485 -0.24585307 -0.11670237
0.15587567 0.06351818 0.1777636
-0.22725582 -0.026394892 -0.17600493
-0.24402092 0.066183105 -0.21990572
0.13208956 0.22180939 0.028281314
-0.23391679 -0.27357432 -0.2293117
0.22265312 0.07703277 0.06407052
-0.011198887 -0.061384052 -0.088939875
-0.10895669 -0.10935594 -0.14546022
0.07712021 -0.0043449155 0.16819894
-0.0078122946 -0.20178749 -0.3143427
-0.2019947 -0.08520462 -0.20024352
-0.2658024 -0.20227821 -0.24610183
-0.05327363 -0.032048248 -0.042637277
0.1465684 0.11462369 0.22739863
-0.116248205 -0.10041903 -0.17276928
-0.27030057 0.010061416 -0.17767626
-0.048702247 -0.23611443 -0.20649347
-0.07497385 -0.021291219 -0.3071741
0.13035814 0.15736526 0.21696122
-0.02619051 0.15404834 0.16746174
0.0871053 0.19304402 0.16051482
0.1982485 -0.01648892 0.085386224
-0.13330531 -0.28589714 -0.2983664
0.14335525 -0.102845185 0.12193838
0.10674606 -0.081644356 0.19396709
0.100410566 0.1307129 0.1510532
0.095837265 0.16406779 0.13437578
0.19114846 0.087440014 0.20238355
-0.06202531 -0.03230053 -0.07329762
0.23067856 0.04653887 0.04824473
0.07148859 0.13896365 0.18513557
0.17186102 -0.05467184 0.12065699
-0.056557007 0.18882792 0.10783775
0.16237181 -0.028918954 0.12504902
-0.15781362 -0.22161174 -0.30648893
0.101598725 0.13495816 0.22212152
-0.04358961 -0.025950428 -0.09944859
0.1824497 -0.060721863 0.109180085
0.025334755 0.24905187 0.060951546
-0.048723664 -0.012248979 -0.0670508
0.19293089 0.0049156123 0.059598375
0.24411891 0.12517215 -0.04078148
-0.18241452 -0.1178831 -0.18820149
-0.11529827 -0.15386304 -0.21153033
0.08923851 0.076703005 0.2053043
-0.18267858 -0.14383015 -0.1422588
0.085438885 -0.06208861 0.21680897
-0.26402804 -0.12170503 -0.14976084
-0.11096716 -0.10438438 -0.20995691
0.13065225 0.20107944 0.1626814
-0.03461346 0.23253477 0.06692673
-0.031423222 -0.14873259 -0.2878304
0.17897268 -0.029395154 0.12121749
-0.2214988 -0.24186826 -0.270905
0.0024708796 0.10827831 0.15995884
0.09220527 0.10738319 0.21267723
0.06641874 0.16584142 0.12996294
0.09476496 0.0831833 0.16379444
0.21572317 -0.030772004 0.14561246
-0.18816628 -0.0042387065 -0.26696333
0.22258563 0.04427903 0.04786578
0.19403392 0.11046006 0.20525602
0.2530722 0.103196345 1.5416446e-05
-0.24600002 -0.0065347804 -0.18844225
0.071085066 0.16308668 0.19313058
-0.018769797 0.10715446 0.18886992
0.09943579 0.102091335 0.18820944
-0.027890744 -0.05547654 -0.3097828
-0.027680552 0.03673011 0.20300701
0.09409026 0.044068243 0.2041494
-0.1956366 -0.24232039 -0.30909717
0.24653009 0.09603899 0.030259928
0.0011783927 0.21447161 0.09411851
0.08700312 0.24506919 0.040046126
-0.029179992 -0.1677786 -0.2588049
-0.071165964 -0.17649776 -0.22923127
-0.06588568 0.12632446 0.21200444
0.13125362 0.20184259 0.08137056
-0.24933048 -0.080568135 -0.15803714
0.061793935 -0.005715548 0.19445775
-0.14362879 0.04766824 -0.26920134
0.18981823 0.06846973 0.1237475
0.061905526 0.068377994 0.1518216
-0.20925556 0.053844046 -0.24414445
0.19010319 0.0846144 0.017692653
0.047760278 0.22705299 0.049834486
0.054347437 -0.06665928 0.204891
-0.032101575 -0.20858823 -0.34266376
0.00095965835 -0.015790597 0.24283487
0.04823116 0.09088547 0.12163638
0.23832768 0.013515663 0.015571345
0.11684607 0.21687783 0.088651754
-0.22665332 0.020533346 -0.25205797
-0.038903505 0.077542126 0.18971944
-0.2595018 -0.13006487 -0.093270995
-0.09617603 -0.12609172 -0.18774967
0.0025593939 0.2667524 0.07058832
-0.12585704 -0.2633806 -0.13504995
0.07305726 -0.057304915 0.19205871
-0.21269998 -0.24160002 -0.22025438
-0.19254962 -0.18328828 -0.13489
0.19754733 -0.06511762 0.10567933
-0.23651169 -0.13870662 -0.15601756
0.032405462 0.1156638 0.16164196
0.22745922 0.12654923 0.17847963
-0.0061697466 0.098766185 0.22043218
-0.11123443 -0.17174742 -0.23497944
-0.041754276 0.042732347 -0.047287975
-0.05379884 0.03470245 -0.04339191
-0.251727 -0.120389126 -0.15115479
-0.013281739 -0.03859638 0.192639
0.036432073 -0.042231023 0.23044217
-0.02405291 -0.2499393 -0.21561965
-0.13962922 -0.2012697 -0.13119529
0.06571658 0.18837997 0.023123445
-0.2797145 -0.15040784 -0.23474123
-0.007848257 -0.046208624 -0.06797887
0.15967399 -0.062240764 0.104977414
0.19477431 0.17899917 0.17620125
-0.12392112 -0.07528366 -0.17246597
-0.07433507 -0.032039832 -0.10055979
-0.13078743 -0.16114339 -0.24559759
0.07323971 -0.045988902 0.19993742
-0.16094975 -0.23988391 -0.15377747
0.1639008 0.14154069 0.2076931
0.011891283 -0.009048175 0.0064788694
0.16954161 0.014206538 0.15244304
0.060107026 0.09523649 0.18543121
-0.29938754 -0.032319833 -0.25202623
-0.13875897 -0.2626464 -0.27370107
-0.062223256 0.15801768 0.17004514
0.10945238 0.24277735 0.021714142
0.19305192 0.014131794 0.1291453
0.14678602 0.06661735 0.17972419
-0.14358902 -0.22528279 -0.12982516
0.19239813 -0.089384094 0.115783796
0.16425897 -0.06043511 0.15101045
-0.2888199 -0.029028289 -0.18045352
0.0019493029 0.020856978 0.17144689
0.0029364505 0.18781139 0.091162324
-0.049196895 -0.004898399 -0.14099722
0.1366886 -0.028103774 0.085441574
0.17334233 0.07584693 0.18632255
-0.021854999 0.058465376 0.2064977
0.18129893 0.21797095 0.13997711
0.08653765 -0.06700437 0.20566458
0.032816123 0.23632836 0.12977025
-0.1508324 -0.25598645 -0.3217666
-0.15876153 -0.045076437 -0.25185123
-0.0606663 0.020625101 -0.10824888
-0.033625193 0.26023194 0.092234686
-0.23407297 -0.16763437 -0.30671167
-0.13971044 -0.16012579 -0.20822926
-0.26836762 -0.19608568 -0.23329017
0.12432291 0.06631581 0.14265293
0.23193176 -0.01947863 0.025325421
0.13848941 -0.03956728 0.114026934
-0.26955697 0.043969557 -0.23149483
0.083866574 0.19279267 0.028673202
-0.27154315 -0.009177179 -0.1971904
-0.25118595 -0.01563482 -0.20538831
0.100687414 0.18788855 0.025980152
-0.03067268 0.083063744 0.17765042
-0.106924206 -0.23533195 -0.17000626
-0.16661789 -0.21826702 -0.15791135
-0.03008013 0.17868505 0.1753682
0.077537216 -0.06898348 0.1922487
0.20902382 0.13799207 0.15068117
-0.30032933 -0.20357013 -0.22410405
0.12279948 -0.014067847 0.116371006
-0.22432402 -0.18934365 -0.10178495
-0.14703864 -0.22536165 -0.12735543
0.13504581 0.16192077 0.044270437
0.014270828 0.18139835 0.10440636
-0.2929338 -0.12526463 -0.29085672
-0.08835905 0.11063409 0.18167853
0.033743653 0.07099162 0.20673196
-0.23364982 -0.14171168 -0.10876013
0.19016998 0.09855387 0.04964957
0.017729454 0.26059377 0.100909576
-0.0830204 -0.061272856 -0.13238317
0.19214618 0.21584561 0.019925738
0.058501396 -0.00053838524 0.17917329
0.16779208 0.04115851 0.15463038
0.19680631 0.14240609 0.18872848
0.14667366 0.2180727 -0.043600213
-0.015043501 0.17793834 0.17428014
0.21055548 0.047511052 0.18309309
0.03496844 0.113613695 0.20727701
-0.070826985 0.110893115 0.17849223
0.22049022 0.13269255 0.015116714
0.15238377 -0.030346787 0.10074446
0.25551546 0.042825352 0.037752487
0.19288445 0.00698717 0.15901779
0.086669005 0.1854084 0.18007748
-0.1002976 -0.14368196 -0.2624893
-0.33218133 -0.030307626 -0.23956284
0.21825783 0.10189615 0.052776538
0.09722092 -0.086622566 0.16286193
0.094697766 0.101238735 0.1586664
-0.084916286 -0.07001816 -0.12670735
0.048830733 -0.043496937 0.20868404
0.24071807 0.013235864 0.01563652
-0.015116732 -0.18150792 -0.3013714
-0.00641897 0.029443465 0.020896232
-0.075769335 -0.11638828 -0.20246296
-0.15575911 -0.19751276 -0.1384649
0.09640314 0.102926075 0.20878081
0.13658881 0.14456739 0.1927639
0.20169587 -0.02505298 0.0949842
-0.040384363 -0.019029884 -0.04351284
-0.15516935 -0.23353694 -0.13572614
-0.16622959 -0.040543314 -0.26813462
-0.007341813 0.0061520934 -0.056469295
0.110748895 0.17767952 0.09594492
-0.090729475 -0.17825413 -0.20589639
-0.20714603 -0.08964804 -0.19484586
-0.01783094 0.15791972 0.14962912
-0.26845446 -0.18534549 -0.26692888
-0.24176568 -0.20323329 -0.27394953
-0.29772365 -0.12184637 -0.15000877
0.20900856 0.021828815 0.058457628
0.097702034 0.04517466 0.20284377
0.010223456 0.10254084 0.16101015
0.18071616 0.13932025 0.17124608
0.076863095 0.122922055 0.16286887
0.1239025 0.15544613 0.2325762
0.0982261 0.1999429 0.16736679
0.17157769 -0.05410661 0.11617637
-0.15993856 -0.26151153 -0.3024228
0.13267708 -0.12075708 0.17459577
-0.12544301 -0.049719494 -0.17565641
0.124668516 -0.002940153 0.13674329
-0.1365265 -0.14199504 -0.23638012
-0.032927822 0.2031939 0.12875521
-0.3133566 -0.15575506 -0.26686904
0.09817925 0.048398826 0.19554763
0.27164784 -0.027650034 0.06634133
-0.13580804 -0.26280704 -0.26439765
0.22048771 0.13659458 -0.043345638
0.11354058 0.11785394 0.23826653
0.043826085 0.11316422 0.11936732
-0.26367855 -0.18512216 -0.16153795
-0.060388297 0.1935298 0.13920671
0.13144214 -0.11688889 0.18152353
0.20666166 -0.07113064 0.110282004
-0.19318418 0.028416323 -0.24958375
-0.009039543 -0.016207503 0.2288134
-0.12693745 -0.16909386 -0.22461994
-0.25161055 0.002607975 -0.19707529
-0.22664633 -0.044688486 -0.1613957
-0.18839885 -0.20080736 -0.15225011
0.052013263 0.12242186 0.22648765
-0.035462104 -0.25860414 -0.22790577
-0.054631922 0.027340407 -0.03474951
-0.25580344 -0.04482327 -0.1573742
-0.08156403 -0.044717874 -0.08321711
0.01823284 0.07481577 0.16709207
-0.070759796 -0.2452085 -0.20256868
-0.15743724 -0.06656047 -0.23913015
0.102890186 -0.024184756 0.13588567
0.22106528 0.06134402 0.083853096
0.04215399 0.2738123 0.019612478
0.006467055 0.18819489 0.08063495
-0.25776955 -0.20285659 -0.1991515
0.062012408 0.13590564 0.218939
0.04850568 0.009165589 0.18535073
-0.26969427 -0.11683165 -0.1499934
0.13444129 -0.0043763015 0.13075046
-0.09749147 -0.2533439 -0.16524127
0.17657858 0.0186321 0.10258853
0.07676725 0.16041191 0.16883735
-0.022196312 0.17147222 0.17923886
-0.25860336 -0.10060369 -0.13851546
0.1940095 -0.034684338 0.13849148
-0.09926062 -0.13962366 -0.24008684
-0.0741242 -0.05068697 -0.27418992
-0.015458924 0.24383089 0.102930814
-0.21008138 0.061042193 -0.24830365
0.09273994 0.13191964 0.18570021
0.079645865 -0.03818947 0.19291064
-0.048488148 -0.25119752 -0.23956344
0.06261578 0.12544769 0.14580409
-0.12687516 -0.17376712 -0.20318316
-0.27734947 -0.115400605 -0.1911474
-0.2731157 -0.09364105 -0.14158404
-0.16491567 -0.17867257 -0.17078316
0.12722494 0.0040251035 0.14685293
-0.28583577 0.00508796 -0.21126287
0.060001902 0.2291349 0.028274925
-0.06722955 -0.21077539 -0.22478399
-0.019239139 -0.034865085 -0.054013908
0.031988587 0.09833371 0.21272302
0.23340724 0.09388986 0.09276546
0.17980717 0.073772475 0.10879342
-0.24675028 0.00076412194 -0.21965271
0.0014100042 0.081600875 0.18600816
-0.29642287 -0.1157485 -0.24675265
0.17626652 0.039935656 0.1956654
-0.29569396 -0.13611561 -0.14558502
0.09738413 0.1294683 0.19805671
-0.18545681 -0.018243259 -0.25678584
-0.028754327 0.043922793 0.1987177
-0.23184112 -0.11964418 -0.3440205
0.0892927 0.21572241 0.14069243
-0.042843916 -0.052702505 -0.08671643
0.17374732 0.013658792 0.033445552
0.062493652 -0.029358022 0.17758209
0.13214222 0.17848688 0.008222099
-0.27371955 -0.049173597 -0.15501656
0.023635734 -0.03900849 0.20224266
-0.02003324 0.15968953 0.17800605
0.17566982 0.0025902311 0.05002539
-0.11262545 -0.25019342 -0.16550119
-0.0057542324 0.15633523 0.1662432
-0.13190381 -0.27903372 -0.13836543
-0.2726004 -0.074160196 -0.1325382
0.19126627 0.10344789 0.21012373
-0.050846912 -0.022994064 -0.06701628
0.10843831 0.21802662 0.034899835
0.14101695 -0.008835695 0.13608836
0.04151725 -0.00984074 0.24117108
0.03404742 -0.059061583 0.20537287
-0.2790131 -0.12964761 -0.12160128
0.17523581 0.1652415 -0.00251466
-0.109810375 -0.013597071 -0.17183593
-0.18355325 0.043029774 -0.2750144
0.18302892 0.13018288 0.0382025
-0.21752062 -0.18142454 -0.13763842
0.13322152 0.1256417 0.19706209
-0.041043878 -0.19501555 -0.22602615
-0.14821424 -0.016088845 -0.29446903
0.050560992 0.02902606 0.15752986
0.080993526 0.047675017 0.13607627
-0.18763813 0.043393996 -0.25857553
0.06531435 0.08626813 0.17254928
0.2504998 -0.020876994 0.05096148
-0.047465652 -0.23219784 -0.2528229
0.15420114 -0.0050634015 0.18940863
0.16245443 -0.060771752 0.120489344
0.16687112 0.17761676 0.03714774
0.19591004 0.116325654 0.14656708
-0.17403059 -0.15796855 -0.14368215
-0.026201839 0.07976395 0.16376132
-0.22485276 0.05296046 -0.22120662
0.10895291 0.22214553 0.115762666
-0.04038321 0.044187177 -0.041982673
0.20126493 0.15794316 -0.029540837
0.19512333 -0.04638053 0.08757189
-0.05917087 0.008600695 -0.36538166
-0.03929429 0.17529562 0.15692082
-0.18000098 -0.2321741 -0.16992395
0.18986486 0.114465356 0.18738645
0.032029048 -0.17216094 -0.28812957
0.19981171 0.16948204 0.040730856
0.04831634 0.014558283 -0.009950569
