# .PCD v0.7 - Point Cloud Data file format
VERSION 0.7
FIELDS x y z
SIZE 4 4 4
TYPE F F F
COUNT 1 1 1
WIDTH 1000
HEIGHT 1
VIEWPOINT 0 0 0 1 0 0 0
POINTS 1000
DATA ascii
-0.040649492 0.2299724 0.2109292
-0.028932352 0.12961544 0.1497363
-0.047455847 -0.024339266 0.20733559
-0.1841034 0.006237814 0.1420282
0.11951307 0.055248585 0.18769939
-0.04209817 0.18187308 0.19645025
0.03245069 -0.24070285 -0.15287302
-0.021222802 -0.1851892 -0.24590011
-0.005650711 -0.19452271 -0.20665206
0.01659812 0.27788484 0.050266355
0.014098887 0.010145606 0.21126041
0.2022188 -0.25509948 -0.25763524
-0.21439436 -0.0010641634 0.14402428
0.055719048 -0.042774998 -0.0790561
0.031215834 -0.016856838 -0.35584384
-0.11459943 -0.14714052 -0.30483812
-0.07581374 0.23613538 0.107405424
0.010979577 -0.1590995 -0.19212183
0.009853365 0.036230784 0.16030073
-0.0836026 -0.21686524 -0.19702551
-0.10323109 0.078182876 0.21968184
0.05092323 -0.07306114 -0.17127429
0.008354635 0.040955782 0.16069487
0.07374413 0.02812503 0.2152363
-0.00831551 -0.24988206 -0.20009276
0.07139064 0.1465447 0.12109689
0.15258844 -0.2678378 -0.11599166
-0.085404694 -0.21540104 -0.23699757
-0.077425875 0.18238147 0.19602187
0.024326975 -0.19846103 -0.2150147
-0.10547196 0.09408496 0.20714198
0.022657981 -0.30327228 -0.16797978
0.1304703 -0.1759462 -0.17135116
0.112530716 -0.21809532 -0.1797977
-0.025809921 -0.07964312 -0.3515393
-0.07097997 -0.25022075 -0.2872678
0.17176047 -0.24184565 -0.2753121
0.13671671 -0.24367693 -0.111508854
0.065603495 0.070014946 0.17147638
-0.17173502 0.09252453 0.15125251
-0.24561991 0.08016037 0.049732454
0.21390514 -0.12276681 -0.2288774
-0.020041283 0.20982929 0.21209916
0.01215173 0.16555972 0.1562822
0.046479654 0.24085756 0.12567565
-0.023066226 0.15685336 0.25424147
0.14666991 -0.26807943 -0.14675432
0.17097043 -0.15277396 -0.18401739
0.113888085 0.23845358 0.09361505
0.049591314 -0.023524314 0.19277674
0.17756003 -0.06297118 -0.24429055
-0.18716067 -0.0056325616 0.14746614
0.049559142 0.10323747 0.16117412
0.06969538 -0.123534516 -0.2031452
-0.110574074 0.22003628 0.15922986
0.062313337 -0.26192388 -0.13452362
0.10085847 -0.33337668 -0.29062316
0.017495355 -0.29500344 -0.151849
-0.111424625 0.21433444 0.20216201
-0.049841765 0.029469574 0.22221345
-0.10026184 -0.25691712 -0.18782888
0.2599552 -0.11144507 -0.32725438
-0.2161653 0.16893134 0.10481469
-0.18118288 0.06133279 0.12594564
0.044214386 0.066371486 0.18221977
0.022913417 0.15310395 0.17618866
0.089062996 0.069674246 0.17192852
-0.10722692 0.20610462 0.18244605
-0.059511777 0.03597773 0.17666942
-0.103928424 -0.12024687 -0.2840211
-0.14031175 0.20947301 0.17755501
-0.08352125 -0.08735439 -0.35986155
-0.026357608 0.015950516 0.24076164
0.04899402 -0.28217995 -0.15050982
-0.025826916 -0.2985747 -0.32124326
-0.15203568 0.2334277 -0.046826724
0.0042114602 -0.24200913 -0.18507658
-0.15051384 0.022336273 0.15076314
-0.25224108 0.111338586 0.062375598
0.01253861 0.11571481 0.17831512
-0.085703194 0.2701462 0.13765997
0.08477266 0.19478722 0.062941335
-0.08761951 0.03866954 0.17640431
-0.15477084 0.2552533 -0.03012309
0.2273789 -0.15837948 -0.1727662
-0.0434742 -0.23549421 -0.19238316
0.16444886 -0.16478553 -0.19462837
0.010295931 0.08983556 0.12982842
-0.032244958 -0.16642044 -0.23326117
-0.19084334 0.1096078 0.13894992
0.09746211 -0.1015382 -0.16691789
0.1518951 -0.09395832 -0.24325614
0.061248925 0.07591845 0.17262098
0.07876444 0.0098745 0.19639535
0.24385728 -0.16134621 -0.17617415
-0.019613577 0.051228207 0.18881646
-0.008937408 0.123116106 0.21235323
0.0141914785 0.15677293 0.16039339
0.11124666 -0.24018878 -0.29260242
0.14027432 -0.18446256 -0.16805787
-0.052196465 0.22235326 0.11781493
-0.02826331 -0.31126517 -0.15060027
0.119662344 0.019013168 0.20626633
0.14974658 -0.2252885 -0.2068884
0.043608766 0.14868404 0.15089925
-0.08518863 -0.19670738 -0.27048412
0.21089649 -0.16993655 -0.14868362
-0.016637776 -0.064826116 -0.08634212
-0.036954302 -0.2650517 -0.21331611
0.039397057 0.17374286 0.06303399
-0.045179185 -0.07514584 -0.35368901
0.03511084 -0.2679068 -0.132702
0.040633023 0.049919892 0.18037309
-0.03844029 -0.19079769 -0.23303771
0.12470775 -0.22457796 -0.17806688
0.120872654 -0.06825893 -0.2872261
-0.1617237 0.21223952 0.17190641
0.07956232 -0.10697079 -0.2907737
-0.0048030647 0.2877868 -0.025167042
0.13013467 0.15611407 0.10261562
-0.020887649 0.07194845 0.19618697
0.01022241 -0.27823249 -0.14544263
0.036793966 -0.17976132 -0.20377412
-0.072097756 0.23786643 0.1684081
-0.023134436 -0.098689705 -0.15858075
0.21221718 -0.20248996 -0.30854934
-0.11424061 0.14400822 0.19486341
-0.06190681 0.022562055 0.19208238
-0.07817706 0.14132804 0.23868918
-0.19625662 0.13027027 0.09029515
0.12384931 -0.1975721 -0.19350146
0.00334897 -0.16637596 -0.1801638
0.060644727 -0.08638955 -0.15286893
0.14259367 -0.16056104 -0.23584118
-0.056832854 0.2556753 0.1018966
0.099025026 0.057477914 0.18943165
-0.0074866978 -0.2636607 -0.29387805
0.07210714 0.12683442 0.13512021
-0.105514735 -0.13494638 -0.32711914
-0.12914197 0.061142568 0.15848279
0.066596076 0.22657424 0.042382352
0.035098165 -0.0983251 -0.12421694
-0.1276062 0.25564465 -0.055572495
0.08838735 -0.13633417 -0.1988599
-0.037165906 0.04038463 0.18896556
0.040587567 0.02559105 0.20674431
0.12761314 -0.23854515 -0.12582694
0.079076484 -0.15554142 -0.2333375
0.035215642 -0.26405543 -0.15864038
0.08660704 0.2251397 0.035113238
-0.05300362 0.25071964 0.16205187
0.021892646 0.078742 0.2140014
0.08155055 -0.32062522 -0.28986588
0.07575758 -0.18567356 -0.23058626
0.20809421 -0.20346843 -0.24766947
-0.073023394 0.25370574 -0.040914208
0.09872198 -0.21565892 -0.1521401
-0.036922034 -0.013266141 0.19941519
-0.03744255 0.04530275 0.2218223
-0.07945643 0.21768545 0.22716987
-0.18952993 0.06742798 0.10622988
-0.14093445 0.047591195 0.1450136
0.20638905 -0.19306944 -0.24577226
0.13373777 -0.24485748 -0.109210916
-0.040692814 -0.03251027 0.1957767
-0.109982215 0.10942629 0.18516602
-0.03585324 0.028448682 0.24282612
0.0021212015 0.16625473 0.17559962
0.24690777 -0.12943557 -0.21756393
-0.13258812 0.034354266 0.18158187
-0.091752306 0.23483 0.07023986
0.056123234 0.049057256 0.19923186
-0.0011104515 -0.09402743 -0.09727943
-0.23589313 0.08648547 0.065382145
-0.25192702 0.044977855 0.07318194
0.077233195 -0.23667003 -0.18386415
-0.047986094 0.1997382 0.22985181
-0.19832134 0.054735523 0.0681866
-0.19142188 0.023344433 0.15706696
-0.020732261 -0.23606567 -0.1784082
0.13014556 -0.20948507 -0.16557962
0.012546419 0.24386662 0.04176568
0.15799266 -0.22595525 -0.113211416
-0.12627664 0.07732278 0.13398239
-0.11828562 -0.044987317 0.2129047
0.060471322 0.19907945 0.06826986
0.08406508 0.21224879 0.064173706
-0.062938176 0.26258105 0.043412685
0.062256616 -0.1868078 -0.23701763
0.05387951 0.19015622 0.19135979
0.017913513 0.13678358 0.23763032
-0.020798387 0.21502176 0.2020912
-0.06608575 0.1087328 0.21958312
0.013167596 0.09576106 0.21274282
0.23092137 -0.14234708 -0.31884873
0.23254366 -0.13698138 -0.22857374
0.1254544 0.19856028 0.11006167
-0.16563152 0.13846485 0.1886418
-0.1446887 0.035875365 0.13751653
0.033551786 0.071415 0.16301203
-0.08210139 0.2402319 0.044386655
-0.16051927 0.08500887 0.11881592
0.10780158 -0.24594574 -0.15708053
-0.07543467 -0.12115868 -0.2841121
0.017996015 -0.21913318 -0.2130057
-0.105953716 0.24429522 0.0045106607
0.07645579 0.26594454 0.04573411
0.08886703 0.1367016 0.09091531
0.06365716 0.07470807 0.192672
0.1798886 -0.23774014 -0.1528245
0.08998435 0.079933114 0.18676892
0.014755243 0.059678894 0.18130144
-0.047682706 0.21667852 0.028202323
-0.096434906 0.01944407 0.18668768
-0.07564149 -0.2305731 -0.24342416
0.14911102 -0.21785 -0.1816244
0.050208036 0.06800611 0.14768583
0.16808562 -0.13533527 -0.23350963
-0.039978165 -0.045221414 0.20361802
-0.115476884 0.094578594 0.20514552
-0.07143023 -0.0026914882 0.20623615
0.0024587784 0.22672398 0.03566095
0.12472612 -0.25650504 -0.1116646
-0.018413663 0.19447982 0.2151594
-0.012946336 0.23604251 0.08803538
0.09329056 0.12977734 0.1650584
0.035921175 0.00582889 0.21280994
-0.044920865 0.13920711 0.21443579
-0.02830686 0.21164086 0.21198249
-0.18393426 0.12753987 0.15054388
0.13712728 0.23543659 0.07343046
-0.14969411 0.17468809 0.17611794
-0.01935195 0.1521455 0.16051379
0.11219665 -0.14473082 -0.22617522
-0.027501214 -0.18595482 -0.2430702
0.04752568 0.17530395 0.15377165
0.060322344 -0.037236437 -0.08790441
0.11313235 -0.20090413 -0.1941286
-0.01089022 0.2532026 0.021502648
-0.05268696 0.18398714 0.22342
0.007172161 -0.15685028 -0.24930741
-0.07151091 0.27485913 0.1483639
-0.08219152 -0.26230538 -0.21507117
-0.06144237 -0.23932852 -0.20876105
0.12822539 -0.28311014 -0.14270869
-0.010227094 -0.2763729 -0.15922962
0.08506414 0.116049565 0.16040593
0.058167797 0.1688751 0.056499895
0.022657853 0.06481824 0.17961575
-0.1722886 -0.022906678 0.16763452
-0.038171798 -0.036465555 -0.06415587
0.011528406 0.03427215 0.1800772
0.123502664 0.23357096 0.087708175
-0.06301478 0.15832466 0.22673264
-0.04522306 0.1511054 0.14787686
-0.022788951 -0.16628881 -0.28136274
-0.23424801 0.042057905 0.13753437
-0.18337011 0.07690274 0.07329545
-0.044068996 -0.007927228 -0.012666454
0.016304843 0.09637461 0.12095389
0.18242453 -0.037475508 -0.2973383
0.087771244 0.03212927 0.19072954
0.086860284 0.13306814 0.13347125
-0.19175902 0.072324306 0.14180946
-0.17298129 -0.010334179 0.16520706
0.013215936 0.18699197 0.18232344
0.0649587 -0.15734357 -0.1768841
0.046259332 -0.032966293 -0.07028535
-0.032022562 0.22005525 0.090664044
0.17191872 -0.018030748 -0.31395194
0.073270045 -0.061366074 -0.30260035
0.060108975 0.024656754 0.2098288
-0.065769434 0.03672848 0.18604152
0.09845635 -0.16595905 -0.21114062
-0.115843244 0.27178445 -0.040895063
-0.12127056 0.16962293 0.20104688
0.21198353 -0.042643465 -0.282072
0.23687212 -0.19929458 -0.22672412
0.054370403 0.16159068 0.13434474
-0.16875252 0.1544064 0.07974119
0.06787487 -0.30651397 -0.20187622
-0.01227466 0.11708995 0.1778696
0.021124838 0.13073494 0.13122168
-0.24086544 0.11154522 0.06340274
-0.10404101 0.23194656 0.07720039
-0.17142136 0.19077665 -0.001541918
0.17024148 -0.07546302 -0.2821577
-0.011260365 -0.09179646 -0.16350643
0.12461061 0.17695569 0.09146724
0.23299147 -0.07457263 -0.2817567
-0.07764694 0.0026437507 0.17844303
0.15213656 -0.26922092 -0.15602891
0.09731792 -0.27022162 -0.14077936
0.12574068 -0.2721591 -0.13636
-0.12796119 -0.0024925824 0.21856971
0.07289714 0.16782458 0.0963873
-0.055992834 0.17973806 0.1872646
-0.06324923 -0.14960895 -0.24860965
0.0043237642 -0.18450065 -0.2343523
0.06442127 -0.2666436 -0.11816227
-0.048713844 -0.31684285 -0.27660927
-0.1463419 0.012915759 0.14536981
-0.16571233 -0.021502173 0.16566035
0.029308287 -0.026162846 -0.05762584
-0.03430665 0.2603213 -0.031548448
-0.03243631 -0.025974791 0.19529082
-0.0781738 0.25236195 0.20367062
0.14124678 -0.22386618 -0.15756881
-0.04379414 -0.009688598 0.020904051
-0.006957003 -0.30148402 -0.26969063
-0.056286056 0.22110303 0.19158106
0.19941345 -0.21655875 -0.2731102
-0.0025627469 0.15654594 0.21931408
-0.11374649 -0.008291321 0.15549567
0.09394098 -0.1780073 -0.16984604
0.17417645 -0.14746195 -0.21519688
0.025393458 0.20578139 0.1566092
-0.05389041 -0.034102216 0.2139562
-0.030744523 0.24127322 0.045158315
-0.0006582401 0.2204966 0.03120619
-0.09122546 0.13336377 0.22511378
0.034856644 -0.07254089 -0.10605402
0.03496129 -0.060645435 -0.1033005
-0.02341469 0.18701555 0.030060297
-0.039218657 0.18882355 0.073708676
0.18665636 -0.18091741 -0.164926
-0.028743295 0.047212884 0.22245006
0.07640434 0.16831137 0.14056662
0.19578369 -0.22365174 -0.13959083
-0.12962903 -0.009377489 0.17419845
-0.020254202 0.277594 0.02348802
0.018537758 0.2013062 0.18421292
0.06881724 0.09168381 0.17018044
0.047002163 -0.07575457 -0.1812843
-0.023690315 -0.19786198 -0.2544259
-0.16307804 0.073886886 0.1566426
-0.22900212 0.11433034 0.07393762
-0.13713689 -0.050269227 0.19441922
-0.013019847 -0.22477306 -0.2491926
-0.094297834 -0.004654923 0.17742959
0.08399653 0.18842383 0.059158657
-0.16915576 0.05072435 0.1559044
0.19207118 -0.19120002 -0.17174906
0.05158647 -0.22231267 -0.21793294
-0.06396315 0.016117642 0.15283075
0.050578993 -0.088387825 -0.15812247
-0.06859459 0.20758681 0.20889808
0.051577978 0.0609856 0.17328109
0.06413059 -0.07331922 -0.28464374
0.021378934 -0.023052055 0.22913267
0.014410114 -0.27572763 -0.16685572
0.09106009 0.20820057 0.08286894
-0.091134876 0.28557497 -0.02051031
0.088468 0.10256041 0.16844769
0.20300093 -0.20332523 -0.34107113
0.21326107 -0.20867988 -0.24820136
-0.18502715 0.007267423 0.14535724
0.042183075 0.14091788 0.1506764
0.06971988 0.20575254 0.07859633
-0.08021568 -0.080721855 -0.34008375
-0.21817467 0.10324298 0.07962549
-0.14830104 0.021319166 0.14759454
0.16767372 -0.21849328 -0.2806567
-0.0734394 0.093970224 0.21118954
-0.13213143 -0.039880514 0.17749244
-0.09268283 -0.1737389 -0.28754663
-0.17920886 0.16418406 0.086773746
0.12781791 0.22458425 0.06679923
0.052764934 0.23605146 0.03141618
-0.092497475 0.08179328 0.19500454
-0.10539206 0.0013884031 0.20817132
-0.16974998 0.044148512 0.15916097
0.0016860157 0.017925186 0.1791496
-0.22336224 0.042309333 0.09419437
-0.1452873 0.084768906 0.17297976
0.056389127 -0.17778102 -0.2368114
-0.15754274 0.085784815 0.14051999
-0.024319945 0.04824975 0.19399153
0.020301543 -0.057356767 -0.31666794
-0.024298297 -0.0013245853 0.24363287
0.039470445 -0.29657707 -0.15653843
0.1281456 -0.19260976 -0.19401795
0.03397043 -0.05648899 -0.3187645
0.24436851 -0.13729766 -0.19941255
0.1530003 -0.17562208 -0.1605008
-0.05619032 -0.22826216 -0.23125921
0.13902175 0.1707023 0.11312969
-0.23201935 0.052547406 0.09526339
-0.16639678 0.071766496 0.08448195
-0.06252603 0.24986611 0.010133028
-0.032659177 0.2896297 -0.026598562
-0.019160058 -0.2622643 -0.18243739
-0.07337515 -0.22275557 -0.2305908
0.02417671 -0.30025452 -0.15688609
0.08841072 0.21903159 0.079424985
-0.068426535 0.22600588 0.18380857
-0.12123404 0.011381771 0.16739115
0.08340972 -0.31298602 -0.12636195
0.06572044 -0.08942363 -0.18618569
0.12948667 -0.23009111 -0.14133422
-0.018356329 0.26608166 0.00084519456
0.024185568 -0.0048381984 -0.023397714
0.050193604 -0.02246499 0.20803854
-0.07844825 -0.22668712 -0.23307307
-0.0007707092 -0.013490932 -0.3309529
-0.0072525656 0.08804506 0.1472195
-0.10318426 0.17991729 0.2300365
-0.17979144 0.16734366 0.025945252
0.10403705 -0.23529345 -0.31428358
-0.100804746 -0.0105567835 0.17805621
0.013260652 0.2733838 0.03299089
-0.025250623 0.22176176 0.1991275
0.084142976 -0.19411728 -0.195095
-0.18853447 0.005001247 0.12068414
0.08381066 0.14713976 0.1350619
-0.107305534 0.02097319 0.13929398
-0.101141796 0.18583302 0.18837355
-0.11778559 0.07557166 0.1854216
-0.0068639 -0.023712503 -0.035367932
0.017017735 -0.27798995 -0.13317652
-0.13871162 0.015850516 0.20397486
0.08529977 0.055591658 0.20072275
-0.18426198 0.14870319 0.10485963
-0.16835764 0.17904073 0.17152324
-0.004129822 -0.04366029 -0.36694148
-0.036632765 -0.014304455 -0.048063047
-0.094771035 0.1306898 0.21217154
-0.045393065 -0.0009356644 0.21897493
0.16250005 -0.12170902 -0.18410338
0.0438525 0.049247973 0.15900724
0.15179107 0.1782097 0.10716572
0.01309283 0.015627928 0.22345419
0.047820434 -0.0049438095 -0.08253226
-0.22480752 0.09237793 0.04780637
-0.052440636 0.2603845 0.18027514
-0.030165102 0.19245346 0.17366077
-0.03711536 -0.031750727 -0.07827204
-0.11734575 0.019539991 0.19998014
0.027133636 0.09033222 0.1604535
-0.14933826 0.0021416796 0.14313361
-0.0068043415 -0.10089629 -0.30679357
-0.099971 0.01031431 0.20029372
-0.22157025 0.1577187 0.011012974
0.19556756 -0.19737343 -0.16695924
-0.019273115 0.17238852 0.16473782
0.12874828 0.07933128 0.17010035
-0.21167628 0.11281375 0.06705272
0.06277259 -0.09365998 -0.16194707
0.18377328 -0.23131305 -0.27111402
-0.011695709 -0.24955674 -0.22776471
0.17905602 -0.18844004 -0.14070345
0.14245993 -0.18532592 -0.16695204
0.07580951 0.13011228 0.107460275
-0.016398335 0.08306154 0.17672472
-0.08149933 0.15313458 0.22635463
-0.01658578 -0.084271625 -0.106982745
-0.006203061 -0.023938097 0.20200334
-0.08615341 0.09529463 0.19289497
0.066685155 0.25581658 0.022380205
-0.08277064 0.26165584 0.14028488
0.12741408 -0.2489771 -0.25330523
0.045600943 0.053598873 0.20648016
0.12166467 -0.1233874 -0.28096738
-0.0734766 0.21141155 0.10258991
0.08357664 0.16234615 0.18739092
0.054358426 0.06315869 0.15009956
0.03614323 0.021079104 0.16233192
-0.14175136 0.1751508 0.1978192
-0.036004756 0.20454057 0.031865638
0.047694087 -0.26747954 -0.15203512
0.027135314 0.10782033 0.18149555
-0.09129533 -0.17428476 -0.2626423
0.13477457 -0.10682609 -0.24908254
0.11544186 0.08898403 0.16181543
0.08035135 0.1730131 0.09776946
-0.100193426 0.20360538 0.10741716
-0.033178944 -0.005641305 -0.013564416
0.021965614 0.28736255 -4.071429e-06
-0.057488743 0.22698787 0.2093326
-0.0540151 0.04687159 0.027935356
-0.063198276 0.125146 0.23951657
-0.021710144 0.020262595 0.22766519
0.117359236 0.12422634 0.10579552
0.091212735 -0.055220835 -0.33167252
0.040116232 -0.19897284 -0.17207572
0.07452861 0.26630187 0.03999187
0.13490954 0.062525176 0.18326631
0.11125535 0.06742147 0.17733465
-0.033061333 0.09951591 0.19296302
-0.16671573 0.02829372 0.12655075
-0.120554686 -0.021948205 0.19745049
0.04082721 -0.10399257 -0.15021098
-0.08833279 -0.14221354 -0.3003525
0.2151189 -0.18132749 -0.33219236
-0.05142424 -0.10093852 -0.31054345
-0.023381818 -0.27391282 -0.14565063
-0.19456469 -0.004556171 0.14192566
0.043093655 -0.11141675 -0.10961717
-0.052194435 -0.24426381 -0.20893008
-0.08831889 0.21484801 0.20610692
0.082317375 0.0077229324 0.22002071
-0.08484204 -0.13940217 -0.25815722
0.12745953 -0.1754478 -0.21805541
-0.018397536 0.0055554067 0.19294757
-0.19510815 0.07142523 0.14722776
-0.06304373 -0.013116484 0.18019043
0.013533028 -0.21490833 -0.18430065
-0.09036657 -0.12938552 -0.31345037
-0.061993033 0.19410364 0.17912886
0.10247032 0.08608732 0.16117509
-0.0367216 -0.07270028 -0.06577621
-0.03462741 -9.662432e-05 0.18944049
0.058897372 0.175838 0.12046603
0.049009454 -0.15798688 -0.16871351
-0.05803636 -0.17899302 -0.23846199
0.10049904 -0.32308662 -0.2670342
-0.16304 0.14550215 0.15481485
-0.09656286 0.24824865 0.03734952
0.12208093 -0.18462196 -0.18732326
-0.15716627 0.15913193 0.13277906
0.12593855 -0.17971589 -0.1904499
-0.0021793984 -0.28523925 -0.19293179
0.113953024 0.10607002 0.1289533
-0.031428184 0.24033977 0.15082344
0.1080216 0.18372971 0.079784796
-0.17176162 0.10591202 0.16609415
-0.078969315 0.17087276 0.24128085
-0.006326991 -0.22904465 -0.21377103
0.016861107 0.23545028 0.052555077
-0.02492674 0.11292008 0.13402234
-0.15605223 0.22315626 0.17653278
-0.04058003 -0.027586441 -0.33659735
-0.07430375 0.2806229 0.025654495
0.05208504 -0.016038032 0.2267631
0.022900507 -0.16549848 -0.2134182
-0.033482708 -0.03861214 -0.07665905
0.055403102 0.1265051 0.109149925
0.1797993 -0.31445065 -0.29452407
-0.13644025 0.15187761 0.14374101
0.14477444 -0.20940983 -0.15937279
-0.022638941 -0.20964094 -0.21358927
-0.09462362 0.08770492 0.21216187
0.086658075 0.15436713 0.14116073
-0.10569799 0.26938495 0.020981867
0.09013974 0.043269925 0.20171124
-0.14059664 0.15713412 0.23855543
0.1002536 -0.025426002 -0.35050598
0.07024854 -0.25943562 -0.12998773
0.0017267618 0.123476356 0.12176034
0.15082619 -0.19113702 -0.19532984
0.049725503 -0.12193816 -0.19107935
0.020699626 0.15942878 0.12977344
0.18519394 -0.21009138 -0.2718197
-0.030764049 0.0660205 0.21873961
0.07783552 -0.12824473 -0.20980799
-0.022157054 -0.2884122 -0.15132993
-0.15262349 0.15510394 0.20073317
-0.0899456 0.15560172 0.17252192
-0.104653984 0.042868335 0.18787697
-0.06469861 0.18904544 0.19964519
-0.1082854 0.2471569 0.18214169
-0.0344973 0.013575137 0.15857798
-0.006139576 -0.16364485 -0.23793285
0.06231242 0.17494024 0.20738325
-0.032162398 0.030468682 0.22837652
0.054553524 0.18070365 0.09912751
0.0148202125 -0.2899909 -0.29560757
-0.1049915 0.12887867 0.1902467
-0.007249137 0.006551466 0.2209705
0.021146785 0.043640584 0.17228405
0.12675701 -0.16551588 -0.22056863
0.06444487 0.066415586 0.19128372
0.08832043 0.10656409 0.12395221
-0.06600094 -0.22844997 -0.23844521
0.104602 -0.18370362 -0.19736336
0.11442266 -0.104251325 -0.25570336
0.124237366 0.22967826 0.050526008
-0.19419448 0.0476539 0.15312694
-0.02727135 0.15629044 0.1998157
0.053737234 0.23127529 0.11629616
0.0036598514 -0.07310536 -0.11069335
-0.070037976 0.23390463 0.19867554
0.18266588 -0.07470775 -0.27842557
0.17013717 0.15679233 0.110731214
-0.13924019 -0.006202078 0.18305139
-0.0025222094 -0.013586611 -0.36825556
-0.24724658 0.02249958 0.10572957
-0.098335244 0.12214652 0.21017961
-0.08025267 -0.031104496 0.1937075
0.05869846 0.16885386 0.13121425
-0.071068764 0.26311755 0.13418034
0.043955397 -0.0057720672 0.23105958
0.124119684 0.19728509 0.08042645
-0.09633189 -0.031157022 0.21006335
0.057488732 -0.2452582 -0.20311946
0.1001163 0.2355916 0.056276474
0.041788645 -0.29894352 -0.13203792
0.08871523 0.08845794 0.16936222
-0.012217572 0.041653853 0.0498116
-0.03612862 0.20115459 0.24023998
0.11446538 -0.18845001 -0.19837959
-0.063608356 -0.27722988 -0.17253654
0.0058043697 0.026292654 0.18033434
0.16579424 -0.31478477 -0.22662169
0.013148151 -0.20529962 -0.23764974
-0.038720425 0.033276092 0.25087184
-0.21109174 0.15182596 0.01944391
0.0443812 0.17781173 0.11059716
0.051140025 0.031066416 0.19993332
-0.10706363 0.0066058575 0.17009562
-0.13896568 0.13890819 0.1603335
0.091892354 -0.100759655 -0.19925855
-0.04793615 0.23974587 0.05150228
-0.049553074 -0.26500922 -0.17940025
0.018898366 0.032802686 0.20864137
-0.002265554 -0.002274082 0.19502716
0.003985691 -0.09431778 -0.1314381
0.15148838 0.14545205 0.14012234
-0.20878091 0.056081288 0.13385847
0.048891727 -0.26264548 -0.13257171
-0.18207557 0.07449368 0.16823477
0.070453614 0.015061127 0.20672776
0.0031711212 0.25588104 0.01980034
0.030292233 -0.12928437 -0.19837224
-0.018912153 -0.09610438 -0.16156797
-0.1187033 0.23050578 -0.01026538
-0.168664 0.1598294 0.18445647
0.10173147 -0.23652084 -0.17999989
0.011275146 -0.021493293 -0.36835843
0.03673135 0.17282864 0.11509764
-0.012346733 -0.2772164 -0.19473554
0.061188087 0.03494196 0.1821218
-0.006075118 -0.05531245 -0.110037416
-0.04601659 0.1284789 0.14927238
-0.07530797 -0.22905453 -0.2172326
-0.17468867 0.089279436 0.13351221
0.14292379 -0.24561279 -0.22697626
0.08948233 -0.19384779 -0.17997189
0.10242353 0.054717347 0.16678734
0.12582262 -0.03323643 -0.32097003
-0.03445552 0.21811591 -0.002963564
0.012444964 0.18077853 0.21713029
-0.044327173 0.10016573 0.16527382
-0.04750809 0.12530372 0.24368247
-0.07533725 -0.018048095 0.18243037
0.19487508 -0.11951373 -0.22227627
0.17663072 -0.17476387 -0.20208006
0.082640715 0.24645741 0.015427742
0.15106542 -0.03101795 -0.2782779
0.032620676 0.20880583 0.1002907
0.09404382 -0.043304376 -0.31621128
0.09534365 0.04755222 0.21265385
-0.06390776 -0.24305187 -0.20198287
-0.10997313 0.15953629 0.20819858
-0.0064471457 0.22035292 -0.0054949704
-0.11168646 0.12112257 0.230376
0.009339702 0.09983967 0.1487172
-0.09109599 -0.21024807 -0.2365103
0.24408987 -0.1793518 -0.20195659
0.0101038385 -0.229322 -0.18668762
-0.0792331 0.08756707 0.18700962
-0.15233405 0.06591741 0.18613918
-0.12070335 -0.0010887652 0.19944654
0.115937985 -0.30597198 -0.26767507
0.12857428 0.10586997 0.1897504
-0.019775674 -0.10760881 -0.103801765
-0.15047835 -0.009853224 0.16558571
-0.09476632 0.2705475 -0.022843022
0.1389802 -0.13093884 -0.20358825
0.10879036 0.04099939 0.176497
-0.066403784 0.12979229 0.24249603
0.048536994 -0.14384703 -0.17291842
-0.055484917 -0.22176348 -0.20855881
-0.050421946 0.06282412 0.15135683
-0.25339714 0.07301607 0.08245833
0.122922145 -0.18042217 -0.21490064
-0.06444715 -0.23158923 -0.19754894
0.16214521 -0.090991125 -0.29450843
0.12169849 -0.24737711 -0.17359066
-0.16737236 0.09734292 0.1318414
0.066898115 -0.061787266 -0.1269426
-0.111287 0.03685017 0.17375214
0.13318515 -0.19522911 -0.16761765
-0.2130489 -0.019847028 0.15003502
-0.021202853 0.22374664 -0.012049205
-0.1552562 0.1095262 0.06020112
0.13113408 -0.3069634 -0.26708576
-0.07309012 0.2280075 0.06558892
0.0683164 -0.094386175 -0.3110556
0.030123847 0.1511504 0.114120655
-0.035316166 0.07872684 0.1895643
-0.059806086 -0.0051607355 0.18301252
0.0056036967 -0.30844837 -0.15666138
0.10034126 0.19642268 0.0801851
-0.23276296 0.078999415 0.06616991
0.064398654 -0.095592394 -0.08200146
0.08018209 0.15307884 0.15483111
0.22967201 -0.08572555 -0.29776397
0.05947777 0.19137746 0.08728397
0.05698247 0.13075593 0.1232123
-0.04199121 0.01795395 0.2376315
-0.019751245 -0.29288208 -0.2096205
0.044094753 -0.02683739 -0.33673817
0.061993547 -0.018961715 0.22838582
-0.0083085075 0.15247944 0.23217133
-0.22486642 0.05767539 0.060449064
-0.105989076 -0.18707591 -0.29714972
-0.11976661 0.21463215 -0.02353483
0.010272602 -0.05878372 -0.09379763
-0.035836063 -0.2615574 -0.33484972
0.22049709 -0.13191824 -0.17669936
-0.025978258 -0.21110761 -0.25119093
-0.11050711 -0.19954173 -0.23839657
-0.007283881 0.21380045 0.21628676
-0.040655695 0.24847586 0.004239256
0.036814652 -0.018754125 -0.03343262
-0.046796788 0.24331398 0.08276019
-0.14165692 0.22854973 0.15431403
0.22087902 -0.19063148 -0.21523449
0.17723107 -0.08829443 -0.27369896
-0.0501578 0.27332598 0.14085269
-0.15343854 0.16016892 0.038194533
-0.14212893 0.069841824 0.12219116
0.081003256 0.123772584 0.13312404
0.011318284 0.1313692 0.18393448
0.23207918 -0.12012613 -0.3243348
0.040786803 -0.0608969 -0.037474744
-0.09007832 -0.021481866 0.17276824
-0.07273397 -0.13318892 -0.2905894
-0.023892762 0.22512905 0.1850359
0.14907368 -0.016290944 -0.31715083
-0.060882676 0.17739022 0.20182267
0.1504092 -0.18514222 -0.15895611
0.13308339 -0.12950096 -0.23903398
-0.025393652 -0.1830317 -0.27752727
-0.1373982 -0.0059285546 0.18031304
0.13330865 0.21148513 0.08025417
0.2389045 -0.1511113 -0.22972982
0.052423213 -0.29179642 -0.14360991
-0.10543246 -0.017325247 0.20007919
0.075772405 0.13963291 0.097363
0.04239779 0.04327951 0.19196784
0.11413247 -0.11253937 -0.24958833
-0.1958516 0.092541374 0.1722909
-0.0036479912 -0.2867207 -0.23258495
0.091370285 0.25035134 0.067030154
0.00878703 -0.035817523 0.19994254
-0.024892915 -0.055020086 -0.06411522
0.21054927 -0.15449432 -0.18730275
-0.018721828 0.2831953 -0.019056974
-0.08654849 -0.1062691 -0.31286034
0.0758404 0.23654327 0.037258115
0.007387158 -0.15272035 -0.1672972
0.26172346 -0.20694517 -0.20265345
0.0019064423 0.18243329 0.112058
0.018915666 -0.28390118 -0.15470627
-0.1576463 0.117089845 0.08242501
0.07529775 0.22125578 0.083557114
0.11534708 -0.29969516 -0.297941
0.0740124 -0.2997986 -0.10957306
-0.122075476 0.03991679 0.1875958
-0.030116549 0.22555429 0.18929149
-0.10301189 -0.058812942 -0.35191122
-0.007335353 0.26715022 0.031446718
0.019066153 0.06208201 0.16539381
-0.04695207 0.18895982 0.22280025
0.067282885 -0.28475446 -0.1590324
-0.17677537 0.15092449 0.08508415
-0.0824591 -0.2389582 -0.28326693
0.04156631 -0.08556856 -0.12283113
0.17819053 -0.22991715 -0.17235263
-0.19505817 0.20228066 -0.005938237
0.12554243 0.1473895 0.12857935
0.01356093 0.23642455 -0.0030303192
0.011862054 0.20205222 0.10338993
-0.15506855 0.22031383 0.12286251
-0.05965256 0.13947429 0.25724378
0.15599395 -0.03895747 -0.30621225
-0.16190912 -0.020639202 0.13538717
-0.16254279 0.018771607 0.13956136
-0.08440228 0.1683803 0.21114987
-0.11111692 -0.20927756 -0.24843922
-0.11400674 -0.053901512 0.19036376
-0.19390818 0.025485426 0.1151517
-0.19093633 0.10196466 0.16396716
-0.19481397 0.08217845 0.11247182
0.11222907 -0.32773092 -0.2816411
-0.11592899 0.04700009 0.16874233
0.22283754 -0.19143622 -0.17762984
-0.013365582 -0.208794 -0.18697624
-0.17615236 0.073845424 0.08996936
0.12012765 -0.29123563 -0.27541924
0.007013648 0.018794257 0.19970559
-0.05933419 0.110068895 0.21838005
-0.077541634 -0.11204322 -0.30202883
0.22627422 -0.082736544 -0.23771535
-0.025034612 -0.012563587 0.20879534
0.15820555 -0.11701125 -0.2586904
0.18266694 -0.07269214 -0.30288908
-0.061722156 0.16610648 0.2200664
-0.04147764 -0.02210768 0.18386136
0.105947666 0.06633725 0.21070053
-0.05005875 0.05521404 0.15214744
0.13311471 -0.08130067 -0.26875806
0.013200624 -0.14030415 -0.21431944
0.21166162 -0.097425304 -0.25102645
-0.00472135 0.114106774 0.14258416
0.1798796 -0.2700767 -0.25474653
0.1426198 0.21421361 0.07796185
0.09590288 -0.22697175 -0.16010228
0.16377868 -0.1287758 -0.23164421
-0.009035588 -0.30119273 -0.14426334
0.10625095 0.05786732 0.19654256
0.092765756 -0.15489225 -0.19676416
-0.05734093 0.21871315 0.21281236
-0.06227019 -0.009481214 -0.028481236
0.22395374 -0.1390847 -0.29902914
0.08336195 -0.112656474 -0.17701161
0.0048490944 0.16345021 0.13097242
0.047832407 -0.015801156 -0.053852376
-0.19246627 0.079331025 0.1624863
-0.08157322 0.10133307 0.21746096
-0.042087898 0.07643573 0.21296819
0.13429795 -0.23503031 -0.2793037
0.18262549 -0.04376521 -0.28200623
-0.03634322 -0.024682665 0.22217736
-0.108654305 -0.18917027 -0.24478966
-0.062485907 -0.090812065 -0.33580086
0.056983013 -0.2520234 -0.19347034
0.2218447 -0.13675237 -0.23042473
-0.07358986 0.23228456 0.19271143
-0.12347352 0.22185358 -0.009621621
-0.09622587 0.23198824 -0.023465088
0.008751429 -0.060644068 -0.08297881
-0.0028895757 0.07640544 0.17172778
0.10844808 -0.25350788 -0.14727487
-0.12936565 0.1633353 0.21292806
-0.20518468 0.102981016 0.075507805
-0.12373081 -0.039151415 0.18553351
-0.13868125 0.23552059 -0.02970597
0.1267215 0.14618567 0.16893469
-0.09790056 -0.11212007 -0.30428597
-0.09799551 0.20791382 0.17096114
0.04351466 -0.037075393 -0.1172438
-0.027634423 0.042484347 0.1946879
0.04119547 -0.08550181 -0.33221823
0.19100335 -0.18858306 -0.18910038
0.026789056 -0.111832276 -0.1010266
-0.12083941 -0.0061759413 0.19089228
-0.04065023 0.07551051 0.21749072
0.015492694 -0.059083972 -0.0675341
-0.02302642 0.032545708 0.22067979
-0.042867757 -0.17838763 -0.2463665
0.045918133 0.17464866 0.18336828
0.049504336 0.0057511847 0.23845187
0.064485386 0.091225386 0.2179503
-0.18215424 0.051111467 0.15103766
-0.17295638 0.1199944 0.06725605
0.082583666 0.18107232 0.09179195
-0.061652705 0.2626238 0.14694463
-0.16841087 0.19042072 0.20493299
-0.06914019 -0.037806693 0.23359962
0.0016917315 -0.21610795 -0.2484646
0.07738869 -0.061744656 -0.14156221
0.024988888 -0.0738836 -0.1356612
-0.009704238 -0.08791163 -0.30231842
-0.20879722 0.008808261 0.12288613
-0.05821416 0.21664697 0.19307512
0.1217139 0.11940509 0.126209
0.18586242 -0.15144794 -0.23007664
-0.090760015 -0.10056769 -0.3454913
0.19136621 -0.08345947 -0.24369031
-0.042241078 0.06620296 0.2131502
-0.12747088 -0.22857444 -0.24403003
0.102515705 -0.29106554 -0.10192841
-0.027504925 0.19982453 0.06372478
-0.25416842 0.13531795 0.035872635
0.21159844 -0.038711015 -0.2575615
0.22184582 -0.15610892 -0.18792777
0.21418397 -0.13418752 -0.23585303
-0.02626527 -0.10980242 -0.3236042
-0.03174488 -0.0064023444 0.2406166
-0.039670024 -0.17761283 -0.24014835
0.1710648 -0.0762957 -0.39187396
-0.16099156 0.19702457 0.15030485
-0.054689933 0.06403328 0.18104953
0.059316523 -0.076444805 -0.18290167
0.04119001 -0.05565286 -0.3322236
-0.1333553 0.12154496 0.2380406
0.18091288 -0.17618454 -0.1777334
-0.041037634 -0.21781756 -0.20552744
0.054997582 0.11826122 0.14877218
-0.18553092 -0.035151694 0.18173048
-0.021784652 -0.3119268 -0.26911986
0.059319306 -0.07615523 -0.1245635
-0.11441784 -0.2209157 -0.24366802
-0.058681365 0.03886789 0.17028788
0.03128738 0.15507431 0.14614527
-0.024226563 -0.026519865 -0.0697123
-0.03204743 -0.30013105 -0.1822725
-0.059630517 0.25566822 0.019165114
0.13459407 0.15911719 0.11175106
-0.041170403 0.09005649 0.20423009
0.12570474 -0.20723082 -0.17903462
0.07713625 -0.27458495 -0.121116385
0.07319508 0.24271528 0.025496077
-0.027698426 0.23087595 0.19695692
0.06679967 0.16886583 0.08737821
-0.034830537 -0.21321271 -0.20257492
0.10096281 0.10281905 0.16297475
-0.04504263 0.053931784 0.18138812
0.03199603 -0.25834152 -0.27074042
0.074229136 0.2136962 0.057231415
-0.06849782 0.14141345 0.19590952
-0.13097006 0.1931785 0.2086861
-0.0015708143 0.13009442 0.21469212
-0.105273485 0.13157111 0.22245303
-0.04828203 0.17983477 0.19957472
0.16687277 -0.19927345 -0.16912462
0.011160991 0.010902048 -0.041686364
-0.008488051 0.1179366 0.19026577
-0.00032448 -0.2822725 -0.13402803
-0.044155363 0.047121137 0.2143899
0.18426345 -0.1153161 -0.2533299
-0.18880475 0.071943685 0.11680376
-0.15395287 0.20464411 0.16926879
-0.032673746 -0.21826017 -0.23323667
-0.069467805 0.03977014 0.17381233
-0.018300196 -0.23534073 -0.21400873
0.18559518 -0.26913053 -0.29306325
0.045061763 0.23282196 0.011845589
-0.12463774 0.036156133 0.1550732
-0.022350369 0.18058155 0.17767693
0.0032913755 -0.2851787 -0.27662784
-0.15050961 0.199733 0.1816708
-0.023657348 -0.28816593 -0.2533965
0.14263637 0.07493163 0.17779754
-0.034385644 0.19938833 0.1264758
-0.10599259 0.10489185 0.22393423
-0.15556848 0.18864866 0.17615461
-0.005275612 -0.037983716 -0.038185205
-0.014487379 -0.042787608 -0.059063066
-0.013726943 0.059477925 0.14547186
-0.2155428 -0.0025983022 0.1471844
0.0024820406 0.17428066 0.18474217
0.039402522 -0.16102676 -0.21385385
-0.056176227 0.27511784 0.04252419
-0.17103416 -0.03378209 0.16770579
-0.22359411 0.13318004 0.08470241
0.19507794 -0.059913054 -0.25241965
0.11388647 0.14584756 0.15166184
-0.04719182 -0.21764845 -0.2044962
-0.029198015 0.15783411 0.20662095
-0.14939372 0.16504791 0.10233135
0.12607874 0.13120043 0.12119232
0.14624639 -0.24222915 -0.14130984
-0.021754028 0.25928876 -0.023277683
0.120371275 -0.2329751 -0.18175252
0.13055567 0.03069479 0.18290718
0.0048711477 0.071061306 0.18137679
0.0069523705 0.045497537 0.012600998
-0.12736538 0.20548068 0.008516252
-0.056376845 -0.21238138 -0.226019
0.057245497 -0.2838067 -0.2916979
-0.024048503 -0.1672862 -0.26821446
0.062041584 -0.17072478 -0.19667836
0.08302454 -0.28176156 -0.14426275
-0.15898685 0.005704132 0.14251415
0.08507615 -0.19950418 -0.16792244
-0.047944456 -0.037116315 -0.340558
0.0432301 -0.22647451 -0.14056434
0.1280505 -0.1251643 -0.22240496
-0.14992087 -0.017737128 0.1925796
-0.01962345 0.19325428 0.21385245
0.1056975 0.09137088 0.15531851
0.054953605 0.1527862 0.101463355
0.20367008 -0.09039557 -0.2574949
-0.18686818 -0.042427737 0.17375252
-0.026564194 0.0072705913 0.24658243
-0.0461822 -0.23055594 -0.1888394
0.18161084 -0.30847913 -0.21390131
0.0388787 0.012199013 0.17901056
0.15343755 -0.14888357 -0.1894724
0.062757686 -0.2158456 -0.17301676
-0.0461221 0.13038717 0.22117934
0.06985751 -0.20763513 -0.17086965
0.021545429 0.07439245 0.15514304
0.11200302 -0.17398609 -0.20305179
0.118070744 0.10420044 0.15166956
0.026860723 0.22728364 0.0009705903
-0.07767202 -0.23406866 -0.22351174
0.034890104 -0.022305053 -0.058960102
0.029548373 0.21820122 0.059680324
-0.1023551 0.0848806 0.18066426
-0.036767285 0.21328363 0.21295981
-0.22249012 0.1244841 0.06973416
0.15092549 0.13867214 0.12597077
0.03457963 -0.2720598 -0.17624658
-0.030144276 -0.23469652 -0.19173127
-0.17651744 -0.03158116 0.14557767
