# .PCD v0.7 - Point Cloud Data file format
VERSION 0.7
FIELDS x y z
SIZE 4 4 4
TYPE F F F
COUNT 1 1 1
WIDTH 1000
HEIGHT 1
VIEWPOINT 0 0 0 1 0 0 0
POINTS 1000
DATA ascii
0.008323322 0.05890578 -0.09302125
-0.04125917 0.17740795 -0.11224043
-0.043851607 -0.08871568 0.15496461
0.060370076 -0.10735667 0.066000365
0.006806999 0.3080601 -0.09405573
-0.09270648 -0.072743304 0.06999252
0.100320175 -0.0888884 0.13948698
0.06665983 0.03688322 0.06361957
0.004337159 -0.16208722 0.07209621
0.033508316 -0.025640456 0.101388864
0.08041588 -0.065589994 0.043881442
-0.13986874 -0.06438964 -0.06572424
0.103134535 -0.01172012 0.13843505
0.041693967 0.17599961 -0.08824123
0.09464079 0.25971043 -0.19020507
0.019549293 -0.066999264 0.15505674
-0.18581161 -0.048487533 -0.0816865
-0.059693564 -0.057328004 -0.011734638
0.14592102 0.27658948 -0.16120243
0.0304343 0.09213951 -0.094855316
-0.08588655 -0.08041722 -0.06400647
-0.23625857 0.04245649 -0.060151726
0.0871424 -0.11001584 0.13264965
-0.05288347 -0.13423672 0.15728661
0.031852733 0.23556621 -0.10310098
0.007624841 0.13348836 -0.08511963
0.066332586 -0.13254975 0.12379241
0.0075388304 0.29358003 -0.08683146
0.15583864 0.23619887 -0.19024059
0.037992373 -0.1666329 0.14894296
-0.014639912 0.23104373 -0.093691505
-0.03784962 -0.09232554 0.10728763
0.005230225 0.30585584 -0.141434
0.060006812 -0.19026905 0.03405318
-0.14354342 0.055013757 -0.09606558
0.018463664 -0.10072936 -0.2511465
-0.047284383 -0.1551282 0.12704614
0.022064442 -0.1608106 -0.06912157
0.05541488 -0.15239406 -0.033222653
-0.23036909 0.048825707 -0.073282816
0.04465626 0.04151899 0.030548748
-0.039770715 -0.04204713 0.16987155
0.081271395 0.0020241062 -0.08051786
-0.047150575 -0.032864016 0.028702298
0.08185249 0.2974519 -0.085069336
-0.051039696 -0.067862235 -0.09521979
-0.018410103 -0.06908192 0.11367841
-0.15247881 0.0024354695 -0.102885135
-0.011868349 -0.002280807 0.15219338
0.15673482 -0.082714275 0.10993067
0.00037188528 -0.06207318 0.059187226
-0.12594382 -0.08005114 -0.086830795
0.079409346 0.19360946 -0.113457434
-0.0029383083 0.03544845 -0.06948705
0.00464861 -0.026977204 0.0732917
-0.025029438 0.13910712 -0.090487406
-0.022614341 -0.03503973 0.14580595
0.12912694 -0.10647769 0.049182102
0.1424616 -0.11659705 0.13321997
0.041488923 0.004929659 0.11036541
-0.06386677 -0.11849307 0.15637095
-0.017834222 0.035995472 0.03130903
0.010943202 -0.18785705 0.093302876
0.025063772 -0.104752 -0.26111582
0.034161106 -0.16093236 0.07631489
-0.2364191 0.047719136 -0.09830272
0.030312316 0.10244214 -0.08078957
0.07293798 -0.0020737078 0.13533355
0.017921735 -0.17260122 0.13775797
-0.1256322 -0.015689062 -0.102663
0.08224013 -0.047572006 0.10207464
-0.24393027 0.05693275 -0.09154923
-0.05072782 -0.15755758 0.056580618
0.12301104 -0.118792206 0.10458034
-0.24652575 0.046720166 -0.06436485
-0.0023008534 -0.07334873 0.13911188
0.0571243 -0.0947101 0.1483877
-0.16061737 -0.024787841 -0.08572682
0.00024348882 0.020013833 0.10781319
-0.08773397 0.12159362 -0.0907453
0.13962923 -0.16028948 0.01692789
0.01043688 -0.13552953 0.1071566
0.10253242 -0.030456115 0.1481198
-0.17138258 0.0034982036 -0.094904676
0.041463576 -0.05601276 0.13966903
0.0053232196 -0.058554795 0.107670136
0.013937912 -0.1965038 0.027660323
0.012267096 0.0022984995 0.14335918
0.020841325 -0.09207412 -0.46841606
0.07678964 0.3138595 -0.12250485
-0.22453614 0.03002928 -0.08525275
0.05715169 -0.18563372 0.12329568
0.0035101906 -0.07111098 0.0959997
0.02088142 0.068619795 -0.10439869
0.03274259 0.23866974 -0.09378912
-0.018506426 -0.039300982 0.1499605
0.05057173 -0.19460578 0.10872318
0.10859909 -0.062402185 0.0734663
0.009497848 0.14830135 -0.10419894
-0.08540185 -0.06333924 -0.002309818
-0.031166527 0.017457489 0.11293353
0.042968247 0.061393086 -0.10111252
-0.030995613 -0.17539617 0.10203741
0.036550246 0.2957348 -0.100842096
0.032945734 0.18303433 -0.10042502
0.030384183 -0.21490097 0.035293024
0.09016125 -0.14658436 0.13389853
-0.1814267 0.025951892 -0.09197833
-0.016347088 -0.12250871 0.12883297
-0.060839925 0.009806602 -0.052623246
-0.23377556 0.0024845896 -0.059203554
0.0060867304 -0.002869126 0.076964706
0.10464141 0.020805934 0.10517139
0.04266814 0.2568245 -0.0849499
-0.019867973 0.075987324 -0.0662991
-0.07685857 -0.03861612 -0.08405727
0.14742348 -0.04043613 0.057308685
-0.0064518093 0.049404636 0.05010077
0.057636272 -0.19025972 0.037144877
-0.18496907 -0.052299295 -0.096403085
0.04717053 0.2750753 -0.07882553
0.04483206 0.049484544 0.054807257
0.10021796 -0.20843568 0.034937896
0.048540346 0.33979368 -0.12677601
0.008452093 -0.011393898 0.13770492
-0.007345609 0.018288732 0.01998678
0.13965225 -0.046260614 0.056184344
0.1542705 -0.06218744 0.102595426
0.00867161 0.1470978 -0.07562045
0.007556943 -0.07144182 0.0766832
-0.07576852 -0.16173832 0.046874266
-0.02978745 0.05921095 -0.100686066
0.013195193 -0.03922452 0.16978684
-0.029890612 -0.012299003 0.13911264
-0.00076808425 -0.051971573 0.16727298
-0.0097840065 -0.14310613 0.14833957
-0.20906036 0.032155525 -0.054791722
-0.15025929 -0.04155585 -0.061172638
0.09858035 -0.0796953 0.10084255
-0.055451132 0.15967903 -0.11041145
-0.013973766 -0.052580833 0.07601782
-0.17535338 -0.049094446 -0.1007698
-0.09087722 0.09613319 -0.07645413
-0.00040956147 -0.12419016 -0.4446347
-0.08523882 -0.100986876 -0.06870459
0.028350294 -0.13781871 0.14225894
-0.015812857 0.17772895 -0.07844931
-0.020323789 -0.045084868 0.12299414
0.02130383 0.09242961 -0.06912154
0.12917478 0.026062755 0.059003342
-0.041500676 -0.1252537 0.12288533
-0.15585484 0.03017373 -0.10137666
-0.092842996 -0.05905801 -0.072800234
0.05594171 -0.19606069 0.035392355
0.1040536 -0.055385597 0.10562734
0.035279527 -0.20154543 0.04077192
0.07786302 -0.14041416 0.10419038
0.12302834 0.26964512 -0.16221875
-0.043568432 0.17356837 -0.11716497
0.06462785 -0.069941014 0.10157905
-0.036837783 0.16661483 -0.08255278
-0.053058445 0.08024508 -0.103452004
0.021454517 -0.13635498 0.14985113
-0.052390013 -0.0038941298 0.057387456
0.11474699 0.018742738 0.12881689
0.11227017 -0.11832525 0.13249207
-0.015925992 -0.030848907 -0.029084504
-0.003065743 -0.1926848 0.09321812
0.16190013 0.2599632 -0.20707335
-0.029177468 -0.02066426 0.020636832
0.03459906 -0.020717748 0.14556423
0.070144154 0.021777123 0.13427112
-0.19580261 -0.01809075 -0.08712858
-0.06345527 -0.040230744 0.066005096
-0.056505207 -0.11913319 -0.008532973
0.04452208 0.00925387 0.08900995
0.11550711 -0.14411043 0.13560334
-0.040915757 -0.050789595 0.14996354
-0.0290546 -0.08069273 0.12001605
0.055776976 -0.024622878 0.13422726
0.018429339 -0.0036291725 0.1116602
0.10008355 -0.025661366 0.11905945
-0.0024201567 0.092131145 -0.08500744
-0.08006436 -0.008684171 -0.060049497
-0.15064505 -0.035503436 -0.0769204
-0.0066337166 -0.0364977 0.17804769
0.06344494 -0.122850075 0.07166738
0.03567349 -0.07725301 -0.24163435
-0.05813714 -0.12407173 -0.104450606
0.068899296 -0.03827012 0.12608731
0.123492375 -0.16895142 0.13528755
-0.13617761 -0.07869779 -0.08637191
0.13049786 -0.01506653 0.1107179
-0.05954209 -0.029341737 0.024300171
0.005975363 -0.029862272 0.13600956
-0.14322045 -0.033157293 -0.081838675
-0.07899905 -0.109006286 -0.078488976
-0.028246082 -0.16600151 0.045950264
0.023023617 -0.15712517 0.14990516
0.057344623 -0.055520885 0.08385374
0.025896903 0.15095882 -0.1203845
-0.0116234915 -0.14069107 0.1394615
0.059705853 -0.17416345 0.07236341
-0.016771503 -0.033005882 0.12785749
0.015501983 0.021854974 0.13858248
0.16162851 0.2877534 -0.19048339
-0.016022675 0.1577562 -0.07735593
0.021809252 0.20052353 -0.09125392
0.035800304 0.04347642 0.119627714
0.017184159 -0.16301042 0.04400736
0.023425201 0.2952298 -0.12128031
0.019072462 0.19592422 -0.09730102
0.09022267 -0.12578218 0.12215884
-0.16123366 -0.042294707 -0.10409681
-0.049877707 -0.13280582 0.057183698
0.047016483 0.031975158 -0.077427275
0.017475933 0.13883431 -0.09555736
0.11276616 -0.102297686 0.13163987
-0.12592047 -0.054585245 -0.059232183
0.019618845 -0.061817534 0.14028202
-0.09745421 -0.013023717 -0.10002159
0.031120507 -0.034630135 0.107275985
0.075363785 -0.011309581 -0.051242087
0.028048096 -0.063511804 0.04421009
0.03221418 -0.07243318 0.080543175
-0.016030174 0.10962512 -0.080840126
-0.08241047 -0.13595402 0.03957842
-0.09298498 0.1357602 -0.10618476
0.055878457 -0.04376792 0.07590706
-0.0085875895 0.016496764 0.0546659
0.09132249 -0.06803183 0.113414906
0.03387447 0.2243899 -0.09643298
-0.08064778 -0.06019316 -0.08078857
-0.099490665 -0.05506892 0.031961188
0.07206931 0.025818402 0.08386381
0.014648824 0.0033727884 0.12108357
0.08065354 -0.15427116 0.10850849
0.1488398 -0.062029067 0.10472617
0.0044638943 0.048600033 0.039077926
0.021482797 0.009686889 0.14943373
0.06738853 -0.1443201 0.11980564
0.020041231 0.09712665 -0.11554408
0.008533571 -0.18253571 -0.04030126
0.006166287 -0.07822622 0.16789901
0.120427944 0.2606109 -0.15865692
0.12617144 -0.09471469 0.04626214
-0.03242761 -0.12533593 0.026184505
0.0905444 -0.06702777 0.112068154
0.059820432 0.28240752 -0.1251991
0.030132614 0.02622546 -0.09289539
-0.021695057 -0.005928015 0.12033404
-0.025708642 -0.0551693 0.16398242
0.07437959 -0.1443308 0.1150081
0.0022172616 -0.13633499 0.15929538
0.1711327 -0.03422493 0.04358195
-0.03439334 -0.058597747 0.13850343
0.1216466 -0.10171168 0.12365628
-0.0679319 -0.17180043 0.055453848
-0.054408163 0.16734533 -0.09065965
0.037823483 0.19770877 -0.11733073
0.027346822 -0.1275836 0.1522892
-0.038810026 -0.097345956 -0.09937881
-0.07456399 -0.12513122 0.056069277
-0.18945807 -0.072483644 -0.07175509
-0.081912406 -0.13137838 -0.022367628
-0.10529662 -0.10467895 0.040597595
0.12901403 0.23371373 -0.1787227
0.036966424 0.26470605 -0.09738782
-0.25184613 0.0617521 -0.07045613
0.15910812 -0.06344068 0.019624036
0.11597992 -0.09057934 0.14153527
0.08532554 -0.09245775 0.13834627
0.07903185 -0.13982883 0.11343118
-0.00383887 0.1986992 -0.11374778
-0.08475492 0.1338526 -0.069165885
0.05890949 -0.1479921 0.12757613
0.04778661 0.058475833 -0.11952954
-0.026785763 0.023251763 0.023505416
-0.036776803 -0.010159491 -0.068593495
-0.031083908 -0.17023696 0.11261356
-0.043444388 0.17946844 -0.08640708
0.030618599 0.23108585 -0.12101144
-0.08400954 -0.0737477 0.07277634
0.061449885 -0.017009586 0.10142202
0.0009907087 0.21034646 -0.11291025
0.038301464 0.15028977 -0.09470991
0.061664592 -0.18357931 0.095849894
-0.08670334 -0.013545328 -0.1066813
-0.06921148 -0.080198 0.12669955
-0.0043086843 0.015312481 0.061286677
-0.029320255 0.1763024 -0.07363902
0.07683966 -0.19529088 0.01656212
-0.015217516 -0.008217717 0.09454631
-0.03303115 0.024533404 0.14250007
0.12585719 -0.06573245 0.12138456
0.0027566752 0.022125872 -0.0936148
0.01377563 0.19532095 -0.113673165
-0.004230561 0.13639368 -0.10106528
0.08437922 -0.07394323 0.11560907
0.01591675 0.01801248 0.08554161
0.11278854 -0.16856769 0.019641412
-0.05323394 -0.101918206 0.15391752
-0.066827126 -0.07658001 0.07163495
-0.24631907 0.05112379 -0.07279117
-0.066509575 0.13314018 -0.10794086
0.0006637114 -0.07806329 0.1289838
0.071775265 -0.15041135 0.035197094
0.09186371 -0.15836576 0.1094996
0.06748356 0.26627743 -0.08627523
-0.025048334 -0.043906804 0.13502072
0.1133305 -0.018477216 0.09347873
-0.013193998 -0.033270743 0.10534104
0.013643704 -0.063814044 0.13230126
0.07020319 -0.16644709 0.05366008
-0.057369888 -0.106233 -0.0585833
-0.06465349 -0.020492187 -0.045473717
0.0098130535 0.10881988 -0.10153428
0.0044887424 -0.16640438 0.11394456
0.17732072 -0.09736401 0.01656444
-0.045356255 0.00017873631 0.017406998
0.022880152 0.22821848 -0.09884249
0.059138503 -0.08877344 0.092161395
0.073224224 0.084441684 -0.07632305
0.006407017 -0.03942292 0.12023361
-0.0055373874 -0.15249842 0.103368744
-0.023259422 -0.14224716 0.15429002
0.045469902 0.013501354 0.11545032
0.04423635 -0.10607858 0.12385723
-0.09150962 0.13054533 -0.08960633
0.07448791 -0.069579095 0.12539864
-0.07144373 0.0919856 -0.11382847
0.04965308 0.023913352 -0.09874182
0.0047333203 -0.1254524 -0.34712502
-0.0904871 0.00068086013 -0.082191184
-0.016821647 0.25819838 -0.094253674
-0.028291682 -0.123142704 0.12606683
0.060747612 -0.13827762 0.14938274
-0.06482896 -0.04604475 0.052204277
0.017843604 -0.022234153 0.11230743
0.004216931 0.047051672 0.0485218
-0.04235845 -0.14658521 0.059655085
0.042180408 -0.2080057 0.02455116
-0.07737766 -0.07375497 0.1303273
-0.06051233 0.03210975 -0.114975624
0.017345505 0.25661984 -0.11353349
0.026932951 0.14036939 -0.10867894
-0.2408105 0.0436807 -0.09013178
0.06477383 -0.10823876 0.10452918
-0.057451874 -0.14946583 0.034576952
-0.13392062 -0.0662327 -0.09013851
-0.1895547 0.04620766 -0.06903206
0.044452194 -0.09673105 -0.48306558
-0.08650255 0.09805712 -0.07808607
-0.03375341 0.075671576 -0.10463713
0.06416979 0.27396303 -0.09636346
-0.012564325 -0.14268704 0.1463531
-0.06765086 -0.07242643 0.058211617
-0.03312277 0.20166133 -0.11296048
-0.05787117 0.050172288 -0.10155639
0.060145114 0.25477394 -0.12379148
0.052184626 0.16938287 -0.103193976
0.0065178717 -0.018865887 0.114842065
0.01398584 -0.12509872 -0.5650598
-0.18678635 -0.06841223 -0.08911212
-0.027599838 0.13920845 -0.08852337
0.03984265 0.22299106 -0.080016114
0.0451364 -0.17283416 0.05389543
0.046698444 0.073207185 -0.10120441
-0.038677305 0.07338265 -0.070818275
0.068598576 0.2304238 -0.094652906
0.09968111 -0.008729558 0.10407517
0.031947758 -0.17632091 0.13520868
-0.07110382 -0.10948656 0.13090312
0.06945771 -0.195076 0.024514727
0.0015095575 0.110900536 -0.10544924
0.019848578 -0.09975533 0.13987716
-0.009369109 0.10126685 -0.109893896
-0.16808975 -0.049672242 -0.061005414
0.024051227 -0.055318832 0.1143923
0.09640683 -0.17070977 0.03481863
0.07213948 -0.22609623 0.056093127
-0.17242542 -0.030179607 -0.062060084
-0.060914386 -0.073950306 0.15588246
-0.08309886 -0.04860575 0.04462523
0.019385822 0.09329071 -0.08168743
-0.1081771 -0.05970195 -0.06954873
0.043645687 -0.014481375 0.110836305
-0.23045786 0.017342627 -0.07805406
0.0420128 -0.14644504 0.14757398
0.020122336 -0.13261563 -0.53841317
0.024348823 0.2776451 -0.11798115
0.081549555 -0.11650243 0.07997725
0.111382596 -0.10172634 0.105162375
0.042626653 0.23549484 -0.08538328
-0.020101242 -0.16636136 0.10088936
-0.07048745 -0.0729038 -0.078279875
-0.16767298 0.0306224 -0.063467294
-0.055966496 -0.06177573 -0.061913803
-0.03852703 -0.12651445 0.06285437
-0.069212966 0.1308773 -0.09923219
0.04901224 -0.077210136 0.059808057
0.06533881 -0.042830992 0.10519699
0.050710343 0.21756515 -0.07928743
-0.18460974 0.031898484 -0.08997967
0.086889975 -0.19349313 0.03872905
-0.1812808 0.018498823 -0.06677907
-0.022497358 0.20922922 -0.097274475
0.0023173112 -0.15781443 0.05586804
0.035705708 0.102023326 -0.1178221
-0.0026079924 -0.005382317 -0.09123073
-0.022089096 -0.08310063 0.12148097
-0.025741871 0.0057060453 -0.08704191
0.051644653 0.005877315 0.100026116
-0.19559042 -0.0012542317 -0.08485895
0.063865624 0.25442392 -0.1156878
0.15502675 -0.08130183 0.12394003
-0.033855196 0.16433634 -0.109034896
-0.023360163 -0.11022552 0.1424775
-0.008450363 0.0594417 -0.10909007
0.0012513804 -0.08448697 0.045373514
0.08583386 0.018964903 0.059833318
0.13303727 -0.10014833 0.04812344
0.016474998 0.07151929 -0.06730349
0.026732713 0.005610686 -0.091525674
0.12913628 -0.025841964 0.08502811
-0.00082543085 0.115127705 -0.11580315
0.09594167 -0.047604956 0.1064165
-0.15046623 -0.049193755 -0.0563175
-0.20070644 -0.034735505 -0.07204128
-0.12869129 0.012951978 -0.07675296
0.052862804 -0.070819594 0.10813938
0.027980456 0.26347956 -0.10452181
0.0059833 -0.11539294 0.14746194
-0.19281207 0.051253196 -0.09030291
-0.20110643 0.049401466 -0.102833815
-0.07010372 -0.13949731 0.06407488
0.077780284 0.32036582 -0.16039358
0.052440155 -0.0021126498 0.101182364
0.028207926 -0.17239775 0.11539891
0.08725093 0.24394539 -0.07901925
0.0937201 -0.033992935 0.11113058
-0.060738012 -0.1432889 0.12277083
0.08245269 -0.12533145 0.15185957
0.050602585 0.21442576 -0.08696409
-0.010874388 -0.1722114 0.031929392
0.07508948 0.05310254 0.02144472
0.017403603 0.017840417 -0.09968043
0.089159094 -0.06545649 0.14311872
-0.034423377 -0.13193884 0.09105899
-0.0147532895 -0.14738452 0.07644885
-0.004988317 -0.09128572 0.10160082
0.025860608 0.2939379 -0.09635673
0.107904404 -0.103039876 0.123116426
-0.0018558574 0.004674861 0.14642869
0.041606564 0.31791598 -0.09209217
0.02505883 0.20537253 -0.07777599
-0.19152425 0.03785103 -0.07310554
0.13073759 -0.0555726 0.07037341
-0.0643981 -0.107857205 -0.07132978
0.10870904 -0.14125574 0.039976552
-0.0060828747 -0.073009655 0.11630826
0.05848245 0.22375491 -0.11255392
-0.18042627 -0.01565735 -0.089307725
-0.06162369 -0.113016166 0.08074649
0.060367677 -0.13568008 0.13451923
-0.2237954 0.05787714 -0.093376905
0.17629845 -0.06646767 0.030860515
0.072707534 -0.13235325 0.12885158
0.07438875 -0.100849785 0.15083675
-0.0006793641 0.012583045 0.083339244
0.04642199 -0.043279696 0.13920684
0.043144077 -0.11761053 0.07170679
-0.13835324 -0.0776577 -0.05719539
0.006157284 0.0020197548 0.12582971
0.054332506 0.012023641 0.13694899
0.04968566 0.19857258 -0.08524701
0.13069569 0.31255507 -0.1730586
-0.07977043 -0.09017787 -0.06087272
0.139987 -0.14888422 0.020138212
0.12118094 0.018952796 0.012891342
-0.249881 0.028522125 -0.09699593
-0.023281982 0.09251812 -0.07275553
-0.03415738 0.12233272 -0.07396099
0.033900317 0.16750924 -0.104929194
0.13938661 -0.08769921 0.13797297
-0.045631893 -0.06375398 -0.04319264
0.022191593 -0.09546577 -0.51386905
0.05992252 0.07072879 -0.09081603
-0.027346386 0.065342374 -0.103374235
0.051101133 0.2342149 -0.076250814
0.14820126 -0.056080792 0.12023452
0.015877089 0.32772902 -0.091276176
-0.014559128 -0.16472511 -0.011485282
0.022115897 0.16408256 -0.090502664
0.06100042 0.2019439 -0.097905986
0.087682985 0.003261313 0.10112891
-0.0033237822 0.0825589 -0.10214057
0.009211334 -0.11672814 0.13357297
0.049214266 -0.086464986 0.14389344
0.05919221 0.17266649 -0.113677815
0.106269255 -0.023476526 0.052500073
-0.14712285 -0.065032296 -0.07336979
0.057592176 0.3203168 -0.1639333
-0.0030690725 0.1993185 -0.106334515
-0.10287206 -0.08182676 0.01945984
-0.03438861 -0.1774379 0.05830645
0.092972554 0.33641326 -0.15135585
-0.017067242 0.040925335 -0.09395069
0.13759819 -0.015063759 0.06026919
-0.07412732 -0.013827676 -0.094657645
0.015332879 0.3178778 -0.07890308
0.034453068 0.24097216 -0.09864594
-0.23806591 0.058068864 -0.066401675
0.108014226 0.002579543 0.089925446
-0.026317451 -0.08705724 0.14289638
0.03878545 -0.13667773 0.12426705
0.02062833 0.075833894 -0.08250759
0.1338742 -0.08813742 0.0929767
-0.086458914 -0.12289504 -0.07730889
0.042226963 0.2836671 -0.10360844
0.08926089 0.029488651 0.048496895
-0.23625855 0.06703397 -0.09821646
0.031546 0.21204071 -0.11310203
0.032578893 0.0063674087 -0.07246522
-0.008689549 0.058820218 -0.1125318
0.017258482 0.2156984 -0.12250073
0.025201589 0.18147272 -0.11404741
-0.09584595 -0.10067689 0.025375213
0.08688619 -0.04318182 0.1347853
0.12130227 -0.09401188 0.05844735
0.021003658 -0.11365539 -0.3678624
0.092440955 -0.12623882 0.12799112
-0.055825584 -0.0532783 -0.08963328
0.040972076 0.14254609 -0.11633082
0.0067150174 0.0193619 -0.10292659
0.0099201985 0.043541647 0.019529691
-0.0031684504 0.07264189 -0.09477931
-0.0046799653 -0.06574529 0.15147099
0.019477092 0.12706321 -0.11110988
-0.03278615 0.04533573 -0.112360194
0.116741985 -0.0910486 0.1279847
-0.14991845 -0.05472687 -0.079682924
-0.1535667 0.010708196 -0.094873995
-0.040271774 0.08820194 -0.10975879
0.011986777 0.025401978 -0.088091284
0.030102197 0.2674133 -0.07735742
0.016745076 0.20852707 -0.08691267
0.040504474 -0.113045566 0.089573786
0.08100739 0.22159374 -0.108672746
0.0059727663 -0.12773684 0.05972928
-0.008348016 -0.037578598 0.14343865
0.057785325 0.24414636 -0.10021614
0.030162869 0.28948015 -0.09614169
-0.018158339 -0.16293274 0.10603658
-0.025429644 0.20556307 -0.12182179
0.081314296 0.028057788 0.0549505
0.09076518 -0.07576206 0.14699648
-0.02947172 -0.045799695 0.15416907
-0.029909097 0.09117828 -0.07391734
0.13222066 -0.016759008 0.102466464
0.16246489 -0.08045162 0.06625058
-0.24896441 0.051086035 -0.1010593
0.108477645 -0.13948806 0.11490783
0.054603934 0.03980646 -0.10879722
0.012041483 0.19597916 -0.11410892
-0.035840355 0.058924727 -0.071074724
0.07971988 -0.17338191 0.05620343
-0.072440535 -0.09418273 -0.094678454
-0.0029213368 0.23251303 -0.12069774
0.033245146 -0.050874796 0.1438106
0.0014838495 -0.0055475933 0.12952752
0.05017552 -0.08852719 0.090560265
-0.013930063 0.0055397763 -0.110689975
-0.21402493 -0.043648705 -0.05419762
-0.04501786 -0.056977753 -0.028522516
0.017787747 -0.07258662 -0.5121827
-0.047289003 -0.080552064 -0.032347802
0.111526 0.30353987 -0.17413528
0.055936147 0.21579418 -0.10196747
-0.09642405 -0.008171894 0.03359339
0.05874823 -0.041832935 0.1383915
0.081153445 -0.15592116 0.12594646
0.006013003 -0.07953366 0.15246332
-0.06850128 0.09734256 -0.112667024
0.02291231 -0.085225545 0.07993749
-0.23233777 0.060935073 -0.09252227
0.042401064 0.31003633 -0.09751442
-0.061040252 -0.0678061 -0.07727769
0.04061315 0.30964097 -0.10636837
-0.07319041 0.03629834 -0.082246564
0.0015144105 -0.046964325 0.122521766
-0.026694512 -0.024888854 0.1767109
0.0281749 0.06491444 -0.06762673
-0.2556063 0.06160874 -0.066778325
-0.04702757 0.007869027 0.032151606
-0.046888776 -0.09588307 -0.0683133
-0.011334077 0.19366686 -0.102334015
0.044729535 0.2728992 -0.092719175
-0.23555286 0.06604322 -0.065080665
0.01645246 0.085823625 -0.08931916
0.052120227 -0.09486181 0.11273906
-0.08175351 -0.06466012 0.024107946
0.0028592139 0.20703575 -0.08800306
0.13180032 -0.06296496 0.10824086
-0.104125686 -0.06534145 -0.06211399
0.017285917 -0.16062327 0.11308771
0.07826277 -0.15053895 0.10754222
0.053930115 0.0051156697 0.13116254
-0.08258262 -0.043762963 -0.103626244
0.062715776 0.25643775 -0.106123835
0.014357163 0.06027401 -0.094469786
-0.06035671 0.072889574 -0.07899493
0.017103875 0.10738711 -0.06898633
-0.0144638745 0.27781272 -0.08918739
0.051016327 0.3313932 -0.12428082
-0.22188048 0.004565391 -0.07309928
0.11407151 -0.009448256 0.08375545
0.062131904 -0.12595677 0.12070629
0.057778828 -0.164907 0.08496908
0.090513945 0.0068520294 0.10441856
-0.07928508 -0.067544654 0.071546935
-0.036269017 0.022021929 -0.10836632
0.033755228 0.061312247 -0.097478144
0.10379974 -0.045103364 0.10560831
0.06274011 0.21187517 -0.120973185
-0.024592582 -0.013751343 0.14079987
-0.23167095 0.07692531 -0.07872831
0.022312863 -0.0762085 0.14542791
0.019973809 0.30486497 -0.0948902
0.11111625 0.3189812 -0.1264005
-0.025619969 -0.13913795 0.06533684
0.16661292 -0.06317436 0.054889724
-0.17361495 0.019941907 -0.0629008
0.11090986 0.017029809 0.08690695
0.056237776 0.013258317 0.018529695
-0.10384105 -0.0648183 0.066088736
0.04277764 -0.1713713 0.15316099
-0.04757255 0.16399547 -0.10911734
0.038218923 0.24251665 -0.1068461
-0.004933764 0.23854986 -0.10325816
0.15510438 -0.055498622 0.05578603
-0.03264847 -0.08953262 0.13057096
0.011487544 -0.18207258 0.05687909
-0.056109775 0.038992118 0.013638068
-0.17924522 -0.005930933 -0.06597019
-0.07562484 0.12209209 -0.06835731
0.07615488 0.035912905 -0.073185004
-0.04285702 0.130892 -0.09525023
-0.23702896 0.045923177 -0.056172743
0.08331908 -0.08004908 0.06752222
-0.24119928 0.05588431 -0.09777607
0.048751533 -0.035186034 0.12664881
0.044681385 0.025715442 0.14868897
0.094333656 -0.07256924 0.10521086
-0.04903358 -0.02311196 -0.106341526
-0.007994483 0.016870243 0.1467327
-0.050559215 -0.07191756 0.12258579
0.06124243 -0.06235452 0.11347456
-0.02699297 -0.05445245 0.1308215
0.007275716 0.07715371 -0.08314285
0.041552197 -0.059524316 0.054629706
0.054690532 -0.10753736 0.12708661
-0.11430353 -0.057770792 -0.09871399
0.12390017 -0.047817696 0.12944515
0.10282771 -0.054017738 0.12203439
0.11358002 -0.14526762 0.1467827
0.099364184 -0.17292932 0.030714858
0.029083947 -0.012063754 0.11470127
-0.08382518 -0.08945023 -0.09841448
0.11642896 0.046954773 0.008110172
-0.1820794 0.079347596 -0.06487042
-0.109361164 -0.046640106 -0.10238515
-0.0061417352 -0.16198236 0.1245568
0.026365427 -0.09325911 0.12580112
0.06869049 -0.1412664 0.12558672
0.00010255865 -0.12707852 -0.49737477
-0.03278356 -0.0005977881 0.025461098
0.08693614 -0.16889812 -0.032766975
0.10551426 -0.09051732 0.11940762
0.025347184 0.31558067 -0.09642979
-0.022157283 0.042482015 -0.10331493
0.020203205 0.13224564 -0.077072054
-0.2292721 -0.025384981 -0.09084026
-0.048892215 -0.11198656 0.11799045
0.00827552 -0.1633086 -0.03344197
0.033452217 0.2702748 -0.107294135
-0.2231887 0.041979533 -0.09354257
0.06537009 -0.08895558 0.086661726
0.050126333 0.009931175 -0.07326986
-0.001310306 0.16466315 -0.08757516
-0.035758555 0.0038896627 0.07722124
-0.01707325 -0.16219412 0.057467446
0.042786423 -0.11228214 0.14330937
0.080383874 0.29744008 -0.1700292
-0.045721237 -0.009025373 -0.066712305
0.04089418 0.035710562 -0.10328405
-0.20752233 0.02980064 -0.07277337
-0.07109752 -0.07905769 0.05971361
0.110043734 0.009353188 0.08376112
0.043153983 -0.15940166 0.14208157
-0.033172853 -0.11706885 0.13201317
0.0150807295 -0.10760337 0.11122121
-0.05740195 0.11577191 -0.11494577
-0.028098023 -0.107613295 0.1342699
-0.032902367 -0.050247677 -0.07607737
0.029671235 0.06577504 -0.11580901
0.023112245 0.17446448 -0.090007946
0.11832928 -0.055024408 0.1390896
0.06597485 -0.18608847 0.08852425
0.10957868 0.008852055 -0.100060344
-0.18519111 0.00083629106 -0.055771947
-0.24816847 0.04119735 -0.069339685
-0.04885548 0.0127892485 -0.036929455
0.0013074063 -0.13061629 0.121524945
0.1272992 0.26408318 -0.18058178
0.117058486 0.02540358 0.038847238
0.061533667 -0.043620184 0.14389005
-0.0021847733 -0.14241554 -0.058250617
0.15503407 -0.03720802 0.025858771
-0.041227244 -0.028123207 -0.06867954
0.15792887 -0.118151076 0.05847078
-0.07131797 -0.037090532 0.02008123
0.037201133 0.30866748 -0.0963923
-0.10485085 -0.13152876 0.025545426
0.10727056 -0.07329889 0.1392744
0.0015017015 0.14180271 -0.07409535
0.05670079 -0.076514274 -0.37756363
0.061805584 0.24476413 -0.08157323
0.047499172 0.00069935597 0.1415374
-0.022650493 0.043205876 -0.10822022
-0.09193878 0.13256603 -0.08285934
0.16225903 -0.08713569 0.044957694
0.0571983 0.32498333 -0.15107514
-0.23544987 0.013066347 -0.086186804
-0.056100946 -0.11893314 0.13315363
0.08704495 0.29105747 -0.17097759
0.10167883 0.2607497 -0.10357866
-0.07849435 -0.101374246 0.08343544
0.11160005 -0.07459058 0.12148904
-0.08039318 -0.13415787 -0.012347119
0.0320038 -0.12966283 0.11853542
0.031573962 -0.055626623 0.043050498
0.015852034 0.012060686 0.1405026
-0.045333095 -0.037676364 0.097776465
0.04239642 0.21362954 -0.11751882
-0.21454398 0.0023153564 -0.078081116
-0.048608527 0.014348737 -0.072507255
0.018715361 -0.07794191 -0.44726148
0.124070294 -0.080169335 0.13679953
0.002156542 0.2855799 -0.08747744
0.012735315 0.14759026 -0.088337
-0.047388963 0.07116348 -0.096810274
-0.010456571 -0.037883073 0.16662733
0.010344979 -0.12365164 0.08030884
-0.045305587 -0.04597297 0.023963032
-0.04779449 -0.05140413 -0.0121132275
0.015099196 -0.15549254 0.15579176
0.08098782 -0.15955335 0.1234482
-0.062114757 0.12828524 -0.11093798
-0.07417324 0.11988706 -0.09494089
0.030620795 -0.14072935 0.1540389
-0.0721402 -0.05982215 -0.064189084
0.0577405 -0.051175334 0.0986672
0.015096558 0.020484483 0.14603639
-0.07379109 -0.07025235 -0.10152538
0.021249361 -0.03855355 0.15559596
0.022064911 0.07224946 -0.10855405
-0.07715898 -0.09310751 -0.030356886
-0.00033260122 0.023864174 0.019128406
0.13342687 -0.09152369 0.1506877
-0.07435087 -0.06490243 0.026099019
-0.041066863 -0.13497548 0.12066786
0.025204608 -0.0013224016 0.055035908
-0.014623073 0.12434583 -0.083053455
-0.20527577 0.034712847 -0.0760707
0.039698504 -0.17184894 0.11865455
-0.018862374 0.14450027 -0.096427664
-0.06082437 0.15228127 -0.115041174
-0.014703089 -0.017188044 0.10631297
0.07862465 0.27573702 -0.09887144
-0.077918485 -0.13085105 0.048371308
-0.054955836 0.14561653 -0.103130326
0.12848502 -0.04072522 0.025987534
0.0771591 -0.17995097 0.029462304
0.02465004 0.030985978 0.1416007
0.034912683 -0.1649052 -0.052864123
0.012337346 -0.02320417 0.13548696
0.009796805 -0.15754141 0.15067221
0.027021447 -0.18509541 -0.032375637
-0.005329935 -0.10631867 -0.3063056
0.04537139 0.27257913 -0.117139205
0.035518307 0.3376307 -0.08399007
0.017690022 0.057282742 -0.09180011
0.078010134 0.01784191 0.03942853
0.1201058 -0.03977837 0.14725174
0.0514776 0.15590581 -0.13047433
0.04282299 0.2683308 -0.11482099
0.04695427 -0.10192756 0.1175326
0.013095534 0.22171852 -0.11523243
-0.014873428 -0.18235692 0.097534806
0.01035223 -0.08159544 -0.48822543
-0.020372946 -0.052080713 0.17314653
0.038920417 -0.060757335 0.13088349
-0.019862888 -0.07737211 0.14173955
-0.06528137 -0.045825593 -0.10209769
-0.013039098 -0.18400085 -0.051609974
-0.085178025 -0.059944186 -0.0044926433
-0.10984124 -0.015423365 -0.10522844
-0.04424788 0.034925736 0.01982996
-0.14576507 -0.012042774 -0.097008474
-0.03232402 0.11226844 -0.10500212
-0.15835084 0.0155035 -0.09297575
-0.102965966 -0.06261918 -0.07688991
0.07133257 -0.13312653 0.108647294
0.03529085 -0.152603 0.13645361
0.09696615 -0.16594161 0.107129745
0.07936961 -0.038655173 0.10917539
0.08751371 -0.0028921806 0.13096905
0.1315914 -0.021415053 0.042557277
-0.16545469 0.06516958 -0.09156788
0.024702717 -0.09361982 -0.2930437
0.059553467 -0.07634071 0.14889337
-0.24155065 -0.000515566 -0.055016264
0.05579387 0.20908876 -0.099444784
-0.2176091 0.05931407 -0.081231155
0.090123475 -0.097640865 0.10593363
0.046976607 -0.08724654 0.11156031
-0.042007506 -0.10207137 0.024677195
0.027214212 0.31604004 -0.11298787
0.07326019 0.29613116 -0.107216485
-0.043167293 -0.0795284 -0.089029916
0.072809204 0.02077658 -0.101100594
-0.009902579 -0.17083322 0.0587049
-0.0068676705 -0.08595799 0.106481455
-0.010375839 0.080393754 -0.08800236
0.027099257 -0.018244501 0.1045825
-0.016773617 0.05134126 -0.092501536
-0.044651777 -0.08229714 0.087146014
0.0019844642 0.09104108 -0.082966715
-0.09881643 -0.080110915 -0.09733679
-0.02699723 -0.17908615 0.062345423
-0.024418624 -0.05006596 0.13829556
0.10195783 0.27033535 -0.17602907
-0.18587561 0.05318463 -0.10225642
-0.006899598 0.15419532 -0.09807399
0.025690915 0.03727691 -0.08679079
0.045192067 0.16137564 -0.0969901
-0.004896925 -0.09094686 0.09369277
0.022187227 -0.09382653 0.14173141
-0.2260789 0.035258565 -0.09894037
0.15066455 -0.087547146 0.13488545
-0.22793077 0.043642823 -0.09578998
0.117594175 -0.17655468 0.055256736
0.11348888 -0.06282981 0.12350415
0.050467264 0.3213479 -0.09437513
-0.04503121 0.13677225 -0.1015598
0.08861323 -0.14204292 0.13783702
0.08293472 0.33210927 -0.12509927
0.15792482 -0.10709652 0.051212925
0.107726604 -0.14987643 0.053952727
0.045541912 0.15924859 -0.08738231
0.084001735 0.000698279 0.13765818
0.045195404 0.03181135 0.110040985
0.024893736 -0.12918392 0.11394194
-0.041495215 -0.15889376 0.054577403
0.009620825 0.059494466 -0.11283831
-0.06266682 -0.047700588 0.075383835
-0.019777315 0.23143628 -0.12254522
-0.045471016 -0.14432058 0.09431872
-0.17532702 -0.014161445 -0.09832687
-0.23963518 0.01632241 -0.067551345
0.031510986 -0.13570116 0.14452638
0.0677582 -0.17623574 0.08668454
0.0639342 0.015909985 -0.074642695
-0.061431207 -0.100168705 -0.09904833
-0.04341329 0.11955518 -0.11494565
-0.031418428 -0.07248377 0.11339459
0.059607636 0.27344668 -0.10709949
-0.05164163 -0.099463835 0.14895219
0.03670457 -0.021076148 0.13268904
-0.025905069 -0.09709043 0.14200613
0.030529916 -0.06616427 0.06827909
-0.1490288 -0.059008304 -0.094988205
-0.22295502 -0.032821875 -0.092720136
-0.018972443 -0.12715389 0.1231484
0.027062273 0.31187874 -0.12804362
-0.04360648 -0.10740245 0.14411424
0.058195703 -0.19485827 0.07562394
0.13860232 -0.1068985 0.048046745
-0.15476374 -0.025631702 -0.09899059
0.022956196 -0.08783525 -0.5607857
0.00056391157 -0.008211815 0.12679298
-0.0055544456 0.03655851 0.11464789
0.07600212 -0.03683361 0.10392321
-0.057384595 0.16297522 -0.08481373
0.016987922 -0.11196125 0.110566266
-0.25634748 0.016929837 -0.07514909
-0.2301188 0.038905974 -0.08311641
0.018649392 0.073626496 -0.08751426
-0.030822845 0.109622456 -0.099467106
-0.059197582 -0.07725851 0.08839389
-0.02650477 -0.030227723 0.15840214
-0.08393753 -0.06453244 -0.076033175
0.06532503 -0.038050044 0.06312581
0.017111845 -0.06748998 0.17648935
0.12791355 -0.03662859 0.08024155
-0.06434526 -0.051836543 -0.06056932
-0.023943061 0.27351367 -0.12381215
0.09412355 -0.15778752 0.08500491
0.12097293 -0.15114467 0.029922295
-0.019572644 0.16366218 -0.10802198
0.06295167 -0.16191806 0.075461194
0.0004343787 -0.19876261 0.085932374
0.1548951 -0.110287234 0.060891107
0.009969535 -0.19818641 0.09919868
-0.06440921 -0.040282533 -0.0677588
-0.17339739 -0.008343051 -0.105428115
0.047830928 0.1825937 -0.090030484
0.0079752 0.09889365 -0.08758232
0.11929905 -0.054566357 0.14381117
0.118388996 -0.04020577 0.1467898
0.031123867 -0.05117861 0.14335778
0.04484428 0.16371956 -0.08433345
-0.0277095 0.05417715 -0.11389041
0.07337902 -0.12119918 0.13590448
-0.009660984 -0.069365606 0.12210344
-0.06328918 0.018844685 -0.06511448
0.062261064 -0.11199488 0.095646285
-0.015456303 -0.01814673 -0.07305774
0.03676498 0.044928305 -0.110705465
0.08913052 -0.050172865 0.12608194
0.016238945 0.13327971 -0.08710177
-0.054223422 -0.10688481 0.109075226
0.004110509 -0.15501854 0.11403587
0.0032536832 0.010186178 0.071918845
0.053829435 0.24733467 -0.10143386
0.0030248081 0.085630685 -0.09276667
0.0466887 -0.13307495 0.11333577
0.054785356 0.007992 0.10660913
0.059499428 -0.08855455 0.13870963
-0.21398582 -0.01691848 -0.083051495
-0.054009523 -0.120650694 0.14512065
-0.028537204 -0.1556793 0.14577748
-0.004912574 -0.02928865 0.14350396
0.021235885 -0.17396678 0.059749886
-0.20284171 0.024399076 -0.08125335
0.022761581 0.030926762 -0.10042955
-0.036099683 -0.09195663 0.1557339
0.00029992612 -0.075247645 -0.3379323
-0.21742359 -0.012087241 -0.08797103
0.057452872 -0.075280085 0.052146908
-0.15035765 -0.00072184677 -0.08160194
0.028425818 0.13369685 -0.09539542
0.109058075 -0.12720233 0.051070537
-0.077124506 -0.013448672 0.03996815
0.0025248898 0.12409089 -0.10522385
-0.06343826 0.014085245 -0.07999239
0.11572336 0.29162574 -0.19208695
-0.086979456 -0.10924242 -0.0073677986
0.031483494 0.29449692 -0.08307264
0.068671755 -0.110459946 0.132083
-0.05455628 -0.09949086 0.034627486
0.16291668 -0.1219651 0.05420877
0.039008785 -0.104894325 -0.49346986
-0.056943964 -0.030532526 -0.09177101
0.09543068 -0.17358203 0.066612765
0.018152608 0.023190293 0.112269424
0.07055685 -0.12884966 0.15284641
0.017523156 -0.09070773 0.108695865
0.09851463 -0.04652825 0.14239022
-0.14823669 0.041877106 -0.0664362
-0.029426971 0.17900404 -0.076191984
0.10059895 -0.13914792 0.12825722
0.05294083 0.29711682 -0.10554873
0.027642805 -0.0593214 0.16545528
-0.053811774 -0.13449717 0.12472448
0.09873725 -0.052767266 0.10731104
-0.020988084 -0.19016097 0.12480578
0.044792395 0.22206946 -0.08702635
-0.08340182 0.020299364 -0.11421803
0.04920734 -0.0028113294 0.10793733
-0.01785793 -0.17023176 0.077756256
0.08202191 0.0039125877 0.09310558
-0.05446952 0.07620401 -0.09658234
0.08871756 0.2560605 -0.07800248
0.017097969 -0.15616111 0.10536966
-0.0064129313 0.19829392 -0.11167669
0.047963273 0.034391683 0.053258523
0.13229236 0.2551137 -0.18883815
0.11054096 -0.010528082 -0.12427793
0.10849645 -0.12248139 0.14298111
0.0068250834 -0.13104028 -0.41967624
-0.084693976 -0.02868178 0.021587482
-0.05450315 -0.11648428 0.03817113
-0.0046898164 -0.05663256 0.1456301
0.14220339 -0.11041985 0.06271176
-0.051090464 0.083954446 -0.09180257
0.041406345 -0.06850518 0.067172155
-0.083371215 -0.03772019 -0.07558468
0.065364584 0.028286286 0.082540356
