# .PCD v0.7 - Point Cloud Data file format
VERSION 0.7
FIELDS x y z
SIZE 4 4 4
TYPE F F F
COUNT 1 1 1
WIDTH 1000
HEIGHT 1
VIEWPOINT 0 0 0 1 0 0 0
POINTS 1000
DATA ascii
0.120326556 -0.0013289147 -0.012910295
-0.09629969 -0.017275851 -0.033604883
0.071400255 -0.116101876 -0.23917049
-0.074311554 0.09841116 0.040541757
-0.08699922 0.01440715 -0.061686214
-0.03582247 0.051887464 0.028825337
-0.046004646 0.18808077 0.08548234
0.05291584 -0.2212228 0.22144997
-0.020841261 -0.14465362 0.065698326
-0.059963666 -0.12439381 -0.05015577
0.13340674 -0.0074338624 -0.016321247
-0.1376931 0.25220078 0.18118995
0.035370227 -0.021343019 -0.015261708
-0.03135832 -0.1107157 -0.07076011
0.0814094 -0.2569147 0.21912217
-0.04730177 0.01854186 -0.103017375
0.10680401 -0.085057065 -0.07442421
-0.14804223 0.16856359 0.121846214
0.08372782 -0.049630173 -0.027273297
0.228417 0.06229398 -0.015308303
-0.01585431 -0.17186984 -0.09059657
0.09808953 -0.014770365 -0.019637031
-0.0075378628 -0.08061513 -0.02816037
0.050087377 -0.28100207 0.3023106
0.059446223 -0.22417797 0.13469091
0.26477042 0.07637271 -0.028720586
0.0017227554 -0.092453666 -0.04581064
0.18572994 0.044742383 -0.0097559765
0.19730352 0.014369922 -0.040882703
0.061629426 -0.29091913 0.3575408
0.15457176 0.0016158028 -0.06377171
-0.061371557 -0.16441621 -0.112308264
-0.010016575 -0.14677918 -0.25022596
-0.06185386 0.22600807 0.06849376
0.11648507 -0.0804652 -0.054526847
-0.03545466 -0.046229586 -0.04786459
-0.06489353 -0.01942908 -0.106810525
0.11724279 -0.04722871 -0.056208253
0.091523774 -0.022983588 -0.026497496
0.06809749 -0.0031186752 -0.056372378
0.09734556 -0.15366404 -0.0854229
0.014769344 0.09689388 0.040697616
-0.049970042 -0.17803389 -0.08071741
0.047750518 -0.26264897 0.2551294
0.015233624 0.124598116 0.049610097
-0.06921056 0.21213695 0.0809113
0.016882757 -0.020221114 -0.024258424
-0.026624149 0.12064818 0.077433065
0.043777157 -0.1704281 -0.11462465
-0.0013283778 -0.022314807 0.008547192
-0.08852336 -0.09519715 -0.0990782
0.07837322 -0.1050896 -0.096003644
-0.053385805 -0.059458774 -0.054346025
0.07926728 0.009420079 -0.1380542
-0.014444474 0.026818514 -0.118032694
-0.07816673 0.16611259 0.09768799
-0.0107590705 -0.1405802 -0.09068278
-0.098387115 0.14163116 0.05876954
-0.045842994 -0.087393045 -0.010543507
-0.124450766 0.19037688 0.08917575
0.026100872 -0.19006467 -0.08423498
-0.08130658 0.2295027 0.09946797
-0.089467645 -0.14167339 -0.16574249
-0.054771956 0.16535199 0.090408035
0.040290974 0.035423484 0.016310817
-0.14572361 -0.0035045624 -0.12147617
0.04947348 -0.005694562 0.01139119
-0.051243417 0.031726364 8.0561775e-05
0.0071237693 0.039211344 -0.007366916
-0.06437621 0.0717296 -0.19553773
0.027274603 -0.033373196 -0.046275005
-0.13502501 -0.074072026 -0.19359678
-0.10455693 -0.02185769 -0.09385966
-0.021412447 -0.11729425 -0.05787361
-0.11199164 0.22769476 0.11072875
0.02033336 -0.108250715 0.018242424
-0.0009830492 0.13048013 0.06982815
0.23229602 0.11654693 0.021337986
0.08067266 -0.31376112 0.33499783
0.009623273 -0.17050171 0.07131726
-0.07490459 0.07774903 -0.20152603
0.042750347 0.07954625 0.018838951
0.16481638 -0.0014344873 -0.033202834
0.07877217 -0.12595643 -0.13894612
0.069619566 -0.12496612 -0.09025477
-0.055551305 0.124391526 0.03731886
-0.1164387 -0.09094939 -0.067986056
0.07568439 -0.28271776 0.3669444
0.18179457 0.051356077 -0.04002691
0.057455447 -0.245672 0.21276851
-0.03874763 -0.056857634 -0.029100442
-0.09640619 -0.027076446 -0.1540525
0.14240763 -0.0013246832 -0.029533153
0.071800224 -0.032698978 -0.04810799
0.033793807 -0.00041614487 -0.02496644
-0.08225275 0.18616293 0.11845681
-0.059925996 0.04912875 -0.21074308
0.21713875 0.13593838 -0.019508552
-0.075903594 0.07691887 -0.19297889
-0.14797379 0.19789721 0.09542185
-0.12459933 0.24347444 0.17877017
-0.03171573 0.051883895 0.035747014
-0.115144804 -0.10880261 -0.12545867
0.16704343 -0.046924442 -0.051506322
-0.14402638 -0.010538622 -0.13787942
-0.08413869 0.050325673 -0.12427461
-0.06529404 0.052656766 0.032537837
0.10384371 -0.108005576 -0.20949192
-0.0791349 -0.1223282 -0.058500372
0.23175223 0.06274998 -0.019006513
-0.042894896 0.17271799 0.08476288
-0.06902976 -0.19859816 -0.12764254
0.016973924 -0.18564124 0.100561306
0.066082075 -0.33629227 0.40647456
-0.04220722 0.0508819 -0.13941841
-0.16875547 0.18231209 0.2078509
-0.11522066 -0.0057990514 -0.14572805
-0.04546602 -0.031861488 -0.02065038
0.05974532 -0.2647109 0.2672295
0.068925634 0.046541914 -0.020891715
-0.08058863 0.23314026 0.08922605
0.19518805 0.1233044 0.018358821
0.061212607 0.13001782 0.04024524
0.056267083 0.024756901 0.0073872046
0.27668658 0.09353016 -0.013259538
-0.028036496 0.046114817 0.0014199446
-0.028921593 0.1234378 0.03943841
0.001698941 -0.15175465 0.010583119
0.07639881 -0.067371935 -0.21187857
-0.023269482 -0.08231017 -0.03966707
0.13727641 -0.02163108 -0.03169133
-0.14357 0.21081951 0.09695989
0.2503798 0.083609805 -0.022146316
-0.1848149 0.13077116 0.17402327
0.19430001 -0.010262991 -0.010112527
0.03437198 0.06912934 -0.22485767
0.0019475045 0.012267343 -0.028060813
-0.12727498 0.28941774 0.14424728
0.019528719 -0.021054719 0.0026468982
-0.07246415 0.16745442 0.104772575
0.05171839 0.008600746 -0.03926157
-0.049656037 0.12993257 0.062845394
0.13509703 0.04223017 -0.01790128
-0.08643104 0.16013274 0.073300764
-0.02649993 0.07927189 0.013068874
-0.1488812 0.2035524 0.121318616
-0.11917903 0.035587247 -0.23745778
0.18857893 0.040663905 -0.008691206
0.016815731 -0.07480604 -0.057534717
0.080825925 -0.021638703 -0.040143102
0.0054069418 -0.20271783 0.13402167
0.11028358 -0.05947348 -0.041885473
0.043025006 -0.10294306 -0.09739521
-0.005072206 0.07449485 0.0440669
0.01701254 -0.16848585 -0.153808
-0.01860383 -0.044780873 -0.038449217
-0.023835376 0.07094733 0.006776197
0.2636629 0.05360012 -0.032969207
0.037188835 -0.3195723 0.40056837
0.041899677 -0.13051224 -0.09755793
0.09589598 -0.08715881 -0.20472497
0.21951623 0.018916136 -0.03251711
-0.023329632 -0.093178615 -0.040634856
-0.018345525 0.09913143 -0.23802394
0.035696432 -0.021847352 -0.057038236
0.23831506 0.09279577 -0.019420622
-0.14535998 0.016425231 -0.14236291
0.09647294 -0.10722334 -0.0874976
0.17892984 -0.035763383 -0.06394329
-0.032651424 -0.116407625 -0.0652937
-0.04199268 -0.021807972 -0.013611104
-0.09021433 0.19053736 0.11609213
0.09188421 -0.090434745 -0.24207203
-0.013062603 -0.15732396 0.037176356
0.1402707 0.029874956 -0.036602452
-0.11567173 0.14608668 0.09758406
-0.020351049 -0.13850398 -0.25144416
-0.09996728 0.24803722 0.16675144
-0.08219297 -0.103187636 -0.06495239
0.17400192 -0.033678323 -0.028789325
-0.107514836 0.21166575 0.19350806
0.090049185 -0.080555044 -0.06248356
-0.11990867 -0.010824035 -0.10695802
-0.014471806 0.12535465 0.072544344
0.053868923 -0.010052042 -0.03437403
-0.03560618 0.074614026 0.057591956
-0.0791876 -0.04777596 -0.011580086
-0.12099746 0.23558095 0.1746895
-0.04568367 -0.14985047 -0.04917173
0.0012810696 0.07946856 -0.11821385
-0.030179784 0.032155965 -0.013485555
0.06658864 0.038390648 -0.18207449
0.07770666 -0.0720356 -0.07611014
-0.055968855 -0.032331683 -0.014837759
0.007932961 0.068004094 0.043082085
-0.027558655 -0.097378895 -0.030286068
0.031331196 0.06272196 0.02372795
-0.056247793 0.035669655 0.01720926
0.068261266 -0.12528369 -0.09075773
0.0038519616 -0.03571158 -0.040650494
0.17763619 -0.008733586 -0.05540154
0.03865388 -0.10484566 -0.19501747
-0.15967721 0.16786154 0.14737172
0.058047604 0.022575155 -0.016445711
0.106463365 -0.059746385 -0.048315402
-0.09651396 0.20717616 0.099975415
-0.118944846 -0.06394819 -0.1740857
-0.046429325 0.1624961 0.042606104
-0.097700685 0.21070592 0.083909765
0.029210942 -0.08497705 -0.06562326
0.011229815 0.1287312 0.02183454
-0.012505814 -0.15324785 0.03412457
-0.10281159 0.24630183 0.18735594
-0.04106933 -0.079657294 -0.0725274
-0.033212263 0.04061532 -0.08345446
-0.03465293 -0.14343213 -0.07100581
-0.036076903 -0.1652427 -0.25343907
0.06876253 -0.092512816 -0.062330518
-0.14950341 -0.10522271 -0.20284228
0.033891704 -0.10969262 -0.027223205
-0.113563634 0.005869821 -0.07803742
0.08780573 -0.08322998 -0.065364204
0.11301263 -0.07608508 -0.05095748
-0.0066255415 -0.12154053 -0.034349773
-0.107571475 0.27979025 0.1260038
0.04018017 0.017274259 -0.028573781
0.046111345 -0.07896829 -0.07196904
-0.11308764 -0.097245626 -0.08819717
-0.050285943 0.017732035 0.027766254
0.0691311 -0.2616126 0.22657497
-0.09447511 0.20159641 0.07718452
0.06882453 0.104104914 0.02828232
0.11626277 -0.059702933 -0.038253214
0.07319616 -0.10816156 -0.07827412
-0.01215601 -0.024680618 0.0012855743
-0.026008984 0.030610979 0.009564445
-0.02899815 0.10784407 0.03160445
-0.05874629 0.17938866 0.09310811
-0.11497578 0.1653881 0.0860353
-0.036016442 0.039345272 -0.12475634
0.045706227 0.055982567 -0.12194986
-0.10162488 -0.043085165 -0.13895695
0.08837098 -0.007431257 -0.022621702
-0.10610171 -0.110868156 -0.18989858
0.22329274 0.045144867 -0.019998496
-0.0887907 0.2687367 0.10100474
-0.044096656 0.17106469 0.0668918
0.055301137 0.081382066 0.026016328
0.0026285767 0.034383193 0.031076169
0.06387802 0.024820877 -0.03565473
-0.026380425 0.20161712 0.06405649
-0.14837572 0.16846855 0.10029858
0.07610708 -0.28618148 0.36046663
-0.024476722 -0.03163118 -0.04439649
0.098285414 -0.032057825 -0.047352538
0.07673596 -0.103565395 -0.08788632
0.037668847 -0.093663394 -0.07222614
0.0046821386 0.0028985224 -0.036868557
0.036945246 0.13061297 0.038821865
-0.015478035 0.079700395 -0.24380767
0.09042993 -0.00085394544 -0.003650505
0.13543844 0.048575003 -0.042719796
0.019587653 -0.06728928 -0.052881815
0.038722787 -0.17725837 0.110318944
-0.105992325 0.14336964 0.08982065
0.072953895 -0.3036725 0.31030446
-0.07821681 0.09930887 0.067989506
-0.002113756 -0.19362994 0.12649137
0.16213655 0.033229884 -0.03433509
-0.014822561 -0.14135908 -0.013936188
0.14478277 0.026097743 0.0011395557
0.061037857 0.0026204444 -0.01108425
-0.07857283 -0.13466229 -0.079027295
0.039468702 0.019678267 -0.09752802
0.16334951 -0.023888694 -0.053974077
0.20222107 0.015269783 -0.016467683
0.051054675 -0.257684 0.23372045
0.04490056 -0.25063384 0.2687977
-0.066449456 -0.07894323 -0.05106448
0.22987689 0.09430404 -0.0023192896
0.03489423 0.06128684 0.011267461
-0.058734685 -0.10219415 -0.02307716
0.046199728 -0.31101567 0.30742943
-0.10777051 -0.05155877 -0.13505298
-0.023965394 -0.13082846 -0.041670647
-0.045882512 0.089313805 -0.22770451
0.013024392 -0.12011884 -0.0042609205
-0.02620819 0.08498509 0.046662472
0.021340908 -0.082765564 -0.048634175
0.031268764 -0.118158765 0.042888336
-0.1920511 0.15334225 0.1785768
0.0703045 0.06691424 0.004396067
-0.0015246307 -0.17990206 0.0880777
0.062275827 0.08050346 0.03262752
0.09185674 -0.12045719 -0.109605655
0.09617368 0.026407111 -0.1530591
-0.07138124 0.046471257 0.005656941
0.18457885 0.0671789 -0.0022873958
-0.12907763 0.25233388 0.10429026
0.037615605 0.08649132 0.03759265
-0.1065242 -0.14713481 -0.09422501
0.031639133 0.089333564 0.021980466
-0.046346772 0.032241523 0.02267002
-0.038553536 0.11744712 0.077714734
0.023470452 -0.25541773 0.24238159
-0.093769126 -0.05413471 -0.12817913
-0.026075067 -0.19238448 -0.07024521
0.009944503 -0.19446234 -0.09284092
0.2329092 0.10159816 -0.00045948973
-0.046554856 -0.0075595356 -0.019454796
0.13727456 -0.024189245 -0.03638426
-0.020207236 0.085100986 -0.18203245
0.0056318445 0.14379336 0.02989165
0.08318312 -0.1279127 -0.09800126
0.13555838 0.0049551176 -0.057514984
0.070492394 -0.2605954 0.31840184
-0.02838024 -0.020516215 -0.03446001
-0.05740363 0.0015669689 -0.08345078
-0.043921962 0.0568702 0.0380917
-0.030144522 -0.044709843 -0.0012657238
-0.0025411819 0.05025398 0.041946255
0.07465242 -0.30045494 0.30241358
0.057570826 -0.019497985 -0.025409138
0.0071869306 0.038840428 -0.10235555
-0.055939455 0.006019845 0.02155038
-0.09480718 -0.08695943 -0.053345088
0.067583665 -0.01622398 -0.021827742
0.16148266 -0.04717859 -0.03247989
-0.06853577 -0.0071354704 -0.009312296
0.04716372 -0.0033529087 -0.029876089
0.0047028405 0.099276155 0.042661775
-0.051883396 0.066306 0.048966635
0.021317262 -0.09147845 -0.079155974
-0.0190109 0.035686694 -0.011287199
-0.029189115 -0.07519364 -0.044337463
0.12190171 0.006679235 -0.057446435
-0.015362568 -0.111977324 -0.022370214
-0.08119174 -0.08155864 -0.050576292
0.0072649033 0.07126766 0.010537458
0.17812952 0.025180979 -0.010326521
0.1314775 -0.0017319336 -0.022128964
-0.06319499 -0.11541845 -0.04800621
-0.06044632 -0.022388767 0.016181242
0.055333693 -0.26011974 0.28913477
-0.11101503 0.21584171 0.112130076
-0.034046873 0.041449666 -0.1069184
0.022679877 -0.021445312 -0.019181527
-0.06388951 -0.17696567 -0.14987455
-0.06745906 0.088365726 -0.19496585
0.041810893 0.001020073 -0.030629482
0.065569215 -0.06375256 -0.052128736
0.096042566 -0.11041987 -0.09430332
-0.095253915 0.18176436 0.10478528
-0.12609151 0.031211386 -0.20006245
-0.08211845 -0.06251096 -0.031409938
-0.026085353 -0.16788696 -0.07828867
-0.11809402 0.23341288 0.16382262
-0.017669914 -0.06445532 -0.051137526
0.024806084 0.06149088 0.042715702
-0.019852819 0.06593829 -0.19784367
0.055335134 -0.23139705 0.18396531
-0.07932227 -0.14173153 -0.14538626
-0.041824784 -0.116813414 -0.080242716
0.0033661814 0.0922204 0.0003413707
0.03859709 0.11599935 0.03286688
0.0154728405 -0.15591675 0.13503926
0.04360171 -0.2274405 0.22670425
-0.045734547 0.013398697 -0.010208333
0.1106251 -0.08944693 -0.23980533
-0.17843024 0.24144109 0.1169797
-0.019192435 0.0532738 0.032302763
0.032176588 -0.20472294 0.0966742
-0.07891646 0.2218292 0.08872521
0.10073444 -0.08593454 -0.23337711
0.2061852 0.050001077 -0.021256672
0.05205629 -0.031903807 -0.05483314
0.021586012 -0.22044721 0.1368483
-0.0007398493 -0.0030966941 0.004493585
0.042019676 -0.27434218 0.28448138
-0.15987398 0.2205159 0.14235976
-0.0963438 0.25141832 0.12464025
0.06427101 -0.17007248 -0.11606683
-0.13293608 -0.060066722 -0.18915595
-0.02179947 0.023885487 0.03367432
-0.019970626 -0.13208997 -0.004067704
0.21648683 0.049239807 -0.007697522
0.062032763 -0.07034257 -0.048443306
-0.00423601 -0.18257879 -0.13312227
0.04644619 -0.15560734 0.005163986
0.18822137 0.09371035 -0.012301447
-0.13064952 -0.04499655 -0.12247857
0.05515496 -0.2897222 0.35001007
-0.019370722 0.04555377 -0.005243922
0.0027946588 0.13974297 0.053292945
-0.035113603 0.10385248 0.038147923
0.0694822 0.0072413054 -0.0047142454
0.07348222 -0.107377976 -0.15302305
-0.12187776 -0.0924955 -0.18303701
0.039422378 0.1365087 0.027590258
0.026754444 -0.13096265 -0.024036005
-0.06042119 -0.0072931317 -0.023120005
0.22523445 0.09266423 0.011557971
-0.06539106 0.0587347 -0.21152143
-0.043489106 0.2114758 0.11208505
-0.016600084 -0.0840684 -0.04846255
-0.017811427 -0.028469682 -0.020368388
-0.062083665 -0.12050591 -0.22547936
0.12644677 -0.013976634 -0.01418411
-0.026553327 -0.14429967 -0.067372106
-0.11807772 0.2547878 0.14897469
-0.025345033 -0.05686449 -0.025050046
-0.15628442 0.20260908 0.20905504
-0.05926208 -0.018984785 -0.030568948
-0.042036403 0.052726023 -0.009966474
0.05598829 -0.03716713 -0.042235836
-0.046696886 -0.007042114 -0.020691024
-0.14032406 -0.017554736 -0.17168538
-0.021879643 -0.032259554 -0.037995536
0.07279185 -0.044515595 -0.03556451
0.015711917 0.043320373 -0.011352374
-0.073366225 0.22430523 0.106695384
-0.07741994 -0.09621178 -0.043936744
0.07956592 -0.13175417 -0.1051363
-0.0233854 -0.13655719 -0.08907487
0.04144925 0.042426296 -0.11591708
0.06760545 -0.12945929 -0.09242353
-0.05698314 -0.083781496 -0.047749408
-0.041702114 0.13586704 0.06648466
0.17019735 0.050459895 -0.028261255
0.024472857 0.07875173 0.018265337
0.118701264 0.03243165 -0.015710613
-0.060733065 0.2143205 0.09436542
-0.18809125 0.18781947 0.18286432
0.037556034 0.12516996 0.070161775
0.10468086 0.0012763839 -0.014475828
-0.08818164 0.1574652 0.08818331
-0.14467536 -0.115229614 -0.1752062
-0.16315249 0.20470442 0.16146934
-0.046798214 0.13519096 0.071274176
0.09469677 -0.074807055 -0.04697541
-0.0059154904 0.11164652 0.068320855
-0.084611334 0.12878352 0.06920181
0.069285594 0.10345401 0.029610569
0.020631243 0.06465483 0.03288857
-0.07965934 0.19710591 0.07081581
-0.17562479 0.17548315 0.080739155
-0.0060627884 0.060752835 0.020623758
0.07571983 -0.092740275 -0.061521478
0.0101454295 0.15640435 0.07377068
-0.07848826 0.12106131 0.04080107
-0.058621265 -0.14023133 -0.08245796
0.007889186 0.1110826 0.020475484
-0.07434401 -0.10665621 -0.044357046
0.033218376 -0.1447782 0.10295223
0.07703101 -0.2937134 0.3348346
-0.10349203 -0.07506798 -0.07086688
0.040448904 -0.13352162 -0.07259365
0.23471843 0.027505979 -0.04718905
-0.050241977 -0.017857103 -0.029146403
-0.10987059 0.21161497 0.12057818
-0.113525726 -0.032969225 -0.14771304
-0.07131327 -0.0139005 -0.06473358
0.09114855 -0.2936309 0.32691434
0.09401156 0.007596777 -0.012389384
-0.18739659 0.17940558 0.15974768
0.2648109 0.08781703 -0.046076246
-0.14436063 0.15145585 0.06525142
0.0109798545 -0.11222134 0.0071389563
-0.21545425 0.12709534 0.18870607
-0.021788219 0.03951663 -0.009515724
0.056147438 0.0077768867 0.008143142
0.038041733 -0.11447754 -0.21667442
-0.11121909 0.0037302033 -0.12680559
0.015880438 -0.08906426 -0.08298646
0.13218847 -0.009884215 -0.023456592
-0.11752619 -0.038026128 -0.14003165
-0.0141126495 0.057715613 -0.20797698
0.2114535 0.05916104 -0.031677388
-0.08398633 0.16095352 0.091403015
-0.08848077 -0.11587847 -0.060374323
0.016400656 -0.051503353 -0.017250974
0.16122647 -0.0030091694 -0.037102472
0.15142164 -0.023482421 -0.066759504
0.01788563 0.1658694 0.075730816
0.13536562 0.054442793 -0.017107192
-0.057481557 -0.04034429 -0.031252243
-0.14445391 0.18766463 0.17318858
-0.09806385 0.2013791 0.1843085
0.021898732 -0.14607391 0.08515214
-0.08546639 0.11680867 0.06510486
-0.1427694 -0.14856927 -0.22869292
-0.007549151 -0.1638001 -0.0899538
0.039795708 -0.2695451 0.26905906
-0.03450315 0.18625943 0.09615307
0.04554296 -0.13717234 -0.07660883
0.02285565 -0.17551854 0.07305835
-0.10174394 0.023197692 -0.15407752
0.016520392 0.14466129 0.061741512
-0.16179398 0.19790159 0.16945145
0.027221922 0.0907638 0.01585479
0.10130368 0.020297522 -0.042342093
0.13992497 0.0062762187 -0.02114525
-0.040652495 0.038690127 0.033855155
-0.12976424 0.20564778 0.20525347
-0.024979623 0.09463668 -0.1818417
0.23834161 0.055336565 -0.036235817
0.10132693 -0.03510353 -0.03264185
0.052510504 -0.24316941 0.22640347
-0.12392482 -0.117718965 -0.17867263
-0.091345884 -0.15772092 -0.21048512
0.043958925 0.012814743 -0.026869016
-0.19198963 0.20454516 0.11263751
0.024404248 -0.12662303 -0.08500309
-0.06971678 0.19273163 0.08110653
-0.030650679 -0.06922432 -0.0285243
-0.044324793 0.15020776 0.05195072
-0.04635608 0.08577133 0.065316565
-0.11489917 -0.0062266234 -0.12073645
0.03254932 -0.110784 -0.22910719
0.026937962 0.090042576 0.04208575
-0.041005906 0.12775107 0.041201193
-0.10274432 -0.011416479 -0.16101924
-0.12218964 -0.041342836 -0.14188726
0.01766487 -0.043102246 -0.021269424
0.028078778 0.0574891 -0.12611838
0.24273664 0.074162684 -0.034922015
-0.097544774 0.1381594 0.054389533
0.104055524 -0.012717984 -0.03438236
-0.028128073 0.036637567 0.030254366
-0.032366544 0.07868742 -0.17519182
-0.10554919 0.16059768 0.07488161
0.0054779635 -0.21327923 0.17013942
0.014858017 -0.16795659 0.022175003
-0.13352501 0.25048524 0.14222944
0.007775033 -0.033444308 -0.0095079355
-0.056809805 -0.0826615 -0.036645073
-0.089031175 -0.14733107 -0.18807475
-0.19389752 0.15355074 0.17585985
-0.19630787 0.13087513 0.18019481
-0.13946445 0.22403984 0.20044905
-0.034765027 -0.06770713 -0.022158496
-0.00936149 -0.091316774 -0.061126478
-0.21286067 0.12650637 0.14526193
0.057893597 -0.090146214 -0.09407905
0.052243117 0.04048022 0.008352349
0.13982043 0.0045111296 -0.031987283
-0.13458122 0.22109301 0.1036874
0.057984408 -0.32708764 0.38672403
-0.071510136 0.057264026 -0.19320361
0.022493577 -0.03447993 -0.049303353
0.12047979 -0.070481725 -0.044972207
-0.014536543 0.03024402 0.020086998
0.047700144 0.10477288 0.047849134
-0.06802621 0.14563225 0.044383217
0.08554569 -0.06040243 -0.0530473
-0.013082503 -0.13712977 -0.091221765
0.022310806 0.035633378 -0.111130945
0.15735623 -0.021162564 -0.021159241
-0.06718767 0.16701947 0.09974244
0.013744955 0.07354262 0.022660589
-0.08154738 0.13038553 0.09545461
0.046062037 -0.24362175 0.26512766
0.15064035 -0.019001566 -0.051524185
0.032000586 0.05281611 -0.21901067
-0.0011900725 0.12486749 0.078674555
0.041144647 -0.2674415 0.2929741
0.031835496 -0.115446955 0.008293309
-0.025650194 -0.06915654 -0.036967356
-0.08216282 -0.11223452 -0.040810756
0.002979926 0.050351933 0.032162398
0.040336814 -0.1662829 -0.18048243
-0.07176638 0.04546344 -0.14187191
0.056586653 -0.06349206 -0.02222987
-0.05009648 0.08157625 0.008318066
-0.037072636 -0.11772621 -0.053108033
0.015873093 -0.07014523 -0.030897258
-0.07610625 -0.049533024 -0.07469919
-0.005257357 0.095005676 -0.24359028
0.046630178 -0.28665668 0.3374252
0.13295148 -0.019393312 -0.028996771
-0.061367944 0.023647392 -0.122951545
-0.017973535 0.12123728 0.07748531
0.068355136 0.018861353 -0.12999158
-0.09540441 0.17621523 0.080811016
0.10419407 0.004689782 -0.00089161505
-0.011888559 -0.1266854 -0.05290187
0.013959658 0.08995013 -0.20690538
-0.1240918 0.1857718 0.09133044
-0.19220705 0.18072496 0.17539865
0.07300237 -0.17374013 -0.11094056
-0.21419705 0.1289277 0.18954854
-0.14176466 0.21700732 0.19870238
0.03926381 0.0068153297 -0.038240504
-0.16579801 0.16762818 0.14508323
-0.020746363 -0.114501834 -0.009045958
0.01860816 -0.13804172 0.019365847
-0.031310506 0.106636256 0.0386137
-0.05437112 0.11335911 0.046543945
0.21616569 0.05210126 -0.01486929
-0.16097546 -0.026221218 -0.15879197
-0.123535074 0.05536403 -0.22720823
-0.03668556 0.055970233 0.013483046
-0.01965493 0.06454636 0.012932228
0.1018588 0.0060103717 -0.034592934
-0.0043857996 0.109625556 0.024934268
0.020772839 0.009385959 -0.0355549
0.08098312 0.025729127 -0.044304956
0.047776375 -0.21302938 0.23828056
-0.038523868 0.04435843 -0.19643413
0.006119445 0.006149316 -0.0031659112
-0.027067287 0.06633704 0.01486748
-0.053204812 -0.084961675 -0.053001318
0.021989867 -0.23570955 0.19318037
0.022082077 -0.109004036 -0.085726514
-0.09079705 0.027195003 -0.17872949
-0.02395743 0.10085387 -0.20612949
0.06946847 -0.053438243 -0.047521297
-0.09923967 0.20921825 0.10502656
0.04332995 0.10329695 0.020933535
-0.07480237 0.17121004 0.10129679
-0.083993465 -0.02739589 -0.011163052
-0.14193603 0.23123685 0.11473092
-0.1826855 0.17998683 0.15269384
0.009386366 0.0380131 0.0039241794
0.029053835 -0.12288192 -0.059835434
0.014907737 -0.17448594 0.033818904
-0.027898729 0.09818357 0.04693767
-0.04707199 0.022867594 -0.09116746
-0.05963393 -0.14169551 -0.105268516
-0.04658969 0.1661767 0.0529882
0.02823064 0.023720803 -0.026401546
0.021844214 0.024606112 -0.1325587
-0.0826844 0.15468028 0.08082053
0.024596287 0.030456722 -0.0041409894
-0.1745991 0.22349888 0.12124316
0.07693453 -0.30382586 0.39127204
0.033286903 -0.10252976 -0.07419803
0.021236844 0.0786101 0.016999453
-0.09708091 -0.06899261 -0.08454026
0.14049008 -0.050524086 -0.06541834
0.19463964 0.06826175 -0.014383186
0.035572503 -0.05496536 -0.027644314
-0.010254261 0.06108949 0.021563115
0.08109769 -0.09449222 -0.06029427
0.27004158 0.06303215 -0.031670336
0.00818618 0.08819473 0.022156993
0.025729463 -0.15844633 -0.13738392
-0.14943257 0.24355052 0.17542656
0.011326503 -0.16522433 0.10893288
-0.00462678 0.1332248 0.035012458
0.02473975 -0.14042675 0.014831486
-0.11335019 -0.10925313 -0.17630878
0.028527072 -0.22293559 0.21189007
-0.0018532996 -0.022568876 -0.0354546
-0.15695277 0.16521199 0.17435156
0.009375389 -0.19501784 -0.11863279
-0.041217677 0.057217877 0.04099499
-0.031171147 -0.0040726215 -0.0042179334
-0.12720199 -0.01770445 -0.16389078
0.008893429 -0.11581547 0.02174575
0.1628549 -0.015968623 -0.05814206
-0.095022686 0.16131279 0.0788115
0.11558087 -0.019457923 -0.05039446
-0.008573018 -0.15589124 -0.0032290663
0.22251791 0.05484876 -0.031977847
0.09034446 -0.02424627 -0.029293481
0.03151513 0.036095504 -0.11936702
0.047574297 -0.0593042 -0.051441554
0.018802946 -0.03912094 -0.018796396
0.100227855 -0.090452455 -0.07315705
-0.059466958 0.029924218 -0.016607985
0.015784709 0.056430057 0.00941138
-0.10824357 -0.113487534 -0.22659865
0.08323374 -0.06834578 -0.042969733
0.18184726 0.07706602 -0.030120553
0.01375968 -0.04842834 -0.048608065
0.09238702 -0.046780884 -0.03505698
-0.11532345 0.23458393 0.09988372
-0.21370064 0.14446199 0.16168824
-0.13446051 -0.10467024 -0.17939688
0.0220916 -0.24002743 0.27848503
-0.09141284 0.1426823 0.086474285
0.038344547 -0.19255412 0.13675733
0.06530792 -0.22305904 0.25859168
-0.022820067 0.025919005 0.016182747
-0.112468734 0.18433748 0.08012898
0.06464854 -0.20236124 0.15540077
0.011209925 -0.045270413 -0.042552248
0.06527727 -0.27130967 0.2712233
0.03614385 -0.25899357 0.22124778
-0.20846577 0.15619688 0.18653965
0.24790317 0.05689448 -0.04708843
-0.06893313 0.15364404 0.07884965
0.015954977 0.10296641 0.05239497
0.07411633 -0.075655796 -0.06217016
-0.03676979 0.00521547 0.005753856
-0.028992696 -0.107110724 -0.03600306
0.22506401 0.056590028 -0.035917744
0.08339472 -0.31482193 0.39191827
0.0365922 0.04272539 -0.019113887
0.024159377 0.1287622 0.04228077
0.03426671 -0.15633002 -0.18121207
-0.17933317 0.20214725 0.16254903
0.010816616 0.0588138 0.0014511435
0.05186217 -0.29119173 0.36239058
0.021059353 -0.17609558 0.036020055
-0.112345904 -0.12364895 -0.07360559
0.21846181 0.04896122 -0.033314455
0.06661547 -0.18544762 0.16451295
-0.017204722 0.036753062 -0.11293012
-0.17066324 0.18694113 0.16975299
-0.0076537076 0.056308817 -0.21615914
-0.22757688 0.15002544 0.1548265
0.024401028 0.07526149 0.010101125
-0.095608 -0.13204658 -0.17665714
-0.055257555 -0.051912718 -0.047585785
0.038580336 -0.14401029 -0.081254184
-0.04911595 -0.08310624 -0.061658736
-0.028367763 0.01082881 -0.10015586
-0.082360275 0.08518076 0.06469244
-0.08882018 0.025565583 -0.13151172
0.08170292 -0.0015873417 -0.035361115
0.19611977 0.035711866 -0.010214024
-0.015194446 0.011130338 0.015382274
0.003533685 0.033705693 -0.015244658
0.0053124917 0.03357881 0.0006666858
-0.10108 -0.072267994 -0.11601072
-0.12679675 0.2684219 0.1747285
0.07194078 -0.10377867 -0.21725921
0.12514558 -0.0070482185 -0.046911847
-0.06492751 -0.09730024 -0.060762834
0.052000083 0.020193884 -0.00027147794
-0.08496384 0.15242928 0.0829093
-0.03185137 0.1570525 0.06151796
0.02520544 0.10436728 0.042653505
-0.01161817 0.06771359 0.033367682
0.17234528 0.049240183 -0.031728096
0.08145082 -0.26943153 0.29962665
-0.1576504 -0.026161145 -0.17384201
0.16808683 0.037435938 -0.017260512
-0.12941244 0.22690986 0.19246891
-0.012806121 -0.022836836 -0.04400547
0.008467949 -0.12164437 -0.08482871
-0.15722041 0.2530086 0.14697205
0.18526053 0.068972945 -0.0041527553
-0.032786738 -0.020861164 -0.037431505
0.037133437 -0.18676996 0.12037698
-0.13229854 -0.023509571 -0.124695525
-0.04895671 -0.08085258 -0.042699542
-0.0018611467 0.11302604 0.03508293
-0.0591135 0.039624292 -0.13445239
0.06854721 -0.12324159 -0.22466108
0.12844263 -0.049383603 -0.06777069
-0.09646798 0.12774834 0.09005984
0.0016243617 0.08235009 -0.12968822
0.06414984 -0.03159049 -0.036085214
0.08868563 -0.092616506 -0.07176986
-0.028706938 0.085946836 0.05024491
0.120105736 0.01507647 0.0030782279
-0.11465152 -0.09126932 -0.18518676
-0.05765467 0.035021156 0.027258245
-0.09937704 0.17560902 0.10487572
-0.08248954 0.19090411 0.0808959
0.020065065 -0.0006870457 0.0011903914
0.040083632 -0.16506825 -0.07864292
0.15205842 0.03672636 -0.0076807705
0.14235097 -0.0074667563 -0.05411048
0.16159627 -0.02224994 -0.06671055
0.068448104 -0.14483768 -0.064987615
-0.025694016 0.14095001 0.08961237
-0.17357689 0.20124814 0.16787651
0.15071931 -0.030413214 -0.0719004
0.050336927 -0.20410526 0.18877646
-0.06910473 -0.118720695 -0.029323244
0.2031946 0.06788485 -0.016770458
0.23405087 0.019928142 -0.014497912
-0.15177463 0.21020824 0.18315929
-0.0062836674 -0.019475562 -0.037194088
-0.09126938 0.03232171 -0.08779594
-0.15356258 0.19974579 0.17980605
-0.05966642 0.06560777 0.040127087
0.073255815 -0.24845818 0.3047016
-0.074147284 0.078206375 -0.18373108
-0.033661146 0.13054965 0.059484106
-0.09272842 -0.09721283 -0.051675986
-0.030512564 -0.07050656 -0.011175858
-0.1769578 0.22272944 0.12160176
0.022604486 0.06265381 0.02359196
-0.022130005 0.19113499 0.058866244
-0.056160823 0.12957284 0.076469235
0.012526335 -0.00069961743 -0.036133673
0.03707001 0.020630106 -0.012717337
-0.12326477 -0.13223085 -0.16926001
0.02002185 -0.013569584 -0.02166989
-0.13242508 -0.07954112 -0.18923159
-0.01769751 0.073261745 -0.2041861
-0.03570292 0.070407555 -0.21365832
-0.051848423 0.11428007 0.031015009
0.050659206 0.005474695 -0.036909554
0.08327359 0.0030106804 -0.02556478
0.09006808 -0.13123538 -0.12878272
-0.03658371 0.081420526 0.022927223
0.018041689 0.059738073 -0.14236407
-0.19417974 0.1740347 0.1533903
0.22856553 0.07802118 -0.02407987
0.056795884 0.009967398 -0.026535584
-0.013225961 -0.08758635 -0.05960079
-0.095936544 0.1906998 0.09843084
0.05711885 -0.112704165 -0.099846825
-0.1389097 -0.04245839 -0.2221899
-0.18661569 0.16697402 0.1694521
0.17215472 0.059338115 -0.026705822
0.010607651 -0.12851843 0.0365998
0.21995938 0.011908445 -0.021210922
-0.07851534 -0.056811355 -0.056927152
-0.018830428 0.058972802 0.02234593
0.0416944 -0.34661457 0.37051532
-0.027274061 0.031235866 0.0121883005
0.015390443 -0.16289866 -0.13365309
0.06147426 -0.17698316 0.10345212
-0.011745864 0.07949407 0.053330608
-0.16818012 0.1780318 0.17192274
-0.036054645 -0.07431141 -0.04450915
0.013630725 -0.16889824 -0.073331535
-0.03969737 0.051528264 0.028041117
0.056205228 -0.027504489 -0.025310272
0.011305691 0.06574252 -0.24510436
-0.05755949 0.17735165 0.06372485
-0.061474428 0.12615557 0.05343297
0.11969362 0.0011474633 -0.025014743
-0.1255973 -0.025953237 -0.20376
-0.108866274 0.035020914 -0.20331307
0.02821032 -0.010895053 -0.02027999
-0.1250376 0.24419452 0.20317666
-0.059875973 0.17603916 0.073600076
-0.0025884423 0.08822027 -0.18230633
0.1306067 -0.052676003 -0.029557098
-0.13237901 0.26128623 0.10962681
0.022443177 -0.15883715 0.10105681
-0.13407905 0.23203701 0.17369668
0.11140532 -0.07269421 -0.06569203
0.08478046 0.0016525137 -0.03580823
-0.03145109 -0.068261184 -0.02264741
-0.017326685 -0.17709568 -0.09918152
-0.1172801 0.25025716 0.122098
0.013671348 0.14594503 0.054467402
-0.10378693 0.11116695 0.08716029
-0.085990444 0.12110359 0.055812303
0.011318579 -0.003348044 -0.014771496
0.027279362 -0.17136681 -0.1846256
-0.07534267 0.061375372 -0.20462054
-0.15280937 -0.03506345 -0.27681047
-0.048951656 0.14621395 0.07141546
-0.029800229 0.14033017 0.087331794
-0.053112764 -0.042790405 -0.044569913
0.2180836 0.043092567 -0.005543002
0.017998353 -0.10201654 -0.049715374
0.13703598 0.01972652 -0.0093350755
0.11298925 -0.004740599 -0.03387609
-0.049287 0.09451518 -0.20075658
-0.041510887 -0.05349513 -0.03214651
0.042208854 -0.037338126 -0.057995763
0.01763759 0.10079969 -0.23271514
0.0419246 -0.2824397 0.25559953
0.15234466 -0.0066944426 -0.042215977
0.08169594 -0.27482253 0.37530717
-0.088828884 -0.11972017 -0.10419123
-0.0101848515 -0.045176737 -0.05008155
0.053281754 -0.2355499 0.24169451
-0.20419551 0.11550198 0.17326142
-0.18595843 0.1439963 0.13188182
-0.03206829 -0.1445447 -0.013827815
0.0150865605 0.11370115 0.040493827
-2.0180942e-05 -0.032995217 -0.017582225
-0.1562311 0.21189617 0.14541647
0.0067900387 0.16128671 0.07395028
0.060239345 -0.0543402 -0.017116997
-0.05775935 0.14767532 0.0692769
0.016254455 -0.19310728 0.1486179
0.032572657 -0.23873816 0.26045552
0.05577499 -0.083112545 -0.05782816
0.07505529 0.06611112 -0.1622209
0.053281307 -0.3077456 0.36604303
-0.01602201 0.1661787 0.042864244
-0.00014935894 0.059291493 -0.0012000315
-0.058576778 -0.1415323 -0.07642749
-0.017821021 0.07106794 0.015737958
0.029157016 -0.07322654 -0.022338927
-0.07005858 -0.020911789 -0.075870685
-0.059134506 0.18472323 0.12065506
-0.019961717 0.19397075 0.04734996
-0.11031199 0.15050484 0.0618579
-0.11851083 0.026627254 -0.17413245
0.05289074 -0.12769535 -0.11179243
0.016184717 0.05388941 0.036390167
0.09405357 -0.06651464 -0.060793553
0.13751672 -0.015763868 -0.031626422
-0.059168108 -0.017221339 0.01363998
0.04838278 -0.15794933 0.06510003
-0.15865393 0.17608742 0.19491094
-0.069040306 0.010722174 -0.14913309
0.20551567 0.070706524 -0.03963775
0.15497388 -0.03773787 -0.026081238
0.07101995 -0.04112496 -0.060267504
-0.004763099 -0.18472672 -0.08550732
-0.010766844 0.10636418 0.06568985
-0.08445694 -0.016379394 0.011761502
-0.085289694 0.13439442 0.04456045
0.0109049035 -0.16244607 -0.08230856
-0.078675926 0.0019283271 -0.14376926
-0.10907156 -0.13847075 -0.20349659
0.23741733 0.08803278 -0.009291179
-0.062379424 0.04610153 -0.15321745
0.018530393 -0.1555142 -0.08177476
-0.06154333 -0.14983693 -0.08951275
-0.0122997025 0.1570829 0.047732916
0.003237612 0.09100975 0.049063884
0.19377455 0.05070051 -0.029553905
0.009308802 -0.043759294 -0.03622371
-0.06941383 -0.037931245 -0.010629203
0.047957823 -0.26769224 0.31492403
0.18971212 0.0031751234 -0.06494875
0.16868818 0.053751975 0.006043201
0.024497047 -0.08715526 -0.056649838
0.16328007 -0.027606655 -0.05668585
0.012044111 -0.022673588 -0.03171439
-0.104765564 0.005323615 -0.15675108
0.032587703 -0.16119707 0.13048679
0.028384343 -0.12513223 -0.057907358
-0.11856786 -0.11028574 -0.20170265
-0.07798591 0.20233254 0.06935049
-0.06605853 0.044683468 -0.12300207
-0.14450751 0.25239915 0.11635377
0.19877617 0.03903195 -0.021631107
-0.050961483 -0.113829866 -0.048621852
0.00966329 0.17502704 0.08211512
-0.06100518 0.03210988 0.023704654
0.20710419 0.002723433 -0.020572923
0.20413968 -0.0082339505 -0.053077593
0.054281645 -0.24467608 0.2002505
-0.09162616 0.14335667 0.06258259
-0.059841935 -0.012169083 -0.060163364
-0.006448971 -0.08989303 -0.018827917
-0.08876727 -0.06282184 -0.04421901
-0.024637848 0.03997417 0.029324874
0.12320874 -0.042958707 -0.036608595
0.014307501 -0.0022182912 -0.018473636
0.11663614 -0.009305456 -0.0239921
0.026181247 0.07836255 0.011239102
0.15157598 0.011498711 -0.04759221
0.040393718 0.10568235 0.014653974
-0.116559885 -0.01059579 -0.17523706
0.116755016 -0.012450562 -0.06806902
-0.19754352 0.15564391 0.15941618
-0.15154836 0.19431998 0.17510892
0.049748693 -0.19947177 0.18304116
-0.1558053 0.19739236 0.16255575
0.047812223 -0.27928275 0.3417887
0.03061658 -0.18482229 -0.08982604
0.09901238 -0.10612191 -0.08313435
-0.008812026 0.036473572 -0.015054076
0.1834248 0.09504725 0.016744781
-0.056993704 0.052017182 -0.20645222
-0.044064254 -0.10189703 -0.029251462
0.049799312 -0.2641033 0.26116356
0.044889394 -0.23409545 0.23118827
0.07053643 -0.13939437 -0.094620034
0.07381393 -0.1112981 -0.09799841
0.21869534 0.0066214604 -0.04578394
0.04655314 0.045621105 -0.002487451
-0.15582162 0.20613043 0.19599964
0.08417221 -0.028469512 -0.03358602
-0.14134839 0.031463988 -0.22612189
-0.18460387 0.22750258 0.14736679
-0.036716163 -0.006478953 0.008748902
0.040634934 -0.2502762 0.25558856
0.099707976 -0.0548317 -0.06979323
-0.08947798 0.052290056 -0.17375495
-0.042383306 -0.032502048 -0.03170331
-0.13362035 0.2154835 0.1392384
0.09221581 -0.06484938 -0.05947581
0.105919234 -0.06091087 -0.077653304
-0.021326961 -0.015376987 0.009012168
-0.082989514 0.046254378 -0.20073694
-0.11001963 0.013647618 -0.14446938
0.2572059 0.10016939 -0.026578357
-0.10653563 0.14714743 0.088415265
-0.12050541 0.23689213 0.20310609
0.04860707 -0.11311514 -0.04443667
-0.03985859 -0.08763536 -0.033093605
0.03757863 -0.08748962 -0.07070561
0.008875297 -0.025845025 0.012766629
-0.104009464 0.105315 0.04369113
0.21686201 0.11558466 0.0130120125
0.019901833 -0.11538059 -0.023819463
-0.112476595 0.14382903 0.06842093
-0.18985575 0.14872245 0.18657793
-0.1551127 0.18029031 0.14965057
0.031452645 -0.12845847 -0.0032463293
0.015668893 -0.28587535 0.2833539
