# .PCD v0.7 - Point Cloud Data file format
VERSION 0.7
FIELDS x y z
SIZE 4 4 4
TYPE F F F
COUNT 1 1 1
WIDTH 1000
HEIGHT 1
VIEWPOINT 0 0 0 1 0 0 0
POINTS 1000
DATA ascii
-0.18749987 -0.0009604589 0.05741309
-0.04668181 0.11838635 0.066612534
0.32722718 0.08596902 -0.31789926
0.20904115 0.1572675 -0.2761013
-0.20262744 0.016828405 0.026342595
0.1428163 0.10260109 -0.10249297
-0.004721065 0.10849202 -0.04888066
-0.23547213 0.0066253645 0.0354783
0.034883842 0.025961505 0.14722717
-0.15780713 -0.044832855 0.05842022
0.094916664 0.12073275 -0.16999389
-0.15407768 0.11671013 0.13159136
-0.08695941 -0.10388985 0.123412
-0.08367768 0.121333204 0.13776033
-0.11180097 0.075273484 0.1387639
-0.09602543 0.16633981 0.060914814
0.11988688 -0.020741358 -0.093137175
0.18505447 -0.024676995 -0.22423714
0.12796488 -0.06569441 -0.31289148
-0.19754222 0.003087454 0.068587594
-0.107058205 0.0041952324 0.1607339
0.1385056 0.124021456 -0.27382907
-0.08446369 0.12416925 0.12375275
0.059292845 -0.08674071 -0.20810004
0.020427888 -0.02059589 0.1571553
0.2184147 -0.0111267585 -0.13095452
0.3531466 0.13999887 -0.32502308
-0.04595773 -0.16550757 0.14888673
-0.1359307 0.16799572 -0.002397672
0.18653928 -0.053667232 -0.29553366
0.15840742 -0.004546506 -0.07872888
0.13073343 0.06795048 -0.10034795
-0.02732891 -0.033090793 0.21263467
0.042330503 0.034411132 -0.018523984
0.027457705 -0.076481186 -0.100330934
0.12875631 0.09550841 -0.10295897
-0.22671703 0.020915879 0.020284858
-0.15300027 -0.15238072 0.046100203
-0.088643536 -0.19651358 0.115261905
0.22967415 0.12408954 -0.25760946
-0.026379416 0.036093894 0.17896351
-0.23364054 -0.060142983 0.02576656
0.12378938 0.09674999 -0.3599182
-0.1445098 0.15019162 0.13554873
0.20422217 0.09506006 -0.25588435
0.33018965 0.015227226 -0.3027786
-0.032412477 -0.10794832 0.13837832
-0.030106312 0.13742824 0.06959309
-0.039017834 0.10762866 0.15553126
0.03733255 0.026590802 0.011085336
0.035202824 -0.14063667 0.101393394
0.06872523 -0.083640575 -0.0909696
-0.20349611 -0.13339691 0.031711902
-0.11866049 -0.19644074 0.10925778
-0.12376785 -0.04279059 0.10816285
0.22530659 0.12469732 -0.31292266
-0.2616095 -0.08830972 0.0057306318
-0.20289262 -0.024190705 0.013181083
0.29559922 0.070373215 -0.2670182
0.22747089 -0.050226066 -0.26359522
-0.21155031 0.0045124227 0.022030903
-0.15233481 0.096722834 0.13881236
-0.06612729 0.023265135 0.1741667
0.35619777 0.0315086 -0.293411
-0.03737693 0.15045567 0.030610237
0.047132973 -0.090927176 -0.0985595
-0.015692404 -0.15904991 0.11134629
-0.034410637 0.07224819 -0.064975716
-0.11247465 0.14948057 -0.037808817
-0.16928227 0.092356436 0.09155921
-0.104199834 -0.22954062 0.07892612
0.1840319 0.020682037 -0.12834835
0.0040031928 -0.021230936 0.2006391
-0.16686466 0.0049484894 0.093636826
-0.13951196 -0.091950975 0.111791395
0.16380376 -0.066498026 -0.34881973
0.27036738 0.15103859 -0.35820922
-0.18781987 0.038505673 0.08462269
0.14220728 0.090015516 -0.12670867
-0.061144475 -0.0579867 0.16787206
-0.22614951 0.057159998 0.021360176
-0.0015126984 -0.1681754 0.0665338
-0.15728383 -0.11449926 0.08095259
-0.060489923 -0.06536561 0.19102094
-0.07123698 -0.030364817 0.14274633
-0.07567035 -0.17279305 -0.014610125
0.2218128 0.08145028 -0.16435082
0.0097893225 0.044059925 0.16528912
0.102471106 -0.07590077 -0.08836283
-0.13144359 -0.084894575 0.09511824
-0.05999431 0.07315262 0.19099234
-0.14774185 0.16216622 0.05499129
0.29824919 0.004851586 -0.31490847
-0.068070814 -0.12731548 0.18266387
0.34732205 0.12286914 -0.3334305
-0.1543422 -0.08661115 0.0937089
0.04178235 0.012959491 0.14588197
-0.24404414 -0.11719525 -0.011673226
-0.12047677 0.006885923 0.087808885
-0.08491514 -0.014941911 0.15389137
-0.19651484 0.08378502 0.052568313
0.01979724 -0.06342993 0.14688988
0.12532146 0.029219396 -0.050779343
-0.050578635 -0.11230007 0.11762256
-0.1431972 0.08110204 0.08952274
0.2306833 0.08896114 -0.23040777
-0.18933782 0.038557503 0.07815052
0.32411402 0.054021753 -0.3180503
-0.10836532 -0.15769374 0.0729531
-0.17270806 -0.050219376 0.031194242
-0.03465834 0.0759186 0.16565867
-0.15551968 0.08268311 0.08962645
-0.024917215 -0.019940145 0.22283937
0.12707843 0.08757991 -0.11057061
0.2504538 0.036504395 -0.1965344
-0.20701714 0.10647365 0.09864817
-0.1498245 0.042077146 0.092981726
-0.2398809 0.007798063 0.019513559
-0.09533641 0.05935458 0.12072609
0.2124392 0.02484324 -0.18922439
-0.05660117 -0.18970786 0.17520897
0.04474375 0.019906392 0.11898546
-0.014151826 0.0051818825 0.23061357
-0.1551605 -0.007554732 0.08954332
0.051623065 0.009797599 0.109930284
-0.03410099 -0.1302803 0.1619192
0.26280937 0.05451856 -0.22661427
-0.26432785 -0.077590086 -0.012213258
0.2621712 -0.03351861 -0.39047286
0.011403162 -0.08750577 0.20001836
0.02179181 0.026422614 0.15333354
0.014003748 -0.06948686 -0.1693408
-0.045379966 -0.10802435 0.2111916
0.045477275 -0.1135806 0.08706137
0.13959233 -0.0627409 -0.09991855
0.12986241 0.13204181 -0.20809309
-0.17506939 -0.0138617195 0.02716069
-0.26729518 0.004371531 0.02251877
0.04904425 0.02906449 0.119725645
-0.23618017 0.09398192 0.032414194
0.26808488 0.081175596 -0.24164021
0.01499914 -0.054190703 0.15898597
0.18448159 -0.031092228 -0.1730071
-0.035090532 -0.026841205 0.22379768
0.018978184 -0.014955939 0.12470117
0.21799374 0.022449363 -0.19009694
-0.13930064 -0.12254857 0.09283539
-0.24241595 -0.040719435 -0.0061226864
-0.13574971 0.08732206 0.08035066
-0.22705069 -0.09063267 0.011859171
-0.14138643 -0.17655617 0.014335532
-0.12242078 0.08371745 0.12801993
0.12825447 0.10974815 -0.13333805
0.2590703 0.15185505 -0.2719773
0.25799054 0.11405551 -0.24988715
-0.0011860692 -0.17164415 0.06560229
-0.034978505 0.08204364 0.22241123
0.29146892 0.045900606 -0.23307912
0.077595055 0.114458986 -0.10783129
0.03385754 -0.12578353 0.12904981
-0.10147426 0.016055455 0.0959964
0.31444567 0.12163983 -0.3570777
-0.13002029 0.13692981 0.048770674
0.050806813 -0.116530575 0.08890619
-0.024605112 -0.17472371 0.09210486
-0.011067634 -0.06574934 0.21767397
0.27048856 0.009123179 -0.23345418
0.19247958 -0.026690423 -0.16578367
0.24441777 0.064886004 -0.247247
-0.19048816 -0.048705485 0.02696098
0.1087521 0.037213318 -0.041863658
-0.067147255 -0.18302202 0.15555298
-0.03299195 -0.20000021 0.04944375
-0.12871602 0.037943672 0.114021376
-0.10013609 0.16096775 -0.001610993
0.12379445 0.14132565 -0.20968564
-0.16560659 0.11617485 0.09810176
-0.1174016 -0.15743181 0.07074926
-0.16262369 -0.03020054 0.061047986
0.28824273 0.03362465 -0.2770348
-0.0595825 0.114655934 0.116324164
0.030133316 -0.09477219 0.13543187
0.20215659 0.13739645 -0.2728205
-0.01466205 0.09723199 -0.048699956
-0.08097376 -0.14510217 0.16014902
0.115692966 0.033301268 -0.038194686
0.04489868 -0.1081188 -0.14663872
-0.23261131 0.02671064 -0.058658767
-0.12957169 -0.055854555 0.076671
0.24689683 0.09297632 -0.20052472
0.17978977 0.02123738 -0.14094822
-0.23102292 -0.0640635 0.0181453
-0.019264745 -0.0034605167 0.22408558
0.005304737 0.08273502 0.16975003
0.14081793 -0.017490152 -0.12955794
0.26322505 0.0662769 -0.24765018
0.09503018 0.03741043 -0.06404249
0.304645 0.013963997 -0.25465864
0.1479593 -0.041222118 -0.08810663
-0.1966716 -0.053878523 0.015343771
-0.047779795 0.1444194 0.12492955
0.03973413 -0.06914982 0.14199592
-0.13061224 -0.07893866 0.098296784
-0.21416636 0.007961739 0.009368166
0.17610946 -0.06458356 -0.20838498
-0.08806711 0.060389213 0.15600723
0.27085298 -0.02857813 -0.25939482
-0.06418436 -0.15522185 0.15588251
0.26003778 0.1277061 -0.3567146
0.20777461 0.066977516 -0.12794921
-0.21046513 -0.01682012 0.05130769
-0.06813885 -0.17663878 0.16484225
-0.044856824 -0.17740774 0.12042117
-0.18430959 -0.017602932 0.07180396
-0.005109636 0.06278919 0.13522393
-0.25617275 0.05304123 0.015095502
0.04486329 0.069130875 0.12376623
0.013814019 -0.026995579 0.15702148
-0.01380073 0.03598048 0.21752289
0.06308299 -0.041866645 0.16791084
-0.22153799 0.05281605 0.03686023
0.12103121 0.020166233 -0.049969357
0.31330237 0.12136142 -0.2857705
-0.17706938 0.09650755 0.12007433
-0.1789068 0.027103808 0.06691707
0.12521172 0.070456214 -0.062665716
0.33105537 0.10945526 -0.3284136
-0.08413477 -0.049242567 0.14000264
-0.18559256 0.089033835 -0.09973329
0.016004447 0.02487567 0.19199476
-0.17003427 -0.0804347 0.06803352
-0.00053539814 -0.065634385 0.20662019
0.29441103 0.08936458 -0.27409968
0.12734646 -0.030183969 -0.056685872
-0.05504878 0.100351036 0.21300305
0.25066623 0.12655494 -0.41637886
0.13786547 -0.042280756 -0.06951569
0.23639512 0.11936007 -0.30143037
-0.046002153 -0.14499983 0.1134522
-0.1551125 0.0024978688 0.059210926
-0.024702936 -0.15337157 0.15858136
-0.14033955 0.111986116 0.16262247
0.2862986 0.009559494 -0.25952822
0.00760185 -0.03231077 0.16284254
0.10359574 -0.024717158 -0.030229067
-0.071814634 0.09296968 0.18833898
-0.1604709 -0.013392892 0.060279038
-0.22686933 0.055354528 0.04453606
0.12072706 -0.04337056 -0.104611024
-0.077017464 -0.15977001 0.10923669
0.18703601 0.033284947 -0.1566024
0.13112089 -0.031797927 -0.07795841
-0.10546216 -0.1626482 0.11676395
0.20652267 -0.0389791 -0.23892815
-0.0070788832 -0.18451242 0.091410406
0.20127851 0.07564318 -0.13920745
0.2519358 -0.008272628 -0.22178498
-0.083448686 -0.045937233 0.13723272
-0.13093951 -0.12200466 0.07581892
-0.1160083 0.17693956 0.007842917
0.12541778 0.10574845 -0.16516255
-0.12158908 -0.19112481 0.120996006
0.05807716 0.04863326 0.017757928
0.2279292 0.07907818 -0.17070608
0.037535843 0.06852672 -0.078727655
-0.0024486452 -0.037506595 0.2117709
0.16392434 -0.078852646 -0.19443724
-0.16732144 0.09905815 0.117554426
-0.18520899 -0.15039925 0.050746895
-0.052430917 0.13786416 0.11771233
-0.26580352 -0.0042546745 0.032120835
0.19277456 0.10538759 -0.13197763
-0.11130908 -0.14559482 0.103169
-0.15274525 -0.037940312 0.04853448
0.13050471 -0.06645775 -0.1701348
-0.14289968 0.057178896 0.11669901
-0.09855509 -0.0666276 0.1611788
0.24473558 0.11388966 -0.25221902
0.05340824 0.05138414 0.08422562
-0.2092025 -0.09866242 0.008628913
-0.08292268 0.12597753 0.040166147
-0.06159356 0.16202897 0.023449615
0.32996234 0.123709 -0.31627968
-0.12298728 -0.011060885 0.1289637
-0.07911871 -0.21642397 0.10302943
0.07552968 -0.05533654 -0.085919455
-0.12497493 0.14031756 0.043590255
0.35851607 0.06860116 -0.3392776
-0.06832119 0.037005387 0.19829066
0.25247788 0.02199368 -0.20674421
0.38168487 0.07765606 -0.34461522
-0.28051051 -0.01209176 0.009547508
0.056876037 0.06166422 0.10584196
-0.22191595 -0.11886706 -0.02421197
-0.20791082 0.008760389 0.032099057
0.0918177 -0.042479757 -0.05097294
0.108120866 0.06498687 -0.061951883
0.35908884 0.05238109 -0.3192268
0.16020778 0.1466091 -0.24608585
-0.16767696 0.13927028 0.08045906
-0.040679768 0.023678789 0.1929411
-0.20784901 -0.089920886 0.046584778
-0.0107740695 0.094877996 0.10606463
-0.29859138 0.023564698 -0.0029816688
-0.1279666 0.0039086463 0.13694286
0.25222346 0.09306844 -0.25223893
-0.010480942 -0.14519235 0.16362064
-0.008993175 -0.10795539 0.14374465
-0.17812312 0.14019255 0.07465256
0.13295852 0.08294816 -0.14640626
0.31883815 0.08234544 -0.31951618
0.31166017 -0.018820655 -0.37760806
-0.2556667 -0.10443426 -0.006034939
-0.24733198 -0.049132243 -0.011291226
0.3410031 -0.016553555 -0.3723893
0.068832785 -0.0981796 -0.11563026
0.19035964 -0.073705144 -0.22427385
-0.21154149 -0.1446139 0.027036283
-0.037440725 0.029874986 0.18434577
0.05095991 -0.0029244618 -0.007891251
-0.02417767 0.05314449 0.1645199
0.090213455 0.080276415 -0.067639604
-0.08591402 0.073231936 0.19125266
-0.08134966 0.02864677 0.12900658
0.2673715 0.013743171 -0.20592912
0.30727193 0.0063970545 -0.25447923
0.16285318 0.08413491 -0.18889187
0.20456144 0.009180428 -0.15740494
-0.048624847 0.03907235 0.16741025
0.32772332 0.12996374 -0.28616524
0.03326532 -0.06503002 0.14077815
-0.17373984 0.07993713 0.06645458
0.21781766 -0.021250723 -0.1909227
-0.039948028 0.028609967 0.16542248
0.074546225 -0.06378434 0.14143923
-0.048568934 -0.10025892 0.18998303
-0.18148106 -0.022621999 0.059079632
0.11171585 -0.05425875 0.101960965
0.18014522 0.04506393 -0.13600683
-0.077346645 0.05606277 0.18400712
0.3773524 0.014759905 -0.3498852
-0.11559511 0.11622227 0.13617867
-0.14167543 0.0864427 0.10589293
0.03501467 0.0015438834 0.16752025
0.1954485 -0.068656124 -0.32735455
-0.1047923 0.047757864 0.1315095
-0.17262076 -0.009272643 0.06916516
0.32359508 0.086485095 -0.34040877
0.32197294 0.053293712 -0.33361554
-0.2446937 -0.1157672 -0.005075191
0.17161813 0.005378256 -0.09542388
0.02681515 0.046005134 0.12246597
-0.13205394 -0.11330301 0.06601112
0.02541759 0.07508143 -0.021463262
0.06778746 -0.055367526 0.121513754
-0.12293117 0.030272521 0.111612774
0.10888318 0.00937453 -0.047331754
-0.24068575 -0.007835515 0.010871352
0.16681868 -0.005642717 -0.12530299
-0.0019063287 0.04066714 0.1850179
-0.07752507 -0.07602804 0.11515443
-0.016132602 0.11828585 0.036954246
0.07838916 0.10831974 -0.15270512
0.28399664 0.06885806 -0.22154072
-0.025957942 0.12050029 0.097305015
-0.11362224 -0.18404639 0.00401307
0.12911713 0.070575796 -0.09813953
0.14607795 -0.05045656 -0.14918905
0.28492522 -0.04921398 -0.3279424
0.08185338 -0.061510526 -0.2160188
-0.24797134 0.017314931 0.016925124
0.027825901 0.09771852 -0.050161343
-0.19342881 0.062727034 0.07407147
0.06366969 0.06854044 0.10114591
0.0071870806 -0.042315964 0.18486303
-0.011265733 0.11088935 0.16673094
0.028457772 -0.036890857 0.14046378
-0.041518297 -0.061310485 0.21003142
0.042252593 -0.014138355 0.042038243
-0.0161772 0.050151818 0.2246957
-0.2254048 -0.0065881363 -0.0028222022
0.32173598 0.009866296 -0.25940013
-0.16772257 -0.012143573 0.0442091
-0.1249424 -0.054964807 0.13128081
0.11693449 0.107543096 -0.18415782
0.04122917 0.09609409 -0.022660721
0.022227189 -0.088539734 0.15830168
-0.14932457 0.040890604 0.07833834
0.07654822 -0.043464087 0.13245867
-0.2005436 -0.08254677 0.04002819
0.24237941 0.11958351 -0.20405892
-0.09679094 0.13720278 0.114549875
-0.08040784 0.11031845 0.14012043
-0.15646027 -0.05324849 0.08350928
0.096064635 0.06749375 -0.023072414
0.2904906 0.11599905 -0.25505173
-0.17302302 -0.13241008 0.023838282
0.14212441 -0.02088599 -0.08025385
0.0383564 -0.12888235 0.10348429
-0.039785948 0.08989105 0.1470439
0.14036143 -0.09275241 -0.283646
-0.020729586 -0.08151149 0.19606237
-0.00878883 0.09591286 0.20058994
0.12024196 0.051614143 -0.073217034
-0.009720577 0.061400086 0.16215576
0.31731603 0.02655352 -0.29163206
0.051421355 0.011343621 0.112643145
-0.019950831 0.11922372 0.10171623
0.3061945 -0.019848233 -0.3774676
-0.21286424 0.046469606 0.047701187
0.31487903 0.08083727 -0.3018904
-0.119081095 0.1243185 0.10985795
-0.20745651 -0.06956635 0.027686393
-0.25318995 -0.054238413 0.0059730094
-0.10876178 0.03644513 0.098041
0.15258826 -0.024408389 -0.10335033
0.30380383 0.0760225 -0.3046237
-0.08622658 -0.11134669 0.12732872
-0.11370468 -0.13818964 -0.08574152
0.19316053 0.019797565 -0.19131273
-0.010144451 -0.049193878 0.1979885
-0.016622309 -0.13651435 0.068856485
-0.15415041 0.14704174 0.14129226
-0.19147746 0.05443383 0.06999381
0.07842317 0.108826965 -0.27171975
-0.062055413 -0.19356711 0.04043684
0.35550022 0.09140292 -0.33393028
0.052323163 -0.09053912 -0.13545285
0.1795368 -0.06625284 -0.2740784
-0.17242454 0.126744 0.094600394
-0.021471113 0.022064487 0.2260257
0.004532111 0.10436092 0.14802027
0.21565658 0.1664672 -0.38678828
-0.23973663 0.03284269 0.0554161
-0.00044194175 -0.056327388 0.17787369
0.27940494 0.18294618 -0.40762246
-0.03211787 0.06866516 0.19115478
-0.10733313 -0.2255607 0.10412535
0.0465304 -0.015070707 0.13243179
0.2874097 0.091476046 -0.27146587
-0.16372362 0.012966343 0.077223115
-0.06614361 0.15969388 0.032513104
-0.25828293 0.003345916 -0.006297897
-0.009299254 -0.14093246 0.09829642
0.29414862 0.061377697 -0.27099112
0.32240444 0.0039778887 -0.3292313
0.24554773 0.1594422 -0.31827253
-0.15023395 0.06246767 0.076027945
-0.05492541 -0.13989548 0.12007095
-0.0018724108 -0.019864086 0.18911123
-0.08381518 -0.04875044 0.10491214
-0.09393397 0.0605546 0.18379954
0.10466508 -0.046710756 -0.048087765
0.2727182 0.14374022 -0.2751784
0.3202934 0.113540284 -0.32358208
0.14032617 0.0218528 -0.08852086
-0.07216875 -0.13537636 0.16315532
-0.020827802 -0.16916837 0.19203156
-0.032605987 0.08259448 0.15792474
0.029318035 0.093854375 -0.057068065
-0.27935317 0.050786883 0.020008927
-0.2532007 -0.0342532 -0.020411665
0.30309957 0.13701768 -0.3961581
0.26029965 0.05207582 -0.23251359
0.2258404 -0.01191338 -0.19209714
-0.1327716 0.08840458 0.12908693
-0.16578029 0.021860706 0.03496876
0.043980625 0.12122166 0.10877283
-0.11146311 0.07066066 0.15467063
-0.12292236 0.14996913 0.14337924
-0.03220242 -0.018548938 0.21093813
-0.15461686 0.16247936 0.099253
-0.16329876 0.095325865 -0.0731653
-0.08845951 -0.10466732 0.11734971
-0.16697396 0.119030684 0.14449386
-0.12387212 -0.12193028 0.08233009
0.0540912 -0.13578889 0.072159536
-0.19570726 -0.018125989 0.04497264
-0.0636277 0.08919848 0.19045831
0.010819657 0.017438931 0.21049745
0.3018454 0.029127449 -0.3084998
-0.23595925 0.05801404 0.018416401
0.27246225 0.0149515 -0.27072802
-0.18568082 0.15098117 0.09500093
-0.1599058 -0.1326967 0.046085503
-0.22143736 -0.1290963 -0.0021146757
-0.0469639 -0.20897879 0.050523307
0.06143928 -0.100904234 -0.15878944
-0.08320538 0.116412416 0.11471314
-0.20185107 -0.1902254 0.023005364
-0.26008174 -0.023224717 0.017303145
-0.2065299 -0.031920414 0.02540385
0.13508473 0.011127863 -0.07329766
0.11175706 -0.08145856 -0.13638383
0.25159815 -0.045574367 -0.33372447
0.31977555 0.15500231 -0.35317576
-0.16616766 -0.040674806 0.06881691
0.32874468 -0.054243855 -0.37486586
0.20642096 -0.025758347 -0.19700569
-0.11268045 -0.07384754 0.11914621
-0.072237745 -0.16958913 0.1459191
0.3664109 0.00190894 -0.3411196
-0.236461 0.037970874 -0.009813467
0.29452357 -0.040863995 -0.32977417
0.010164161 0.091248475 0.12206812
0.2146707 0.123897016 -0.3253512
-0.19930398 0.09482138 0.08821008
0.3584286 0.11945654 -0.3317406
-0.0813141 -0.14628714 0.086962104
-0.0564318 -0.19149736 0.11667245
-0.24505381 0.047945973 0.03524927
-0.15109602 -0.05259363 0.080456935
0.085911885 0.124358214 -0.18009853
0.05449691 0.118193604 0.11713649
0.29924005 0.1185185 -0.30971032
-0.16378817 -0.1716965 0.067066096
0.23998457 0.13376291 -0.33193365
-0.14293182 -0.064935595 0.08447343
-0.059791487 0.04297413 0.18029015
-0.16873597 0.119087115 0.10026398
-0.13389078 -0.020698708 0.12827715
0.044337504 -0.13873792 0.0863647
0.009348561 -0.13029909 0.101333685
-0.049596712 -0.053368688 0.1869027
-0.14658004 -0.11234434 0.039139163
0.033482704 0.10116474 0.1308225
0.058751028 0.044841778 0.10524349
-0.088559575 -0.17301494 0.12109068
-0.114461444 0.008711865 0.14074822
0.19210593 0.1232463 -0.22163776
0.23459479 0.07091304 -0.24784759
-0.18518789 -0.0057450463 0.04953095
-0.17633994 0.027210375 0.07345469
-0.15989427 0.15317637 0.14111401
-0.11470324 -0.18264095 0.108499296
0.09290542 -0.068057075 -0.1645179
-0.20355009 -0.04469394 0.050041262
0.066895984 0.098945215 -0.023691498
0.2157459 0.11162473 -0.2208609
-0.16126224 -0.17888294 0.02516695
0.30870208 -0.009474881 -0.40392557
0.00017935899 0.081814505 -0.071802266
0.08968201 0.12316105 -0.14433587
-0.07394681 -0.17778498 0.115501784
0.30318695 0.04931034 -0.31543374
-0.07259023 0.040629663 0.1736675
-0.074843355 -0.014162099 0.14519475
0.16013673 -0.019174827 -0.12535912
0.051973358 0.031465773 0.12820093
0.16259569 -0.020722909 -0.11723162
-0.21045893 0.090596914 0.08280169
0.11658142 0.118046254 -0.23031832
0.27830866 0.013574341 -0.21501383
-0.03696252 -0.09572234 0.16319571
0.041582447 0.072445914 -0.029568493
0.3237975 -0.0021959136 -0.30930176
-0.19943398 -0.08397757 0.053398397
-0.078366876 0.15507022 0.1147444
-0.20716257 -0.084190376 -0.0044598165
-0.052945133 0.018607428 0.15814196
-0.25116524 0.03532715 0.008944833
0.0028027494 0.035083186 0.1740276
0.28185064 0.111436866 -0.3117113
-0.102212414 -0.059303243 0.14354028
-0.08729803 0.058144327 0.136771
0.23358792 0.11076956 -0.20349753
-0.0024060186 -0.19366643 0.023709707
-0.111722596 -0.15832919 0.10739993
0.10930628 0.02863738 -0.022620488
-0.033490796 -0.20043263 0.081660606
-0.22104472 -0.09514878 0.025801439
0.064004965 -0.12514254 0.10556717
-0.09916868 0.1107867 0.098976456
0.042777177 0.07056887 0.022101194
0.22527067 0.0045530363 -0.19099286
0.06957794 0.045005526 -0.025492033
0.22503167 0.00023126602 -0.2093319
0.012973116 0.122240804 0.06779785
-0.2185781 0.033866074 0.035863373
-0.21904556 -0.172603 0.05408749
-0.026309595 -0.17719023 0.043121483
-0.027250033 -0.06622904 0.17125116
-0.20408052 0.0790666 -0.06363429
0.3613811 0.051458567 -0.34680277
-0.028501535 0.09444906 0.14844039
-0.03677382 -0.22603306 0.04058096
-0.21433218 -0.021219864 0.023816574
-0.20225689 0.11024899 0.014248432
-0.080584 0.021432463 0.1674485
0.045880727 0.026687887 0.13044946
-0.16469647 -0.1740109 0.009185992
-0.12991644 0.054800272 0.09835762
0.08325101 0.08249206 -0.09559998
-0.23536101 0.05999841 0.05454684
0.044882335 0.025218545 0.093798295
0.0032818087 -0.19779614 0.02130712
0.21527345 -0.040097043 -0.16902956
-0.085569896 -0.16815801 0.11607772
0.12417075 0.035918564 -0.07334278
0.319622 0.020760072 -0.2979467
-0.0019324084 -0.17803393 0.04077424
-0.08715726 0.05078228 0.17045559
-0.2345955 -0.1602597 0.042949367
0.36227226 0.10312815 -0.31670684
0.05564304 -0.017152531 0.12034465
0.29270637 -0.03789002 -0.37141573
-0.20074892 -0.09400976 0.039399795
0.09772115 -0.008023615 -0.056409996
-0.051439498 -0.09175537 0.12787285
-0.09964918 -0.20754112 0.11985239
-0.21122086 -0.07294771 -0.007714746
0.022706084 0.065450676 0.12033964
0.1775025 -0.06044185 -0.15351124
0.044094138 -0.09748818 0.066168725
0.2265945 -0.02051355 -0.41353136
-0.06255944 0.11038857 0.21981382
0.2843228 0.031518564 -0.24311769
-0.04700204 -0.18399228 0.13912866
0.05919116 0.09610015 -0.09631548
-0.14956996 0.073630095 0.061536018
0.00273653 -0.049600765 0.2175868
0.17725803 0.032386106 -0.14571545
-0.054056346 -0.08059264 0.22228953
0.048231706 -0.00401725 0.13608198
-0.18418007 0.11866436 0.12474223
-0.0035498089 -0.18935405 0.034079283
-0.01803784 -0.044809904 0.20975427
0.00032950085 0.050015505 0.15970847
-0.18236026 0.05474965 0.08815741
-0.075027645 0.17478554 0.024968766
0.010434916 -0.1676458 0.09943221
0.21389204 0.08648759 -0.18616204
-0.04169296 0.0046893214 0.18728
-0.080880426 -0.040915918 0.12779985
0.14788175 -0.036720283 -0.1270355
-0.062344532 -0.15039916 0.15772986
-0.17853345 0.08925907 0.12407779
-0.30376655 -0.0128161125 -0.027058272
4.0059527e-05 0.0064685857 0.18516433
-0.19576629 0.12182926 -0.052154254
-0.24803422 0.062498443 -0.002447938
-0.06899245 0.12649746 0.14779401
0.27586752 -0.016418353 -0.41727465
-0.17000982 -0.14731373 0.0471074
0.035886645 0.03493616 0.006200975
-0.23260185 0.08371627 0.07131621
0.10121191 -0.038308352 -0.048695993
-0.06404762 -0.16594361 0.16475175
-0.124523655 0.07140322 0.10596242
-0.070724994 -0.04112815 0.15724875
0.025919955 0.095135964 0.100249484
0.16279267 0.01842518 -0.08859949
0.016012367 0.081952736 0.15300924
0.035262063 0.040011346 0.13592376
0.29772627 0.018914966 -0.21820001
-0.18761976 -0.07261206 0.049129892
-0.09464805 0.05082085 0.12437265
-0.12909353 -0.118626155 0.0529361
0.23328939 0.057868548 -0.1913429
-0.12869869 0.15149418 -0.01560817
-0.08136803 -0.1775685 0.15688173
-0.043965656 -0.12586288 0.15157677
0.05974968 -0.026313204 0.08299508
-0.07772184 0.18089098 -0.0006735199
-0.19128315 -0.03981819 0.05237698
0.10074881 -0.056706626 -0.07512973
-0.13174474 0.14739424 0.0017312639
-0.02607129 -0.069840714 0.18088792
0.1502771 -0.03960829 -0.06607275
0.21084689 -0.008565174 -0.15568088
-0.11198748 -0.10381644 0.12801726
0.049111437 -0.080867805 -0.03018722
-0.29811734 0.0070355805 0.02133185
-0.05578896 0.026871892 0.21771856
-0.0711376 -0.19790003 0.09101823
-0.015985906 -0.067180544 0.21512675
0.2354309 0.029074758 -0.21991104
-0.22349548 -0.13176255 0.05395935
-0.14800185 0.12148454 0.17778012
0.033949804 -0.099677466 0.1391083
0.06448895 -0.068093516 -0.0057553197
-0.027582869 -0.07818467 0.1506936
0.13000442 -0.07349069 -0.16613898
-0.11950789 -0.107655145 0.05533532
-0.1674398 0.009983305 0.02750819
0.009891141 -0.1729409 0.025661914
-0.09993071 -0.09335195 0.11672141
-0.18718961 0.07006415 -0.09548001
0.052923534 -0.1372324 0.12220096
-0.17813854 -0.011037863 0.07393936
0.29227805 0.04015546 -0.23310192
-0.0076891696 -0.09820168 0.19018556
0.16618586 0.099673264 -0.14402358
-0.22606242 -0.13457312 0.0358605
-0.07086789 0.10544741 0.085294336
-0.04425379 -0.15382871 0.13147312
-0.001051232 -0.07219056 0.19785187
-0.13230558 -0.16770284 0.09806331
0.016263058 -0.09991256 0.1869676
0.08666945 -0.084385134 -0.107666664
-0.16424942 -0.02037391 0.057362493
-0.25545093 0.013453464 0.022942152
0.03499269 0.09445671 0.09974066
0.21184656 0.06636341 -0.1873542
-0.080703236 -0.14127715 0.15379629
-0.09126899 -0.121311784 0.10062438
0.033047725 0.08434883 0.07773777
0.11166557 0.07685501 -0.06929673
0.2892027 0.08324114 -0.30224282
-0.087465435 -0.20377795 0.074927926
-0.077104874 0.04947466 0.18747905
0.2455937 -0.013969505 -0.18334337
-0.0033622396 0.10392989 0.1016748
-0.17839691 0.047737256 0.08836786
-0.09063948 -0.1667536 0.10982475
-0.19086286 -0.0836816 0.0152162565
-0.13701577 -0.025226077 0.102518104
0.26563454 -0.037227653 -0.27702227
0.302976 0.13757195 -0.3196904
0.029622138 -0.051526215 0.1512478
0.029871048 -0.18260647 0.011519378
0.13725999 -0.07431459 -0.23696367
0.0791003 -0.09836013 -0.13617885
-0.011723428 -0.085715815 0.19199812
-0.04796328 0.07634286 0.18159994
-0.066310406 0.03210319 0.17046459
0.10699143 0.10075839 -0.11042064
0.31993923 0.09439633 -0.29965323
-0.30188793 -0.021150244 0.012395275
0.02114887 0.06554346 -0.060628947
-0.10166917 0.15448888 -0.02187586
-0.054995056 0.010642694 0.18294384
-0.105205104 -0.015284262 0.1269353
-0.22037147 0.05568284 0.033466663
-0.2582145 0.01964285 0.041678652
-0.18289863 -0.1609591 -0.04111358
0.05541399 0.050577022 0.101001546
-0.026360888 0.13476822 0.03367115
0.022223117 -0.14670432 0.078713395
-0.11805985 -0.08875206 0.076298214
-0.021144375 -0.10522547 0.2141198
-0.22377492 -0.17666684 0.0008911136
-0.18694346 -0.002033732 0.04544587
0.23882893 -0.053497795 -0.36020574
-0.03786294 0.05205549 0.18527004
-0.14780241 -0.028996289 0.06841376
-0.16258903 0.0312452 0.09336003
-0.20644361 0.124980524 0.08492464
-0.11391626 -0.14776647 0.0950266
0.25419566 0.13291493 -0.34712133
0.15496564 0.14859864 -0.29135388
0.064676106 -0.040352173 0.114343815
-0.06076951 -0.1750411 0.1370531
-0.18469778 0.012795064 0.064394906
0.03149064 -0.06207622 0.20534815
0.13306336 -0.05908995 -0.093991846
-0.078362934 -0.021045078 0.1236023
-0.24489497 -0.043051623 -0.0016744862
0.12891375 -0.07718378 -0.18817253
-0.03581496 0.02229331 0.22234875
-0.0978891 -0.20190042 0.09191082
-0.082006305 -0.05321319 0.10007836
0.055327237 -0.0025228574 0.11128213
0.19140838 -0.055892494 -0.18118423
-0.10285748 -0.017914612 0.14733718
-0.037653934 0.0023537588 0.21532038
0.35270414 0.07778989 -0.30907476
0.25504127 0.1527713 -0.41035143
-0.24689715 0.07840042 0.017783256
0.09713024 -0.011893898 -0.039419997
-0.06028807 0.05561331 0.2132593
-0.17469138 0.033680405 0.088026024
-0.14720133 -0.1133174 0.11390678
-0.18799214 -0.1258997 0.043817323
-0.008896515 -0.13224247 0.14360945
0.09176333 -0.016293434 -0.024827542
-0.16939783 -0.082030155 0.08441655
0.022210997 -0.1344655 0.07510535
-0.20056914 0.075070135 0.048712905
0.21941388 -0.035392847 -0.19434682
-0.14944206 0.13106593 0.12408046
-0.039400894 -0.022390995 0.22040154
-0.07468788 0.103723265 0.19141272
-0.04521102 0.09964425 0.14965177
-0.022380762 0.14614265 0.050648518
-0.10904444 0.040009666 0.11000226
-0.17296961 0.0015800312 0.037389096
0.05761276 -0.01711046 0.16555718
-0.08716494 0.08142081 0.17440185
-0.25271416 -0.03967985 -0.022234758
0.00824321 -0.058984928 0.18683435
-0.1023034 -0.008059931 0.16243829
-0.18151303 0.14887673 0.100495026
0.0548848 0.02028355 0.12758532
0.036000412 0.06325326 0.16309942
-0.20988363 0.06485582 0.03102842
-0.2817095 0.026179973 -0.0060159736
-0.0020260443 -0.1347975 0.18078825
0.13703297 -0.033779092 -0.059637327
-0.11318535 -0.05327501 0.120582744
0.116040654 0.0724238 -0.11083603
-0.07168615 0.15032266 0.059674326
0.030108158 0.05669716 0.16203366
-0.11373166 -0.104966454 0.09898264
-0.02499504 -0.14829531 0.09602542
0.09778507 0.088088684 -0.077959396
-0.21159858 0.027746823 0.034033652
-0.20034292 0.16219577 0.055065177
0.3108451 0.15792447 -0.36565375
-0.10360625 0.05086728 0.15054217
-0.08606803 -0.042986743 0.14993961
-0.0029914407 -0.19170564 0.010494936
-0.06599733 0.050385077 0.21470362
-0.03435274 0.02411083 0.19976783
-0.11645864 0.15448275 0.062358446
-0.19427569 0.12912911 -0.007439982
0.32973796 0.042593848 -0.27296022
-0.26023322 -0.09085087 0.032243654
0.29614893 0.0032981194 -0.25544712
-0.059218958 0.10718478 0.15981695
0.1537218 0.1384888 -0.31387106
0.006994737 0.02692557 0.1442801
-0.1519856 -0.12233318 0.06576298
0.29132554 0.07095311 -0.2974358
0.054633558 -0.13854812 0.07652955
-0.00926706 -0.053305328 0.18554695
0.24491158 0.061971027 -0.20629407
-0.25789616 -0.070935786 -0.0056757242
0.0070342873 -0.044542473 0.19766314
-0.27418244 0.0095061185 0.017980365
-0.08430955 -0.09322238 0.11758843
0.21374793 0.11438624 -0.18743937
-0.07169648 0.11479469 0.096004084
0.033998072 0.066584416 0.11299596
-0.11687981 0.17203772 0.035646804
-0.18856774 0.054324925 0.080234796
-0.016784126 0.12692107 0.15578794
-0.12585627 0.09765677 0.11871048
-0.04258671 -0.07789821 0.14586653
-0.11954562 0.12882754 0.12426729
-0.11306988 0.04773639 0.16365397
-0.0305979 -0.1911623 -0.013527319
-0.029261589 -0.22514458 0.030150795
0.24976273 0.15104106 -0.2759444
0.12015982 0.00028154382 -0.0444563
0.31324273 0.14937049 -0.3244178
0.014055745 -0.087748125 -0.14922929
-0.27390936 0.048628293 0.020454427
0.0004343994 0.09530675 0.1327407
-0.15251651 -0.06824782 0.090272345
0.21134599 -0.02615259 -0.25633603
0.3104007 0.0023700867 -0.29443336
-0.1897982 -0.05356576 0.023226619
-0.110648364 -0.08445971 0.10495474
-0.015069759 -0.037478093 0.19102757
0.07486596 0.035418738 -0.009571363
-0.13226499 -0.030820878 0.065934755
-0.17928897 -0.039176475 0.065707065
0.16758479 0.03675123 -0.14828598
0.25493398 -0.0030012608 -0.26001546
-0.13792986 0.004267378 0.11357707
-0.22193477 0.10931364 0.02527077
0.2020835 -0.04921175 -0.16164137
-0.022016147 -0.14798085 0.09500647
-0.1887233 0.10467028 0.10655372
0.1303352 0.11675289 -0.15799259
-0.11535226 0.09212318 0.18680884
-0.06851992 0.11729909 0.13272624
-0.0987155 -0.16619104 0.07901432
0.020011596 0.033048227 0.046508286
0.30820638 0.12805997 -0.3714566
0.3021077 0.051677544 -0.24121445
0.17376551 0.15448095 -0.29664612
0.14385262 0.11228247 -0.19357297
-0.11795056 -0.044849362 0.107146874
-0.22796011 -0.046497602 0.012473494
-0.202936 0.0036288083 0.023574768
0.29717758 -0.0123559 -0.30493057
-0.20944887 0.048478525 -0.0732656
-0.18734503 -0.086556084 0.041192915
-0.12583259 0.093087755 0.15531471
0.08876249 0.05138149 -0.07306207
0.22719716 -0.042806633 -0.25766736
-0.2422939 0.018033445 0.010772488
-0.17251587 -0.08245541 0.027702902
-0.23739465 -0.08545393 0.016449906
-0.00069309684 0.048261408 0.1574741
0.048037477 0.016180428 0.09986726
-0.21092252 -0.011083765 0.038679544
-0.02583008 0.10151125 0.16437815
0.10760763 0.10808531 -0.23346463
-0.24591702 -0.1248381 0.025556972
-0.182257 0.035178483 0.07120123
-0.24299417 -0.083408386 0.020708175
0.14876485 0.052125223 -0.07385231
0.024929821 0.0598152 0.09328317
0.0658753 -0.02726943 0.14648114
-0.061837547 -0.05762345 0.12788138
-0.0670506 -0.06790581 0.1439326
-0.1687409 -0.17362466 -0.0760445
-0.072104886 0.1412824 0.030516617
0.24038549 -0.017120501 -0.41571122
-0.03964253 -0.02081047 0.220655
-0.1824293 0.13162564 0.11306668
-0.027922858 0.13014251 0.11312696
-0.054237876 -0.21309026 0.06239806
0.1495483 -0.05800167 -0.19906707
-0.06662 -0.17931922 0.11432711
-0.15370387 -0.0035842555 0.09392942
0.36841622 0.1059831 -0.3485047
-0.17223188 -0.07453743 0.03792719
-0.0879367 -0.17842697 0.118700564
0.25189257 0.073183626 -0.20282848
0.33474943 0.04386689 -0.30840862
0.3131173 0.07819626 -0.32907632
0.32797664 0.08406637 -0.310292
0.081394546 -0.0071367165 -0.060061246
-0.16511633 -0.027815474 0.036879517
0.04256587 -0.12229501 0.10497454
0.22860473 0.009571213 -0.15314934
-0.1384192 -0.22263426 0.09645205
-0.10520649 -0.23060623 0.10432498
0.00034860242 0.062418457 0.14416969
-0.028793177 0.13905482 0.020153264
-0.062243212 0.13403796 -0.00013793226
0.391734 0.093415625 -0.35306895
-0.18691868 0.011850627 0.04671365
0.25959492 0.009584704 -0.2525027
0.16190477 -0.036084756 -0.13185208
0.045850467 0.015933799 0.10213821
-0.103468314 0.15019706 0.0971392
-0.22294587 0.002073606 0.040197037
0.059207216 0.005721913 0.12076579
-0.09443339 0.14055432 0.14141536
-0.12333089 0.06554598 0.14052582
0.06786002 -0.0846453 0.14049524
-0.016401488 -0.19839856 0.02973182
-0.09337417 -0.17599165 0.0146844415
0.14972487 0.03060374 -0.09848098
-0.16236512 0.1401286 0.098020375
-0.07460553 -0.055093106 0.124316715
0.041815527 -0.0928068 0.12384474
0.16918929 0.024783691 -0.088478096
0.19022246 0.07443902 -0.14376305
-0.0555953 0.085886806 0.19363998
-0.09279285 -0.15971054 0.0047375523
-0.19171236 0.08872376 0.061907988
-0.1684198 -0.16263132 0.034633752
0.32498655 0.055856198 -0.25107995
-0.14839809 -0.1368111 0.067298345
0.16444588 0.057625286 -0.1136278
0.34970307 0.035347473 -0.31278875
-0.11227282 0.1421983 -0.028480487
0.00644329 -0.059653085 0.19401361
-0.22256409 -0.16683793 0.014454285
-0.19579752 -0.110641845 0.021983
-0.07940589 0.07805573 0.14056474
0.13927634 0.12675592 -0.20547763
-0.13056475 -0.18391898 -0.025306586
0.08538064 0.10368919 -0.0996115
-0.15757479 -0.12050649 0.08499388
0.083400935 -0.05030368 -0.047821406
-0.07264335 -0.22578734 -0.00032245196
-0.05402512 0.07701291 0.22503628
-0.19868219 -0.14154664 0.046150953
0.18387157 0.06772551 -0.15269485
0.05730826 -0.0018855708 -0.01589697
-0.10965381 -0.09783958 0.06141908
0.22753687 0.026195776 -0.14293267
0.06821082 -0.083804734 0.14969186
0.051794384 -0.1407363 0.04848501
0.2910772 -0.044798087 -0.31201237
-0.08263136 -0.1885098 0.116538696
-0.15134272 -0.037747048 0.09101723
0.17359792 -0.06673712 -0.31437337
0.14629103 0.101516105 -0.09907433
-0.011521969 -0.07625753 0.19753805
0.030154679 0.070611596 0.14623748
-0.04578509 -0.18445031 0.17270166
-0.030265125 -0.15530983 0.19604658
0.21807188 -0.075249344 -0.3052461
-0.2821119 0.0800898 0.016007183
-0.057385627 -0.021046208 0.17859034
-0.17046712 -0.06560051 0.092355065
-0.1721514 0.119248085 0.14957526
-0.04010543 0.00596884 0.17657699
-0.17092021 -0.028266603 0.04384721
0.34734514 0.025094593 -0.32737118
-0.2419616 -0.018179594 0.010085823
0.014453035 -0.067628905 0.19370817
-0.116007105 0.056314986 0.13116895
0.16819535 0.029473104 -0.11547893
-0.05210879 -0.072108656 0.15248469
-0.1580051 0.054700743 0.070653684
-0.16627938 0.062050678 0.10241161
-0.21661378 -0.0069615855 0.024100097
0.027496267 0.07598644 0.02058701
0.015915975 -0.092070036 0.16309313
0.0660486 -0.08174274 -0.12160612
0.15232602 0.048005946 -0.081969105
