# .PCD v0.7 - Point Cloud Data file format
VERSION 0.7
FIELDS x y z
SIZE 4 4 4
TYPE F F F
COUNT 1 1 1
WIDTH 1000
HEIGHT 1
VIEWPOINT 0 0 0 1 0 0 0
POINTS 1000
DATA ascii
0.1098505 -0.12658162 0.22095095
0.31424922 -0.078363866 0.18218242
-0.1611658 -0.12677774 -0.30260473
0.29811457 -0.16919796 0.17307557
-0.060201574 0.025611665 -0.009293615
-0.020195931 0.16296506 -0.14163797
-0.124542534 0.0075018206 -0.046544105
0.34200856 -0.07924243 0.19055045
0.09644124 -0.007440859 0.13406533
-0.011737624 0.19871 -0.2351663
-0.055200465 0.057743333 -0.07680545
-0.1675915 0.11876081 -0.10154691
0.30119112 -0.084119625 0.19095717
0.28762266 -0.1829966 0.19343463
-0.25657058 0.06371722 -0.1877202
0.185706 -0.15428843 0.2811513
-0.017101001 0.02400552 0.024434248
-0.20553006 -0.08348016 -0.1868534
-0.18323332 0.12262717 -0.060784653
-0.21921025 0.10306386 -0.13672997
0.22027877 -0.046989646 0.21843117
0.2994504 -0.119116805 0.16196051
0.09549628 -0.14522202 0.16683178
0.20228676 -0.16607004 0.23805821
-0.034429517 0.17151666 -0.14004596
0.037174173 -0.034851328 0.15914777
-0.07917464 0.09042291 -0.06038142
-0.13354842 0.016778663 -0.058254953
0.012573722 -0.07995289 0.13708708
0.096150994 -0.040291566 0.16102402
-0.09976436 0.1742016 -0.09335299
0.15799057 -0.15970324 0.068637915
0.03028999 0.10718286 -0.07622217
-0.20323147 -0.06563993 -0.2519923
-0.24255884 0.17416902 -0.1480018
0.27058053 -0.16014884 0.20977281
0.27423397 -0.04368235 0.2352077
0.20161882 -0.019932706 0.26188698
0.3035671 -0.16476211 0.14181608
-0.17870949 0.0017623436 -0.0958094
0.053924646 -0.10335972 0.13945626
0.25081095 -0.1376074 0.21416052
-0.029142294 0.0334828 -0.0032309056
0.20320901 -0.10268924 0.2611591
0.11281123 0.033372473 0.09213188
-0.25902456 0.13432227 -0.115547284
-0.048794106 0.136367 -0.11340077
0.08628595 -0.055289954 0.16847633
-0.20321277 0.06776881 -0.065165915
-0.07776024 -0.029318327 -0.046503346
-0.16434532 -0.042320635 -0.12210813
-0.049626205 -0.058965404 0.036278162
-0.18128085 0.010120209 -0.09948165
-0.20705694 0.12912041 -0.07245734
-0.079217 0.22401641 -0.18403384
-0.12441399 -0.13664179 -0.24318907
0.11881042 0.06631699 0.026038518
-0.043147422 0.1852924 -0.14069383
-0.023923209 0.13468574 -0.17357324
-0.100864455 0.07640388 -0.077077135
0.29151127 -0.11233304 0.17847666
0.15264858 -0.1807052 0.21875586
0.2415646 -0.06833458 0.23096009
-0.020249099 0.18477759 -0.13848351
-0.06056875 -0.051123448 -0.037218858
-0.03707212 0.14907692 -0.15339513
0.008723754 0.0383902 0.040893964
-0.07311408 0.00014271944 -0.00828944
0.25401354 -0.2028469 0.15819979
0.101638086 -0.08996419 0.19780838
-0.081732884 0.022047125 -0.054304823
-0.14064732 0.0003046276 -0.09658371
-0.12277092 0.027453277 -0.08810203
-0.12522162 0.116749324 -0.09650024
-0.07876475 -0.018682746 -0.0012419295
-0.006979381 -0.040094662 -0.22796674
-0.005986701 0.056773998 0.01804076
-0.051025484 0.21901326 -0.1383706
0.19583836 -0.20273569 0.16806391
-0.13020103 0.16763306 -0.083152294
-0.14474826 0.25388032 -0.20569749
-0.045297027 -0.04139752 -0.030294621
-0.21626218 0.030849999 -0.13000825
0.28738806 -0.043756478 0.12000073
0.12520963 0.034423877 0.11277313
-0.105231985 0.21882688 -0.28158036
0.012985966 0.16309075 -0.20670342
0.11643641 -0.028637413 0.19945808
0.085243426 -0.15925203 0.104052976
0.17973599 -0.17840312 0.27013648
0.30174285 -0.10719535 0.17137426
0.23500861 -0.07070346 0.2354717
-0.01398364 0.13857624 -0.17458764
-0.15954189 0.074723855 -0.09932062
0.17137864 -0.11453893 0.26863515
-0.2325009 0.19176546 -0.18196243
-0.1592411 0.20518458 -0.13732962
0.14302057 -0.18153064 0.17802784
0.18031077 -0.011220843 0.18786475
-0.1449186 0.17005485 -0.080763765
0.10606639 0.02911071 0.12656954
-0.01194556 -0.08807038 -0.060610637
0.26523194 -0.08203744 0.2575738
-0.09565677 -0.0154587785 -0.02754736
-0.0041929977 -0.11410163 -0.1097301
-0.21095292 0.12417 -0.044874445
0.04219799 -0.026902368 0.10503281
0.17963557 -0.063237324 0.26190937
0.22012179 -0.0034464262 0.24041283
-0.13727729 0.0886061 -0.09615107
-0.263059 -0.023925448 -0.16401768
-0.004290648 0.028045528 0.03567549
0.1951626 -0.14122531 0.2429307
-0.11699804 0.14713679 -0.11074659
0.19257827 -0.06659878 0.29057622
0.07967913 -0.13195838 0.22016893
-0.2357797 0.059312437 -0.11115144
0.021667382 0.10560018 -0.06424411
0.18648212 -0.16574875 0.2768735
-0.19405259 0.111402676 -0.07515788
-0.038914002 -0.068589725 -0.012791707
-0.25615698 0.042688098 -0.13668974
0.2602322 -0.22876145 0.20917827
0.058577653 -0.13597713 0.15142332
-0.07786544 0.17382677 -0.1406075
-0.1514871 0.0908171 -0.110424705
-0.12897542 -0.06356985 -0.1693073
-0.07424789 0.22502156 -0.12074161
0.0324866 -0.092857145 -0.011044658
-0.2323526 0.08554371 -0.1368516
-0.27302536 0.054621704 -0.1281966
0.09197699 -0.0586535 0.23715086
-0.17191334 -0.056675892 -0.14202711
0.13938572 0.02952396 -0.082722716
0.12784901 -0.07906804 0.2376962
0.19683455 -0.010801878 0.13082333
0.18165019 -0.08702091 0.28889582
-0.21833791 -0.07883432 -0.17420013
-0.15753058 0.11007589 -0.063712254
-0.17757156 -0.024268508 -0.120260924
-0.11829572 -0.09190717 -0.17816445
-0.08701029 0.26131254 -0.19843003
0.13651899 0.037243918 0.09451252
0.19000687 -0.17025389 0.24543929
-0.13309023 0.02479107 -0.08879594
-0.005794501 -0.07809736 0.045144644
0.24500486 -0.06730292 0.22936644
-0.026420914 -0.02716771 -0.25082666
0.01750577 -0.091833904 0.098791815
-0.07259252 -0.10801937 -0.21968815
-0.048340373 0.14701398 -0.142652
-0.06348638 0.14205407 -0.13204414
0.1484369 -0.2006811 0.13434343
0.22699912 -0.17673753 0.23381622
-0.06987467 0.16506992 -0.08467427
-0.09090526 -0.042434283 -0.043885093
0.009923035 -0.03175492 -0.25698557
0.27976772 -0.09319225 0.20057268
0.1555061 -0.020945119 0.18840511
0.28920364 -0.10986032 0.16778798
-0.1318189 0.16708483 -0.07589508
0.17951153 -0.010061839 0.186611
-0.24508159 0.03962613 -0.1757589
0.07521667 -0.09641947 0.16149548
-0.022489222 -0.113826945 -0.027271392
-0.01458895 0.16035514 -0.1458996
0.12604098 -0.13147911 0.21907099
0.29007402 -0.11228558 0.16210362
0.025632696 -0.09642157 0.102657706
0.11904323 0.039623 0.071375996
-0.17469224 -0.043855242 -0.124954075
-0.017022254 -0.08004162 0.05011291
-0.08741214 0.041857984 -0.06904212
-0.15332052 0.16113342 -0.074275225
-0.18361664 -0.016358241 -0.07310771
-0.23005335 0.09945679 -0.090280004
0.034578048 -0.027228806 0.11151601
-0.16236027 0.048628252 -0.07644309
0.021273376 -0.056854255 0.10167353
-0.21500419 0.04612743 -0.108861156
0.075770415 -0.061922774 0.13874097
-0.14188413 0.07892497 -0.11371759
-0.09896601 -0.12791902 -0.21088368
-0.11773354 0.033473976 -0.06648056
0.28364438 -0.04052159 0.20273063
-0.07144022 -0.06906855 -0.050112586
0.22857633 -0.07619583 0.2599065
0.108881064 -0.12286877 0.21360812
0.2361868 -0.18329032 0.17794292
-0.11772603 -0.13553251 -0.1998535
-0.24490124 0.17255232 -0.13853475
-0.21592411 0.19071975 -0.19469589
-0.121897995 0.06564448 -0.09940245
0.023528583 0.09741361 -0.017410379
0.25974515 -0.094392434 0.2222611
0.22747013 -0.072259635 0.28246993
0.06864127 -0.047713913 -0.2796399
-0.29159066 0.18495275 -0.16725722
0.13498187 -0.14661118 0.27969038
-0.2399673 0.14734219 -0.1107824
-0.283146 0.038217913 -0.20499718
0.07286428 -0.03662026 0.1526571
-0.20171869 -0.044752575 -0.10385877
-0.094786674 0.10444332 -0.094702974
-0.024511868 0.08448297 -0.04927629
0.18417354 -0.04157978 0.20658778
0.0012260338 0.09453241 -0.07364036
-0.13078286 0.13409922 -0.081767984
0.23027915 -0.16618514 0.16772392
0.14629488 -0.21398522 0.17141922
0.06898187 -0.12319317 0.15020618
0.15568958 -0.11114343 0.27503714
-0.23163022 0.16141316 -0.11128018
-0.053828962 0.16328445 -0.10204257
0.16006581 -0.11525412 0.28720766
0.113364615 0.047985997 0.08414066
0.15495415 0.0044712247 0.17413865
-0.09811334 0.2525215 -0.1810005
0.083814375 0.004187618 0.11072602
0.058617573 0.02313464 -0.28922683
0.062448293 0.08270363 -0.06992819
-0.20454526 0.09911137 -0.06931345
-0.26839316 0.058275383 -0.16524196
-0.093484424 0.23734695 -0.17397377
0.07493657 0.007959909 0.122583255
-0.07817498 0.049550828 -0.048577074
-0.2421914 0.15511447 -0.15246053
0.26281047 -0.092113174 0.19303814
0.26668257 -0.15116149 0.20506606
0.16784671 -0.09600177 0.27912593
-0.13793834 -0.08071937 -0.17515479
0.08229143 -0.062051576 0.19965024
0.25816008 -0.07476903 0.22545181
0.14014286 0.016365452 0.1820509
0.108269796 0.030563785 0.08546771
0.03140999 0.19175626 -0.20054553
0.053540498 -0.034202512 0.17930627
-0.19229013 -0.07928562 -0.1370772
0.10003885 -0.015000808 0.11839401
-0.059528075 -0.02915626 -0.042502593
-0.13224632 0.15573065 -0.06673085
0.23026039 -0.02725182 0.24233331
0.2705206 -0.16334729 0.17284876
0.1912976 -0.12558934 0.2646312
-0.2660697 -0.04689932 -0.22749752
-0.08018532 0.22461298 -0.09868623
-0.1708147 0.047994915 -0.10968325
0.09006753 0.02007251 0.120464474
0.09001166 -0.07021343 0.18122366
-0.00033201702 -0.0773333 0.023287956
0.2066898 -0.1827826 0.23614693
0.22112034 -0.07110443 0.2224156
0.044092696 -0.021668935 0.100511596
-0.20140281 -0.012325452 -0.13426
0.15276554 -0.1174239 0.24713182
-0.2311351 -0.003837738 -0.15602653
0.20275813 -0.15844616 0.25132474
-0.10157196 0.09320199 -0.1090678
0.163605 -0.0471252 0.25644135
-0.15232952 0.15806767 -0.058888517
-0.0587401 0.0053067794 -0.00045159398
0.09838728 -0.11817664 0.19583438
-0.12618527 0.110549696 -0.10999957
-0.02754836 0.01659581 0.019242082
-0.20176224 0.12443431 -0.080372415
-0.030455813 0.1810216 -0.15536758
0.22020839 -0.075774856 0.23304926
-0.10574309 -0.099002816 -0.18127151
-0.04289219 0.094032556 -0.040680207
-0.21171081 0.06742344 -0.05672327
0.1957203 0.021510888 0.16910015
-0.10419572 0.010266185 -0.066946425
0.09297003 0.083078474 -0.042218167
-0.16908148 -0.11789433 -0.20785733
0.014893468 0.12364579 -0.20996113
0.128056 0.02002672 0.096368834
0.2639207 -0.20570713 0.1539794
0.28671423 -0.16749215 0.1574945
0.12582287 -0.0048315027 0.1492936
-0.0096311 -0.049138516 0.06767433
-0.0051294523 0.0055509955 0.03844457
-0.046602964 0.07806704 -0.03238462
0.21544302 -0.05596228 0.2732099
-0.28236377 -0.04998959 -0.21562971
0.038065583 -0.11609661 0.09111145
-0.017631948 0.12677534 -0.13869914
-0.17424868 0.18087408 -0.14291649
-0.012897152 0.21109198 -0.30053094
0.1968759 -0.13858737 0.2527442
0.1677467 -0.13717926 0.25702727
0.12823252 0.03287341 0.03316491
-0.20851412 -0.10413155 -0.22285634
-0.25330225 0.15449782 -0.13456373
0.096422985 -0.066439934 0.19729872
0.051871523 0.097236924 -0.2561465
-0.032187615 0.011497524 0.042023964
-0.21682413 0.036370017 -0.11186517
-0.22390285 0.09477053 -0.09416442
0.17243445 -0.12614568 0.28066158
0.016596498 0.08246621 -0.07091581
-0.14893058 0.01354486 -0.13261427
-0.1273508 -0.049823005 -0.16438793
0.12260566 0.030398106 0.1560393
-0.28543216 -0.006375058 -0.17379852
0.03712333 0.1017973 -0.27118546
0.24615139 -0.07038301 0.21302404
0.10903072 -0.1423929 0.056736898
0.13082814 -0.064320974 0.23322998
0.004405749 0.18298337 -0.18752907
0.07904312 -0.06915188 0.18278687
0.07195897 0.07797054 -0.113092765
0.16399825 -0.20504868 0.22565891
-0.19798216 -0.016086861 -0.11289642
-0.17599201 0.1252557 -0.07077893
0.10691025 -0.15837094 0.102422714
-0.015901795 -0.050352417 0.055335578
-0.1750759 -0.06334489 -0.22688204
0.05156718 -0.032538876 -0.27446765
-0.11094484 -0.01305402 -0.06457266
0.31474206 -0.088435955 0.1907313
-0.036037523 0.09390412 -0.09190807
0.043102704 -0.012358715 0.13800517
-0.041737977 0.050685827 -0.021838218
0.22113562 -0.002158749 0.18514276
0.17835589 -0.013108798 0.17682849
0.017402276 -0.09579966 0.081999816
0.2250177 -0.029810073 0.2675064
-0.20702103 0.084962286 -0.09999943
0.006285518 -0.07737072 0.040370256
0.23689951 -0.03654323 0.22922364
-0.04375923 0.20844878 -0.12402304
-0.26317292 0.1506131 -0.16308442
-0.06953162 -0.06008441 0.026948428
0.06499522 -0.059570137 0.13945103
-0.15368436 0.17888626 -0.08167868
-0.0373388 -0.070925616 0.035069868
-0.12220582 -0.058037817 -0.04472225
-0.2932221 0.06471124 -0.18836445
-0.08598804 0.055093084 -0.042349804
-0.22901294 0.15841103 -0.12879156
0.18664698 -0.19144191 0.18202493
0.10769596 -0.14638011 -0.025509847
0.12987524 0.03985236 0.12295672
-0.21746264 0.12450706 -0.117984146
-0.075473554 -0.083965786 -0.14950374
-0.14101537 0.22668621 -0.20407881
0.2733925 -0.091824494 0.20971225
0.26936457 -0.13156629 0.19220665
-0.043396845 -0.05063803 0.038628273
-0.19433105 0.11406239 -0.03675589
-0.006339003 -0.061146412 0.018196167
-0.14956549 0.17296565 -0.10231855
0.017866602 0.010257605 0.06715779
-0.23659427 0.03242981 -0.13432463
-0.14105022 0.028625019 -0.06802543
0.19497178 -0.11857549 0.26727393
0.12615578 0.03729433 0.050445966
-0.25259346 0.11214928 -0.15014215
-0.026595032 0.09448165 -0.038332287
-0.29402283 0.008259261 -0.1647111
0.28233126 -0.14433481 0.1626026
0.23823854 -0.158918 0.23610282
0.062003728 -0.027614072 0.12410408
-0.08598471 0.023505663 -0.034835752
0.12141296 -0.14034885 0.20886348
-0.30835167 0.05272379 -0.19725841
0.23678753 -0.18401869 0.20455727
0.29031292 -0.15162157 0.16374947
-0.05584622 -0.04139058 -0.26688543
-0.05651767 0.17630044 -0.14735968
-0.15945067 -0.042188115 -0.107662424
-0.15496495 -0.06905446 -0.13349351
0.25442845 -0.020831529 0.20079233
-0.2645812 0.18626031 -0.13356398
0.18941706 -0.1852521 0.23844247
-0.1364603 0.18635033 -0.13314295
-0.13203913 -0.113843195 -0.20825468
-0.01339463 -0.07057949 0.06706047
0.03912463 -0.0055774422 -0.2910948
0.11109435 -0.11467901 0.20630845
-0.11816263 0.13560022 -0.111500576
-0.123168685 0.24524207 -0.19198585
-0.16944644 -0.03314046 -0.14166479
-0.1351291 0.03481313 -0.10918905
0.02852514 0.17085214 -0.21661161
-0.22933756 0.059411675 -0.0572224
-0.12491025 0.15802434 -0.07776868
-0.001613086 0.028093364 0.044022653
0.21816148 -0.16343415 0.19742668
0.060739905 0.098677345 -0.09228742
-0.20100595 0.20631589 -0.19450071
0.30948037 -0.12691309 0.16316742
0.259238 -0.05014433 0.12475298
-0.019019237 0.2277118 -0.16827141
0.24327436 -0.010532255 0.072552815
-0.22362812 0.008759867 -0.06658714
-0.028926551 -0.019756656 0.050207913
-0.19965377 0.029310526 -0.079053305
-0.1653886 0.087191254 -0.07324854
-0.03705838 -0.024625648 0.0023793827
-0.14427875 0.07605853 -0.0860703
-0.076404534 -0.06142931 -0.13633583
-0.015284286 0.0595852 0.037030727
0.2350855 -0.12703496 0.19082776
-0.21655297 -0.065023474 -0.17337157
0.026365677 0.037230585 -0.24069378
-0.06229354 -0.089341804 -0.21918392
-0.085609965 0.14657408 -0.121647164
-0.16687658 -0.045033872 -0.11969973
0.22242753 -0.15822558 0.22780809
-0.12110444 -0.015920572 -0.06617369
-0.13029908 -0.07900728 -0.15311879
-0.18844715 0.08520621 -0.04950985
-0.078600846 0.2320212 -0.1415641
-0.11869983 0.08846679 -0.06518503
-0.2587787 0.045184378 -0.172906
-0.046126947 0.15757577 -0.13452704
0.25234112 -0.06724986 0.24262682
0.034044042 0.08234915 -0.22945306
-0.16784054 0.018125856 -0.107464686
0.15069729 -0.08786978 0.26802093
-0.22377755 0.09395615 -0.12622856
-0.10564118 0.07004497 -0.07462393
0.1801485 -0.068894185 0.23644163
-0.048710022 0.19896883 -0.13980636
0.01414736 -0.031336315 0.04224931
0.2915702 -0.10107011 0.22725542
-0.22859037 0.14735271 -0.10064567
-0.21736716 0.14160374 -0.118454486
0.25522962 -0.1329091 0.20791316
0.22712654 -0.13212688 0.24725772
0.112303264 0.08861129 -0.040470235
-0.100196935 0.07419382 -0.11428568
-0.030352525 0.00914171 0.02400814
0.07198667 -0.10557113 0.16541311
0.16336729 0.029383658 0.047700685
0.1969727 -0.029509049 0.25178787
0.23752812 -0.022758577 0.2740302
0.088616274 0.048107214 -0.05161817
0.034976054 0.10074278 -0.20593183
0.14957663 -0.068324044 0.22994216
-0.113258645 0.1433374 -0.11182444
-0.20810264 0.15631244 -0.14028299
-0.19490871 0.11866766 -0.039598417
0.05776471 0.008544835 0.07460066
0.07261241 -0.03559472 0.14132935
0.2301238 -0.1476762 0.22868845
0.07982694 -0.029134167 0.18305698
0.13962339 -0.16005401 0.201699
0.11209916 -0.16256651 0.04101257
0.2665683 -0.12914455 0.20024092
-0.04711731 0.20601468 -0.116652146
0.24592227 -0.15853831 0.23802936
0.12963243 -0.012300196 0.16556606
0.026914576 -0.068066366 0.104136035
-0.009496552 0.0020948767 0.054991454
0.01992012 0.21013436 -0.20226817
0.15535897 -0.061366517 0.27495012
0.16862151 -0.20520957 0.2520035
0.1535488 0.018880632 0.06719841
-0.24692069 -0.008801557 -0.15333226
0.15547042 0.05006901 0.11005127
-0.11469272 -0.022208167 -0.14150806
0.22782744 -0.162387 0.22432387
-0.017528191 0.06094596 0.0078106658
-0.21093486 0.05310311 -0.065238506
0.21989733 -0.019298686 0.28498855
0.013985086 0.026485147 -0.25845864
0.035441056 -0.11453595 0.02624392
0.038345862 -0.12861647 0.062350113
0.17260598 -0.09231173 0.2918883
0.032277968 0.13721754 -0.2273307
-0.0046657384 0.05151353 0.04928406
-0.11541789 0.14971478 -0.08480716
0.079673305 0.09474306 -0.25625226
-0.09375771 0.05163535 -0.09348385
0.09816099 -0.004756928 0.17093316
0.02187907 0.015469258 0.10307332
0.07066215 0.030901346 0.12295893
-0.06819724 0.2395465 -0.2823948
0.010451655 0.06352298 -0.22836135
0.11344838 -0.013532745 0.13902472
0.26496816 -0.09567018 0.21520683
0.2172886 -0.009670748 0.2504678
0.18317811 -0.19917966 0.27115184
-0.20527732 0.00092622236 -0.11063588
0.010852915 0.10111095 -0.19975752
0.10532257 -0.13318276 0.14427096
0.23311213 -0.2323204 0.21458302
0.08975091 -0.03651472 0.19826742
-0.0551831 0.22196507 -0.119760156
0.037596293 -0.005991105 0.15885699
-0.21660423 0.2290591 -0.20404463
0.1902504 -0.012178509 0.16858608
-0.1416659 -0.059772026 -0.13499106
-0.021325564 0.2123733 -0.3272721
-0.060363933 0.09837233 -0.07250859
-0.019961774 0.10216238 -0.1960379
0.03545958 -0.12105449 0.050194513
-0.2997757 -0.026121633 -0.20442824
-0.09545799 0.21361232 -0.16657877
0.17272346 -0.02792898 0.26312846
-0.23989056 -0.06349054 -0.18177213
0.029715758 0.0942981 -0.24646023
-0.0063082688 0.14110158 -0.20658983
-0.28432506 0.060567975 -0.15667419
0.24011928 -0.09854807 0.24034904
0.14651935 -0.0010074397 0.17309418
-0.09917916 -0.07676425 -0.17897996
-0.090663895 0.13403825 -0.09759922
-0.112074144 -0.012214393 -0.057167023
-0.005140732 -0.014383184 0.113668494
-0.0010425871 0.068103895 -0.016025325
-0.20503183 0.14869948 -0.09780592
0.21410342 -0.1743015 0.20763221
0.15591948 -0.11556366 0.26313674
0.07212224 0.081398316 -0.1378849
0.032078534 -0.11417471 0.044666916
-0.27131322 0.11536255 -0.13257769
0.2513867 -0.051743127 0.25772682
0.05295817 -0.052249976 0.18970136
-0.30350485 0.009702052 -0.21904449
-0.006485914 0.20045416 -0.16298264
0.27348784 -0.028425327 0.20270693
-0.29484546 0.04691107 -0.17488846
0.06374566 0.042413045 0.08439388
-0.21662246 -0.07209916 -0.18065886
-0.18173154 0.20170139 -0.16316415
0.14933506 -0.17495108 0.07087829
-0.20719051 0.23343155 -0.19823758
0.020330146 -0.039096154 0.12701982
-0.10322502 -0.042685263 -0.115370005
-0.0038558727 -0.035232432 0.059368115
-0.051490244 -0.009575624 -0.0036789575
0.085635036 -0.03474529 0.14441194
-0.19341114 0.038223673 -0.08020166
0.03515044 -0.122506715 0.00611318
0.12766011 -0.14772154 0.20140496
0.22432244 -0.02440316 0.22881965
-0.24904168 0.11493547 -0.10543826
-0.22335227 0.009063888 -0.079746455
0.020154918 -0.06998124 0.09807346
0.10476538 -0.05936859 0.19011652
-0.041995335 0.1794957 -0.14384697
-0.049004592 0.24246496 -0.15212767
-0.19613042 0.18382064 -0.17698587
-0.0015248507 -0.076660074 -0.037976943
0.14820655 5.8685684e-05 0.17405087
0.06816362 0.059311163 -0.070861496
-0.04414174 -0.08834979 -0.12053725
-0.16025487 0.22969836 -0.15969059
-0.14956355 0.073620275 -0.1033935
0.26924348 -0.094643176 0.24127772
-0.06637857 0.20630604 -0.1313725
0.09635902 -0.012206872 0.13974239
-0.106939346 0.22872129 -0.19242345
0.007388063 0.010424874 0.11053093
-0.16728134 0.15798818 -0.09790282
0.13961913 -0.16739403 0.044346806
-0.19679742 -0.072447464 -0.20572628
-0.050211005 0.23270398 -0.18578543
-0.20618354 -0.061545227 -0.23151211
-0.24720345 -0.04105623 -0.118956365
-0.28243425 0.096393466 -0.17423221
0.21057448 -0.033569098 0.25624073
0.23061104 -0.18942484 0.18070066
0.1938945 -0.12072887 0.2937244
0.15870963 0.021362914 0.068748154
0.15272255 -0.12558998 0.22837348
-0.16954464 -0.08787544 -0.2960825
-0.1077545 -0.10196371 -0.20944005
0.28555173 -0.12874496 0.1611451
-0.11645926 -0.03245601 -0.17478862
-0.08811981 0.043662734 -0.020985683
0.21397415 -0.056292474 0.25500104
0.016934494 0.010599381 0.07541635
0.22592816 -0.16629559 0.20718569
-0.07122427 0.22029085 -0.1133334
0.11219918 -0.18500857 0.17917193
0.18266517 -0.1895097 0.19888116
-0.15108915 -0.090839 -0.18854713
-0.09362114 -0.07612813 -0.06396138
0.008740424 -0.0049955156 0.060501676
0.02437625 0.16317016 -0.20426227
-0.1892153 0.085884914 -0.08050326
-0.029826155 -0.07420609 -0.08218369
-0.14493519 0.2626817 -0.20678006
0.25723535 -0.17658319 0.19414622
0.09012546 -0.1291467 0.0762425
-0.13258095 -0.016871499 -0.07572492
0.023067003 0.091960095 0.00050180854
-0.07838828 0.09606614 -0.106761575
0.14048392 -0.1712483 0.20900638
0.200106 -0.18347761 0.21007334
-0.17296326 -0.13945888 -0.2650439
-0.050891005 -0.08791879 -0.035490923
0.004140206 -0.062602825 -0.28494066
-0.27343887 0.019116802 -0.19864072
0.22903007 -0.13243267 0.25346395
0.09342493 -0.105847165 0.18258116
0.23868681 -0.13297352 0.22924602
0.107242 -0.1789825 0.10876944
0.19103521 -0.066054724 0.22554018
-0.041072696 -0.06763451 0.04288349
-0.0034354744 0.18835014 -0.21812278
0.31160468 -0.1459291 0.1876959
-0.2649856 -0.047120683 -0.16385794
0.061130807 0.06728776 0.03774858
0.21472289 -0.020175545 0.21546069
0.24875464 -0.036819715 0.21242414
0.09262079 0.048028488 0.056630764
0.24840212 -0.035823427 0.07597199
-0.19985764 -0.11052235 -0.31542078
-0.1461236 0.14776786 -0.086671285
0.26948932 -0.12266944 0.17282733
-0.17834581 0.049477063 -0.10909238
0.07741292 0.08333875 0.047838394
-0.21478713 0.06875196 -0.08197638
0.118004136 -0.10993814 0.22171101
0.19659732 -0.022635465 0.23300797
-0.30556005 -0.020196723 -0.1645163
-0.0032989439 -0.038254075 0.07947574
0.03828922 -0.030298732 0.10907526
-0.07929086 0.06666623 -0.039027795
0.18483585 -0.18358907 0.23732144
-0.0013868738 0.15593305 -0.19804585
-0.066741176 -0.07395118 -0.051838998
-0.0008032066 -0.035464093 0.07038995
-0.026936915 0.10457599 -0.05519149
-0.15588886 -0.030520424 -0.1455016
-0.1019079 0.15999669 -0.102050096
-0.14032175 -0.14010133 -0.219305
-0.17866895 -0.09089241 -0.26304916
-0.14457402 -0.006663523 -0.12542917
-0.2190339 -0.06972656 -0.17336892
0.14474262 -0.13961843 0.23533912
-0.27196652 0.0015759788 -0.15125677
-0.053601056 0.22512127 -0.18784422
0.18011631 0.009072805 0.0071193217
-0.112752765 0.008694817 -0.06721863
-0.09816825 0.032934505 -0.05852038
-0.11612359 0.16454534 -0.12564023
-0.059380345 0.04660959 -0.028738514
-0.21299966 0.092244826 -0.11777373
-0.16125655 0.020778138 -0.12163535
-0.28820422 0.13919482 -0.16013621
-0.18037741 0.17364582 -0.09878756
0.05543824 -0.1262443 0.11278012
0.22107539 -0.077882916 0.22342594
-0.034444537 0.11383305 -0.0916951
-0.1998689 -0.00046918323 -0.10310561
-0.04764488 0.183664 -0.105025545
0.12358204 -0.10364368 0.21655935
-0.1565042 0.10767263 -0.06749318
-0.18874368 -0.026396938 -0.10425273
0.19744588 0.013231416 0.0547645
-0.109423876 0.0244889 -0.07060181
0.17934701 -0.04669835 0.28205818
-0.25540298 0.18687725 -0.18431342
0.13576868 0.014465721 0.17303495
-0.24505182 0.11945185 -0.12129179
-0.22649923 -0.08190723 -0.19681431
0.2291868 -0.03580479 0.22285028
0.07188707 -0.055602133 0.19402896
0.04552927 -0.09376877 0.11969878
0.09267552 -0.07719966 0.1930987
-0.04459898 0.040730197 -0.007467311
-0.106361076 0.0034840978 -0.033890072
0.045386627 -0.07433085 0.098255076
0.15643492 -0.19696675 0.26312873
0.086997874 0.088649474 -0.016495844
0.13021375 -0.18915328 0.15115924
-0.10739254 0.084527 -0.1261548
-0.25247344 0.04672188 -0.13049681
-0.17404227 0.14751048 -0.09385058
-0.17272024 0.108607434 -0.084207274
-0.016508823 -0.07677455 0.017753284
0.1248047 -0.09943334 0.22424115
-0.03799354 -0.028665196 0.015570829
-0.06909791 0.21682318 -0.25517866
0.069402196 -0.1153736 0.16230582
-0.093153566 0.116136216 -0.12532498
-0.101770595 0.023712983 -0.012709138
-0.14283167 0.19835569 -0.17123225
-0.31020993 0.03338706 -0.18921226
-0.24086031 -0.0045686285 -0.12347303
0.036032353 -0.09447034 0.05956042
0.17896079 0.04027372 0.13451174
-0.166312 0.1502337 -0.13077565
-0.14975964 0.2062881 -0.1784323
-0.015916813 0.18359193 -0.29691508
-0.009384628 0.04838858 0.039728783
-0.12452579 -0.09826543 -0.21018307
0.20973597 -0.1694823 0.20982797
-0.28247482 0.076416515 -0.18312807
-0.27650017 0.067784265 -0.16793595
-0.18709354 0.061196357 -0.085774
0.014001881 0.16716003 -0.32457617
-0.023621129 -0.107101396 0.023786006
0.006853787 0.12719516 -0.1753334
-0.018908244 -0.03962982 -0.25486124
-0.1240189 0.13339522 -0.106049344
0.005984858 -0.12646566 0.08720817
-0.10541526 0.115911126 -0.119296074
-0.17156911 0.04260057 -0.10713773
0.067419454 0.020285279 0.13746318
-0.25329867 0.016379513 -0.17290767
0.10146397 -0.13208489 0.1839263
0.11461861 -0.08390264 0.17501277
0.3030617 -0.14276813 0.16245098
-0.13550775 0.042596802 -0.10592216
-0.13754448 0.16449626 -0.11097651
0.13587983 -0.14100285 0.27524492
-0.106770456 -0.01845249 -0.05176948
0.12585275 0.044781912 0.07304738
-0.0033220483 -0.03923924 0.055351924
0.14750497 0.029315758 0.115958
-0.21589968 -0.045656994 -0.13454928
-0.0031352998 0.15072992 -0.16641468
-0.111081466 0.17427817 -0.09158128
0.1968971 -0.21743384 0.1888068
-0.10215195 -0.025881626 -0.10508108
0.27776408 -0.19731213 0.17062506
0.11130674 -0.058863737 0.21150099
0.18701126 -0.19535375 0.22249703
0.011754239 0.0146604525 -0.2540107
-0.04034385 0.17966498 -0.27525252
-0.0036056465 -0.08728082 0.01842466
0.11234256 -0.1443066 0.21344294
-0.040035874 0.098524295 -0.088836394
0.13981041 -0.021968298 0.18174376
0.27767068 -0.14555198 0.19258927
-0.24093936 0.08764069 -0.08784342
0.12333027 -0.031005705 0.18540128
-0.19514243 -0.095785394 -0.13145986
0.16577113 0.015304682 0.14983758
0.30805385 -0.16135797 0.19587049
0.18555187 0.014580117 0.18274271
-0.077086605 0.20889527 -0.13856831
-0.040753797 -0.08638307 -0.23054878
0.24866167 -0.036842324 0.24991515
0.21382333 -0.20175089 0.22539604
-0.19043522 0.013449818 -0.09961443
-0.10362276 -0.01190406 -0.03666206
-0.032923196 0.19287084 -0.13463672
0.07928389 0.04392783 0.123935536
-0.0729447 -0.0720207 -0.24180183
0.09513471 -0.035514988 0.146907
-0.19722685 0.015156618 -0.066419244
-0.18510534 0.06923232 -0.07876796
-0.009699931 -0.017456044 0.06817431
-0.018249119 -0.08098877 -0.107587956
0.21085057 -0.1357314 0.24758917
0.18541166 -0.07296042 0.31217286
0.040756755 -0.13870314 0.082488544
-0.069469705 -0.07072178 -0.18211748
-0.0608561 -0.04318322 -0.1963834
0.2460518 -0.031197727 0.24338444
0.14279465 -0.04247405 0.18790749
0.2506521 -0.112973064 0.20297249
-0.063872345 0.1886467 -0.1374845
0.0572318 -0.10179238 0.14933497
0.057675533 0.036254533 -0.27090502
-0.17378311 0.035196327 -0.09050432
-0.04411192 0.119650275 -0.1375319
-0.16863099 -0.06698041 -0.18362437
-0.023688171 0.06919883 -0.03192726
-0.0028888776 -0.102926575 -0.1310895
-0.2995045 0.08262429 -0.18910263
-0.05651445 0.20115103 -0.26049027
0.25642136 -0.11057467 0.20966394
-0.018118694 0.014403016 0.043950815
-0.19433515 0.09287557 -0.089463145
-0.010323055 0.08388229 -0.058235552
-0.22185561 0.12731971 -0.1096274
0.12513594 -0.15721849 0.080132306
0.18231961 -0.13081665 0.27807045
-0.041045547 0.015485724 0.026404874
0.23428887 -0.1979772 0.23355074
-0.13069767 0.10181717 -0.09783678
-0.18295252 -0.030470157 -0.092920214
0.16353826 -0.17716308 0.2615532
-0.092667796 -0.06577376 -0.07596813
-0.023765197 -0.04623259 0.07142075
-0.006104608 -0.039693896 -0.27629027
-0.1929805 0.16496639 -0.15732959
0.13408832 -0.11453761 0.27598813
0.003932935 -0.0048641698 0.07845109
0.034327604 -0.10245042 -0.045749363
0.04985151 0.12118378 -0.1994188
0.0036338493 -0.08374861 0.0814012
-0.048081286 -0.08885013 -0.24023043
-0.21095926 -0.03698986 -0.20805328
0.047344666 -0.016512506 0.09510352
0.09175518 -0.08990312 0.15357856
0.08970685 0.08789905 -0.2568222
-0.2098922 0.116075814 -0.0702079
-0.0149716 -0.008854106 0.038385283
0.0277196 0.012849221 -0.25685987
-0.100966886 0.014079717 -0.06275319
-0.042359557 0.20368414 -0.15318228
-0.2052226 -0.0798251 -0.13970329
-0.27044827 0.12941046 -0.16476804
-0.17066933 -0.097856626 -0.17858845
0.12640673 0.007085444 0.15240827
-0.053655155 -0.062455114 -0.036647618
0.005528787 -0.0796692 0.11407649
0.033643037 0.10891956 -0.094435334
-0.05870642 0.19805714 -0.27674645
-0.05785942 0.068113916 0.01255299
-0.123441264 0.00473466 -0.06017276
0.0045181573 0.15848042 -0.16481204
0.0032683031 0.15838757 -0.15099418
-0.0044405153 0.10073865 -0.012629043
-0.15273204 0.15956457 -0.10545292
-0.032309595 -0.045400243 0.008113836
0.29184973 -0.18152006 0.17166129
0.18602636 -0.13184772 0.25557333
0.043117702 0.07317978 0.014279807
-0.027655821 -0.05698019 -0.279666
-0.2285857 0.0055624987 -0.09066614
0.17337352 -0.2006946 0.105284326
0.24862355 -0.17052694 0.17492756
-0.17271022 -0.0721977 -0.14420167
0.22899254 -0.034852825 0.21565151
0.1843944 -0.012062634 0.15888579
0.04430722 0.08590235 -0.012615588
0.17076746 -0.14745845 0.28456458
-0.17278089 0.11701743 -0.06502535
-0.0664515 -0.12023023 -0.23147371
0.22191337 -0.21846423 0.21061297
0.14451659 -0.19806346 0.18064375
0.28374678 -0.12088226 0.23732978
-0.092509165 0.23900165 -0.13542509
0.056692798 0.061803803 0.067804135
0.23523661 -0.04664412 0.28220215
-0.17955868 0.08342258 -0.067841455
-0.10676374 0.10371369 -0.105176896
0.10521936 0.04584583 0.033523347
-0.15634863 0.19895764 -0.18370439
-0.049144037 -0.10030476 -0.24481617
-0.18454936 -0.11688481 -0.21633813
-0.2830421 0.05528477 -0.1715658
-0.15607655 0.03918467 -0.105698265
-0.25422215 0.053208582 -0.14568327
0.26549444 -0.22029394 0.15712607
-0.15413532 -0.04151761 -0.18064706
-0.2695016 0.11013993 -0.18936983
0.22970748 -0.16483516 0.25621974
-0.25747198 -0.053413324 -0.13869658
0.005826077 -0.13029304 -0.08744352
-0.18049847 0.12901613 -0.08060934
-0.06517575 0.012470031 -0.044010043
-0.25030255 0.09698375 -0.17518328
-0.21390839 -0.08926346 -0.13969074
-0.28806663 0.028018482 -0.16138865
0.23733275 -0.08441599 0.2468141
0.051041722 -0.062282268 0.14826882
0.062270544 0.079513185 -0.012999684
-0.27389622 0.12948342 -0.13759239
-0.029029628 -0.010424517 0.04728525
-0.055711146 0.20510292 -0.113103315
0.08630226 -0.1527901 0.08178315
-0.05977616 -0.09851699 -0.21841587
0.031898625 -0.036409467 0.09223257
0.07545153 -0.1537826 0.10407604
-0.13793424 0.06936082 -0.096639335
0.11288913 -0.16167618 0.2122908
0.04738933 0.07824312 -0.121566124
0.32685938 -0.040326834 0.21777034
-0.0434079 -0.06637848 -0.21801725
-0.1412912 0.009057431 -0.11415994
0.24343637 -0.20622744 0.18880789
0.0011862494 -0.060767274 0.06728282
0.019763147 0.025040744 0.061467603
-0.24436398 0.10761453 -0.15188792
0.18696763 -0.22765669 0.20784241
0.01520022 0.04179568 0.101250716
-0.07282617 0.06482637 -0.05339621
-0.011446443 0.086768925 -0.23346741
-0.07058493 0.1788367 -0.11226511
0.31781834 -0.11248254 0.19000785
-0.25395623 0.13098823 -0.15955341
-0.22233611 -0.0650967 -0.16078825
-0.052152727 -0.11614856 -0.25173792
-0.09341196 0.028286036 -0.02125862
0.19091988 -0.14861009 0.25538084
0.1067385 -0.045177147 0.20159857
0.00033176265 0.00019037523 -0.27136347
0.19884002 0.026312668 0.118340485
0.008088858 -0.030723598 0.11565341
-0.16671598 0.064105734 -0.06646926
0.16885895 -0.14732404 0.25727913
0.03654357 -0.00028888055 0.07809611
-0.06726037 0.20141515 -0.11675511
-0.017668849 0.13565966 -0.1770709
-0.2359556 -0.07472173 -0.26681522
-0.01624828 -0.034366395 0.09509883
-0.08120007 0.22639686 -0.28092983
-0.00863033 0.16506135 -0.20225923
-0.08956344 -0.010849639 -0.010263062
0.16598016 -0.03208587 0.22673996
0.026557943 0.1627029 -0.20463806
-0.00797566 0.1432577 -0.13801631
0.10747025 0.039742254 0.14271566
0.027874611 0.11172097 -0.11294501
0.14910015 -0.1255334 0.28129816
-0.115305334 -0.14883226 -0.18298493
-0.20610644 0.08695966 -0.08477709
-0.21267383 -0.09808338 -0.2458097
0.22399484 -0.042522643 0.2441665
0.043985374 -0.013009228 -0.2772687
0.083628505 0.01050891 0.14219491
0.19354808 -0.22264335 0.2007725
0.22322568 -0.22598767 0.16067809
-0.13600858 0.10014951 -0.12218591
0.070866324 0.06761253 0.00677637
-0.26490986 0.020029593 -0.14232665
0.24559665 -0.10386538 0.24496008
0.13499214 -0.01703941 0.15208451
-0.022438632 0.1603043 -0.15426837
-0.27015495 0.1461415 -0.15841584
-0.10715038 0.14974177 -0.10999392
0.12361947 -0.10882186 0.18797064
-0.1169741 0.035237793 -0.07980824
-0.06377968 0.06119868 -0.02267733
0.29057762 -0.059839994 0.18139328
-0.1657834 0.0068104626 -0.089958094
-0.08713347 -0.08073103 -0.18657832
-0.22564034 0.14522628 -0.12426918
-0.17208384 0.17208308 -0.15611747
0.05357035 0.02727324 0.07414577
0.25334036 -0.10300266 0.20192185
-0.2768364 -0.015097711 -0.17810498
-0.022171728 -0.07036657 0.00061924674
-0.08889887 0.20771152 -0.13931519
-0.067664616 -0.096698195 -0.14451255
-0.111707136 0.13833494 -0.087978624
0.28078142 -0.0546327 0.19116561
-0.1750274 0.1762645 -0.09547606
0.15557475 -0.02683909 0.23771751
0.21130972 -0.13869245 0.25660348
0.12135846 -0.17728621 0.1280751
0.21339555 -0.14799982 0.22638787
-0.057099912 -0.004040906 -0.024712771
0.2427088 -0.19576386 0.17458485
0.043423142 0.06401389 0.051685803
-0.23358257 0.14339347 -0.09397117
0.035420645 -0.054259773 0.15750259
-0.1424145 0.15848546 -0.074055895
-0.023701692 0.2020609 -0.16588101
0.2153476 -0.1731019 0.22626054
0.0068493476 0.010643796 -0.27278683
-0.1311982 -0.032474153 -0.1120636
0.11850843 -0.042960618 0.17861614
0.045974165 0.10086894 -0.057906184
0.06796262 -0.09376086 0.13785093
-0.29576796 0.01844594 -0.19796541
-0.056039244 0.2111862 -0.11285042
0.2890671 -0.1865596 0.15569961
-0.016037399 0.06466826 -0.012209941
-0.08444511 0.060882434 -0.0418953
0.0011133266 0.051919647 0.031043757
-0.012220968 0.19086826 -0.18549605
0.048630267 -0.05758765 -0.2964942
-0.06463285 0.14609277 -0.14005993
0.03667695 -0.04513205 0.10092263
0.29288778 -0.108525924 0.19660714
-0.094947554 0.09645195 -0.09559229
0.06258969 0.05567971 -0.27158427
0.26051736 -0.18582678 0.19619809
-0.31447083 0.09572779 -0.17230074
0.07010905 -0.042940386 0.13217692
-0.08980765 0.13216586 -0.15658441
-0.023498556 -0.019419229 0.07558528
0.32205078 -0.026610669 0.19136901
-0.23306099 0.04497085 -0.12646762
-0.09045816 0.10999587 -0.11226541
0.042845372 -0.021382619 -0.2626121
0.034069873 0.070128284 -0.046160344
-0.04463951 0.027524482 0.008401583
-0.014846715 0.10160744 -0.13016665
-0.28440794 0.07609778 -0.17088775
0.13062698 -0.021933133 0.18232913
0.11139252 -0.12127104 0.21041042
0.09945902 -0.10610516 0.21565881
-0.16988531 -0.02790963 -0.112019025
-0.091114216 0.114020996 -0.10810151
0.0044470592 0.07208988 -0.24296856
0.32459664 -0.06257771 0.16455796
-0.037968054 0.0152985295 -0.014863788
0.27900913 -0.08124365 0.111298054
-0.16421741 -0.041092917 -0.12293411
-0.062183462 -0.12901783 -0.25326762
0.14843883 -0.19012153 0.19976278
0.04986994 0.0058081537 0.09345619
0.24755326 -0.03832256 0.21360938
0.043499574 -0.043547507 0.14343187
-0.14520015 0.11945649 -0.12633258
0.013138198 -0.030767545 0.112422705
