# .PCD v0.7 - Point Cloud Data file format
VERSION 0.7
FIELDS x y z
SIZE 4 4 4
TYPE F F F
COUNT 1 1 1
WIDTH 1000
HEIGHT 1
VIEWPOINT 0 0 0 1 0 0 0
POINTS 1000
DATA ascii
0.29250452 -0.029961402 -0.06783582
-0.1467629 -0.16082917 0.057775334
0.010470622 0.20848837 0.15538122
0.22413006 0.04890751 -0.016463675
0.15528028 0.21349509 0.05967089
-0.16942637 -0.012937709 0.15537657
0.14382245 0.02749042 -0.013499078
0.21465677 0.06030098 0.010978829
-0.15896586 0.048753712 0.12864603
-0.11022447 -0.010747383 0.09340914
-0.17013234 -0.17553124 -0.13266355
0.07603694 0.1806632 0.092119254
0.17777811 -0.16644496 -0.047236957
-0.22369213 -0.08186128 0.10782757
0.03909218 0.28857458 0.08140962
-0.21695492 0.038292464 0.09166076
0.10267733 0.21168216 0.110820204
-0.063310295 -0.24829422 -0.021672443
0.023946272 -0.3017785 -0.09478456
0.22843274 0.054688588 -0.014215819
0.052374933 0.15755971 0.114051744
0.30599934 -0.1717773 -0.14267977
-0.19202156 -0.034790404 0.10715072
0.24163467 -0.13141346 -0.1884091
-0.1435469 0.097055085 0.16765685
0.08271692 -0.23485123 -0.04953571
-0.083161764 0.08771632 0.092336096
0.018595392 -0.07380411 -0.22283156
0.10052251 0.15418908 0.07288993
0.2916034 -0.14668454 -0.12310487
0.009132185 0.1317528 0.11336972
-0.29146382 0.054587483 -0.057322115
0.007656753 0.105317965 0.10736625
-0.24721585 -0.019934896 0.090329476
0.028357513 0.34940705 -0.081080884
-0.2873814 -0.030640667 -0.1183054
0.014699759 -0.20500243 -0.011986843
-0.11806865 -0.2322648 -0.20767982
0.14488171 0.084733024 0.03879387
0.21662632 -0.124907196 -0.09163263
-0.21388978 0.00681183 0.13801953
0.07348099 -0.2666609 -0.104443006
-0.15659064 0.0422256 -0.06957345
-0.01813964 0.26725656 0.07983447
-0.26573253 0.076457895 -0.007346134
-0.094962195 0.26846087 -0.030337332
0.1658001 -0.27444223 -0.091620855
-0.28777063 -0.13566051 -0.06572043
-0.16197562 0.21219344 0.016374039
-0.016654968 -0.18055381 0.006790478
-0.014956465 -0.20801008 -0.028090328
-0.11902737 -0.17039557 0.037754446
-0.26024255 0.1259424 0.034694158
-0.116017066 0.2650992 -0.06985232
-0.15722507 -0.20050113 -0.27545732
0.06510404 0.12412977 0.054027054
0.06601114 -0.11771515 -0.12091574
0.073756054 0.16555783 0.09143152
-0.10083963 -0.13131498 0.07510943
0.110430755 -0.27210376 -0.09843334
-0.18788236 0.010201438 0.13498919
-0.10042544 -0.052734416 0.07150625
0.015442123 0.182902 0.1303308
-0.105836585 0.24890132 0.015061264
-0.036596566 0.1937867 0.14483285
0.22291312 0.10019099 0.010259541
0.18049224 0.20997404 0.06534265
-0.07402323 0.27525562 -0.013226362
-0.11177566 0.06396119 0.13967974
0.044279378 -0.053398024 -0.21804218
0.15311486 0.23995952 -0.10830619
-0.19585186 0.083739035 0.14779402
0.115740865 -0.14648497 -0.047238804
-0.110123344 -0.17389774 0.030220602
-0.07488873 0.06333038 0.13573232
-0.074441455 -0.1533504 -0.0601724
0.030994857 0.24066922 0.110171184
-0.11710296 -0.13155119 0.06446386
0.15383157 -0.16311765 -0.06023818
-0.112810604 -0.27055722 0.030624876
0.1621276 0.20631698 0.06432006
0.12978393 -0.08811306 -0.078015484
-0.25557613 0.17208801 -0.006430862
-0.00706841 0.14691739 -0.0955245
-0.0074685784 -0.23988096 -0.04663366
-0.02879519 -0.27637017 -0.026634358
0.09714398 0.10710012 0.046481162
0.033483367 0.30925754 -0.10059987
0.10135365 0.13805833 -0.17193724
-0.0216363 -0.19403239 0.019794839
0.07122995 0.2887625 -0.057349976
-0.304383 0.025871325 -0.10825477
0.27761143 -0.069343396 -0.053669386
0.05522314 0.19069472 0.11150576
-0.027084757 0.11153032 0.121650524
0.013191096 0.08222955 0.07678044
-0.26501977 -0.022016495 -0.026870122
0.19288921 -0.0035669338 0.009862221
-0.05859736 -0.10576149 -0.19150276
0.0117652835 0.24679506 0.15106809
-0.076853506 -0.13034166 -0.028870372
-0.15920432 0.07615872 0.15598561
-0.25334337 0.07084441 0.0067743533
-0.24446812 0.007250511 0.068341665
-0.11811606 -0.1259438 0.072859086
-0.055025067 -0.24419412 -0.02006891
0.049066465 0.24966893 0.107831664
0.2857821 0.18359168 -0.12358722
-0.21156514 0.06999097 0.15633687
-0.209713 0.19805685 0.034530155
-0.12229708 -0.022956567 -0.071093336
0.16703634 0.048749685 -0.27532402
0.27073944 -0.19153821 -0.14421335
-0.24589343 -0.051182184 0.030012423
0.24625589 0.18928327 0.037579738
-0.12712477 0.023686048 0.09891107
-0.17133202 -0.21008748 -0.17621687
-0.17110804 -0.19661832 0.037515063
0.09880047 -0.23463403 -0.043706067
-0.11566473 0.25234327 -0.040709622
-0.118093 -0.017391674 0.047073435
0.15827687 0.23085402 -0.17181402
-0.078192376 -0.2405465 -0.010347915
-0.112358 0.21526195 0.13867095
0.053982925 -0.14173794 -0.10899594
-0.2535148 0.21586819 -0.005288669
0.010391742 -0.28287014 -0.035989158
0.15186822 -0.2621182 -0.10905997
-0.22874287 0.037596077 0.07843172
-0.21083054 -0.1877988 -0.038090754
0.25280574 -0.17351712 -0.10349834
0.1352032 0.13027395 0.04265476
-0.16929951 -0.06206526 0.07383084
0.19971408 0.24198803 -0.20387898
-0.2414867 -0.13947684 0.05658412
-0.044091545 0.28713468 0.022437029
-0.161767 0.11874093 0.16719398
0.20065263 0.18224566 0.035262197
0.10379915 0.1887782 0.07798302
-0.23524964 0.065833114 0.026111454
0.30350265 -0.006605207 -0.05145375
-0.14779142 0.0063216765 0.124070875
-0.039508514 0.3152281 -0.057599887
-0.20844638 0.15931523 0.066861786
-0.119839326 -0.25268063 0.029873136
-0.06480853 0.26709378 -0.019542255
0.2936033 0.1490687 -0.15892345
0.23878053 -0.13623959 -0.07550216
-0.22900449 0.21847202 -0.047559064
0.118354745 -0.08485366 -0.05763309
-0.009281283 0.15866587 0.105614275
-0.12716703 0.27888775 -0.048080783
-0.17466395 -0.18018506 -0.16452667
-0.25913265 0.014142415 0.028205663
0.12850578 -0.20980066 -0.06611144
-0.24631198 -0.13308059 0.04005261
-0.22852997 -0.18084784 -0.056322925
-0.22287005 0.058968976 0.12792742
0.08905948 -0.08420894 -0.10896416
0.22192834 0.04690295 0.0037836698
0.18807474 -0.047560822 -0.030260393
-0.05520001 0.2657379 0.034509644
-0.05469729 0.16239132 0.14826873
-0.0448282 -0.1911717 0.01905496
-0.10681702 -0.25410098 -0.18652187
0.18127431 -0.16860928 -0.04425315
-0.09262884 -0.14887947 0.0010392166
0.00817252 0.2983137 0.0010173296
0.2897591 0.03074959 -0.02029584
-0.16224921 0.12031583 0.13754189
-0.044194344 -0.22401157 -0.019097572
0.09178522 -0.25826806 -0.06789704
0.17566986 -0.10556842 -0.019870242
-0.12427526 -0.05376372 -0.060123518
-0.14272958 -0.1682155 0.059230313
-0.24385862 0.09422953 0.05390702
-0.158206 -0.21856059 0.040464252
-0.010569632 0.31772348 0.024798548
0.03952767 -0.31287715 -0.07852371
-0.16621856 0.20286347 0.08038919
-0.07521799 0.10839763 0.11860011
0.08801763 0.17657445 0.07912579
0.20584486 0.12825947 0.059550416
-0.2000556 -0.047325697 0.11911982
-0.16011725 -0.0052741 0.08854995
0.20822214 -0.21482319 -0.10613247
-0.031980965 0.2951757 0.038809873
0.2793931 -0.16271758 -0.10400295
-0.24558139 -0.14510083 0.022593338
0.15213382 -0.24768952 -0.06668604
-0.22071928 -0.16785857 -0.094734564
0.06586515 0.101804264 -0.08761999
-0.09629799 -0.080423646 -0.10132035
0.22187775 -0.11458443 -0.06438193
-0.2552304 -0.17603974 -0.06777173
0.3015902 0.1515805 -0.06180237
0.27515012 0.06606255 -0.00901518
-0.27568015 0.0803605 -0.02517277
-0.062891416 -0.104859754 0.019705245
0.0027746006 0.14167881 0.111392215
0.13651067 0.070013806 -0.05492987
0.12353661 -0.13157256 -0.027121997
-0.08389796 -0.27136245 -0.23600443
0.1453627 -0.1816078 -0.21486633
0.12198984 -0.08180489 -0.1071125
0.19770172 0.06663429 -0.011809546
0.12353281 0.17552099 0.09886692
0.07019951 0.17938955 0.07414371
-0.02236224 -0.27267674 -0.051616512
-0.26171553 -0.19470802 -0.03566436
0.25068408 -0.13548991 -0.075126275
-0.18003689 -0.21646617 0.003530838
-0.09762816 0.18020138 0.16667615
-0.1840803 0.23406479 -0.034217767
0.0893871 -0.16573897 -0.062044114
0.21457298 0.13543072 0.025695309
-0.022490714 0.17930922 0.13139667
-0.15063456 -0.06731565 0.09735138
0.24693787 -0.21658763 -0.06776041
0.15131432 0.016628921 -0.016542902
-0.032948676 -0.17828701 -0.048934393
0.29006168 0.044807576 -0.04776519
-0.11680805 -0.2226531 0.029525837
0.28448862 0.074337594 -0.024133675
0.015128511 -0.21926405 -0.020198917
-0.28117123 -0.1274988 -0.07933755
0.20058 -0.19603027 -0.09848557
0.18711217 0.11170445 0.05410669
-0.107333146 -0.03134861 0.114523366
-0.067370035 0.06650395 0.12610117
-0.16895108 0.078623824 0.14495169
0.14033091 0.15171044 0.06167091
0.18819483 -0.10437921 -0.023967039
-0.12436669 -0.22591066 -0.112966485
-0.23455833 0.20214544 -0.026714271
0.22789095 0.0037416697 0.008371522
0.12990887 -0.011145432 -0.25280505
0.09799222 -0.19220331 -0.0657341
0.16014941 -0.05583178 -0.01641881
0.048800465 -0.2485638 -0.057955187
-0.1728082 -0.20315394 0.0678224
0.121598974 0.24351463 -0.09522745
-0.2478689 -0.055466793 0.017716214
-0.1743878 0.018546684 0.11232421
0.25542873 0.14840019 0.03520008
0.060703553 -0.29909804 -0.10412054
-0.15209787 -0.045909047 0.11077234
-0.01897787 -0.30683613 -0.11361669
0.12000269 -0.1943586 -0.090614155
0.018659672 0.11620302 0.12984549
-0.27158505 0.0044083176 -0.01202004
-0.009887744 -0.15607442 -0.035258923
-0.010600049 0.17734545 0.10147141
0.25278896 0.15019105 -0.22137909
0.2435159 0.05642459 -0.035599817
-0.22098638 -0.020779608 0.07183287
-0.17975695 0.008455858 0.1055356
-0.12058628 0.022969572 0.108341776
0.061814185 0.21908525 0.10559263
0.20629938 0.13095339 0.01636103
-0.08998181 0.06835281 0.101420395
-0.0764112 0.025818681 0.10034159
-0.15426356 0.12657526 0.1751878
-0.3124906 0.14959411 -0.037244212
-0.11977014 0.1891691 0.14012277
0.06110214 -0.18314081 -0.038592078
0.06355378 -0.04241782 -0.22731861
-0.14974177 -0.044003773 0.09179903
-0.05625642 -0.19990215 0.009734302
0.08534244 -0.00019358899 -0.2170378
-0.016721971 -0.27870208 -0.016369319
0.24041344 0.097009435 0.0105820745
0.007972228 0.12806605 0.0007142581
-0.28278512 0.09299955 0.0020541586
-0.044165492 -0.15563555 -0.0003488614
-0.26655287 -0.031590283 0.02273401
0.29655948 0.036060385 -0.022221444
0.26118782 -0.20803846 -0.11409163
0.27129564 -0.033948366 -0.07550192
-0.155969 -0.19871981 0.05123608
0.04381657 -0.13125205 -0.11926121
0.06446272 -0.26544532 -0.06711802
0.23668295 -0.016199008 -0.06348874
0.11155656 -0.049296096 -0.13335584
0.22095753 0.094682544 0.014007352
-0.01398365 0.12259609 0.09585527
0.2512442 0.026591877 -0.017063716
-0.10299968 -0.041940868 0.036842477
0.26805827 0.11070227 -0.0010522932
0.14947139 -0.16204394 -0.04993807
-0.04350395 0.135753 0.16006899
-0.26727045 0.16241646 -0.040341597
0.23827767 -0.0024794647 -0.2582053
0.10746384 0.274296 -0.0127813555
0.2848716 -0.10085937 -0.09782277
-0.23160124 -0.16128983 -0.18797794
0.09318438 0.22741625 0.10734597
0.105952844 -0.036289964 -0.13724421
0.025343638 -0.15390031 -0.053056505
0.026137268 -0.1571428 -0.06110537
0.16507807 -0.12836261 -0.051920913
-0.0112417145 0.14729317 0.103511006
0.051404838 -0.08378472 -0.17939469
0.058368817 0.1948396 0.121584654
0.06532689 -0.27573097 -0.076674156
0.061038397 -0.14337951 -0.07198423
-0.22341561 -0.057743505 0.09834864
-0.14810324 -0.11532512 0.0972281
-0.25921074 -0.1511253 -0.15355654
-0.043236215 -0.28450832 -0.011015921
-0.23435764 0.07220098 0.058510114
0.19119777 0.18324097 0.028788088
0.21157204 -0.05162699 -0.02027907
-0.25799027 0.20593674 0.0013613246
-0.1488614 -0.0998593 0.09230349
0.13186567 0.17331785 0.0698872
-0.15537341 0.10434433 0.13680495
-0.16211417 -0.16669166 0.06464957
-0.2563424 -0.08902685 0.108741075
-0.20524757 -0.09802649 0.083781324
0.18549237 -0.15253142 -0.077061564
0.18118311 0.005069604 -0.14755122
-0.19379166 0.19812624 -0.028434144
0.27421048 0.0354268 -0.02400047
0.31246504 0.077440634 -0.040034246
0.0040545436 0.10778064 0.0883927
-0.09243004 -0.2505034 -0.08671083
-0.027879814 -0.23891918 0.011463562
0.067190245 -0.29919273 -0.057177953
0.15993059 0.12004277 0.049404144
0.18134508 -0.023481846 -0.024073226
-0.2610121 -0.15221576 0.013111211
0.17493436 0.1508475 0.06961413
0.25776148 -0.0015045146 -0.016606538
-0.24775782 -0.16796464 0.07017304
-0.037269108 0.19016843 0.14465274
-0.16305806 0.18439692 0.05347166
0.113467276 0.12407547 0.049017657
-0.19590655 -0.06751236 0.09226221
0.06805416 0.2335895 0.11843926
-0.053384498 -0.28252608 -0.046578098
0.09404208 -0.06505011 -0.14620733
-0.23619859 -0.127696 0.06990339
-0.12293131 0.20457292 0.011027486
0.20366535 0.13563006 0.04792506
-0.26035717 -0.059859365 0.08152471
-0.002557265 -0.3264909 -0.07461996
0.04378072 0.11396822 0.117649145
0.0101265265 0.3270278 -0.088285156
-0.2592411 -0.08682663 -0.05632381
0.14190102 0.22489694 0.09065692
0.08504696 -0.2786547 -0.07921574
-0.04190158 -0.20772758 -0.0022862516
0.16840605 0.19103281 0.06528504
0.2719775 0.1823692 -0.19256626
-0.17454264 0.24557784 -0.07127172
0.16630177 -0.06775984 -0.100628175
-0.008281493 -0.16037993 -0.06875682
-0.3003874 0.17607293 -0.03608927
-0.23453712 -0.0669599 0.10631005
-0.23481701 -0.08206174 0.09429042
-0.2924959 -0.1401079 -0.035002243
-0.26169026 -0.1560085 -0.08824371
0.027915427 0.17999691 0.13037108
-0.017748913 0.23595943 0.14137769
-0.14832263 -0.2056278 0.059279498
-0.04065237 -0.26367202 -0.0152549
-0.124246374 -0.034379993 0.10103896
-0.06742598 -0.17806359 -0.010765167
-0.20444444 -0.033645723 0.09901752
0.2910584 -0.0036246073 -0.06165686
-0.10003627 -0.15454169 0.053022966
-0.28043875 -0.15417981 -0.0036719146
0.21916796 0.052791882 -0.00017887107
-0.12402633 -0.11574979 0.07429183
-0.110020466 -0.26482472 0.001138941
-0.059600003 0.21213932 0.15126207
-0.12506801 -0.21388103 -0.007592933
-0.3161637 -0.08426531 -0.069712006
-0.12257148 -0.11402793 0.040211335
0.09484372 -0.08011246 -0.17506887
-0.12505175 0.04489787 0.10644181
0.07817348 0.19690326 0.083213136
0.16009055 0.041858908 -0.17330107
0.05295915 -0.29851985 -0.109606385
0.12707378 -0.1082489 -0.07923474
-0.010498972 -0.19970982 -0.023119014
-0.07796262 -0.27160195 0.0075467844
-0.14440781 -0.158458 0.025970109
-0.18742095 -0.17144181 0.054796554
0.272707 0.049406834 0.00890811
0.2108139 0.18815729 -0.15885215
-0.05772421 0.16719402 0.14902341
0.27312732 0.03968829 0.010394566
-0.291723 -0.13751987 -0.10428326
0.29780346 0.04373932 -0.01960463
-0.23079325 0.086694285 0.15268795
0.0798295 -0.13046241 -0.12042404
-0.1037076 -0.2386666 0.040252604
0.08131834 0.1303746 -0.012816818
-0.12091359 -0.030823965 0.103898466
-0.16174874 0.23701757 -0.06066371
0.006926922 -0.19315855 -0.01989097
-0.2048371 0.17833334 0.014472319
-0.18102002 0.14229499 0.1193623
0.07507026 0.09133237 0.06253901
0.17104478 0.0329345 -0.10997471
-0.1200993 0.09736823 0.14412309
0.044246353 -0.19566005 -0.059694566
-0.07383624 0.18993904 0.11543213
0.29271182 -0.03449152 -0.08540153
0.14052643 0.06564304 -0.041280713
0.13873117 -0.09161676 -0.087041974
0.019001065 0.24784945 0.13520859
0.025914216 -0.1320275 -0.1499159
0.114493355 0.16213495 0.1017447
0.035903126 0.21865982 0.15344077
0.01110589 -0.23557869 -0.04012473
-0.08087098 0.1556453 0.15831652
0.09418609 0.10954919 -0.15544558
0.1749801 0.11523778 0.0063097226
-0.10173008 -0.055228896 0.04193376
-0.059929583 -0.20916173 -0.0056414776
-0.30087474 -0.08732802 -0.10547217
-0.0774696 0.20875826 0.14033093
-0.100885436 0.15138444 0.16990158
-0.19289324 0.19936042 -0.01720831
0.15365617 0.22754684 -0.04384308
-0.20582719 0.22124945 -0.04189818
0.07939182 0.26421255 0.08903215
0.091817036 0.08936136 0.029288549
0.18738395 -0.16313751 -0.0472518
0.022366477 -0.20907371 -0.029562648
0.25444248 0.0063592056 -0.23934786
-0.019291084 0.25905165 0.10622545
-0.21863829 0.074595906 0.15698892
0.3106494 0.1373088 -0.02532699
-0.20458865 -0.15404746 0.052120503
0.28431505 0.036854744 -0.040589474
-0.16919093 -0.094438486 0.05995415
0.25233483 0.17246613 0.02995618
-0.19387694 0.26260054 -0.07262146
0.15063302 0.07701022 -0.07824263
-0.21121643 -0.15327415 -0.08001028
0.28910026 0.11526079 -0.0017660857
-0.082846306 -0.2511384 -0.02353759
0.023143874 0.17718752 0.11806935
-0.024451863 -0.21208331 -0.028046371
-0.080058254 -0.14198612 0.053522006
-0.0563654 0.21259835 0.15320121
-0.29177526 -0.00628692 -0.07492901
-0.18238215 -0.15692872 0.058955442
-0.24261549 0.04710806 0.0850332
0.1643781 -0.10443712 -0.058823507
0.14853324 0.11516961 0.039738294
0.035345 -0.27133274 -0.1513696
0.25781795 0.13514972 -0.018050028
-0.19152546 -0.17512473 0.06277373
-0.14356148 0.15937635 0.12543792
0.10173408 0.1339544 0.09447814
0.29220453 0.09441013 -0.05986564
-0.15631221 0.18403903 0.073890895
0.0761763 0.19989033 0.11086091
-0.024245204 -0.27997285 -0.042888775
-0.047353312 0.21596047 0.103608206
-0.055277407 -0.24334754 -0.033880275
0.2831902 -0.022241259 -0.067116134
-0.22805145 0.07320512 0.09915667
0.18035278 -0.13676357 -0.053131253
-0.16321403 0.16453716 0.112894945
0.15547448 0.037150715 0.025438033
0.0133518735 0.27703646 -0.0011642827
0.0013361094 -0.2723958 -0.07248846
-0.18461214 0.07536615 0.13144375
0.2649055 -0.053276107 -0.033976056
-0.15812021 0.016946072 0.10119876
0.20463914 0.162522 0.055428296
0.020180862 -0.16125526 -0.046365928
-0.014613032 -0.1773546 -0.014296735
0.1927312 0.06280858 0.03109496
0.0046594 0.10072178 0.02673208
-0.022198662 0.23828202 0.14358631
0.2719821 0.111182585 -0.16292223
0.026748972 -0.14839828 -0.09703042
-0.023775123 -0.29680356 -0.03634428
-0.09742862 -0.11115739 0.0450256
-0.10458907 -0.26341042 -0.029448874
-0.10014993 -0.03588345 -0.0076288595
0.1871399 -0.05924056 -0.020046169
-0.035790402 0.13431722 0.10526223
0.16005461 0.11357015 0.016471012
-0.099919684 0.18467762 0.11946177
-0.03309362 -0.20032957 -0.02305651
0.28606683 0.14261803 -0.018388834
-0.050443694 -0.09592295 -0.20565222
0.25524464 0.07784987 -0.029736338
-0.1509704 0.19298624 0.080109954
-0.17484999 -0.07583987 0.11828838
-0.219887 -0.000923092 0.055846434
0.006518537 0.28047118 0.07381397
-0.014803675 0.2707609 0.074622214
-0.18485077 -0.2074716 0.07604234
0.17183849 0.017750569 -0.1167735
-0.15662515 0.20982656 0.04667978
-0.03263945 0.24110508 0.12645315
0.04557988 -0.30049124 -0.050655127
-0.20472871 -0.088926956 0.08803725
0.20096107 0.20795393 0.01148037
-0.19242823 0.18734144 0.0015644971
0.262141 0.08653191 0.006273622
0.17484066 0.047630217 0.04404327
0.18115272 -0.23982777 -0.06703239
0.24809442 -0.05670342 -0.2602362
-0.123176634 0.2049931 0.09901717
0.018225547 -0.2438289 -0.038403302
0.13935809 -0.1834633 -0.04376801
-0.13936748 0.07625021 0.13211682
0.12469968 -0.26878843 -0.13482817
0.26727793 0.084607445 -0.014841337
-0.1745296 -0.19501474 -0.07918398
0.013476993 0.27769268 0.09871236
0.15441863 0.13843744 0.08005981
0.0664024 0.22638316 0.10563194
-0.25324294 0.17631553 -0.0007905016
-0.111885935 0.07164408 0.13603431
0.11904429 0.025519114 -0.19198588
-0.1412189 -0.22246431 0.015435086
0.22329366 0.2013204 -0.0541702
-0.044875495 0.2082247 0.15681961
0.21963315 0.21543424 -0.09030816
-0.13513583 0.25862262 -0.006499824
0.1946779 0.20688374 -0.088848904
-0.27521026 -0.087759666 -0.044652637
0.10359091 -0.2258831 -0.041759424
-0.27502525 0.0718085 -0.038505875
-0.03189501 0.2379719 0.15311277
-0.17459068 0.21710366 -0.05076576
0.2641607 -0.12897158 -0.09579323
-0.12511505 -0.22654001 0.016558804
0.012602376 -0.10380603 -0.1625537
-0.25811654 0.04849718 0.049686782
0.035888676 0.17143671 0.0846853
0.2708429 0.06598902 -0.19184288
0.10381937 -0.2222611 -0.055990595
-0.14749941 -0.0629386 0.087383404
0.24216396 0.10354939 0.042627078
0.13505693 -0.031134566 -0.2835849
-0.22335756 -0.018258996 0.14574203
0.26759332 0.16818275 -0.034301247
-0.08680593 0.20393884 0.10977136
0.030552313 0.2588227 0.096483365
-0.12845078 -0.20612223 0.0421768
-0.08849012 0.10815436 0.15083045
-0.1009016 0.12515128 0.13888611
-0.21669978 -0.013193082 0.09915841
-0.1765289 0.048738837 0.14202893
0.05031336 -0.12320106 -0.11384029
0.22338803 -0.05417807 -0.038937192
0.2997606 0.18488522 -0.06679418
0.027934385 -0.27436164 -0.0872951
-0.23608096 -0.21249971 0.021358209
-0.008313962 -0.27346575 -0.07397027
-0.13890569 -0.13235405 0.060106028
0.23639664 -0.10482196 -0.04366693
-0.30119368 -0.03232585 -0.0390382
-0.14215326 0.050851658 0.107711874
0.13341215 -0.14778922 -0.07477063
0.19705394 -0.103422076 -0.037242655
-0.07749105 -0.25458708 0.0063350718
-0.1279505 0.031998057 0.09905667
0.017236928 -0.13873522 -0.14723377
-0.11086754 -0.08930345 0.052206557
0.06921922 -0.27170786 -0.08177405
-0.22063895 0.11526949 0.12624128
-0.20819184 -0.22459431 0.039543834
0.028086405 -0.11692541 -0.14303024
-0.14634283 0.061971493 0.16130212
-0.24293517 0.1774818 -0.012393362
-0.032868974 0.20856303 0.08053312
0.034531657 0.15414079 0.08718699
0.28107676 0.016353114 -0.06552646
-0.05503 -0.22030321 -0.007769202
0.19162555 -0.11904623 -0.3044357
-0.17192453 0.2253356 -0.011564162
0.037406478 -0.11902012 -0.12240302
-0.18958558 0.09062596 0.14353547
-0.17962895 -0.12985975 0.094957575
0.16132185 -0.14700812 -0.037080877
-0.0845611 0.1724433 0.13163944
-0.14081815 0.0012822336 0.101306066
-0.14578025 -0.076856926 -0.15401798
-0.17968656 0.22922659 0.019673955
0.2142939 0.19141509 0.02857086
-0.017790949 -0.2972245 -0.060538422
0.2961904 0.0852508 -0.009334221
-0.086179584 -0.15015289 -0.042490195
0.082262985 0.23934686 0.10594795
-0.17190742 -0.19095622 0.048546735
-0.09509742 0.09410859 0.12575582
-0.2109489 -0.1480749 0.06822308
-0.15141173 0.26715684 -0.05022761
0.22407086 -0.19130036 -0.11391091
0.107643716 0.2780807 0.019394292
-0.30637568 0.0061256606 -0.07693942
-0.12813085 0.08677371 0.1485941
-0.17154218 0.2456163 -0.026619013
-0.13286567 -0.23521362 -0.23403728
-0.30145636 0.054866455 -0.0490276
0.0052637337 0.16883247 -0.16349027
-0.25103292 -0.20271955 -0.005835989
0.23656248 0.029216487 -0.023592789
0.020190686 0.119560786 0.03763528
0.05723331 -0.19015895 -0.048941877
-0.16752677 0.12349266 0.15105955
0.15101446 -0.22182074 -0.07570314
0.09902869 -0.18957454 -0.22824702
-0.026929554 -0.23534554 -0.038598374
0.15398335 -0.1832601 -0.05783624
-0.22427344 -0.09900334 0.07997239
-0.05378336 0.22898428 0.08135572
0.20987205 0.24241494 -0.17930119
-0.24471764 0.1791084 0.032071058
-0.20629705 0.035145506 0.14808431
0.26265717 0.036886077 -0.018788163
0.256929 -0.057310153 -0.03862149
0.15003762 0.07081719 -0.115360476
-0.018584112 -0.3000267 -0.035457563
-0.1918316 -0.039468043 0.13079405
-0.08337985 0.24608625 -0.021862049
0.07375703 0.18420859 0.11684645
0.15435402 -0.22243962 -0.064766444
0.036880165 -0.18559997 -0.018667761
0.0608132 0.31033236 -0.07755459
-0.24991022 0.08182229 0.015638415
-0.06673421 0.06684926 0.07964833
-0.21779765 0.21949072 0.002005715
0.12586054 0.2702889 -0.08938079
0.03779093 -0.12076616 -0.09669441
-0.15397327 0.027511835 0.11016368
0.059876714 0.14376444 0.015146406
-0.07500568 -0.26301417 -0.006914889
0.15601863 -0.14635125 -0.04319391
0.0806402 0.25931153 0.10408983
-0.09549053 -0.11858539 0.07362018
-0.28240502 -0.15856504 -0.009509142
0.01272041 0.22159635 0.12826656
0.26455745 0.1239284 0.03346023
0.27517965 0.050330568 -0.026271632
0.06692745 0.17130393 0.107201345
-0.032800306 -0.2812456 -0.051893864
0.18714027 0.087831035 0.027366638
-0.010264316 0.15488866 0.14760374
-0.13745631 -0.22413036 0.038318213
-0.16914539 0.17898801 0.098452486
0.1750696 -0.021247653 -0.07209368
0.27484998 -0.029401524 -0.03611856
0.22315694 0.18581116 0.043389738
0.22993444 0.014421118 -0.2869117
0.15951431 -0.07393224 -0.076797366
-0.16490698 -0.12083483 0.0908905
-0.1469151 0.21498893 0.026579963
0.20084561 0.08293006 0.03381185
0.26804358 -0.12878647 -0.06312586
-0.19919313 0.21078737 -0.0010609027
0.26904994 0.17566296 -0.05753745
0.07936337 0.09938202 -0.1575884
-0.0021549014 -0.29611337 -0.05245977
0.08165921 0.11587875 0.04781386
0.15913127 0.24064752 0.08231365
0.020126928 0.1750958 0.14060116
-0.07540829 -0.2715188 -0.23130532
0.25310344 -0.1247849 -0.07300215
0.14154492 0.08066697 -0.044497833
-0.17938165 -0.002542731 0.14337559
0.11914 0.099567905 -0.045612942
-0.030092254 0.35010204 -0.06508139
-0.11822366 0.05267076 0.105547145
-0.1181623 -0.17849855 0.03629165
0.14219892 -0.09134849 -0.06850493
0.21261846 0.23690921 -0.04790172
-0.10568712 -0.28807902 -0.04228738
0.18902768 -0.14999583 -0.061653744
-0.18838094 0.009378903 0.11670553
-0.12316352 -0.042669833 0.06729671
0.124901496 0.021764664 -0.087151736
0.18030533 0.01754853 -0.04166672
-0.27649722 0.06504003 -0.06425329
-0.12947413 -0.2174347 -0.22686747
0.10987792 0.2625418 0.07486963
-0.10769037 -0.26454598 0.018324468
-0.11767457 0.11049288 0.17718928
0.24864884 0.08266516 0.004943435
0.031360894 0.18877265 0.13306981
0.067719996 0.25178394 0.11340598
0.035903916 -0.28310275 -0.0958234
0.07686115 0.27990222 0.126162
0.0005439784 -0.21784744 -0.022578439
-0.03418199 0.28411803 0.047256403
0.3091403 -0.007859206 -0.060981728
0.21256693 -0.0064994344 -0.018603273
-0.067494094 -0.23705606 0.0104838265
0.15684865 -0.2476422 -0.089217946
0.32660714 0.10944735 -0.07344388
0.23272593 -0.1951718 -0.06567333
0.13371448 -0.21379946 -0.066716485
-0.3080093 0.0056545334 -0.033420894
0.1631896 0.08864635 0.061949857
0.2888291 -0.11885459 -0.08370892
0.13005038 0.2021585 0.09706068
0.20182495 0.0034406928 -0.04866338
0.06408748 0.121627316 0.067515455
-0.18477915 -0.19972393 0.042020984
0.0020705045 0.17325537 0.14168221
-0.15359342 -0.011053939 0.13678901
-0.2616937 -0.010306419 0.01922151
0.14573753 0.05693717 0.0019922305
-0.105937324 0.26938945 -0.034229986
0.14917514 -0.022512523 -0.04891768
0.05544596 0.19801293 0.14891686
0.007502007 -0.12924445 -0.14596654
0.08051736 0.30974653 -0.094797425
0.108337134 -0.06385858 -0.16882335
0.02112358 0.14324668 0.089832895
-0.122284725 -0.242011 0.0069555105
-0.22323738 0.19733682 -0.0488644
-0.11474404 -0.0015204224 0.08791201
0.045186244 0.15517522 0.113621175
0.24906883 0.20671801 -0.13430555
0.14806953 0.06801142 -0.083024584
-0.18167661 -0.07620997 0.0979147
-0.13053174 0.2742178 -0.025071008
-0.21774693 -0.13323538 0.09869462
-0.06280023 0.22899519 0.070602156
0.016341345 0.2053308 0.1433848
-0.0043644453 -0.251573 -0.009405422
-0.052539166 0.21851617 0.16271052
0.071862705 0.13300355 0.06525798
-0.22785473 0.022538029 0.10910012
-0.20132923 0.1645973 0.06883482
0.11980295 0.052708104 -0.122003116
0.0018053009 0.23008257 0.111869656
0.031072058 -0.16433828 -0.02754271
0.14871576 0.048847713 0.037323974
-0.016376216 0.17849366 0.127342
-0.21595924 -0.14573076 0.073174044
0.18854477 -0.029516667 -0.00868798
-0.14640927 -0.1769702 0.03278809
-0.1166077 -0.24517895 0.027599059
0.16724391 -0.026354143 -0.062407017
-0.16012889 0.050417442 0.14090972
-0.124667846 -0.16127013 0.038752023
0.090347916 0.13626364 -0.14704543
0.17701374 0.10125428 0.012694964
-0.14719243 -0.16217408 0.059749216
0.076238066 0.22459915 0.111131825
-0.28605768 -0.13276963 0.007057932
-0.13840558 0.0928136 0.15466455
0.17419599 -0.02702339 -0.013631705
0.063352376 -0.049788967 -0.18437172
0.17126541 -0.12026893 -0.03720856
-0.068911985 -0.10585464 0.012936094
0.18636213 -0.037799515 -0.07387593
-0.14989068 -0.20532486 0.03382717
-0.2902667 -0.06151238 -0.06122618
0.11817704 -0.0850565 -0.10069101
-0.035658523 0.15089849 0.12824018
-0.040510166 0.07707852 0.12509617
-0.19520071 -0.05771594 0.11827792
0.12114246 0.19434886 0.09356298
0.14905086 -0.029132482 -0.05389313
-0.23231639 0.021777377 0.110052705
0.041260112 0.2711166 -0.04410894
-0.09595751 -0.024638763 0.016166091
0.06757739 0.18177037 0.10847818
0.15950763 0.03803465 -0.007236175
0.034941968 0.3018176 -0.025782902
-0.058089722 0.12918706 -0.073072076
-0.13756391 0.23360413 0.0071366737
0.24401787 0.012717363 -0.02432052
-0.08630668 0.04438173 0.06357503
0.1192914 -0.058238264 -0.11451221
0.23835762 0.13108556 0.008945192
0.13737988 -0.100507386 -0.10856841
0.09561801 0.09126657 -0.041314945
0.26743072 0.14186436 0.010638377
-0.13674134 0.26218563 -0.07158768
0.20841122 -0.14472428 -0.06263471
0.1549818 -0.102041006 -0.09614037
0.27125785 0.045695346 -0.024163235
0.11280122 0.09141787 0.079393275
0.25866097 0.01402094 -0.045543615
0.2337589 -0.039353445 -0.05817347
0.042574365 0.24100472 0.11130711
0.17518936 0.12416542 0.05430023
-0.06285275 0.2685342 -0.0069281524
-0.23153196 -0.158851 0.065391414
0.022461865 0.28256938 0.10341898
0.26091257 0.20062062 -0.14065409
-0.10384747 -0.16194047 0.07079088
-0.2467456 -0.10342237 0.08109042
0.14833966 -0.12266044 -0.060001153
-0.21841927 0.100558534 0.12271264
0.24808076 0.17825449 -0.014363876
0.25873476 0.124505356 0.03715605
0.14128318 0.18035911 0.07053081
0.13181098 0.013023166 -0.053203784
-0.122466765 0.22750588 0.038205136
-0.2508521 0.11231774 -0.003769592
0.2690859 -0.06819339 -0.09005793
0.20686406 0.23751543 -0.10741245
0.1925695 -0.0024532692 -0.04996328
-0.20223285 -0.18487698 0.09092274
-0.2741113 -0.053853847 -0.08321173
-0.13454601 -0.030747976 -0.099185064
-0.07897562 -0.28107065 -0.010702705
0.14798263 -0.030628469 -0.113916785
-0.167169 -0.04020396 0.12000381
-0.07184839 -0.18587324 0.037538286
-0.037189893 -0.29932046 -0.07911352
-0.12544483 -0.24157356 -0.16326974
-0.100294255 -0.15863997 0.005936682
-0.053222563 -0.13242595 -0.011061958
0.097432636 0.15207994 0.07246897
-0.12862423 0.12161142 0.17518127
0.09348196 -0.26127604 -0.088982776
0.121948905 -0.14456752 -0.06618663
-0.005302473 0.18176378 0.09724538
0.15809357 0.085448645 -0.060150724
0.1291722 0.136995 0.051946055
-0.19376102 0.12555751 0.13326555
0.11862258 -0.20728888 -0.05878925
-0.24534422 0.050445896 0.104799055
-0.20205589 -0.15862112 0.06503689
-0.116160214 0.13318303 0.16856258
0.010853928 0.33370137 -0.07572744
-0.29515806 -0.08814442 -0.026611513
-0.2871716 -0.0841732 -0.10268995
0.059617043 -0.20707448 -0.018296443
-0.1300589 -0.040392596 -0.16385086
0.1518447 0.054012157 -0.09897378
0.1678657 -0.1346318 -0.050235275
-0.07621863 -0.2622873 -0.0019030746
0.03815274 0.16835311 0.1388592
-0.2600848 -0.1433478 0.020471873
0.21831562 -0.04966276 -0.022449158
0.088341825 0.17318021 0.07094296
0.022767765 -0.05313607 -0.20578194
-0.09769743 -0.21212578 0.04718677
0.08479463 -0.04830092 -0.19443633
-0.12850367 0.16390716 0.17080243
0.20374173 -0.12506843 -0.07365102
0.09019875 -0.14974299 -0.047447443
0.1382339 0.07938493 -0.032546185
-0.12236986 -0.19603416 0.03080803
-0.07915622 -0.21465324 0.014946619
-0.068582274 -0.16204986 0.026682824
-0.105869934 -0.2888744 -0.019106938
-0.15701593 -0.016011124 0.08571906
0.035837688 -0.20171206 -0.010299769
-0.13345064 0.09904889 0.1291538
-0.118857354 0.24304207 -0.051399253
0.055452533 0.12333265 0.109430864
0.17412116 -0.13291952 -0.054518808
-0.24847592 -0.16065063 -0.021926304
0.29627955 -0.022878766 -0.055961028
0.11005347 -0.033939086 -0.20141649
-0.05779234 0.30893984 -0.048327718
0.27239296 0.010034172 -0.018086677
-0.27954984 0.121642746 -0.0034754905
-0.18216628 -0.108676516 0.06500866
-0.16349697 0.23084253 -0.055067047
-0.08940962 0.07282375 0.13825922
0.074291475 -0.15292396 -0.09672791
0.2195182 -0.15713109 -0.06039344
-0.2355402 0.124953076 0.12101981
-0.028992927 -0.29481104 -0.03527347
0.08625156 0.2602087 0.09977521
0.055986688 0.15312351 0.08201922
0.09054935 0.2421773 0.12064257
-0.1954576 0.07528949 0.16304074
-0.011445853 -0.16396035 -0.0014423426
0.2816418 -0.0024120586 -0.021859245
-0.0014425669 -0.20849173 -0.0029031702
0.18170597 0.0053834994 -0.12142369
-0.23906055 -0.17473865 0.07131861
-0.025064735 -0.13930498 -0.12293152
-0.31529838 0.13264576 -0.048220422
-0.072521724 0.16827297 0.13116147
0.16699387 -0.17437196 -0.0898133
-0.059450243 -0.2838186 -0.12511036
0.18463475 0.22484666 0.03131254
-0.22164394 -0.19448759 -0.11713186
-0.18583675 -0.075998604 0.074758604
0.2873202 0.06653771 -0.0113173835
0.054406043 0.23452206 0.1314119
0.12127584 0.012577899 -0.19245134
-0.12283863 -0.07517185 0.088562034
-0.23198144 -0.12837484 0.0345317
0.17646582 -0.10438526 -0.016866477
0.31732345 0.013860273 -0.04027525
0.025226932 0.22777717 0.1372088
0.014913878 -0.10331362 -0.13632816
-0.07274136 0.07619378 0.12572639
-0.07952145 0.24016438 0.06145086
0.24372925 0.028400797 -0.16426916
0.124415115 0.13418803 0.044661053
-0.17742251 -0.16476312 0.07483904
-0.24103026 -0.1669505 0.029058067
0.24947463 -0.055441484 -0.062164288
0.204944 -0.009201391 -0.041777175
0.050791208 -0.16054061 -0.116974436
-0.13862224 0.15965351 0.1346506
0.25613028 -0.048743237 -0.03917898
0.14992873 0.2518025 -0.17295298
0.15414028 0.18232645 0.08511963
-0.24407382 -0.029080728 -0.014959058
-0.17426191 -0.12553781 0.057796374
-0.26829785 0.07476724 -0.008729483
0.22581773 -0.09782483 -0.033222456
-0.06144486 -0.22711904 -0.014219109
-0.12955397 -0.10666992 0.08438136
-0.017150475 -0.11529658 -0.16697726
0.11334994 -0.19233523 -0.28789645
0.24572672 0.073145986 -0.25917384
-0.022791274 -0.32091165 -0.05186274
0.04162583 0.19619414 0.13120729
0.19567718 -0.015466137 -0.027208496
0.111565046 0.23313548 0.11670091
0.049586464 0.31103137 0.052046705
-0.067608476 -0.24710494 -0.023101183
0.18366095 0.13961244 0.07131053
-0.2342743 -0.07066632 0.07465849
0.024296459 0.23975459 0.103872985
-0.1989685 0.049036775 0.12818642
-0.06836024 -0.087329805 -0.030233677
0.11807519 0.009709098 -0.1571801
-0.050413173 0.09979713 0.11165318
0.1990775 -0.043988567 -0.040116936
-0.087014705 0.16801131 0.14874455
-0.10737861 -0.058272112 0.081611976
-0.07198407 0.12213395 0.1412434
0.24442391 0.09162686 -0.008549297
0.13184127 -0.045013856 -0.0872346
-0.1112655 -0.08358404 0.081766866
-0.029541902 -0.19432813 -0.020908894
0.15587959 0.11655708 0.056614604
-0.06916264 0.30278254 -0.042613655
-0.11651829 0.01944983 0.09965879
-0.19758435 -0.07934232 0.12127883
-0.044422098 -0.097467095 -0.21026804
-0.12788941 -0.15639816 0.020809503
0.018734079 -0.21044798 -0.04584805
0.13241687 -0.01796882 -0.10933638
-0.09364724 -0.26960978 0.0016481499
0.11102358 -0.24204792 -0.0783369
0.17222257 -0.19634447 -0.064217895
-0.16296647 0.18258929 0.030429937
-0.0583308 -0.2546667 -0.21644633
-0.19698417 0.15018205 0.14537713
-0.10530327 0.200387 0.14822496
0.21040058 0.15826069 0.040343117
0.2274138 -0.021927007 -0.036976196
0.0950245 0.13004923 0.094947286
-0.034058265 -0.15558667 0.0032435944
0.049423423 -0.103862695 -0.21736516
-0.28143013 -0.182513 -0.050961014
0.2357794 -0.17185958 -0.10560372
-0.13259771 -0.1284521 0.03259461
0.044456586 -0.24744952 -0.031065471
-0.26271534 -0.000770074 0.037514295
0.055993 -0.048831504 -0.23289585
-0.133105 0.20781885 0.067242436
0.20942336 0.09033023 0.048216373
-0.09385285 -0.23694015 0.033862725
-0.20411533 -0.063404225 0.124824725
0.06633865 0.22656375 0.13540834
0.17981455 -0.05442428 -0.033865847
-0.2702579 -0.06431431 -0.057803903
0.057267673 -0.19607271 -0.03345316
-0.15396835 -0.16531676 0.053335935
0.011038431 0.2967181 0.057970166
-0.008691331 -0.14336485 -0.11692609
0.15068874 -0.23564583 -0.07849798
0.1652632 -0.06712595 -0.12502687
-0.11456461 -0.107520655 0.050206527
0.27840063 -0.044595752 -0.09149242
0.13504082 -0.08712494 -0.077553965
0.30377266 -0.02400329 -0.07295425
0.11422882 0.15889019 0.10825289
-0.03206718 0.14244877 0.14729418
-0.26539934 -0.10922563 -0.06393896
0.2644041 -0.1294537 -0.069133006
-0.11184641 -0.096920855 0.056590788
-0.30054137 -0.094545655 -0.11267622
0.12059601 0.14001854 0.09167941
0.072179995 0.26495638 0.11088914
0.2659731 -0.040300686 -0.026880825
0.11779017 -0.08606528 -0.1056484
0.213243 0.16245338 0.07099566
0.100276865 -0.24504599 -0.06976083
