# .PCD v0.7 - Point Cloud Data file format
VERSION 0.7
FIELDS x y z
SIZE 4 4 4
TYPE F F F
COUNT 1 1 1
WIDTH 1000
HEIGHT 1
VIEWPOINT 0 0 0 1 0 0 0
POINTS 1000
DATA ascii
0.008789196 0.19897455 0.13168365
-0.062900916 -0.117083326 0.14011325
-0.13326153 -0.13781822 0.100232154
-0.012466922 -0.22836207 -0.07407518
0.03750918 0.11970547 0.11452743
0.005249436 0.03596624 0.1830847
0.024067117 -0.033305943 0.17678538
-0.20543054 -0.16318703 0.030307164
0.048751738 0.15381025 0.09592141
-0.21075872 -0.1147898 -0.29870537
0.13508722 0.07458121 0.14438972
0.024790471 0.28530425 -0.23661499
-0.025156284 -0.2292623 0.06481508
0.090780094 -0.086014986 0.20687295
-0.19432054 -0.2318878 -0.09658077
0.089034624 0.29201126 -0.083304286
0.2137701 0.16440128 0.0123328725
-0.124226816 0.03558956 0.14159492
0.08916232 0.27514797 -0.12244811
-0.031041434 -0.29445988 -0.23758475
0.11342928 -0.05556641 0.0849692
-0.068110324 -0.30779544 -0.09392299
0.0032183207 -0.03673201 0.16006026
0.2159837 0.17048357 -0.036878083
0.050693925 -0.15386711 -0.23411003
0.087526254 0.17937344 0.0797883
-0.13873811 -0.19009286 0.020444604
-0.0018852637 -0.25450468 -0.19061144
-0.22146587 -0.110719904 -0.10730866
-0.035639394 -0.008226655 0.17065305
0.1574258 -0.0060109575 -0.31652054
-0.04190524 0.035328094 0.1907711
0.043686874 -0.098471045 -0.26061133
0.13635917 0.0019163605 -0.2472298
-0.18777326 -0.23165636 -0.013210941
0.058695074 -0.06100563 0.19804859
-0.060356125 -0.15750198 0.10343239
-0.21382032 -0.12976953 0.028058555
0.20336978 0.0701694 -0.023967229
-0.0010348278 -0.058023755 0.1759622
-0.11841148 -0.15646733 0.03608754
0.1576276 0.06795528 0.10854687
0.22578247 0.19260722 -0.21567145
-0.14104035 -0.042918865 0.17572987
-0.04167931 -0.29435128 0.010721749
0.16012545 0.086884186 0.12802708
-0.24502964 -0.17885156 0.008879044
-0.14541729 -0.10499007 0.11970419
0.21967544 0.22508399 -0.15629439
0.11652462 -0.0038127855 -0.26683548
0.03870436 0.265964 0.026084885
0.0030429307 0.08196942 -0.2541782
0.122399785 0.23730846 0.07785698
0.07428744 0.06658957 0.14045012
-0.20677722 -0.11389179 0.06336039
-0.12639391 -0.19323154 0.0645822
-0.016458368 -0.0077223144 0.16991465
-0.013521623 -0.07842739 0.18868174
-0.13914645 -0.013373967 0.15812585
-0.054657973 -0.21470135 0.070780724
0.18830346 0.068633586 -0.29921952
-0.22712669 -0.115436964 -0.2132518
-0.09933141 -0.017028973 0.17318875
0.17622136 0.23602705 -0.049245756
-0.17363016 -0.064637244 -0.04631275
0.03577232 0.10008897 0.15404892
0.12543888 0.0035488466 0.15328857
-0.058497336 0.06655357 0.17164002
0.122052595 0.2421115 -0.06308807
0.22531213 0.20055383 -0.18854037
0.12155107 0.19936179 0.07062416
0.06269498 0.14270788 0.14289683
-0.14765258 -0.2293192 -0.3173327
-0.12412041 -0.1279109 0.10539336
0.08067228 0.28160128 -0.09862122
0.081569515 0.22383188 0.106999196
0.2616438 0.15888868 -0.08142454
0.024731012 0.22309896 -0.27713233
-0.15499805 -0.0021915843 0.18045537
-0.097043596 0.039301377 0.197398
-0.1038615 -0.00391153 0.1702569
-0.06808789 0.09697762 0.18893173
0.12230471 -0.043352738 0.15742257
0.2525165 0.1971555 -0.18176237
-0.14716002 -0.17665334 0.04190658
0.21311323 0.20029832 -0.048358377
-0.14194773 0.033543482 0.15486541
-0.2034613 -0.11302466 -0.12673564
0.027579272 0.29610437 -0.100349665
0.13315326 0.11201846 0.10651669
0.042525362 0.089350164 0.12026785
0.08482696 0.13352336 0.09296997
0.11166397 0.010263958 0.16825837
0.00993964 -0.20202252 -0.0029183691
-0.08988271 -0.3053182 -0.041615892
0.1244194 0.03403147 0.12497344
-0.12835824 -0.23125027 -0.009168168
-0.04670194 -0.28250828 -0.0037900235
0.035103537 0.06581991 -0.2710198
0.046140846 0.2705224 -0.043443684
-0.19039838 -0.045134205 0.008040541
0.19447757 0.052039776 -0.16446638
-0.14627752 -0.09795859 0.09988478
0.08625538 -0.019094598 0.15273519
-0.19514182 -0.11383649 0.05897673
-0.048709095 -0.10630546 0.16953973
-0.06569268 -0.015358679 0.20108496
0.13032937 0.07612436 0.11484949
0.10975648 -0.045767 0.09281479
0.13242626 0.14375071 0.090439595
0.03738304 -0.11792112 -0.25637513
0.088920616 -0.052217655 0.098312415
0.15922125 0.06636959 0.11613135
-0.039540093 0.1788542 -0.2730992
0.036128636 -0.07760069 -0.2772679
-0.082596324 -0.10567109 0.11990311
0.0078109317 -0.24784443 0.0062069944
-0.12144911 -0.080044575 0.15799268
-0.13908142 -0.03622739 -0.323248
-0.06200307 0.089279816 0.14109543
0.21918182 0.15334034 -0.0061756144
0.023614246 0.14876789 0.13344751
0.114581876 -0.054122593 0.12241828
-0.045570474 -0.20317797 0.05208691
-0.101475134 -0.076140806 0.122656524
-0.0025849808 -0.2581413 -0.043808307
0.13075547 0.18194595 0.11038468
-0.13125406 -0.20233637 -0.3015599
0.122604795 0.0018114407 0.15403296
-0.22118664 -0.11563242 -0.2372255
-0.23512396 -0.1116526 -0.07805733
0.073111854 0.26072022 0.007957622
0.10521859 0.25483406 0.08723338
-0.20872658 -0.0749495 -0.10857103
0.1003591 0.062347293 0.11958489
0.122859165 0.15053615 0.11808397
0.008653446 -0.061589353 0.17786571
0.0008509738 -0.1380562 0.1764365
0.26670986 0.1444061 -0.13239436
-0.028266242 0.19582534 -0.010552083
-0.23010708 -0.11164013 -0.32682008
0.014228837 0.1911035 0.10616034
-0.15603206 -0.20072557 0.021885347
-0.010823743 0.0031794598 0.17175607
0.046240523 0.19102162 0.10265888
0.124056466 0.022990724 0.13129377
0.011826847 -0.009873611 0.1979001
0.025915634 -0.19068779 0.101751536
0.20573504 0.06575826 -0.19298531
0.034170747 -0.1358471 0.18390271
-0.029308405 0.12292984 0.15047036
0.05371926 -0.048137665 0.19342044
0.066521026 0.28925607 -0.14695697
0.032788236 -0.039213337 0.1849606
0.008855633 0.24878477 -0.13997737
-0.07674713 -0.05360117 0.14222813
-0.077256404 -0.19365755 0.06981838
0.03060687 -0.16066843 -0.2224356
-0.022040721 0.003433506 0.19985849
0.08455907 0.27673858 -0.09166086
0.12678176 0.19570564 0.10282904
0.11508931 0.050791223 -0.24717136
-0.11340491 -0.017575778 0.17998277
-0.029356487 -0.25432402 -0.29919058
0.107770436 0.07789229 0.15324114
-0.19780602 -0.12040381 -0.09967692
0.13767186 0.008685727 0.117963485
0.07782693 0.29824966 -0.08377609
-0.010733929 -0.22117239 -0.31510946
-0.099593885 -0.29173896 -0.008105693
-0.014931823 0.15510832 0.11729641
-0.21486492 -0.08279807 -0.25756663
0.06298498 -0.031197203 0.16535899
0.0864065 -0.06836026 0.17101654
0.00920323 0.09965369 -0.22459932
0.04749652 -0.07428162 -0.31158948
0.040374305 -0.18002601 0.13372533
0.018859478 -0.21572946 0.09947426
0.06318067 -0.086127125 -0.3903239
0.07842057 -0.12435032 -0.29539657
0.18811648 0.06591305 -0.29801226
-0.0004693428 -0.12777081 0.14361891
0.09017714 0.2778887 -0.059687976
-0.1267186 -0.0861429 0.14628327
-0.06309584 0.13570055 0.13735819
-0.07309236 -0.13948357 0.12420926
-0.08391996 -0.07430766 0.15632305
-0.14103317 -0.018498326 0.062709935
0.011402247 0.26321253 -0.0008716906
0.056437645 -0.10431687 -0.27625355
0.164198 0.10450711 -0.13702334
0.034125555 0.22427441 0.09709388
-0.020293197 0.014744538 -0.2925854
0.00936208 0.09641107 -0.22955436
0.014242607 0.22328874 0.09067757
0.04766405 -0.1659628 0.10712539
-0.04419441 0.1334193 -0.24686037
0.10460395 -0.043002967 0.14544748
-0.1643327 -0.029785566 0.15662676
0.011742231 0.015858322 -0.30881032
0.20483613 0.23212251 -0.12433992
0.04526404 0.107176445 0.14153902
0.14576565 0.14700364 0.12213329
-0.15870398 -0.10397037 0.14021854
-0.21250795 -0.12924525 0.031818252
-0.0725927 -0.040843286 0.18688436
-0.07201556 -0.15653847 0.11609971
0.01310004 0.28658965 0.048731837
-0.054277148 0.15673915 0.00013704844
-0.05196391 0.12990202 0.16684163
0.030291779 -0.04029389 0.20147732
0.0021138191 -0.10494734 0.15062447
0.06189026 0.2034591 0.119223826
0.023057912 0.043636948 0.16281517
0.02846252 -0.2141668 0.06819937
0.1994666 0.2171667 -0.08676358
0.065977596 -0.14468594 0.08973096
-0.12642336 -0.043663602 0.15610865
-0.18390198 -0.1789973 0.06365863
0.08960897 -0.018407265 -0.28354084
0.030490516 0.11987083 0.15792987
0.12224617 0.2499596 -0.01761399
-0.20166305 -0.17790888 -0.27626288
0.034008063 0.29893434 0.006494153
0.047178667 0.23109823 0.08783008
0.06768685 -0.019202339 -0.2828649
-0.08828957 -0.1213327 0.12768504
-0.07786144 -0.005975138 0.1926007
-0.0032052498 -0.052892417 0.20166048
-0.00652669 0.14816944 -0.13599415
0.082990974 0.22608244 0.068891115
-0.021825068 0.076951355 0.13023585
0.059217326 0.1872413 0.10162632
-0.054644674 -0.17376687 0.055843297
0.002453506 0.019370327 -0.27045432
-0.21454085 -0.11688905 0.0465788
0.17237328 -0.009879616 -0.29481387
0.0066960296 0.22185642 0.08569276
0.1273105 0.04822553 0.13955429
-0.0047162976 0.19419943 0.11956651
0.24751785 0.13597547 -0.03156114
-0.024388509 0.19182883 -0.23907617
-0.10876009 -0.049328826 -0.2645225
-0.047304932 0.12879215 0.03507595
-0.08039282 0.120624654 0.04219273
0.23946474 0.19457462 -0.106504165
-0.023628322 0.019620473 0.17687078
-0.06636293 -0.21806648 0.037735075
0.03384362 0.0680288 0.13550894
0.0077124108 -0.12446922 0.1370206
-0.023846975 0.11553966 0.15411258
0.020888682 0.18057741 0.10387641
-0.013825171 0.20161086 0.1129182
0.21231562 0.08581323 -0.024283383
0.040824085 0.25464088 0.056168236
-0.17697106 -0.03492582 0.045755744
-0.12618747 -0.04632265 0.14080745
0.15883991 0.10692345 0.10468556
-0.0697055 0.0501115 0.16381198
0.13245618 0.12177487 0.095405966
-0.053021934 0.05148385 0.16727737
0.07423829 0.11819283 0.10417178
-0.00057514233 -0.29146668 -0.21340643
-0.08030981 0.118391626 0.16340876
-0.21514827 -0.17972904 -0.18000486
0.14118846 0.15609297 0.09510449
-0.02690131 0.06596098 0.16570102
-0.11127403 -0.25545335 0.00024523443
-0.08355441 0.122803345 0.16436097
0.15947266 0.020230405 -0.21731937
-0.09144348 -0.1652324 0.0946182
-0.0896377 0.11363404 -0.35183164
0.085461505 -0.04176114 -0.27377042
-0.053699646 0.0011346224 0.17272066
0.14191937 0.078376606 0.11189403
0.052074295 -0.09507861 -0.29335228
7.1834955e-05 -0.20252459 0.07580701
-0.102695264 -0.16668728 0.054156724
-0.07653004 0.06924096 0.17251354
0.14966008 0.25727567 -0.20929517
-0.07555063 -0.17175117 0.08919749
0.12727512 0.02014708 0.13073848
-0.013356604 0.13634191 0.14318514
-0.12487873 -0.10018568 0.07613999
-0.116412334 -0.020910246 -0.25052285
-0.035709336 -0.0076708314 0.2007958
-0.054731 -0.28202537 -0.14601669
-0.21236424 -0.15688708 -0.3063453
0.021611411 -0.16608237 0.14517008
0.022412209 -0.26109317 -0.14856243
0.22721028 0.23947075 -0.23345663
-0.07563287 0.054851532 -0.24529357
-0.024183793 -0.11981237 0.16181013
0.15181732 0.22728038 -0.042877063
0.009604635 -0.2539723 0.050334413
0.2091111 0.13721704 -0.120428264
-0.022288593 -0.008515773 0.15964
0.0781939 0.019968066 0.15197429
0.027565502 0.11367946 0.16059585
-0.13745144 -0.2341496 -0.23420537
0.0039474755 0.077079296 0.14168637
-0.06234855 -0.18883501 0.056416675
-0.18758066 -0.08928283 0.09968466
0.1594255 0.043016016 0.14827612
-0.13653612 -0.07744977 0.12447348
-0.02594364 -0.13861643 0.1480946
0.1328676 0.026520737 -0.25784287
0.04370306 -0.09835592 0.1759213
-0.052576818 -0.29653546 0.023208613
-0.036259484 -0.1558015 0.112630755
0.035057247 -0.18510094 0.1473178
-0.03404291 -0.12787472 0.12695175
-0.049957857 -0.1511478 -0.34598768
0.22898836 0.12054304 -0.24741602
0.24554394 0.18847631 -0.15506771
0.052168917 -0.15265027 -0.34663197
0.21099181 0.08467212 -0.03543705
0.08223519 0.05950856 0.15792301
0.21339417 0.19502582 -0.0804562
0.16009617 0.08285357 0.12203866
0.15780123 0.0904644 0.12501127
0.095215425 0.028635897 0.13852909
0.043523014 -0.11624318 0.014993128
0.20307802 0.089087516 -0.019827591
0.13599218 -0.003410325 -0.34886914
-0.096346855 0.010276016 0.19086568
-0.16191362 -0.25457853 -0.027411494
-0.002646097 -0.10539714 0.15685977
-0.09952123 -0.09634799 0.11675368
0.09761352 -0.082209215 0.14782302
0.035478204 -0.008314729 0.17415746
-0.032522965 0.12229579 -0.25733617
0.06048843 -0.13678934 -0.25505888
-0.15829381 -0.2397724 -0.004983024
-0.19160904 -0.114521965 -0.26828146
-0.10498448 0.05836529 0.13277353
-0.18714876 -0.08060932 0.09816187
0.1564614 0.19173016 0.088924825
0.2045003 0.18370032 0.08109865
0.045559894 0.3093254 -0.15770228
0.038620904 0.25344756 0.099082656
0.20712072 0.11350741 -0.13491489
-0.044232875 0.16763106 0.15028396
-0.13184057 0.012642037 -0.25535706
0.059019286 -0.12856881 0.027749714
0.011884947 -0.18355812 0.041664388
-0.041497037 0.018467601 0.17819087
0.24447696 0.12710491 -0.14947139
-0.061674684 -0.24418345 0.027896043
-0.12288411 -0.13423252 0.08454238
-0.1299906 -0.03853644 0.13824637
-0.18693297 -0.2640636 -0.0466529
0.008716742 -0.12422387 0.13379122
0.09826163 0.0075126286 -0.2952072
-0.26145232 -0.13721927 -0.24980785
-0.23522985 -0.12590736 0.08287473
-0.04268094 -0.13958187 0.09025387
0.016645225 -0.04213929 0.17099057
-0.05384529 -0.04784952 0.17265525
0.16722544 0.07522351 0.12622228
0.014621716 -0.08756524 0.17025946
-0.046065275 -0.27371407 0.048701614
-0.029163111 -0.27334613 -0.19306429
0.12589324 0.055766925 -0.2445876
0.019720508 -0.048330743 0.1815599
-0.106899805 0.015773764 -0.29384592
-0.10762692 0.04488953 -0.3157272
-0.22728412 -0.08091156 0.09602225
-0.10310281 0.060547 0.15580556
-0.23556536 -0.12352503 -0.05363476
0.16072632 0.12856774 0.116780035
0.057959378 0.02036309 0.1716828
0.12061355 0.23843114 0.07968283
0.020673532 0.26748776 -0.049496874
0.17168461 0.02909674 0.11582481
-0.11464487 -0.25451443 -0.011215727
0.06945787 -0.098972715 0.15419388
0.015296218 -0.045869723 -0.28360614
0.061776854 -0.08286542 -0.24846198
0.07308549 0.32170522 -0.21403833
-0.04466071 -0.13498458 0.109799355
-0.08525848 -0.28175375 0.017567534
0.23714004 0.124965034 0.06185303
0.026713641 -0.16732839 -0.3776215
-0.05444019 -0.058058187 0.21499808
-0.013136564 -0.18636057 0.11670865
0.030086223 0.0113881845 0.18498185
0.11606156 -0.012458748 0.13222365
0.101800986 -0.019573288 0.14409097
-0.18582913 -0.25715524 -0.043319922
0.002378545 0.23966387 -0.20150758
-0.06050887 0.07119751 0.16291471
-0.07916214 -0.29677045 -0.028170902
0.03670595 0.059306264 0.16981697
-0.02199206 -0.21547443 0.05562069
-0.16904591 -0.066919975 -0.2105855
0.007396646 -0.15070252 -0.18651254
0.06098988 -0.1489018 -0.23230855
-0.004503538 0.22514606 -0.006775624
0.20156376 0.061557848 -0.326324
-0.1847373 -0.14051896 0.035311557
-0.016245954 -0.10344947 0.17772661
0.08148237 -0.051110774 0.19314647
0.0562609 0.13785018 0.1119004
-0.0888938 -0.24791974 0.029423201
0.10351806 0.119473204 0.11930683
0.078214325 -0.11929628 0.16005248
0.092832595 0.08505521 0.13309757
-0.006283489 0.17799619 0.1230584
0.08177349 -0.043171342 0.16784155
0.18906264 0.09867702 0.08172961
-0.033559043 0.18058066 0.098515786
-0.060830258 -0.043063346 -0.2240274
-0.104773924 -0.0976105 0.13680379
-0.020524526 0.01281366 0.17059451
-0.009969186 0.061631203 0.15709417
-0.0008950592 -0.19748212 0.023309782
-0.21810618 -0.08248988 -0.19825259
0.18479528 0.25003704 -0.1519684
-0.025078744 0.14093213 0.11763582
-0.20699753 -0.12930666 -0.17225136
-0.02780138 -0.28784168 0.0054822164
0.027027179 0.0726041 0.13763696
-0.1503224 -0.08553858 0.106957264
0.11827608 -0.03762585 -0.31855664
-0.17417267 -0.15811835 0.052460574
0.01702607 -0.079994 0.1589936
-0.026714008 0.024839943 0.19909528
0.124122314 0.26365423 -0.04576492
0.012164708 -0.015359216 0.16795872
0.16949733 0.22732058 -0.066105396
-0.010292078 0.08374129 0.15082076
0.05376475 0.04911246 0.1331571
0.08747653 0.1335697 0.1478793
-0.18981853 -0.06641088 -0.25875142
0.08356585 0.14494513 0.121821225
-0.036682144 -0.23561141 0.058722608
0.10642826 0.23069192 0.09984518
-0.07565655 -0.18870708 0.0693351
0.0871086 0.08709432 0.15011235
0.057941575 -0.059967995 0.16548538
0.054403212 -0.07650169 0.17561221
0.11384304 -0.017704384 -0.2594171
-0.04790458 0.11236848 0.16307324
-0.016521152 -0.25490865 -0.30285993
0.14932048 0.10537192 0.13923448
0.0257568 0.31037652 -0.15089111
0.15959819 0.12578267 0.106763266
-0.06586749 0.09858611 -0.4043025
-0.036105655 0.13786013 0.07394582
-0.06431414 -0.109079234 0.13006516
-0.0060376264 -0.216149 0.062430203
-0.18435651 -0.20014201 -0.10589283
0.22243659 0.15240194 -0.18778141
-0.106525816 0.0565645 0.10721854
0.09526377 0.026071211 -0.2477453
-0.050013985 -0.20570932 0.040582824
-0.1218351 -0.14897 0.08198113
-0.031499162 -0.28007028 -0.11524379
0.03120478 -0.20812804 0.084891364
-0.037433535 -0.2709097 -0.0005026887
0.041801307 0.26703462 -0.049086858
-0.18355495 -0.05476303 -0.32872468
0.12133391 0.21986112 0.08813423
-0.14781752 0.0020882972 -0.36374474
-0.13171265 -0.21055806 -0.3286437
-0.10106508 0.046627916 0.06720061
-0.05894211 -0.04967869 0.16000515
-0.029998466 -0.025985092 0.16727474
-0.25870347 -0.12855037 0.03554039
-0.11816407 -0.08823358 0.14973637
-0.098071754 -0.24259673 0.0058792923
-0.19655138 -0.083094075 0.069214486
-0.09496977 0.04969346 0.19509289
0.030755023 -0.05952101 0.17797478
-0.021271842 0.04633374 0.18939567
-0.20230535 -0.19136366 0.010749241
0.11994486 0.010367437 0.14193198
-0.06555046 0.043413643 0.18873683
-0.047691774 0.1287579 -0.35338733
0.091416515 0.18724996 0.08073626
0.049948476 -0.036754295 0.19815509
-0.10071876 0.08267747 0.07097677
0.14623567 0.20440917 0.09618908
0.21536997 0.19060837 -0.05154501
0.015999973 0.22978039 -0.025936289
0.17479192 0.08152343 0.07365475
-0.24934165 -0.19929805 0.026744807
-0.05301424 0.14145765 -0.2359874
-0.063574426 -0.1888807 0.0907443
0.0143435765 0.27347526 -0.14125514
0.21747173 0.08971049 -0.24698982
-0.24271841 -0.1851333 -0.060385063
-0.080009565 -0.2712096 -0.015941177
-0.14859411 -0.26703697 0.005060682
0.0003941382 0.042800274 0.18013428
-0.111516334 -0.20874974 -0.25274363
-0.0068874485 0.15050057 0.11615531
0.10143272 0.07063312 -0.23353362
0.009661767 0.0011546597 0.19114865
0.095824316 0.095020965 0.12136769
0.11610101 0.17459983 0.100359015
0.09926196 0.22023089 0.07096244
-0.22252065 -0.2082079 -0.20837985
-0.05110915 0.1433034 0.12820928
0.101584345 0.07391718 0.15694341
-0.14477085 -0.14481302 0.07911904
0.033951946 0.3015843 -0.16174828
-0.0815441 0.098505676 0.11843334
-0.22885908 -0.1920852 -0.0072563393
0.19394736 0.06833788 0.13631909
0.21704616 0.08829991 -0.2627715
0.045798387 -0.0457517 -0.30409995
-0.10229243 -0.006193744 0.2057797
-0.15936671 -0.26869902 0.016958889
0.044678744 -0.037083186 0.19823733
0.04723109 0.24033804 0.08696399
-0.045576744 0.17118445 -0.03431707
-0.080214724 0.10767658 0.12822455
-0.26629063 -0.16759075 -0.0014147484
0.119614564 -0.04232773 0.13132332
-0.02897414 -0.08343645 0.1560594
-0.046631426 0.17568168 -0.24921894
-0.08370267 0.04758899 0.16234991
-0.13767631 -0.01914109 -0.23580173
0.07232934 0.0031577689 0.17258771
0.0336204 0.30598304 -0.10128678
-0.14473063 -0.007520052 0.17179427
-0.15929681 -0.25646234 -0.06350596
0.08011696 0.06481066 0.13814841
0.017268086 -0.24921031 -0.06711612
-0.15217088 -0.29513055 -0.065744616
-0.111362845 -0.04253755 0.1459585
-0.0029235496 0.11861893 0.1268775
-0.03475018 0.031009326 0.17676611
0.18924697 0.12222019 0.08793005
0.047538698 0.05250533 0.1287563
0.019476522 -0.19077308 0.1326245
-0.05197202 -0.14176428 0.11692058
-0.04566518 0.05645662 0.13682517
-0.06539416 -0.13301434 0.07251571
-0.13272955 -0.24011587 -0.24270639
-0.0142724905 -0.21681863 -0.10445414
0.20162909 0.107836746 -0.28860873
0.03906794 0.019350281 0.14059883
0.14727286 0.12107759 0.09810763
0.1393327 0.06896442 0.14640926
-0.16514266 -0.038834915 -0.33664215
0.11211433 0.22310527 0.09512305
0.03944547 0.29675686 -0.20814085
0.020202165 0.035718627 -0.2672527
-0.032577835 -0.26538035 0.060301065
-0.09626696 -0.17902717 0.06322484
0.044991385 0.20303881 0.12408161
0.2530115 0.14657772 -0.27758217
0.022329355 0.27912068 0.099845186
-0.2550204 -0.1419335 -0.25608453
-0.12788878 -0.2263776 -0.09679025
0.124510415 -0.04606592 -0.25978836
0.05713949 0.07542919 -0.240312
0.035481136 -0.17962208 -0.2123337
-0.14135645 -0.010052075 -0.24886195
0.19126014 0.086200945 -0.31836152
0.018541275 0.14441891 0.1391304
0.11030403 -0.03316238 0.14583114
0.08351022 -0.050396316 -0.27189437
0.16397084 0.10601691 0.13140275
0.021460146 0.2848116 -0.13049646
0.13069926 0.07369478 0.1089118
-0.009625238 0.2238396 -0.008392164
0.030410089 0.28383744 -0.20267247
-0.008503843 0.11754011 0.13250232
0.15445182 0.010912684 0.06155665
-0.1519452 -0.106107555 0.091096714
0.030103998 -0.19872129 -0.23255707
0.058242552 -0.16125344 -0.3581956
0.06543558 0.2566634 0.024563435
-0.11250481 0.022701696 0.07550662
0.25699145 0.150453 -0.052500073
-0.17157963 -0.19217323 0.056690536
0.12818074 0.20817947 0.09359856
0.034441713 0.024527784 -0.2630621
0.06751165 -0.052639786 -0.23872116
0.0062670615 -0.12855396 0.15812741
-0.22432794 -0.24494801 -0.033790868
-0.24973595 -0.16419894 -0.10516726
0.10529837 -0.007815939 0.16603896
-0.12707622 -0.021592561 0.14299789
-0.15664357 -0.090125844 0.10706621
-0.095152915 -0.17601468 0.045132075
0.10367818 0.053378385 0.12311708
0.0128547475 0.21385393 0.07042633
-0.22117168 -0.20655897 0.02115063
-0.088514686 0.10405645 0.11529167
-0.10959938 -0.14299816 0.055756558
0.22314069 0.09484292 -0.12775251
-0.07614486 -0.24018219 0.032085337
-0.14751466 0.022776661 0.21533264
0.082164414 0.2709733 -0.025742726
0.2297614 0.14867236 -0.14241126
-0.22435164 -0.08691908 -0.23879483
-0.16863848 -0.1509719 0.081839815
0.15761086 0.17751037 0.07326802
-0.17732444 -0.028659647 0.10218386
0.03406683 0.21125019 0.094307646
-0.004871894 -0.0073300763 0.1922545
-0.14493342 -0.13789833 0.07002348
-0.07900224 0.09290739 0.175267
0.18778616 0.2316843 -0.11501409
0.16129583 -0.038180947 0.04367887
0.15186176 0.033992726 -0.1819783
0.016809573 -0.19488944 -0.009371629
-0.14712685 -0.003197254 -0.266103
-0.20522647 -0.10144667 0.097845316
-0.012652752 -0.025253734 0.18059048
0.104697734 0.28308454 -0.16759247
-0.15222506 0.027624711 -0.35078448
-0.040950246 0.06756028 0.16507088
-0.1998102 -0.035560727 -0.23336579
-0.061150484 0.06525209 0.18232277
-0.06035791 -0.32494116 -0.0033138418
0.030046202 0.15007755 0.10540546
0.209667 0.21186343 -0.058323506
-0.1953787 -0.095390685 0.12290952
-0.12464097 -0.15406138 0.05229933
-0.1297393 -0.29081652 -0.026888773
-0.011797878 0.15520418 -0.18748781
-0.055086516 -0.22095342 0.021127302
-0.048976425 0.08980629 0.16502117
-0.0336965 0.05182767 -0.29664585
-0.03993026 -0.21001537 0.065808184
0.0031602343 0.30129087 -0.20835118
0.12554604 -0.018424716 0.13438185
-0.053874433 -0.22336887 0.047474362
0.16592221 0.19581203 -0.09971051
-0.00011769179 -0.03367102 0.18437934
-0.06623155 -0.104984455 -0.2165994
0.002406901 -0.0036279208 0.15758817
0.057181783 0.18178922 0.098092526
-0.067942865 -0.27391866 -0.078924365
-0.07845917 -0.2581563 0.0022893483
-0.018446723 0.1772768 -0.34983107
-0.08602107 -0.2627407 -0.0040561785
-0.162552 0.023716787 -0.38561922
-0.1942394 -0.22810434 0.007882399
0.107028864 0.15581523 0.11315791
-0.2125316 -0.099754535 -0.18904465
0.105198175 0.2613705 -0.03447715
-0.26582924 -0.14149897 -0.080947936
-0.033911224 0.060914457 -0.28989026
0.08751231 -0.026649646 -0.29545236
-0.100396976 -0.2811224 0.012662289
0.16098784 0.25605786 -0.18128933
-0.051344547 0.048599176 0.17621471
0.15986344 -0.0042471727 -0.29878798
-0.1930551 -0.06778573 0.06413736
0.015485325 -0.18257739 0.103496194
0.18094863 0.062056262 -0.18253839
0.13319862 0.22986706 -0.018410292
0.06463176 -0.15102592 0.1459259
-0.2669601 -0.18171069 -0.031798422
0.022215445 0.2658263 -0.24782456
-0.10610113 -0.10787814 0.12509324
-0.0909909 -0.27838808 -0.017142449
-0.0424959 -0.020037929 -0.27797955
0.1097186 0.27040783 -0.13693434
0.07120822 0.2527292 -0.08866857
0.17247647 0.15625511 0.087098464
-0.030472597 0.16984583 -0.34504032
0.06317356 -0.0021207167 0.17346239
-0.020709835 0.18831354 -0.20858043
-0.030733967 0.14960228 0.14306827
-0.022883806 0.0794766 0.15247346
0.0548387 -0.06547404 0.16841997
-0.210693 -0.12296975 0.07959513
-0.12915598 -0.07177366 0.13876314
0.13361028 0.004054737 0.16885062
-0.013780702 -0.099373974 0.17085488
-0.1475359 -0.03316975 0.0014531373
-0.005247237 0.2348576 -0.050570972
-0.18428884 -0.048558563 0.08949658
0.076058954 -0.034278784 -0.3064942
0.11582166 0.249006 -0.07119396
-0.14259245 -0.24190663 -0.20103857
-0.14147422 -0.023483451 0.13920379
-0.06923 -0.2788928 -0.3269254
0.023292227 0.13411367 0.14325914
0.06965769 -0.08687302 0.18583295
-0.10979337 -0.045796447 0.1522514
0.206983 0.22629261 -0.14154786
-0.122965395 0.021562852 0.14577657
-0.04301357 -0.1460572 0.13953985
-0.21464379 -0.20357798 0.02671202
-0.12074093 -0.2888725 -0.029460618
0.2388483 0.16966558 -0.10329174
0.20707022 0.110772744 0.08195064
-0.009922483 0.09279472 0.14338984
-0.013827087 -0.23961401 0.020835172
-0.06394292 0.10123864 -0.28039667
-0.154501 -0.14340979 0.06661632
-0.050564762 0.11313168 0.1696955
0.19647111 0.078287125 -0.18844876
0.029824506 0.27356842 -0.24021737
0.10688003 0.0037217273 -0.2535298
0.064495325 0.068764366 0.17033938
0.06920132 0.08999948 0.15579171
-0.0508005 0.09707682 0.16846189
0.12403552 0.07006725 -0.19309719
0.111175925 0.1348284 0.12523869
-0.13336423 -0.018785408 0.18502879
-0.13635059 -0.1523798 0.07282751
0.24509783 0.14681877 -0.08716372
0.07007486 -0.123651296 -0.23962796
0.20908235 0.07912193 0.10910447
-0.043432582 0.118075065 0.14256251
0.015177606 -0.18920556 0.1068654
-0.21984395 -0.10486613 0.059599094
-0.091320015 -0.21236429 -0.30420458
0.100340225 -0.11795815 0.12863816
0.03613562 -0.14918046 0.14133753
-0.118086874 -0.07740172 0.11903332
0.016276151 0.22375676 0.08342062
-0.17539074 -0.18425244 -0.3195926
-0.084725365 0.03883085 0.17628664
0.097792 -0.0061629363 0.17874268
-0.032719858 0.19880268 -0.2162641
-0.15580848 -0.11325433 0.07064277
0.14221993 0.14458115 0.08434209
0.054153763 -0.071821995 0.19364147
-0.00011917946 0.13017905 0.1329366
-0.052029178 -0.04376785 0.1965447
0.15407181 0.027732203 0.13797587
0.19685835 0.20127055 -0.22992763
0.19380872 0.05412722 0.08238643
0.1771726 0.09034399 -0.044850785
0.13922846 0.0031081473 0.021169653
0.13736019 -0.00460475 0.1502157
-0.15157054 -0.21901783 -0.11692312
0.10112566 -0.077518076 -0.35606518
0.1692812 0.023902437 0.14363736
0.02308384 0.19674967 0.1363351
-0.0005791845 -0.07583416 0.20831402
-0.15978836 -0.061459806 0.12904373
-0.09626016 -0.16982272 0.0747059
-0.18959841 -0.14024882 0.008281094
-0.25918588 -0.18760759 -0.15013382
0.07582778 0.10029151 0.11584371
-0.051760662 -0.1065013 0.13592537
-0.048296094 0.15762554 0.052998357
0.1211677 -0.06814073 -0.2779824
0.13129868 -0.022564972 -0.32160172
-0.15721884 -0.031886093 0.14251402
-0.19757384 -0.106122114 -0.25709376
0.058731653 -0.14448923 0.17064169
0.065170184 0.2270436 0.11328785
0.10226052 0.11835428 0.11372639
-0.030767947 0.0663989 -0.27271014
-0.00170154 0.14517793 0.12587687
-0.117107354 -0.06952391 0.16930002
0.032816492 -0.16810729 -0.26306617
-0.08019411 0.09266551 -0.42174575
0.014910708 0.2516696 -0.0762631
-0.025375593 -0.29537898 0.0108846
0.21955706 0.07179974 0.05065859
-0.19914767 -0.17806372 -0.0076812212
0.024584748 -0.12536442 0.17741625
-0.24873935 -0.15842798 -0.2674573
0.06289787 0.08219686 -0.22265612
0.059320103 0.2105468 0.11214414
-0.058807768 0.08628371 -0.25575608
0.19407207 0.21654746 -0.22088087
0.051366344 -0.120668925 -0.3132148
-0.029491002 -0.26236176 -0.04790677
-0.16204353 -0.22992142 -0.23946
0.04758612 0.099921785 0.16038501
0.019005561 -0.0076945275 -0.26784444
0.19180837 0.106502645 0.087151594
-0.23207274 -0.17390315 0.039702922
-0.009181151 -0.22976725 -0.14715257
0.0814835 0.0012976716 -0.29277223
0.031782147 -0.23512422 -0.077534616
0.1880712 0.13946488 0.07550173
0.17105323 0.012411487 -0.26288745
-0.056130067 0.030045336 -0.29998708
-0.054062255 0.1784227 0.12835354
-0.055635277 -0.115347214 0.13088436
0.012537763 0.22840099 0.0685302
0.080100454 -0.104317345 0.15608254
-0.09717217 0.026462292 0.21423429
0.22050473 0.21216239 -0.04037707
-0.17487656 -0.077449955 -0.1998443
-0.064025275 0.009632694 0.19503519
-0.0014770016 -0.024564276 0.2053325
-0.15856309 -0.0430079 0.1365385
-0.03120076 -0.14065385 0.11441802
0.059056345 -0.14580734 -0.3670837
0.078354865 0.106884256 0.12660114
-0.051183425 0.026761763 0.17580421
0.016609846 -0.099273324 -0.2982082
0.23366459 0.1363279 -0.2814101
-0.19911455 -0.08577753 0.10208847
-0.18787445 -0.20480189 -0.26411077
0.06664946 0.2874272 -0.113926835
0.19550619 0.05142518 -0.25184372
-0.031087346 0.11733734 0.1283394
0.13785985 0.21350758 0.0890363
-0.0045908336 -0.009952389 -0.27198142
0.18938462 0.07954934 0.10709471
0.20311429 0.16326834 0.08550251
0.022638096 -0.020744298 0.18304652
0.05208148 -0.035464365 0.16007444
0.2563626 0.120087825 -0.0009720085
-0.013020059 0.078507416 -0.23084918
0.006902467 -0.12576492 -0.275611
-0.16040847 -0.1962926 -0.001704036
-0.20447445 -0.22373797 -0.009869964
0.053760953 0.26246774 0.035044532
-0.0020344737 -0.13919786 -0.23368542
-0.2121426 -0.10382565 0.03317725
-0.020052906 -0.12935252 0.15945232
-0.11672792 0.003472367 0.20771056
-0.024757825 0.17907436 0.12170632
0.106325194 0.21732531 0.07483344
-0.07244958 0.0587044 -0.27538624
0.13364403 -0.04426673 0.15915503
-0.13447171 -0.27016494 0.0014213966
0.16754554 0.08915889 -0.16810186
0.14849067 0.03980338 0.14498597
0.10637484 0.28638443 -0.24032618
0.017529286 0.22112904 -0.116570376
-0.009855984 -0.07227723 0.21117699
-0.05233326 -0.28590384 -0.1266693
0.21012627 0.100444235 0.10511216
-0.02090455 -0.15464203 -0.20904988
-0.21830198 -0.20031922 -0.18345755
0.024559429 0.0629835 0.15159231
-0.11073019 0.083348684 0.15586789
0.14829005 0.24229512 0.04198557
0.0038721391 -0.1854728 0.073232904
-0.09664289 -0.16218391 0.09274515
-0.091986105 0.03102102 0.15727213
-0.08303299 -0.21499458 -0.26662126
0.08450611 0.025826847 -0.20454077
0.025088279 0.09003803 0.12568992
-0.20117672 -0.0850635 -0.22468804
-0.21780026 -0.14871335 -0.12802109
-0.15249585 -0.22649068 0.015667481
0.24148186 0.16160643 -0.04817952
0.048519094 -0.1271812 0.18194516
0.01646189 0.20265853 0.11325102
-0.0053270566 -0.1697555 0.06598649
-0.07173868 -0.15051153 0.10962101
-0.1620082 0.0037415 0.031734005
0.097116165 -0.00905456 0.17203002
0.07564433 -0.12522234 0.13158499
0.033461604 0.29639092 -0.14165434
-0.035680015 -0.026489241 0.17175725
-0.15546624 0.0073955446 0.032098375
0.0830142 0.031109672 0.1461834
0.05077893 -0.16180897 -0.25136706
-0.03658959 -0.078552626 -0.21246922
0.125167 -0.08491684 0.08019072
0.20134397 0.17551394 0.09008674
0.18113431 0.05730136 0.10265455
0.07797257 0.13596402 0.13827416
-0.008541574 -0.07246564 0.21526545
0.07424077 -0.0012315923 -0.27027917
-0.03207763 -0.14301583 0.11361227
0.00648191 -0.19850439 -0.2135856
-0.09801594 -0.0046952805 0.21236996
0.00041099792 -0.08439281 0.1675439
-0.03500943 0.13581763 -0.21403627
0.0041897018 -0.19014287 0.104701795
-0.17533849 -0.040493593 0.06970925
-0.026755689 0.17347585 0.116218895
0.0041654385 -0.25760677 0.00485394
0.14750467 0.2390998 -0.038768988
-0.063565366 -0.0076042246 0.16544978
0.24678148 0.1685022 -0.028356856
0.10510497 -0.030946327 -0.2934862
-0.24636544 -0.20395882 -0.05227937
0.012568303 -0.09118555 0.18975064
-0.11957399 -0.15275371 0.058886375
-0.25988308 -0.16024737 -0.011331696
0.0075866 -0.11854374 -0.24297339
0.1031071 0.29585296 -0.18699938
-0.17213108 -0.059071008 0.08806828
-0.01632427 0.04074799 0.14564794
0.14336278 0.17935975 0.09098884
0.039540976 -0.12593812 -0.28265238
-0.15815988 -0.015231408 0.1417957
0.14064415 0.2570165 -0.12476282
-0.15070362 -0.22251262 0.026784636
-0.053133935 0.09230135 0.035445035
0.050661348 -0.13619094 0.13779718
0.0520342 -0.15497932 0.14211647
-0.22180147 -0.22436622 -0.04237564
-0.071311355 -0.054966055 0.15578191
0.23363432 0.20595601 -0.11577195
0.073786475 -0.040449396 -0.2975624
-0.1564052 -0.010059568 -0.27729687
-0.09824617 0.097163156 0.1583318
0.14383647 0.14437081 0.0842492
-0.01452994 -0.0013773269 0.19554392
-0.04389111 0.1294767 0.1444022
0.12217112 0.2597675 -0.073770925
-0.024031391 0.15870656 0.1513009
-0.12980595 -0.021617029 0.16063502
-0.10464867 -0.16054663 0.055470556
0.19663736 0.11093514 -0.092417605
0.021483641 0.26875958 0.079646654
0.104131214 -0.023689913 0.144817
0.13137275 0.026942614 -0.29402187
-0.09300999 -0.19059214 0.07067264
-0.11055845 -0.28771657 0.025656115
-0.0928007 -0.05294879 -0.2434106
0.2188839 0.16204475 -0.018370306
-0.18320237 -0.18910824 -0.21902846
0.14351502 0.08500807 -0.21300204
-0.14871977 -0.046203665 0.12166677
0.04733543 -0.09920964 0.17463069
0.06308509 -0.09220355 -0.29115218
-0.16884297 -0.117754705 0.059615813
-0.2237486 -0.08526638 0.06140127
0.05379817 0.036756895 -0.23587747
-0.03134826 0.22463636 -0.16427527
0.078247644 -0.021577582 0.1710425
0.100926235 0.26144066 -0.005499097
-0.0029178206 0.002631972 -0.24901488
-0.117924325 0.021048635 -0.33165503
-0.10135362 0.0027976492 0.20235193
-0.0829863 -0.16548574 0.047567993
0.18715067 0.025052067 -0.3372972
-0.0011900715 -0.17621414 -0.2041592
0.10665776 0.119620055 0.12741625
0.13502647 0.25284252 -0.04821282
0.052610267 0.28863665 0.0042102565
-0.19275916 -0.10965275 0.0680683
0.018393066 0.26995832 0.015718061
0.095839076 -0.06286518 -0.2733179
-0.16645937 -0.16109256 0.069238216
-0.05557248 -0.0899147 0.14019178
-0.097592965 0.12393054 0.03730518
0.22755672 0.11990042 -0.0021629278
-0.12434492 -0.16820538 0.05055155
0.085741535 0.090694144 0.12657498
0.18052237 0.13011028 0.084813036
0.21938491 0.094885565 0.10121427
-0.056458108 0.05216973 0.17738508
0.0124781495 0.1790832 0.1033276
-0.19023448 -0.117267706 0.083075896
0.1554123 0.0078603495 -0.28790504
0.046581324 0.21123022 0.068366565
0.027304946 0.19417165 0.11005526
-0.09508612 -0.19461505 0.0927761
0.03622088 0.27155435 -0.0296323
0.09878824 0.13407199 0.12304074
0.09092392 0.29061928 -0.21286765
0.029321283 -0.193653 0.13549837
0.073370606 0.026148405 0.14040662
-0.14568989 -0.23489794 -0.22435299
0.14849113 0.085232124 0.12381151
-0.08688811 0.10154495 -0.33975232
-0.09716024 -0.047285333 0.17612238
-0.08602676 0.09018241 -0.26503724
0.11332001 -0.116438605 0.07842427
-0.12962696 -0.23541619 0.050293025
0.104605936 0.2722686 -0.045131847
0.044752 -0.12234771 0.17128843
-0.14519311 -0.014876092 -0.37190652
-0.0071091405 -0.22118309 -0.077266425
0.0013164412 0.09416034 0.14582632
0.24307905 0.17134446 -0.09882793
0.093754716 0.20081496 0.113623254
0.17165874 0.06613562 -0.18796025
-0.068803415 -0.044405114 -0.24838875
-0.055030126 0.023103537 0.15881918
0.022194168 -0.18442526 0.103726596
0.24788514 0.2000462 -0.19009772
-0.066580534 0.06487707 0.20208411
0.06954624 0.16398332 0.12822539
-0.06570483 -0.064722076 -0.2555569
-0.04436192 -0.115268975 0.13115062
0.24197403 0.093490586 -0.14242321
0.16678417 0.024792366 -0.26062799
0.16731465 0.1781993 0.09835878
0.14746112 -0.016921664 -0.29687232
0.09188471 0.22119375 0.0929195
-0.039971523 -0.20146331 0.10471427
0.040216506 0.22626275 0.09247572
0.090427466 -0.031021833 0.16849107
0.085171856 -0.03081397 0.14701332
-0.001754842 -0.25484237 -0.084549345
-0.19157985 -0.069457464 -0.26686484
-0.09188797 0.123551905 -0.34097865
0.00038057537 -0.19568473 -0.10869065
0.11171478 0.003951429 0.15649801
0.039821357 -0.034149505 0.17327648
-0.23603673 -0.12664184 0.052353714
-0.04034601 -0.07225771 -0.25196373
