# .PCD v0.7 - Point Cloud Data file format
VERSION 0.7
FIELDS x y z
SIZE 4 4 4
TYPE F F F
COUNT 1 1 1
WIDTH 1000
HEIGHT 1
VIEWPOINT 0 0 0 1 0 0 0
POINTS 1000
DATA ascii
0.16176592 0.08799448 0.14144355
0.22625014 0.19474533 -0.023522697
-0.24369867 -0.041354824 -0.02156557
-0.10496882 0.13744245 0.10047913
0.07344084 0.09843724 0.18685468
0.07322021 0.23990227 0.05661268
0.14817815 0.18695979 0.051791176
0.014122484 -0.15288855 -0.15905656
-0.1770092 0.21832128 0.0486082
-0.1797484 0.2604621 -0.015814181
-0.24077453 -0.17646834 -0.1410655
-0.04286555 0.1593517 0.13214406
0.15119511 -0.2200603 -0.062187165
-0.13081613 0.13231446 0.12122591
-0.07982264 0.10249284 0.093481384
-0.16077644 -0.04049954 -0.06333166
-0.110396005 -0.103955895 -0.12990105
-0.16469091 0.17841755 0.07912418
-0.06165236 0.27713484 -0.0076467046
0.19363411 -0.14856215 0.048564736
0.056849908 0.18602028 0.12401219
0.2771492 0.030434895 -0.0021835524
-0.015241947 0.22779977 0.08010714
-0.25737283 -0.111281216 -0.059547387
-0.26464844 -0.094431676 -0.07940092
0.27677903 -0.10758165 0.045771137
0.10686783 0.006539982 0.09188872
-0.16633192 -0.058916684 -0.0662874
-0.08917913 0.14684471 0.16273548
0.061555285 -0.23341256 -0.079911634
0.18478186 0.23628856 0.004166569
-0.04234289 -0.30469358 -0.19428566
0.1497998 -0.14282364 0.022546187
-0.1605679 0.20107569 0.031460032
0.3178572 0.07900112 -0.03494163
-0.107568726 -0.22673437 -0.1364332
0.040411245 -0.23093249 -0.06501988
0.11275994 0.0834768 0.20218998
0.21418995 -0.23337258 -0.24674429
-0.09114532 0.08339723 0.13503715
-0.21392368 0.051690638 0.031061923
0.07966191 0.036796838 0.14698508
-0.052388832 -0.14531729 -0.16029876
-0.005512074 0.094466135 0.15660268
-0.02957016 0.17044066 0.11875944
0.02517635 -0.18284763 -0.08617064
0.16036348 0.16600573 0.031697948
0.20596819 -0.20953761 -0.022512076
0.076191545 0.17239025 0.17600116
-0.28811568 -0.013319017 -0.016561791
0.1527397 -0.059754744 0.05972215
-0.2679942 0.13158073 -0.058572896
0.16328111 -0.1205709 0.05891019
-0.050702598 -0.2787049 -0.16538742
-0.13903001 0.10745854 0.11220786
-0.08966708 -0.14307007 -0.13229495
0.17402577 -0.27136847 -0.11147662
-0.15947342 -0.097571544 -0.10732341
0.11539614 0.2841434 0.028275043
-0.0782247 -0.16366082 -0.13568136
-0.29671365 -0.03437761 -0.034883644
0.009453941 0.10557912 0.19154076
-0.24896033 0.1832862 -0.14284235
-0.17621996 -0.08646754 -0.049755856
0.030012112 0.18364298 0.096971236
-0.08109472 0.19938977 0.11130088
0.097113825 0.24060702 0.081284665
-0.09873354 0.12447887 0.16965285
0.11148045 -0.18271787 -0.06891279
0.03336106 0.21830164 0.13897376
-0.19424477 0.0899786 0.088785954
0.040378213 0.17742239 0.10030044
-0.2358911 -0.15282564 -0.09532023
0.0014293656 0.16192931 0.16013025
0.0402071 -0.08935391 -0.1884256
0.18083347 -0.21932948 -0.075095184
-0.22398776 0.1456955 -0.12662666
0.1286147 -0.27543095 -0.07338853
-0.07868127 -0.1267275 -0.16185056
-0.059098054 0.25555852 0.04775272
-0.15182737 0.15351279 0.047092106
0.1351895 -0.113752805 -0.059711974
0.11139157 -0.06593065 -0.16025226
-0.049922656 0.08676195 0.10841298
-0.061087776 0.22254099 0.03422073
-0.18457457 -0.03918275 -0.025590343
0.034160953 -0.31345809 -0.1566285
0.06845157 -0.19965655 -0.056826927
-0.055597376 -0.23981957 -0.14483003
-0.052544776 -0.23412623 -0.15275817
-0.25064346 -0.15691131 -0.13552919
0.16904446 0.08175753 0.1675591
0.23790193 0.1434728 0.036222685
0.03351941 -0.2234568 -0.11741017
0.16988237 0.055017885 0.14951074
0.14548105 -0.11113162 0.033612218
0.23185888 -0.21339466 -0.0458669
-0.14820553 0.018169513 0.04780181
-0.05932968 0.12014017 0.18403628
0.07285437 -0.18642356 -0.049709033
0.15829475 -0.29792443 -0.110083655
0.039247554 0.29214224 -0.030023532
-0.14261456 -0.2194704 -0.15166204
-0.19256163 -0.011743873 0.009857077
-0.13864294 0.27019772 -0.037923906
-0.11689861 0.22462946 0.023022981
0.21484582 0.04355132 0.047924865
0.1265347 0.108367726 0.13436307
0.016551917 -0.28316486 -0.1760036
0.24880949 0.0037018447 0.07882722
-0.17873883 0.19989634 0.06356549
-0.23615356 -0.063129894 -0.02938543
0.0670898 0.094695695 0.14966416
-0.111026846 -0.18484668 -0.0999466
0.04509939 -0.19179048 -0.13926063
-0.15882558 -0.24895687 -0.14547932
0.21445869 -0.119041786 0.058077656
0.18961598 0.0774261 0.048811484
0.10397044 0.12572499 0.1816535
-0.19031362 -0.15119106 -0.10737643
-0.20803098 0.21783392 -0.117580615
-0.068636075 0.23944037 0.034981996
-0.10035563 0.17699362 0.14565727
-0.20936155 0.07269645 0.066443115
0.15165396 0.060462076 0.1769232
0.100764714 0.106039025 0.16417208
-0.011906987 -0.27252662 -0.14084706
-0.041341938 0.20937936 0.09207855
0.097888485 0.14094867 0.1493596
0.32656798 -0.00072976877 -0.052185804
-0.14989562 0.083056666 0.1194369
-0.13536422 0.12120758 0.15227933
-0.16778517 -0.17887664 -0.103206046
-0.12503669 0.10377751 0.10202234
-0.15033892 -0.23810278 -0.18785828
-0.11369458 -0.10175234 -0.15017714
-0.30598485 -0.037775617 -0.14349298
-0.19628704 -0.11612761 -0.10151883
-0.11813842 -0.18958218 -0.1287241
0.11491114 -0.016206982 0.09915032
0.088288605 0.0096850805 0.10475309
0.012926127 0.19114828 0.15181951
0.1096335 0.046960514 0.12283427
0.029193008 -0.1613451 -0.08490274
0.16782685 -0.1785281 0.0071097435
0.16634955 0.08657719 0.1310483
0.18766561 0.16264829 0.018439775
0.12460539 -0.28173944 -0.1259627
0.20788264 -0.22843222 -0.013657137
-0.068414986 -0.31264997 -0.18744132
0.04422314 -0.13119195 -0.17261416
-0.12232153 -0.21974857 -0.1488917
-0.09454937 0.06026625 0.11953026
0.0775603 -0.27886626 -0.09841168
-0.056300834 -0.13738276 -0.20576178
-0.20693737 0.26612666 -0.047121555
0.16649514 0.13053375 0.03595686
-0.30321056 -0.03713038 -0.078046866
-0.021645704 -0.27269128 -0.12874743
-0.059979666 0.13140213 0.13989633
0.04127943 0.15797551 0.14380276
0.097006045 0.016236724 0.14696737
-0.029390346 -0.17957991 -0.14077847
-0.29512945 0.060919195 -0.054060526
-0.20066476 0.1450592 0.063297324
0.23357542 0.1845618 -0.0175734
0.06087149 0.007847132 0.092634365
0.22852482 -0.14932026 -0.19871469
0.008799531 0.09038077 0.16781442
0.043666713 -0.25267076 -0.14199547
0.1369288 0.026465332 0.13044184
-0.20159341 0.18655719 0.061126567
-0.05102293 0.09248881 0.15038563
-0.20607255 -0.16503768 -0.10038276
0.13377553 0.13716887 0.09954735
-0.23789647 0.067010194 0.09001657
0.052521035 -0.14406312 -0.13157168
-0.3274807 -0.086309515 -0.14610057
0.00953493 -0.15821277 -0.15867381
-0.13133141 -0.23647706 -0.14776945
0.047686607 0.14182197 0.19617859
-0.15785503 -0.023783598 -0.0054855314
0.15776302 -0.062876895 0.12259941
-0.12761228 0.06492826 0.083725885
0.045967337 0.20758928 0.10872233
0.040186737 0.101576015 0.18271326
0.019026624 0.12363412 0.16667649
0.2086874 -0.08939554 0.05299859
-0.04171199 0.1760344 0.13470586
0.11442394 -0.18743917 -0.026895458
-0.24449849 -0.19867423 -0.16758269
-0.04431837 0.05538933 0.14380608
-0.26458558 0.14471841 -0.17661208
-0.24531226 0.077150606 0.0918607
-0.15824108 0.17378601 0.062183242
0.14433207 -0.044042107 0.06903312
0.18226907 -0.025187356 0.14580785
-0.010372116 -0.14451334 -0.1773605
0.027720034 0.19201042 0.11581013
0.19675417 -0.22370239 -0.040944736
-0.017791925 -0.13661471 -0.15774709
0.15579367 0.19862434 0.06276327
0.1368301 0.23043759 -0.016266879
-0.24992739 0.112842955 -0.06062588
-0.17317863 -0.071786724 -0.083529316
-0.25215784 -0.09623371 -0.07041645
-0.24453965 -0.1263465 -0.10602799
0.12033205 -0.20427348 -0.067193165
-0.26322392 0.031219093 0.020241976
-0.18700074 0.08459114 0.11532852
0.003001397 0.17251682 0.16506992
0.20982881 -0.021937534 0.09838569
-0.14631778 -0.191005 -0.09232127
-0.27342147 -0.09462352 -0.06454467
0.24301973 -0.20613341 -0.16384424
0.17356215 0.21718419 -0.017614836
0.14576223 0.24175543 0.047958355
0.12312651 -0.27473864 -0.108724944
-0.114605576 -0.182408 -0.12701486
-0.17281167 0.0030281323 -0.06503384
0.14986405 -0.04482576 0.07521435
-0.17606689 -0.015645223 0.026327157
-0.104295984 -0.23635 -0.12183276
0.11836124 0.14366242 0.13560508
-0.19936481 0.18490426 0.060132276
-0.2398839 -0.06941837 -0.06896825
0.06680318 -0.089487866 -0.20453414
-0.0281098 -0.24950646 -0.15606771
0.04519019 0.19903609 0.087865256
0.16498208 -0.05570735 0.08235089
0.30152872 0.013991166 0.0014554557
0.06264875 -0.17721653 -0.12500627
0.17399716 -0.2986371 -0.1107775
-0.24969679 0.12431423 -0.02732695
-0.09115245 0.21276519 0.0489882
-0.08154109 0.10149814 0.14619094
-0.21164812 0.17348635 -0.11207929
-0.011110488 0.23345639 0.03894625
0.29260436 -0.04789114 -0.13024263
0.20408846 -0.22824685 -0.06708791
-0.17477295 -0.03290173 -0.08805166
-0.051322725 0.020388108 0.0839007
0.26067656 0.15070921 -0.06290414
-0.04220087 0.25713393 0.018775016
-0.008747635 0.24099752 0.023571799
0.13234648 0.10852131 0.10805862
-0.13704939 0.015096497 0.021066401
-0.07136528 -0.082365796 -0.21956016
0.12250331 -0.12907709 -0.06930502
0.32424784 0.054778446 -0.0952998
-0.14455602 0.0050468957 -0.016817559
-0.16619414 0.16633293 0.04779642
-0.27534714 -0.0044125016 -0.01427459
0.20185159 0.06961336 0.07232507
0.09617687 0.29147688 0.040648054
0.15535083 -0.12353712 0.01337973
-0.19865187 -0.023951702 -0.007217468
-0.005124568 -0.2797661 -0.15868416
0.0987124 0.26102263 0.067156054
0.13967629 0.2144252 0.09346069
0.022555705 0.25277063 0.0460919
0.22624 -0.17062047 -0.013403616
-0.16242291 -0.2657393 -0.17422988
-0.019628009 0.19702186 0.10776447
0.009911496 0.12127847 0.15502073
0.052627437 0.1555705 0.12468622
0.04022753 0.16001998 0.15857333
0.23053998 0.12546748 0.013770761
0.09952421 -0.027319398 0.09085074
-0.15800078 0.060611494 0.11566115
-0.24077103 -0.064874746 -0.034942683
0.090384685 -0.24864185 -0.090976655
0.08096043 0.10839004 0.1875116
-0.1294159 0.06192348 0.07409114
0.14865139 -0.1539888 -0.0055514732
0.11333111 0.030867744 0.12260697
-0.0068519944 -0.15800506 -0.21535665
-0.31549203 0.013075974 -0.053230677
0.010084234 0.2443366 0.04141647
0.17642944 0.049769603 0.11715953
0.098686546 0.08629514 0.14068606
-0.000998386 0.09878932 0.16145507
0.25391588 -0.0868079 0.033513144
0.109939486 -0.2630839 -0.085275404
-0.15900034 0.10531003 0.12769818
0.23088117 0.05672962 0.036844146
0.2824025 -0.06657877 -0.09909863
0.09013772 0.2320243 0.113316685
0.30234882 0.094228245 -0.08345611
0.2467651 0.014711108 0.053244635
0.13931125 -0.11589191 -0.005151431
-0.056042474 0.20455441 0.030502472
-0.06799683 -0.18115135 -0.16653201
0.103115335 0.21634682 0.09322091
0.15538284 -0.18903962 -0.050049905
-0.22796737 0.16161965 0.05638183
-0.24711777 -0.037359405 -0.021699617
0.16402619 0.11764567 0.13391368
-0.32414728 -0.014065144 -0.09796565
-0.2740195 0.09331887 0.08667772
-0.29744068 -0.11997353 -0.14606644
0.14260027 0.08442425 0.13621488
0.19193378 -0.19458659 -0.0063016284
-0.24407035 0.12109557 0.08467028
0.08673863 -0.24751143 -0.05640765
0.12975666 0.25428566 0.06828352
0.25553688 -0.11607018 -0.08712319
-0.020888863 -0.17238782 -0.13684519
0.14360043 -0.25807196 -0.07689111
0.24183762 0.09663813 -0.042476557
0.18833992 0.069556236 0.07038542
0.19919258 0.01987423 0.10257841
-0.059581295 -0.1060888 -0.195517
-0.09650954 0.13360815 0.17354484
-0.14951189 -0.13573535 -0.07108124
-0.1658226 0.1378839 0.09931885
-0.025173217 -0.19896092 -0.13116367
0.013420581 -0.30126294 -0.13244542
-0.1534734 0.08324672 0.1311582
-0.122476414 0.14300103 0.15617085
0.14125352 0.06759563 0.15942396
-0.18213737 -0.21511725 -0.13005714
-0.05300881 -0.13463993 -0.15540929
0.14845145 -0.10425106 -0.036416315
-0.20160857 0.18256739 0.011021109
0.07359882 0.22069262 0.10518375
-0.20629756 0.11236587 0.09387268
-0.04106223 0.1285538 0.14120433
0.09583342 0.20380329 0.15066877
-0.09747111 -0.21078709 -0.17076671
0.08201361 -0.29127318 -0.13108923
-0.27421337 -0.028763235 -0.026262695
-0.20495614 -0.07971913 -0.07939543
-0.034318253 0.060071487 0.11968872
-0.18053885 0.043806203 0.07969642
0.17683177 0.20995556 -0.0025748522
-0.18830307 -0.20305532 -0.13684934
0.13904208 -0.1369251 -0.15018901
-0.24469374 0.07261372 0.051827833
-0.19410977 0.16787216 0.07707698
-0.013805884 0.23956874 0.050588664
-0.102761686 -0.16973785 -0.12730075
-0.09063919 0.062382434 0.10631109
0.16060424 -0.24570507 -0.08205558
-0.15910661 -0.021815412 -0.050566643
0.0073386612 0.13877709 0.15353306
-0.24937674 0.095256984 -0.029020118
-0.17992379 -0.18972087 -0.11713717
0.2646922 0.06608498 -0.0017491224
0.047789752 0.2974844 0.023219524
0.28602055 -0.01567202 0.037322775
0.04445879 0.10204968 0.1652966
0.029686444 0.17765845 0.11998189
-0.1659187 0.004478744 0.030042663
0.0074087935 0.10579766 0.1955187
0.110588476 0.116760865 0.13574207
0.099443085 -0.25222406 -0.07379743
-0.15635642 0.22401586 0.035871606
-0.22510126 -0.19757275 -0.13162287
-0.07709803 0.15906972 0.1378133
-0.1794689 0.045140807 0.036332484
-0.24111477 0.036852706 0.052073397
-0.16681974 0.037141807 0.046441708
-0.0065941177 0.2312408 0.088122874
-0.3217429 -0.071071856 -0.121997796
0.09125687 -0.014891302 0.012503257
-0.039567266 0.19131996 0.09169439
0.24936582 -0.21440539 -0.22983144
0.05307136 -0.26888347 -0.11400386
0.16475862 -0.14711815 0.009758667
-0.12890038 -0.10641737 -0.069203384
-0.024261564 0.11559013 0.15827656
0.11904827 -0.26502153 -0.13416453
-0.13114184 0.2541138 -0.008216044
-0.058308825 0.086989105 0.10103624
-0.010186785 0.062026385 0.10818882
-0.1884994 -0.063875295 -0.014528655
0.31043413 0.08252254 -0.051380932
-0.10590343 0.04258306 0.05216787
0.08988453 -0.1592233 -0.07983551
-0.08029147 -0.27418667 -0.14635906
-0.01675865 -0.06893802 -0.23946035
0.19609997 -0.051412866 0.080919646
-0.17205486 -0.0069552567 -0.004394949
0.20740616 0.11282205 0.039025776
0.27992186 -0.10098575 -0.21068998
0.21282664 -0.12520686 0.064603426
0.084727846 -0.012924176 0.017865945
0.06192501 -0.20637393 -0.062267095
0.21862744 -0.23342946 -0.07346112
-4.6053385e-05 0.11679453 0.17541553
-0.16412175 0.00057665934 -0.010375177
-0.2855394 -0.017470973 0.019459015
-0.21506861 0.080363035 0.0928395
0.11707897 -0.29618317 -0.10275642
0.07975146 0.06515096 0.16248482
-0.23936121 0.17631514 -0.13720734
0.24123192 -0.09347889 0.0429984
0.21158084 -0.26413804 -0.16324109
-0.31112194 -0.058589224 -0.038333543
0.21532944 0.14568973 -0.0022747638
0.10906844 -0.22341429 -0.06331115
0.03636606 -0.2656964 -0.10568005
0.01963639 -0.16190808 -0.1731085
-0.17157833 0.020288037 0.032160338
-0.22946933 0.18812646 -0.174993
-0.16872013 -0.103610374 -0.09135432
-0.2062891 0.06430091 0.030966526
0.10634135 0.15369423 0.17928478
0.15343097 -0.10204625 0.032471523
-0.25252905 -0.14331354 -0.113093704
-0.11287015 0.14069638 0.15596648
-0.056418262 -0.051094376 -0.22686493
-0.19986226 0.10604463 0.086289525
-0.16308847 -0.14067875 -0.11043269
-0.15704522 0.08313932 0.07900164
0.09862503 0.016607102 0.11110514
0.19959067 0.17900725 -0.011443907
-0.07241011 0.18592878 0.1336818
-0.054814827 -0.21828997 -0.12614359
-0.07442878 -0.22818027 -0.17873272
0.27263248 0.075601056 0.010558476
-0.09090085 0.21729553 0.055643804
-0.013732594 -0.30875 -0.18812914
-0.32437825 -0.034054052 -0.0963994
0.16479309 0.1678499 0.04827185
0.16418967 -0.08649781 0.028143644
0.057604164 0.12931073 0.18217672
-0.15143538 0.29406247 -0.056121536
-0.22074583 -0.020689 -0.027359506
-0.2867391 0.036612857 -0.21554068
-0.1386097 0.14601333 0.09533698
-4.815601e-05 -0.22092389 -0.097040996
0.12653786 -0.10021374 0.038543377
0.25651452 0.014439543 0.05542425
0.09380295 -0.17545556 -0.015188177
-0.033476487 0.17335258 0.10257637
0.30845505 0.020790918 -0.030981226
-0.15454371 0.07256134 0.09856013
-0.24438797 -0.1686418 -0.11836268
0.114418425 -0.18318914 -0.05420551
-0.2826755 0.020724174 -0.14370005
-0.022982102 0.024410563 0.1085639
-0.100589916 0.12456678 0.12377688
0.11698596 -0.10519708 -0.068549804
0.1362595 -0.19303583 -0.03823522
-0.07201192 0.056080118 0.13015655
-0.13770494 -0.0010393307 -0.13455781
0.21741642 0.17379077 -0.0062006717
0.35303032 0.05147522 -0.09112685
-0.22872831 -0.05754443 -0.022428587
0.11192124 -0.22967763 -0.112718955
-0.14873931 -0.18662752 -0.11562449
0.07678299 0.14749455 0.1756394
-0.06548469 -0.2087125 -0.1288959
0.2277176 0.16202028 -0.04121292
0.26608464 0.1263492 -0.0005393117
0.09850301 -0.10000827 -0.1410606
0.06514718 0.03180212 0.12371287
0.012599953 0.17476428 0.13735405
-0.19177453 -0.13423543 -0.068628274
0.27884033 0.021595368 0.05300334
-0.25507933 0.08585002 -0.11739928
-0.05004127 0.054948118 0.06780139
-0.13127166 0.07346444 0.10909524
0.14876384 -0.21060671 -0.05334335
-0.06429851 0.06613668 0.14721446
0.11850584 -0.04804257 0.09128186
-0.13156435 -0.11549448 -0.12175996
-0.22014906 0.1321088 0.075724654
-0.29025885 0.04526488 -0.13634673
0.12344791 0.20562479 0.10022631
0.14355311 0.24728613 0.026097246
-0.051919222 -0.27537224 -0.18605687
-0.032661457 0.1740013 0.15057768
0.25232115 -0.13008536 -0.16701938
-0.17592593 0.12015586 0.0864904
-0.09323299 0.120135486 0.14984842
0.3152613 0.086015366 -0.048353814
-0.25086704 0.124978416 0.06290113
0.18600306 -0.013583397 0.1188629
-0.103460744 0.037389014 0.017437907
-0.06350958 0.24995156 0.029163806
0.22914125 -0.16114023 -0.0118530905
0.055423174 -0.15536292 -0.07920664
-0.063384555 -0.23926279 -0.17665802
0.16488776 -0.062083352 0.09107397
-0.08987402 0.028949453 0.110497795
0.081912145 0.13844144 0.2043952
0.034918573 0.0321495 0.10489299
-0.13332166 -0.05159776 -0.16220845
0.23375264 -0.16081175 0.019671485
-0.041411873 0.15010941 0.17669205
0.21719141 0.07268745 0.06430439
-0.0039053624 -0.17679091 -0.16934587
0.08982922 0.17760237 0.16289334
0.0004812909 0.11786483 0.15342163
-0.25187975 -0.009766964 0.0055110836
0.32655945 0.09089374 -0.062102646
-0.25093573 -0.09498798 -0.05646909
0.21228938 -0.066466495 0.12377744
-0.12583753 -0.13406184 -0.10705042
-0.057131007 -0.23553273 -0.11647319
-0.15987428 0.084182575 0.10477988
0.23731561 0.102383815 0.013728961
-0.18488942 0.047761157 0.07966561
0.016626714 -0.23039465 -0.118118025
-0.17703919 -0.23286186 -0.18054098
0.12234789 -0.26777586 -0.08497605
-0.10877588 -0.1285091 -0.14521219
-0.17713572 -0.22369356 -0.1586743
0.31582245 0.026796587 -0.058522966
-0.056777187 0.23248886 0.04771158
-0.1478809 0.19092295 0.0713556
0.13711165 -0.230786 -0.10125859
-0.21948683 0.18130398 0.049179967
0.059361123 0.010497051 0.13133025
-0.24006845 0.1430989 0.05931993
0.21472982 -0.2628247 -0.09486544
0.13608393 0.21993424 0.07093174
-0.17286846 0.10899783 0.1335494
0.20463613 0.09573499 0.07988875
-0.004187491 -0.22193986 -0.11160963
0.037238136 0.068658866 0.16521595
0.22773303 -0.18000302 -0.016094033
-0.26828727 -0.0019196362 0.019610753
0.108168356 0.09862428 0.19303209
0.1326174 -0.040589172 -0.1468782
-0.15957764 0.07976282 0.12392324
-0.20304707 0.034845486 0.063937634
0.023682896 -0.14654712 -0.13906872
0.0853479 0.069366865 0.16179195
-0.27315304 0.10090267 -0.12723659
-0.17663959 -0.09060634 -0.06485464
-0.03532787 -0.19570144 -0.096486
-0.21646509 -0.15123291 -0.073823996
0.012539747 0.22744548 0.049279943
0.09195383 0.2465168 0.10301834
-0.24058594 -0.03830048 -0.011126752
0.040027957 0.025642302 0.044168554
-0.043536056 -0.16414574 -0.15269677
0.13180575 -0.0920865 -0.09397172
0.2837729 0.029066171 0.018734438
-0.2989503 -0.041327074 -0.039964493
0.2843868 0.07140877 0.011641805
0.104325615 0.058282487 0.13564345
-0.25184545 -0.006588774 0.02512416
0.17873247 -0.24311939 -0.041535392
-0.24050498 0.037361316 0.05134568
0.10859868 0.1885158 0.11691283
-0.13152066 -0.2860564 -0.20110351
0.18938315 -0.24367426 -0.063225366
-0.22984606 -0.18069147 -0.13879439
-0.06703911 -0.058702856 -0.24723515
0.102499194 0.119821 0.16014212
-0.13144642 -0.060178693 -0.08912492
-0.16020569 -0.00639371 -0.0068505597
-0.014142835 0.056418344 0.07657103
0.22568142 -0.1002396 0.05735233
0.09306553 0.016145337 0.15105774
0.061571658 0.16894026 0.16912538
0.006333868 0.06917452 0.034853894
-0.11007046 0.057520635 0.08923521
-0.04609647 0.2070312 0.123538055
0.17821893 -0.26683488 -0.112496935
0.039499827 0.062053934 0.12331297
-0.23770589 0.11912469 -0.0324916
0.012745562 -0.2838912 -0.13533461
0.08963663 -0.25191197 -0.10413899
-0.046788786 -0.08905591 -0.20772223
0.021311663 0.14996813 0.19599997
0.20421971 0.08319056 0.06445853
-0.3386311 -0.055486117 -0.053381223
-0.3432702 -0.09140355 -0.08225382
0.05139444 -0.0041355854 0.10151293
0.26514164 0.11156371 -0.042124808
0.01938637 0.23515682 0.06283889
-0.31617665 -0.109133676 -0.14023374
-0.17438003 0.06612751 0.12559386
0.21504328 0.035826996 0.10763403
0.19827834 -0.1478692 -0.01995016
-0.11137764 0.21937332 0.025539052
0.25152573 -0.0077172653 0.0859508
-0.26820263 0.06898086 -0.274036
0.25299054 -0.067226626 0.0839563
0.24330024 -0.16201343 0.001839846
-0.17644122 -0.12154909 -0.08274924
0.28433445 0.070228346 -0.02835051
0.28035092 -0.026190346 0.034008835
0.27408245 0.10735246 -0.046491202
0.04034323 -0.007440497 0.105561584
-0.032101147 0.19266835 0.08522859
-0.13601722 0.1270869 0.11944134
0.043801557 0.033586897 0.12715732
-0.2202765 -0.028028429 -0.026496558
-0.050857697 -0.20525725 -0.10499243
-0.032131407 0.28494695 -0.0091234185
-0.0045744875 0.21853217 0.04768659
-0.11683563 -0.28943032 -0.16595529
0.20227335 -0.11631411 0.03480673
0.2562004 -0.12680778 -0.10106247
-0.033420753 -0.23645501 -0.13014679
0.17456746 -0.24166821 -0.09981216
-0.09554293 0.035067797 0.0092085935
-0.09399863 -0.23072663 -0.1093523
-0.059582826 0.17628387 0.13239054
-0.20392802 0.21570589 -0.050501913
0.03855191 0.11301235 0.19767179
-0.01925076 0.06663518 0.053157967
0.17870238 -0.043809276 0.09484411
-0.017627738 0.20147882 0.073263295
0.15098895 0.14859226 0.08944281
-0.21752205 0.02440956 0.08274798
0.20291562 -0.25639364 -0.13588797
-0.11566826 0.04449384 0.036083028
0.045261372 -0.08936288 -0.16540381
-0.077915214 0.029596414 0.049511928
0.011451395 -0.09610115 -0.1929259
-0.13372013 0.028130332 0.026384588
-0.087819815 -0.17616725 -0.095617846
0.25884068 -0.054954767 -0.069364816
0.04756019 0.27720279 0.032006852
0.12159338 -0.062496085 0.050022624
-0.15957686 0.029948745 0.0754597
-0.12350126 0.23146184 0.013373342
-0.045124926 0.23648538 -0.013944951
-0.1560955 -0.05083228 -0.12456276
-0.046428606 -0.3078205 -0.20217879
0.16664945 0.16792627 0.06512349
-0.03222651 0.115883864 0.14601621
-0.30375782 -0.08039862 -0.0969782
0.15594135 -0.19717617 -0.00673797
-0.23677027 0.1274519 0.09356921
0.18547076 -0.043416146 0.095972076
0.16904187 0.07518592 0.12610178
0.116820395 -0.050528735 0.067657664
0.067580014 -0.1821229 -0.060582884
0.2223414 -0.14445491 0.005628326
-0.21057805 -0.15630506 -0.10245328
-0.024546798 -0.09894663 -0.18938053
0.22790109 -0.15306984 -0.00024379841
-0.093887754 -0.2939682 -0.17876923
-0.1213273 -0.21544488 -0.11940062
-0.14220858 0.072160386 0.10093184
0.13889039 0.2123362 0.019738322
0.23070392 -0.13248514 0.027281938
-0.003716845 0.1272596 0.1539297
0.14421055 0.06906102 0.16196786
-0.3099702 0.029290222 -0.1697152
-0.2832656 -0.064167574 -0.07445718
-0.21502331 -0.04650388 0.0023567223
0.23207007 -0.061234806 0.10690934
-0.30384955 -0.005943573 0.006897437
0.19391295 0.11240046 0.03244268
-0.13326567 -0.17961167 -0.09588762
-0.068626314 -0.16559574 -0.10950993
0.08108618 0.07727567 0.17688794
-0.14063822 0.10768226 0.10310788
0.12174285 -0.097174436 -0.14361146
0.08906558 0.02957993 0.10949119
0.13110618 0.10693643 0.17254733
-0.16091587 -0.05731641 -0.059493992
-0.16365857 0.22084887 -0.0377551
0.17364782 -0.037634764 0.060697764
0.13746475 -0.059400626 0.06420688
-0.27994245 0.07175223 -0.12994495
0.16347569 -0.1076496 -0.08897667
0.13844036 0.21760575 0.04021951
0.1577651 -0.12744251 0.008809649
0.2566306 -0.13162106 0.066993356
0.1822488 0.12732328 0.110216565
0.10172902 0.13819683 0.12822108
0.27766028 0.054600213 0.029378079
0.056661844 0.19842382 0.09823746
0.035360634 -0.16198397 -0.09319253
0.05327792 0.21737795 0.10536779
0.09259456 -0.042351436 -0.24409145
-0.085397296 0.11926266 0.15349498
0.30076355 -0.0420992 0.04629115
0.2964402 -0.025488818 0.06059276
-0.04053123 0.08212325 0.14651959
-0.014324975 0.27714244 -0.015554501
-0.052417543 -0.26263687 -0.15799917
-0.2448279 0.13773352 0.01967938
0.02004606 -0.20375569 -0.08582014
-0.12946808 0.14048426 0.12095306
0.2013532 0.100321844 0.017615553
-0.25045884 -0.14416324 -0.12636276
0.122249626 0.09001221 0.18767247
0.120744236 0.14764693 0.096709885
0.11930097 0.24579991 0.08183968
-0.18231943 0.23506702 0.015532662
0.1325728 0.12151695 0.16348222
-0.16496658 -0.0448763 -0.061621614
-0.18146855 -0.2570064 -0.16678485
0.1391353 -0.23409039 -0.07687099
-0.03778938 -0.1889463 -0.14800657
-0.03582173 0.12946351 0.17486091
-0.2458094 -0.014953251 0.016214449
-0.10790044 0.07121303 -0.16588046
0.30016336 0.09134638 -0.06069398
0.08615719 -0.04849381 -0.26558205
0.24037659 0.060487393 0.037483774
-0.010164988 0.15220182 0.14326046
0.04870815 -0.23541322 -0.1154888
-0.09669967 -0.17747706 -0.13681714
0.24019563 0.14393517 -0.012291818
-0.28142074 -0.07714061 -0.08147724
-0.22049648 -0.043488912 -0.020857416
0.10838687 0.27190292 0.04717917
0.20635547 -0.23829801 -0.04373142
-0.08869964 0.14239481 0.11822805
0.08104571 -0.13249832 -0.084015585
0.17499284 0.08093188 0.119856365
-0.09126171 0.1303276 0.16521716
0.15211897 0.08429199 0.17898187
0.2416213 0.062390827 0.09253455
-0.09211227 -0.12929824 -0.18517059
0.1402253 0.25432697 0.05790404
0.23320118 0.10176563 0.015946254
0.23664054 -0.15933841 0.021257486
0.14661583 -0.030079918 0.11526434
0.20945962 -0.128987 0.019938499
-0.21886323 0.06252405 0.036645383
0.24353844 -0.09528904 0.025794923
0.1502186 -0.10628545 -0.11815974
0.18330304 -0.10478017 0.03588258
0.16536085 -0.11611533 0.029860463
0.1046346 0.26894423 0.017123403
-0.0039163125 -0.15597042 -0.16143593
0.1222946 -0.07553645 -0.04482432
-0.24241966 0.092003435 0.09509264
0.22614673 0.12076014 0.017535886
-0.22917163 0.1510297 0.04258722
0.014629414 0.06543716 0.085154615
-0.3048572 -0.046724144 -0.15749213
0.13020101 -0.18957378 -0.009251103
-0.08786124 -0.2824062 -0.24421501
0.037292324 0.04606486 0.06932258
0.04547706 -0.20369458 -0.10249051
-0.01642231 0.05212316 0.15372922
-0.0039096815 -0.16571876 -0.13888036
0.0737308 -0.099015705 -0.21412379
0.29194236 -0.025347821 0.0337331
-0.12925501 0.21830365 0.010725068
0.20297492 0.09262672 0.0354754
0.21259224 0.1631942 0.05094707
0.12966982 0.11585111 0.10810111
-0.010901839 0.025754364 0.09411159
-0.21395797 0.14110142 0.10547102
-0.20725271 -0.13231643 -0.09687615
-0.04537112 0.16800953 0.13743481
0.3061087 -0.02687458 0.020877961
-0.13249391 0.25027773 0.009251857
-0.104106076 0.044098202 0.12445256
0.26662847 -0.14392279 -0.26084572
0.2399816 0.052408714 0.052204426
0.3072802 -0.0428346 0.032964807
-0.053881664 -0.10304688 -0.20401664
0.0767591 0.081479095 0.1804201
-0.27820063 0.099511884 0.07795018
0.16986632 0.16892152 0.015027027
0.16539055 -0.2826341 -0.111020915
-0.25722167 0.10139248 -0.14755005
-0.016967304 0.099915504 0.14582382
-0.1453255 -0.123632014 -0.15284681
0.079940416 0.27500784 0.01122339
0.07247613 0.14353538 0.17647456
0.16038063 -0.2530271 -0.078603804
0.039053235 0.20178787 0.11642038
0.14443071 -0.10369695 0.044332203
-0.20992844 0.16732013 -0.00221701
0.19392306 -0.15216367 -0.00059200375
0.12762421 0.21159261 0.13304771
-0.23064113 -0.10530882 -0.04820702
-0.23053579 0.21394615 -0.12636788
-0.04054822 0.12825595 0.18825553
-0.12352465 0.043250103 0.08643066
0.28641644 0.036944885 0.009194293
-0.05680448 0.13948712 0.14758714
-0.29072043 -0.13988996 -0.13138096
-0.18539727 0.1469768 0.082959406
0.30641574 0.08407796 -0.01949915
0.27901787 -0.04605819 0.044977207
-0.19174524 -0.17280886 -0.14287835
-0.112580806 -0.19658133 -0.1452206
-0.010932637 -0.2920476 -0.14592865
0.08585347 0.08207195 0.14631881
0.040961605 0.2593298 0.0466341
0.21246116 -0.11671926 0.04977935
0.06008696 0.03727112 0.0536841
-0.30067703 -0.11729071 -0.13251302
-0.27290043 0.015797975 -0.08672141
0.016342683 -0.24459681 -0.12763546
0.19246468 -0.16537844 0.025655398
0.051522758 0.23725301 0.0389959
0.060239855 -0.28542772 -0.11385108
-0.02846835 0.2875875 0.0068131923
0.21009365 -0.070243955 0.122548275
-0.29217508 -0.13501836 -0.111042425
-0.052863825 -0.14848778 -0.14211719
-0.29242858 0.014158689 -0.053229634
-0.12874325 0.03018586 -0.19062099
-0.12730102 0.11160269 0.11970905
0.266153 -0.04589442 -0.21706775
0.10309432 0.19094221 0.12632187
0.05297111 0.1333468 0.19691534
0.2728018 -0.016776605 0.081579894
-0.21219574 0.06980737 0.06299966
0.31511033 0.076796465 -0.07671175
0.1804698 0.17046566 0.012347935
0.09940862 0.005536447 0.032042537
-0.16755742 0.03901764 0.046600074
-0.056337856 0.18675503 0.088057764
-0.2815849 -0.032794133 -0.16160545
0.030481717 0.19500029 0.066377014
0.051456563 0.153439 0.17447904
0.18437822 0.060611673 0.13487788
0.10964895 -0.25836253 -0.08124298
-0.026395828 -0.24692073 -0.12599838
-0.026056888 0.16460526 0.15033165
0.095115386 -0.16030864 -0.08322084
0.13110808 -0.20872255 -0.26168233
0.15244454 -0.23607922 -0.05094053
0.22733198 -0.03842282 0.12022706
0.08118849 0.19479431 0.12030722
-0.17792624 0.113945454 0.079706036
-0.009391002 -0.19910295 -0.12286006
0.21574241 -0.07409115 0.10856972
0.12832175 -0.10422966 -0.11606058
-0.25590488 -0.12935196 -0.11065896
-0.09199412 0.10321755 0.102711014
-0.2040055 -0.17346269 -0.1018301
0.15706553 -0.18370329 -0.025888711
-0.071921825 -0.17757502 -0.105506465
0.25777343 -0.05617658 0.080321856
0.05479544 0.03545387 0.09693331
-0.016948363 0.13192043 0.16927959
0.1418561 -0.18911129 -0.04873708
-0.117037356 -0.26564413 -0.1933702
0.08920091 -0.24236903 -0.097284324
-0.13285002 0.04784955 0.026148144
-0.2760806 0.05306988 0.0115502365
-0.08100837 0.12328975 0.136505
0.08329138 -0.19780028 -0.056546908
-0.09262212 0.12834834 0.11221123
-0.06579091 -0.13976946 -0.14649923
0.18475375 0.014537745 0.11684687
-0.26341742 0.097923726 0.043942902
0.12050928 0.25325656 0.054109387
0.21707168 -0.17331558 -0.29786614
-0.33243546 -0.07750124 -0.10146372
-0.15234433 0.030007487 0.080807514
-0.11212018 0.11015266 0.13116242
0.00029864933 0.2164642 0.03945045
0.21399632 0.1536766 0.01937696
0.17237131 0.07015146 0.14170672
0.015795486 -0.115161546 -0.19792229
-0.25281367 -0.12709707 -0.102583565
0.1402361 -0.2641413 -0.11925238
0.02058989 0.23192424 0.048371423
-0.040889934 0.11584322 0.16759278
0.2230377 -0.10617377 0.037181597
0.23948565 -0.19835082 -0.051022194
0.0026309604 -0.07930482 -0.24774714
0.090728424 -0.23812181 -0.05649316
-0.028613638 0.20044088 0.08695544
-0.09271718 0.17182286 0.1376932
0.02958801 0.27030787 0.026124693
-0.17188656 0.044752616 0.09884197
-0.120191544 -0.101442054 -0.13576247
0.049494244 0.07434448 0.13382713
0.056296304 -0.10425443 -0.21381219
0.13746078 -0.26595983 -0.11794848
0.07294752 -0.16861616 -0.07936031
-0.22004803 -0.20357667 -0.15610582
0.120106734 -0.1141311 -0.041378763
0.10966815 0.21087134 0.12877305
0.15178077 0.26460624 0.051476333
-0.23488301 -0.07047981 -0.06334614
0.17749912 -0.106584 0.037008278
-0.010063045 -0.16658694 -0.13321601
0.1321078 0.24152896 0.04886783
0.24007516 0.033594664 0.045323092
0.02843012 -0.22279659 -0.0965967
-0.24587385 -0.034332164 -0.03250881
-0.093874075 0.021546794 0.082721904
0.27144128 -0.050895773 0.06570858
-0.15403566 0.25585553 -0.059328664
-0.07242472 0.04206865 0.11567623
-0.13873743 0.07107004 0.13861194
-0.07263514 -0.27591994 -0.1659487
-0.07606239 0.12916951 0.12873816
-0.23215374 0.16641203 0.014271787
0.21066803 0.08300478 0.050545868
-0.16342215 0.22872783 -0.00052707456
0.09350121 -0.2897022 -0.10634758
0.25605434 -0.12724239 -0.13153256
-0.12724678 -0.015281985 -0.09608453
0.17843914 0.12234712 0.09663182
0.18647711 0.23861387 -0.018371543
0.092599094 -0.21518885 -0.07557048
0.24103928 -0.06038957 0.050555322
0.0028313291 0.060167313 0.14217873
0.09404631 -0.18968412 -0.056690972
0.2818389 -0.002133419 0.031367637
-0.27687502 0.06777429 -0.16816048
0.04226788 -0.17077741 -0.15236317
-0.16938095 -0.11347547 -0.07601293
-0.12984203 0.21262513 0.028913867
0.18450385 0.13229343 0.056341138
-0.06075443 0.19530635 0.09081388
0.028850028 0.15676643 0.18237226
-0.106487125 0.14639379 0.1058905
0.2028495 -0.039870586 0.08809781
-0.0067822165 -0.2104713 -0.12535569
0.15633695 -0.20028329 -0.043135777
-0.26368225 0.051193554 -0.21471472
-0.09039143 0.019212173 0.08207498
0.13832228 0.110452786 0.11704592
0.06617969 -0.16972478 -0.08568291
0.21299289 0.12150242 0.010621401
-0.102163434 0.17258304 0.10186513
-0.13139655 -0.20619641 -0.11874123
0.2393482 -0.033524264 0.053988792
0.20694521 0.05049912 0.13583401
0.12779495 -0.15576597 -0.015387736
-0.18129511 0.23288026 0.0077118776
0.077603504 0.03832695 0.1749815
-0.11687029 0.27247918 0.0082972525
-0.21714886 0.22179142 -0.009785249
0.15433994 0.26564178 0.05125817
0.11843687 -0.23058513 -0.10655015
0.028987829 -0.25318623 -0.12687688
0.121996954 0.2355336 0.03467812
0.22623228 0.080384985 0.05961821
-0.050906565 -0.23567595 -0.14499933
-0.26403013 -0.12332411 -0.079151034
-0.16288005 0.16462377 0.095182784
-0.24545798 -0.046822276 -0.028868383
-0.036184523 0.02202803 0.08727683
-0.10686993 0.29020917 -0.04813147
-0.18836258 -0.06503543 -0.068254195
0.08851547 0.2844277 0.05391823
0.06187417 -0.25504714 -0.14298342
0.024508221 0.16896649 0.1332601
-0.17569454 0.23885185 -0.021690067
-0.13148177 0.26518652 -0.036603946
-0.12146358 -0.27564728 -0.20197603
0.14530973 0.12545933 0.15470801
-0.22427489 -0.010891809 0.0007760602
0.02964923 -0.09956973 -0.22487982
0.100383595 0.096170865 0.15620302
-0.110998236 -0.22823076 -0.13458045
0.30556157 0.11738231 -0.035444163
0.07211597 0.22734275 0.07243355
0.2276691 -0.0495645 0.091967754
-0.23094007 0.05306081 0.06453124
-0.23703052 -0.11636067 -0.06743822
-0.020147488 0.08419424 0.117714465
-0.20006922 0.21284394 0.035485882
-0.247107 -0.13942587 -0.09446617
-0.27643844 0.049928065 0.03290271
0.21254061 0.084428094 0.07392437
0.17040113 0.22479339 -0.0076802885
0.10684309 -0.029525006 0.11097258
-0.115144335 0.030366916 0.08173597
-0.04199131 0.099748515 0.16286765
-0.05085892 0.058332436 0.13894717
-0.18945172 -0.03183595 0.02163598
0.12371522 -0.2443433 -0.11107208
0.03571932 0.2767762 0.010583907
-0.25693148 0.051793408 -0.14513272
0.062079705 0.050885256 0.16118445
-0.077899955 0.068117686 0.07132304
-0.16204534 -0.031242577 -0.0513738
0.0011689432 -0.24741317 -0.11139318
0.047826603 0.27900302 0.005265974
0.2757667 0.0961737 -0.017711535
-0.22887863 -0.16388221 -0.08108448
-0.05120677 -0.122430824 -0.20809919
-0.12640564 0.20859203 0.048025955
0.2639991 0.09816153 -0.0017064781
0.20440714 -0.17839845 -0.14838627
-0.023683393 0.26774037 -0.0033223336
-0.30161673 0.024869513 -0.12519076
-0.27955508 -0.051266395 -0.03622795
0.15295938 -0.15133876 0.010323961
0.10936621 -0.06432914 0.01330209
0.057811998 0.18526463 0.11692752
-0.07480618 0.17812975 0.10785565
0.25847602 -0.07835284 0.07789235
0.0055270432 -0.081341155 -0.24385963
0.011106177 0.10345426 0.14376806
-0.19814396 0.0012902585 0.02680806
-0.018611316 -0.29641208 -0.15991744
0.09392649 -0.27974176 -0.101687334
0.25163746 -0.19015929 -0.11681583
0.06989402 -0.13252135 -0.1636923
-0.1882084 -0.023493297 0.03927117
