# .PCD v0.7 - Point Cloud Data file format
VERSION 0.7
FIELDS x y z
SIZE 4 4 4
TYPE F F F
COUNT 1 1 1
WIDTH 1000
HEIGHT 1
VIEWPOINT 0 0 0 1 0 0 0
POINTS 1000
DATA ascii
0.070639625 0.24770178 0.003938744
0.0747806 -0.12899926 0.092448376
-0.2301725 0.008346189 -0.05628395
0.116700895 0.22287405 -0.078693874
0.20129517 0.11515994 0.09908271
0.055622987 -0.104861684 -0.04355042
-0.23999138 -0.007701392 -0.057889074
0.07377152 -0.13070922 0.118367724
0.22288732 -0.21224247 -0.02982467
0.1400075 -0.024662074 0.13385862
-0.22429469 -0.02088456 -0.04513523
0.2160953 -0.17921464 0.017062383
-0.15126419 -0.093618914 -0.03561539
0.26305136 -0.06574023 0.008371152
0.22656204 0.10325331 0.06772949
0.067935094 -0.10075873 0.10781298
-0.19712618 0.14734286 -0.06041689
0.038807657 -0.14235295 0.09047675
-0.026477229 -0.28854722 -0.046553984
0.09470513 0.092569485 0.06789324
-0.017415414 -0.20059964 0.08790241
0.2317434 -0.13644381 0.049243633
0.19885814 -0.26114592 -0.030144984
0.04797958 0.18882672 0.04962035
-0.13094571 0.18745883 -0.04157607
-0.0031906355 -0.28124702 -0.072843984
0.26346043 0.04256143 -0.025799561
0.019107366 -0.12696128 -0.007753912
0.11171727 -0.009854699 -0.0028852616
-0.12732106 -0.2609712 0.067180485
0.28149128 -0.02077701 -0.035324607
0.1191958 -0.049444057 0.13241711
0.0761175 -0.17395714 0.10670297
-0.16060753 0.12079416 -0.041119363
0.066915974 0.10440132 0.03313523
0.28122652 -0.052701265 -0.03113884
-0.17191239 -0.06111091 -0.048302192
-0.09554785 0.13516158 -0.03408359
0.1471556 -0.257035 -0.059026606
0.2046427 0.1191248 0.10382181
0.116984166 -0.13394026 0.1445381
-0.2094829 0.21265018 -0.0767792
0.1398347 0.14537711 0.06232103
-0.21712679 0.016762516 -0.027059322
0.092926055 -0.24969293 -0.045512177
0.08119867 -0.16048603 0.10075731
-0.11516574 -0.32283482 -0.078589365
0.059183102 0.09929566 0.029684456
0.07034054 0.14620318 0.0463319
0.260646 0.13390082 -0.07748782
0.17569397 -0.22343 0.054798085
-0.07941234 -0.16252016 0.074394226
0.2514927 0.07103004 0.07608026
-0.17274344 0.148905 -0.06259208
0.015337483 -0.2401765 0.031102117
0.06226375 -0.26383343 0.055332802
0.18404512 -0.15815917 0.0693403
0.18882349 -0.06606419 0.08485835
0.17236003 -0.01251317 0.1379885
0.08871044 0.10773594 0.055504236
0.03085642 -0.28551856 -0.09173107
0.27637812 -0.0882571 -0.060489632
0.21715616 -0.2292075 -0.03599626
-0.26195663 -0.110698596 -0.04831168
0.101666614 0.014832902 0.018362211
-0.19892207 -0.10830708 0.026028933
-0.1354887 -0.21304914 0.015728464
0.14348426 0.0643191 0.08856647
-0.28240538 -0.047762815 -0.057368115
-0.21217753 -0.17138784 0.025873479
0.13659616 -0.15045957 0.11266153
0.28807628 0.06609727 0.057452224
0.0038962371 0.1947516 -0.0032045105
0.17760228 -0.060312748 0.14686443
-0.049632497 -0.22637315 0.058630954
0.031907316 -0.2080354 0.08149303
-0.14667502 0.15795407 -0.052151438
0.19076625 -0.05923029 0.08207525
-0.29625463 -0.00490166 -0.06042519
0.08733546 -0.056563642 0.0709986
0.12879728 0.27076936 -0.07637949
0.23944652 -0.16555396 -0.073576115
0.055539638 -0.12665708 0.08669504
-0.28751346 0.029750988 -0.062059857
-0.024556074 0.294517 -0.03928708
0.095776305 0.012559807 0.02478701
0.19201471 -0.20241112 0.05582319
-0.17225881 -0.10816942 0.012131653
0.026863372 0.18249734 0.041171882
0.18811588 -0.19608164 0.06482739
-0.12453121 -0.020169657 -0.15835974
-0.21183993 0.21431524 -0.087533146
-0.28452733 -0.053099897 -0.039162587
0.16184284 0.2125734 0.017188786
-0.03568686 -0.20102906 0.098633625
-0.14605287 0.16701283 -0.042611834
-0.10985908 0.27174595 -0.059195787
0.06984956 0.27081773 0.019520285
0.27245456 -0.014311614 0.000119373064
0.2634744 0.05334646 -0.026824165
0.11251734 0.20613632 0.058754276
-0.059345115 0.17080691 -0.018117182
0.06363611 -0.06081458 0.073368326
0.27523705 0.061253067 0.057895437
-0.049621526 -0.30259046 -0.054380186
-0.038960733 -0.14439322 -0.04687269
0.04865501 -0.25496945 0.05449001
0.12838888 -0.2664237 -0.03306145
-0.18560918 0.15149938 -0.043913864
0.10107404 -0.13023372 0.104785904
0.17413853 -0.20319372 0.08309316
-0.19222312 0.010730681 -0.040655535
-0.1681078 0.20987561 -0.041355874
-0.2647786 0.12903683 -0.071381055
-0.07226927 -0.11115105 -0.08958166
-0.14149944 0.16323407 -0.038051367
0.07810237 0.24836475 -0.0019626347
0.1512023 0.053995978 0.08188842
0.017509999 0.2623741 -0.02192507
-0.29531953 -0.084811665 -0.08662734
-0.1982894 -0.14386952 0.004752346
0.31650683 0.044615474 -0.032363016
0.053442407 -0.20177199 0.10813508
-0.24411902 0.15754385 -0.24214002
-0.1272972 -0.26925635 0.014784441
-0.14961053 0.09413933 -0.061667487
-0.024372773 -0.27666077 0.032772865
0.056078587 0.1559485 0.018525848
0.19705471 -0.13882047 0.11316561
0.18981749 -0.16278896 0.05280703
-0.2353762 0.1668407 -0.107266724
0.24342124 0.11150249 0.07126199
0.25465134 -0.004380526 0.06651427
-0.16402285 0.029111415 -0.16987108
-0.08095445 0.1654146 -0.042590093
-0.045156337 -0.26994038 -0.04601712
0.029404191 -0.0913112 0.089753285
-0.18266563 -0.26828572 0.026606014
-0.24727279 0.025273245 -0.07312627
-0.3043455 0.035885513 -0.054289743
-0.23007889 -0.19979157 -0.058311094
-0.16042234 -0.062663354 -0.0503585
-0.20974389 -0.12413688 -0.026504505
0.20340475 -0.0801974 0.05167473
-0.16442193 0.044568487 -0.05180618
-0.24202462 -0.064278305 -0.032083705
0.2161131 0.13599499 0.10729232
-0.038425323 -0.29812136 -0.13450125
0.15640707 0.07209711 0.09004232
-0.02728076 -0.14393264 0.08482807
-0.17153084 0.24527833 -0.037253845
-0.01508517 0.18114907 0.007154183
-0.15513612 -0.19905002 0.022030724
0.058316536 -0.11973407 0.061934903
0.12353069 -0.21362172 0.11003153
-0.1563708 -0.11183553 -0.012322176
0.057211373 0.10245525 0.016966037
-0.12868352 -0.115940586 -0.014044897
0.16492243 -0.0752724 0.12660019
0.013184206 0.1384304 -0.0041744
0.017157994 0.28241822 0.005989663
-0.26201844 -0.10230189 -0.014714032
0.16408744 -0.18099241 0.04796924
0.1496928 0.20536193 0.04070347
0.18241404 0.11056775 0.11877867
-0.066675596 0.15066403 -0.07399183
-0.15982011 -0.2424546 0.019724872
-0.29921353 -0.075517505 -0.072876796
-0.14304395 -0.20887774 0.053744916
0.11145975 0.2567995 -0.10714488
-0.03686198 0.09825348 -0.15530218
0.15371971 -0.22665273 0.08273546
-0.10806655 0.16556792 -0.045798175
0.09257411 -0.22434771 0.028872013
0.25049278 -0.14500667 -0.034546923
-0.04180478 0.18964145 -0.0060585304
-0.20667475 0.20570841 -0.082497954
0.056693662 0.15638831 0.024957174
0.23517661 0.08523539 0.111850575
0.21265525 -0.24879467 -0.00286795
0.027123643 0.107518256 -0.17048092
0.09706601 -0.24350257 0.04988464
0.18561938 -0.20822181 0.09227037
-0.04812569 0.13611995 -0.07215814
-0.22128588 0.2113212 -0.145308
0.06669814 -0.102608316 0.10493973
0.2787465 -0.016918974 -0.017595878
0.14598702 0.24054293 -0.18718404
-0.15620364 -0.2155029 0.04810801
-0.023809582 0.2741193 -0.008312598
0.06670116 -0.19457379 0.088285625
-0.15988442 0.21880475 -0.029363658
-0.20217985 -0.09026435 -0.012042439
-0.15705515 0.06491016 -0.04237651
-0.21252151 -0.18108833 0.02276689
-0.027506698 -0.30803525 -0.09570405
-0.14751342 0.17858933 -0.017600384
0.090649895 -0.2705084 -0.07177802
-0.12435874 -0.1408068 0.017777415
0.06098847 -0.23990606 0.10990639
-0.19974451 0.21358952 -0.074574925
0.02985804 -0.23028484 0.095433585
0.12044673 -0.08248454 0.10999686
-0.20947246 0.1087665 -0.038818963
-0.1530311 -0.045874573 -0.040509474
-0.2518028 -0.076924086 -0.04013644
0.12959094 -0.025350966 0.08625269
0.2850331 0.012083474 -0.00034478752
-0.08819136 0.1316485 -0.04206661
-0.11771193 0.18310371 -0.0065394705
-0.25445795 0.10057678 -0.07454187
0.07993653 0.068479545 0.08391333
0.19503753 0.11885496 0.08312148
-0.051636778 0.29152027 -0.039364528
0.20651795 0.04079405 0.0826128
-0.039145675 -0.13217795 0.04672463
0.27575272 0.13061796 -0.106258966
0.012344576 0.19030279 0.008575487
-0.16716684 -0.0962467 -0.022615371
0.13099954 0.038778014 0.10844636
-0.074040845 0.29238722 -0.025948076
0.13255025 -0.053055968 0.09856519
0.0798529 0.019196406 0.052255288
0.001944777 -0.19927049 0.1091816
-0.062679455 -0.14429024 -0.0898148
0.10944083 0.27929273 -0.0146188345
0.15858707 -0.23812367 0.021510078
-0.06520921 -0.14210066 0.07740061
-0.2748279 -0.091707066 -0.10433343
0.0640746 0.23582058 0.05133766
0.12094125 0.25420782 -0.17055109
-0.22474375 -0.15480042 0.024340091
0.10767988 0.12386348 0.052575238
-0.2296719 0.013306495 -0.05739087
0.2598554 0.067916304 0.06925001
-0.14004795 -0.018143546 -0.14547151
-0.205103 0.14755344 -0.08143995
0.19707698 0.16182354 -0.032559272
0.15419377 -0.037733376 0.10689709
0.040757358 0.11443039 -0.10367624
-0.027922546 0.23000804 -0.010070847
0.05326869 -0.27356732 -0.1326079
0.14098728 0.09643909 0.09637663
-0.012971657 0.2317699 0.0027376362
0.09862092 -0.22059174 0.11535243
-0.10508946 -0.18540283 0.021458454
0.13507476 0.19964841 0.06460474
-0.15948181 -0.18791582 0.031780235
-0.3241871 -0.01881422 -0.06679903
-0.10644335 -0.3163457 -0.12203492
-0.18374798 -0.06134278 -0.045249123
-0.014782311 0.13059306 0.011520284
-0.10485648 -0.2320545 0.030457487
-0.0353761 0.29503933 0.00949584
-0.11507764 0.111180596 -0.14683066
0.2359273 -0.13368978 -0.025192622
-0.24338077 0.04815312 -0.0591218
0.1312713 0.06281919 0.11284088
-0.011665103 0.2985933 -0.031021195
0.1935337 0.11982889 0.10876939
-0.12626858 0.2062494 -0.058029395
-0.23620962 -0.05978542 -0.26097977
-0.15726265 0.052465305 -0.030516377
-0.12851147 0.24009615 -0.038022168
0.18871662 -0.22459367 0.036329195
0.019942367 -0.2102701 0.11346792
-0.087126724 0.2275802 -0.22862111
-0.15718682 0.25575268 -0.08935288
-0.15714774 -0.068897955 -0.03641275
-0.10560949 0.01784455 -0.17134784
0.27460322 0.032256093 -0.05556704
0.10773177 0.07463735 0.06330131
-0.22946407 0.054903474 -0.06205904
0.25064683 0.09437723 -0.054356534
0.2308118 -0.11098699 -0.07038663
0.18180713 -0.025655577 0.13773222
0.17132656 0.036133308 0.09321687
-0.072040856 0.17510225 -0.018338496
0.09771809 0.045390166 0.10307359
0.119119465 -0.18693337 0.10761457
-0.26256788 0.064572416 -0.03777786
0.14619076 0.044994324 0.09983653
0.12373586 0.27491525 -0.1083047
-0.28817952 0.00655469 -0.049431823
0.12635793 0.21999264 -0.04288395
-0.05742149 -0.22662038 0.08672891
0.19626068 0.14598833 0.08598823
0.18110575 0.11325968 0.070118174
0.21495867 0.09346206 0.085470155
-0.118045256 0.054494236 -0.07943382
-0.17326963 0.023055313 -0.07736394
-0.32850686 -0.029177567 -0.07671716
0.028929094 0.24716106 0.03453042
0.05181998 -0.0895396 0.017979551
0.015733793 -0.27205375 0.03306717
-0.22481263 0.20744573 -0.110568106
0.13058448 0.03612483 0.067254715
0.196938 0.19443117 -0.01117855
0.20423344 0.08878567 0.09010812
-0.122675516 -0.08695507 -0.038603764
0.26211858 0.022388121 0.024715675
0.15330312 0.18708616 0.06173715
-0.24422154 0.021110134 -0.053915337
-0.05740336 0.21603286 0.0010262815
-0.12146782 -0.105163835 0.0036150867
0.2788999 -0.09070098 -0.057842664
-0.070809856 0.12471902 -0.098361626
-0.049570672 0.23372297 -0.21470585
-0.011745805 0.10325392 -0.15931661
-0.32982937 0.023203162 -0.07319616
0.17532912 -0.10054869 0.108576424
-0.1256525 0.1973466 -0.050729696
-0.10962089 -0.28565642 -0.0004528207
0.20112684 0.13735726 -0.027326247
-0.31965616 -0.002743866 -0.088317275
-0.15435939 -0.07030735 -0.0031953065
-0.21967387 0.043182407 -0.02784608
-0.15895788 0.19751477 -0.02515935
0.19833654 0.20800635 -0.099221885
0.14379035 0.22883987 0.07159243
0.19100964 0.18422543 0.08083469
0.18499176 0.09866992 0.11552189
0.09547232 0.035899002 0.07028214
-0.0036359585 0.3009883 -0.033037197
-0.11904734 0.2828935 -0.026687378
-0.321599 -0.076284125 -0.056685865
-0.09198314 -0.29896343 -0.1242548
-0.01993984 0.265164 -0.016963903
0.19116265 0.14728206 0.07711546
-0.13682266 0.008455613 -0.25930113
-0.20493872 0.15071796 -0.07633341
-0.17590554 -0.2007647 0.014626299
-0.21082069 -0.03407863 -0.028441744
0.16022088 0.20304178 0.0007479033
-0.1018041 0.088400416 -0.21576436
0.08292445 -0.08220797 0.099461086
0.19246969 0.16009703 0.069437966
0.26775494 0.036608685 -0.0109619815
0.25711736 0.10503467 0.032308515
0.25757402 -0.13092697 -0.06459022
-0.270664 0.10634491 -0.12872212
0.22061226 -0.15752651 0.05036059
-0.14697175 0.04439329 -0.10756311
-0.31833157 -0.07763554 -0.031750806
0.113988265 -0.075307846 -0.0509362
-0.044012383 -0.20356503 0.07112983
0.24078739 -0.006469599 0.038752478
-0.18630221 -0.16108887 -0.17653254
-0.2512607 -0.051141687 -0.038312674
0.13926223 0.13325512 0.05412308
0.08673172 -0.11040984 0.10657539
0.18397672 0.13558993 0.10141355
-0.25964588 0.14432028 -0.04550896
0.11831899 0.07218214 0.111792535
0.11678585 -0.06424766 0.12331048
0.058022413 -0.11737767 0.106540896
0.2347069 0.17553785 -0.0033691155
-0.2466769 -0.04024857 -0.025829857
0.08460367 -0.109637834 0.11918333
-0.20185643 -0.12938766 -0.012527977
0.0817174 -0.15323155 0.12107502
0.07942565 0.27835116 -0.01057555
0.19934735 -0.069009826 0.06322739
0.15148945 0.16908027 0.08823922
0.019392354 0.13308042 -0.12654857
-0.15232953 -0.2461151 0.046615016
0.039166067 0.13897209 -0.0069400356
-0.18641995 -0.03967738 -0.02879963
0.005584455 -0.21513394 0.08192205
0.20468836 -0.2244986 0.03581922
-0.20768626 0.098061405 -0.06301641
0.08172645 0.044186473 0.036031984
0.19677743 -0.05831909 0.13650295
0.1704758 0.15547815 0.06784325
-0.2520948 -0.14026447 -0.0047107786
-0.018828383 0.25665957 -0.006316485
-0.14211518 0.09542001 -0.039603498
-0.24261154 0.189381 -0.08297774
0.07552445 -0.09273651 0.10622287
0.24589461 -0.077542365 -0.06982437
0.14044867 0.23434411 0.026915416
0.011249657 0.280565 0.0036718827
-0.08555666 0.26725203 -0.15749076
-0.10660568 0.2697495 -0.034127954
0.17603116 -0.039169546 0.12198286
-0.009410252 0.13994443 -0.13906886
0.031799264 0.18086116 0.0049439506
-0.121232025 -0.0611531 -0.09300489
-0.11668927 0.11252447 -0.06290811
0.24587259 -0.13025385 -0.070962265
0.11303714 -0.122166164 0.13316241
-0.28239447 0.10568953 -0.0710928
-0.22503373 -0.11438763 0.0034296354
0.2050483 0.15820165 0.021887252
-0.20853433 0.25485882 -0.0686822
0.21027069 0.05148212 0.09554072
0.16154906 0.07816689 0.11142001
0.049845252 0.16198093 0.025608027
-0.059044246 -0.15653837 -0.20885296
0.096527115 -0.10473332 0.09699171
0.28196606 -0.08427058 -0.05629361
0.24380253 -0.059723858 -0.042026307
-0.06789578 0.19940108 -0.026178483
-0.25475013 -0.16038465 -0.008094813
0.11397384 0.07151675 0.052027877
-0.14142263 0.25463778 -0.154708
-0.31219715 -0.016536064 -0.051453695
0.27539468 0.013385465 0.025685534
0.26326284 0.10224257 -0.10847116
0.15855028 -0.052292235 0.120226
-0.18266988 0.23023072 -0.037714344
0.034427684 0.2331562 0.030489141
0.07651611 0.2264509 0.04449613
0.11527958 0.24562287 0.050376132
-0.22529578 0.13650149 -0.049427696
0.1789437 -0.04371111 0.10560716
0.15654574 -0.054456726 0.106980875
-0.029189005 -0.14541821 0.070692986
-0.12011963 -0.20905662 0.040605105
0.16860959 0.2424353 -0.18111189
-0.117813505 -0.08765704 -0.18226203
0.23180464 -0.18140551 -0.085827544
-0.19688448 0.09836504 -0.07704223
-0.009277336 0.10297405 -0.18394068
-0.17684647 0.11277421 -0.05912569
-0.2608606 -0.093607806 -0.060252648
0.11165313 0.107872404 0.083515614
-0.24973063 -0.08573321 -0.025261646
0.28881514 0.06817676 -0.05763152
0.20174152 -0.112614885 0.095207036
0.2370571 -0.13585415 -0.022574456
-0.013122826 0.13916032 -0.08792905
-0.17921676 -0.008098265 -0.019280663
-0.20630077 -0.11165737 -0.031095175
0.21882701 -0.166337 0.017488975
-0.005700356 0.2206208 0.031923715
-0.12967448 0.21551716 -0.0630756
-0.055325627 -0.16358592 0.057061065
0.17611596 0.1123051 0.08491555
-0.27837384 0.051824156 -0.05584185
-0.05612344 0.20777218 -0.013646175
0.04048176 -0.21777779 0.10118755
-0.058080953 0.30465913 -0.020764444
0.2242599 0.019290313 0.126399
0.15039007 -0.28278488 -0.08005603
0.22681783 0.042880964 0.07791586
-0.10504091 0.0942084 -0.11299434
0.10342325 0.2455684 0.037934773
-0.2395671 -0.051953934 -0.010606535
0.2611145 -0.12576763 -0.060656473
-0.035569534 -0.256965 0.054998536
-0.19529551 -0.15052806 0.02142947
-0.17364733 -0.12944967 -0.004600618
-0.23967692 0.022464227 -0.046642795
-0.086213745 0.22948527 -0.20585369
-0.106178775 -0.116185315 -0.039606437
0.15938917 -0.13574234 0.09788976
0.23176126 -0.2063563 -0.0496435
-0.21705964 -0.1497337 -0.098465174
0.04169772 0.2295239 0.017286733
-0.26840845 0.09954495 -0.06876686
0.037986074 0.13751996 -0.0016719121
0.14990969 0.26174152 -0.10361888
-0.09612468 -0.10014801 -0.013577816
0.014014283 -0.10424708 0.054980185
0.1042554 -0.0071525 0.1180472
-0.2990801 -0.11180352 -0.056247633
-0.1059178 0.2874759 -0.06067896
-0.301675 -0.050644834 -0.07151846
-0.052975375 0.19197804 -0.021195961
0.12663488 -0.018602831 0.09384784
-0.29243702 -0.0033696701 -0.043862954
-0.18552366 -0.17051171 0.02658112
-0.27140626 0.101632036 -0.061411504
0.08226707 -0.107097656 0.11827796
-0.001194104 -0.23075087 0.09060119
-0.10576422 -0.12932743 -0.08402533
0.03673206 -0.21111171 0.07559308
-0.06717779 0.113144405 -0.1493427
-0.117564864 -0.07554699 -0.171983
0.22231926 0.050468974 0.113053486
-0.08359268 -0.31498966 -0.054706268
0.03907436 -0.14309947 0.08806489
0.10848055 -0.1613955 0.11131591
0.1182461 0.27012956 -0.1896506
-0.28645808 -0.10123526 -0.026222337
-0.21233827 0.03220243 -0.043872457
-0.21936746 0.1525784 -0.07435501
-0.16856466 -0.01266169 -0.19878317
0.18969835 -0.15051185 0.09050862
0.050035078 0.17726514 0.02253928
-0.12479296 -0.084359266 -0.0657757
-0.010129228 -0.10783171 0.09155869
-0.15682396 -0.24829896 0.046892624
-0.24018171 0.036643144 -0.05217813
-0.20657453 0.015914023 -0.061801817
0.036001872 0.30351374 0.01915069
0.2739809 0.051856656 -0.012964549
0.1149104 -0.089229055 0.1226174
0.1537608 0.04582236 0.107226394
0.08801082 0.17278211 0.078107424
-0.32904318 -0.08944014 -0.096142024
-0.21609059 -0.07181082 -0.0066806674
-0.105143204 0.24610312 -0.04790344
0.2915919 0.062018916 -0.004253256
0.21899645 0.014120926 0.1054932
0.084056824 0.08230358 -0.056620535
-0.07322312 -0.29481325 -0.13836552
-0.10066246 -0.281867 -0.050209925
0.13003331 0.24317282 -0.13535179
-0.13429065 0.068189576 -0.058663454
0.07370376 -0.25047287 0.036930017
-0.055502076 -0.22029017 0.084791824
0.011997162 0.25465623 0.011375765
0.21685773 0.104172096 0.08036698
-0.29713386 -0.042548325 -0.05856042
-0.00434764 -0.12522593 0.0714256
0.28198424 0.028945187 -0.03574148
0.22169076 0.10800891 0.088373005
-0.033495158 -0.15493575 0.04429994
-0.078840435 -0.20937976 0.029149912
0.15522684 0.03666778 0.087239504
-0.104100645 0.20830834 -0.037779145
0.025857685 -0.22428794 0.08480864
0.18445404 -0.183387 0.12317301
-0.15637137 0.044953745 -0.12443401
-0.04233361 0.14104137 -0.20800819
0.18403561 -0.20330825 -0.0021144424
0.13957506 -0.22353654 -0.019936267
0.018279348 0.2803435 -0.021202441
-0.09007122 0.2915117 -0.023361623
-0.025932457 -0.12103782 -0.017587505
-0.11988229 -0.03465087 -0.15370153
0.23454297 0.044880353 0.0551261
-0.025749063 0.27371365 -0.024287837
-0.26957375 0.06769841 -0.054899223
0.010439569 -0.1577075 0.07616267
-0.20780866 0.25666055 -0.09444726
-0.063144684 -0.14723922 -0.06435206
0.22533879 -0.19384928 -0.014107706
-0.20300728 0.09657817 -0.027873877
-0.07389084 -0.27249706 0.031870563
0.024392905 0.24518155 0.0042597
0.085618876 -0.12057075 0.090246014
-0.11224944 0.06282302 -0.17993805
0.059976026 0.1709257 0.06607976
-0.2731886 0.15199374 -0.12801094
-0.21943429 -0.19459908 0.023247177
-0.1471991 -0.07475136 -0.101727344
0.10389619 -0.15002279 0.122428596
-0.23012517 -0.042347826 -0.04363211
0.12789628 -0.08405865 0.10109608
-0.18312056 0.21764676 -0.16259323
-0.10374742 0.114217274 -0.09536415
-0.1025609 -0.27606782 0.058125675
0.1507553 -0.25093582 -0.08723921
-0.1692678 -0.15394747 0.009441085
0.29824197 0.077947855 0.037110753
-0.14706716 -0.11521313 0.0075849313
-0.26667964 -0.10949106 -0.017933084
-0.11224096 -0.22310105 0.039137192
-0.015228577 -0.24761729 0.07114215
-0.036811948 -0.12368623 0.04315606
0.21721016 -0.17063677 -0.03894713
-0.24997592 -0.04250856 -0.02869641
0.17694063 0.2110558 0.024939332
-0.23775601 0.063759096 -0.024814686
-0.065224536 -0.15566236 -0.14275447
-0.06590525 0.2517595 -0.006374459
-0.14226112 -0.16392049 0.042170938
-0.237552 -0.07443412 -0.034103554
-0.15277375 -0.26721936 0.028708158
-0.16911516 0.20408359 -0.06261935
-0.20964137 0.1761172 -0.07248533
0.044996303 -0.14011513 0.08306002
-0.14243256 0.056622945 -0.10219085
-0.12280867 -0.27578872 0.04567624
-0.08994403 0.08585436 -0.21403323
-0.15990524 0.010507234 -0.09792303
0.104125984 -0.22971891 -0.027637508
0.13958114 -0.18049173 0.13598846
-0.23613621 0.21160398 -0.07254719
-0.20624392 -0.17752394 -0.21352942
-0.013629764 -0.11565837 -0.014399646
-0.27847838 -0.07243491 -0.03641771
-0.004228155 0.3100948 -0.0011760201
0.18429859 -0.2075577 0.089976475
0.26520658 -0.021703478 -0.06511274
0.16587539 -0.06600315 0.121492244
0.28211427 0.00096225133 -0.07572775
-0.11472205 -0.14577892 0.03631141
0.11685619 0.082012974 0.08611962
-0.10878048 -0.06486894 -0.22324558
-0.23217279 -0.076151215 0.00053958746
0.11558385 0.21169698 0.062071763
0.109165885 0.24072666 -0.12870523
-0.17704278 0.24247688 -0.08126113
0.07494286 0.28254107 -0.13302374
0.20614472 -0.21545067 0.00949651
0.24349836 -0.030859578 0.0037586906
0.08461676 0.20887165 0.034216665
0.15478824 0.15663351 0.0587004
0.17768171 0.19561656 -0.037661705
-0.122362785 -0.06309097 -0.04871616
0.17056789 0.10505571 0.08417715
0.082365945 0.18910356 0.055488814
0.10114636 -0.010421434 0.08132033
-0.11363935 0.0682307 -0.07694887
-0.16709699 0.050673567 -0.07978857
0.10580771 0.28627366 0.019362299
0.061844125 -0.13155912 0.09245036
0.3031503 -0.005760978 -0.075087085
-0.115095206 0.2039158 -0.027955607
0.19619107 -0.10690693 0.080646366
0.12920526 -0.24472034 -0.08488502
-0.035640843 -0.23576719 0.0694055
0.048387486 0.1766308 0.0437165
0.08497145 -0.059372406 0.05630123
0.040092953 0.13438143 0.023629636
0.1311936 -0.10119707 0.107108004
-0.1596157 -0.09631888 -0.081723124
0.23585881 0.15807922 -0.05183004
-0.24705866 -0.1427786 -0.039236564
0.06564713 -0.20938015 0.10484137
0.25109005 0.0072305147 0.09077571
-0.14681457 0.18183404 -0.03800504
0.02451984 0.19685575 0.008426885
-0.22730169 0.060834005 -0.05322573
-0.27550158 0.14236636 -0.0938765
-0.22313331 0.22828571 -0.08361163
0.29270253 -0.08613132 -0.09330087
-0.0027467634 -0.27948415 0.06307679
-0.018238803 -0.29190293 -0.05942914
0.15314744 0.08799632 0.07741904
-0.17840607 0.17101 -0.061887298
0.12531295 0.12398984 0.04897482
-0.020784756 0.09645677 -0.17769009
-0.08524434 -0.14892548 0.048223544
-0.2504832 -0.026182113 -0.06791455
-0.022736926 -0.2537398 -0.008888195
-0.2457008 -0.13171552 -0.0034514682
0.037249077 -0.19764109 0.098502316
-0.15218647 0.20467837 -0.06811136
0.21010903 -0.06446674 0.056855407
0.10834742 -0.13959785 0.12392556
0.059492487 -0.24384856 0.084346294
-0.28999385 0.0087642325 -0.08343035
-0.22046444 -0.15652774 -0.024854174
-0.24352813 -0.11148916 -0.017355515
-0.19878833 -0.18209916 0.023780476
-0.20728289 0.1520186 -0.037172448
0.13305777 -0.06703412 0.11671143
0.108987585 -0.23652856 -0.052039165
-0.25990573 0.15216915 -0.05323624
-0.16616702 -0.17350486 0.038317043
-0.19257113 0.19312681 -0.08083737
-0.13526326 0.2641769 -0.03487045
0.23151498 -0.02559053 0.11798914
-0.14655206 0.20191729 -0.034431066
0.25518945 0.07365877 0.10317027
0.06980148 -0.10406851 0.081604704
0.14165726 0.19292593 0.0693924
-0.118378 0.0747184 -0.07317619
-0.046778042 -0.28417772 -0.06555116
0.26882303 0.055011045 -0.0345807
0.14304975 0.14288723 0.096130766
-0.25004113 -0.022325357 -0.040503245
0.21544436 -0.14094347 -0.028899696
0.0029683814 0.15004778 -0.12612568
0.107861966 -0.25786427 -0.09169006
0.07641964 -0.08695929 0.108494654
0.12165738 -0.29479715 -0.059147224
0.07618253 0.0007636537 0.065876484
0.21037197 -0.034514446 0.088094786
-0.18435688 0.07193479 -0.10616886
0.27252725 -0.093900576 -0.0904217
-0.07606748 -0.18994835 0.056109365
-0.099597044 -0.1385668 0.045253668
0.14253822 -0.07670457 0.14695904
-0.29488096 -0.106029 -0.0170555
-0.14410901 -0.079672374 -0.18347314
-0.13966718 -0.0048538493 -0.24751024
-0.11129899 -0.11956547 -0.23339728
0.111789815 0.21640114 0.061687917
0.0472522 -0.19739434 0.1110615
-0.16761684 -0.23367755 -0.1853649
-0.17061779 -0.123874724 -0.012175713
0.1419448 -0.05641602 0.10366127
-0.0725882 0.1701657 -0.0185325
0.10687102 -0.24969849 0.05356249
-0.16094363 0.13025442 -0.043945618
0.27492127 -0.14064305 -0.06227873
0.09349174 0.008025419 0.0666091
-0.08123462 -0.29954037 -0.012925908
-0.12194226 -0.08010678 -0.14491215
0.15083642 -0.008818305 -0.094245695
-0.14483072 0.1259784 -0.04440988
-0.2595681 -0.078239396 -0.052584052
0.11488638 0.15454745 0.070595585
0.15473504 0.17131194 0.063339554
0.20123895 -0.09422225 0.020945642
-0.073790915 -0.2632153 -0.034415115
-0.1036331 -0.10367317 -0.09310527
-0.03839672 0.27285737 -0.031819113
-0.23103581 -0.13093854 0.0035140528
0.20797639 0.08855919 0.109202266
0.1645187 0.12039021 0.09241228
-0.19447163 0.2505465 -0.08032486
0.101881646 0.061168104 0.06752212
0.02382258 0.09015591 -0.17880923
-0.15367003 -0.13498788 0.013480653
0.23555149 0.049433462 0.053105496
0.19486135 0.04994431 0.101026215
-0.16395335 -0.0998238 -0.016897958
-0.09914873 0.2434154 -0.04014319
-0.04928572 0.14670828 -0.09994413
-0.043767534 0.3099519 -0.02861356
-0.22809531 -0.12914167 -0.04322871
-0.111804046 0.079382285 -0.20127413
0.08653675 -0.124761276 0.1176586
0.14832486 0.008740348 0.07920789
-0.123036586 0.24360949 -0.038008075
0.07813972 0.26602116 0.031485323
0.09320495 0.098231286 0.046768766
0.26422766 0.050233778 0.051422536
0.040814184 0.2989116 -0.008668017
0.14166003 -0.19503978 0.10656253
0.13624619 -0.15277424 0.12994437
-0.20763505 -0.040412705 -0.050539237
-0.15507177 0.13577388 -0.018489972
0.18240963 0.15944567 -0.0023507955
0.049209256 0.19779101 0.042560395
0.3083729 0.09472702 -0.08836782
0.07900735 -0.13519922 0.13169467
0.124465235 0.256083 -0.11346702
0.13459037 -0.24011377 0.12717262
0.17779858 -0.15543707 0.09815516
0.20898476 -0.17630503 0.023191385
-0.18532456 0.077233724 -0.035587866
0.10029328 -0.23084398 0.008354918
0.26807705 -0.067646146 -0.08517088
0.049767006 -0.16226739 0.1037864
-0.07387769 -0.1978296 0.06556674
0.20011191 0.16026749 -0.15797873
0.15559767 0.07707768 0.07973818
0.1634682 0.11974713 0.099611014
0.20358497 -0.19532862 -0.016555069
-0.2410555 0.13105772 -0.05815447
0.10507359 0.019611485 0.057395484
0.27901024 0.053601418 0.046475485
-0.0022216132 -0.1866673 0.08684474
0.26983002 -0.03276523 0.0029842902
0.18109818 0.22394757 -0.09013056
0.19884054 -0.19886597 0.08518987
-0.12791382 0.16187349 -0.051183004
0.13109492 0.0867076 0.11151743
0.28325647 0.046635408 0.05370465
0.26422116 0.00676043 0.017431594
-0.14873092 0.22034603 -0.048715185
-0.015039124 -0.2337988 0.07985094
-0.029156873 0.1768049 -0.009634879
-0.077935785 -0.13479652 0.026251102
0.08308702 0.15725547 0.06191144
0.24581487 -0.071929 -0.050662003
0.16960545 -0.03293317 0.097840615
0.22270763 -0.09600756 0.0394601
-0.34076637 -0.059839327 -0.08993614
-0.08818996 -0.23176278 0.069898754
-0.18353172 0.017608233 -0.009842708
0.017936064 0.21742636 0.0012349114
-0.18686546 -0.026470812 -0.02276602
0.11070015 0.040719993 0.081474744
-0.09811477 -0.29526892 0.04203554
0.120178215 -0.049596123 0.10839301
0.22503799 0.077251524 0.090264454
0.16602802 -0.061109245 0.11693201
0.16595471 0.14793943 0.08781123
0.22330108 0.049688924 0.092705965
0.03454542 0.19261183 0.028835427
-0.17845762 -0.11189549 -0.0034236186
0.12748668 -0.050312974 0.102934144
0.17206812 0.13064618 0.07903263
-0.046741184 0.30192015 -0.02514361
-0.13039298 0.022625657 -0.13573281
-0.22838229 -0.05338904 0.0050270604
0.04868239 -0.14696331 0.085982494
0.18918844 -0.030904477 0.10566556
-0.24835034 -0.1440284 -0.001465529
0.046265382 -0.1910762 0.12344858
0.29675516 0.09227569 -0.0657213
-0.25437924 -0.10947219 -0.039300654
0.04818756 -0.2815346 -0.10021836
0.2585193 -0.09362219 -0.011159762
0.20517811 0.04913988 0.09015729
0.2258776 0.062151518 0.11046459
-0.23904869 0.0759111 -0.060228456
-0.06252283 0.1891231 -0.014698425
-0.28968012 -0.10456893 -0.062574744
0.14684123 0.16926567 0.074325286
0.121912844 0.1807593 0.07858115
-0.30392218 -0.0745263 -0.05626846
-0.18689285 0.05546592 -0.10566649
-0.14219749 0.25251207 -0.05085573
0.1025246 0.15901811 0.045045782
0.041190237 -0.069274575 0.115364164
0.1741104 -0.266187 -0.051895943
-0.2370626 0.079218976 -0.270598
0.27530771 0.088231795 0.051654957
-0.31057003 -0.12555034 -0.015986338
0.021508249 -0.27541453 -0.1484278
0.2977221 -0.03463779 -0.053044233
-0.20549992 -0.20747986 0.041039664
-0.18546194 -0.010343423 -0.087603725
-0.040940452 0.26425973 -0.07101664
-0.10444873 0.18688276 -0.0057845344
0.06704389 -0.120628595 0.0734922
-0.006874237 0.2680445 0.0018944435
-0.14873044 -0.024552267 -0.080337495
-0.08988009 0.24040323 -0.046199463
0.007502499 0.2112574 -0.0041680057
-0.10496688 0.07778227 -0.14643256
0.23964007 -0.09317229 -0.04412651
0.1358529 0.07327821 0.06657052
-0.1960792 -0.19978015 0.023795608
0.1062808 0.15054116 0.07553579
0.14838652 0.110301204 0.07385475
-0.26158297 0.039676066 -0.051976386
-0.19208157 -0.070007905 -0.013691576
0.17025226 0.10290489 0.111266196
-0.043407556 -0.21113496 0.05283174
0.15022025 0.17740792 -0.019149875
0.087542504 -0.16144407 0.13567677
0.17823087 -0.21157701 0.0599205
-0.09666164 0.15218703 -0.065183334
-0.07851009 -0.2604385 0.062134415
-0.2261417 -0.09458496 -0.021947702
-0.0038525914 -0.2568176 0.10808049
-0.23174983 0.2389833 -0.10437196
0.014635059 0.289866 -0.016269544
0.037267167 -0.19832245 0.0923143
0.26640934 0.000112170215 0.0005715371
-0.030953357 0.18244338 0.013962797
0.006055841 0.3213833 -0.04391882
0.18941838 -0.0006696765 0.11337253
0.13585559 -0.10935494 0.15556291
-0.17701842 -0.14621653 0.033843357
-0.094846964 -0.13020736 -0.018723924
0.008258987 0.28416187 -0.0034107622
0.004505146 0.18663603 0.0036343029
0.17879649 -0.032156833 0.10538099
-0.08367194 -0.12262487 0.058579635
-0.15640473 -0.18995598 0.03525847
0.05571485 0.20503351 0.010151695
-0.2093125 -0.025911823 -0.023555811
0.027658211 -0.18985705 0.12051025
0.120445274 -0.1509416 0.112434015
0.15530643 -0.23444664 0.10401847
-0.11912945 0.18910798 -0.024499571
0.26032168 0.053835865 0.055646468
0.27834854 0.014163445 -0.0063003832
-0.04664181 -0.13846654 -0.11981724
0.094782375 0.23964627 0.03270916
-0.32365993 0.045465432 -0.058890488
0.24592501 0.022567423 0.00572387
0.21470596 0.052173935 0.11097695
-0.034112383 -0.122997455 0.054308057
-0.05355327 -0.11745508 -0.04782934
-0.19508073 -0.038943067 -0.005111129
-0.30290598 -0.045701936 -0.06268488
0.24593954 -0.12763155 -0.007337315
0.15997611 -0.22726949 0.014605083
0.07865151 0.20201576 0.008579728
-0.12165117 -0.14588486 0.009852167
-0.05655565 -0.30292496 -0.052017793
-0.06943249 -0.2369954 0.078685015
0.02361959 0.20845807 0.025841018
-0.23849076 -0.011686086 -0.025160905
-0.03943643 0.26880628 -0.010945949
-0.043257736 -0.20088619 0.07502221
-0.061885618 0.16796973 -0.054537147
-0.068130165 0.24365811 -0.012604323
-0.20542608 -0.0041749286 -0.04789061
-0.23432918 -0.09465585 -0.012139619
-0.19930965 -0.13917755 0.011901067
0.17082758 0.08016731 0.10727592
0.08683964 0.096877605 0.08171838
-0.23524044 0.12382795 -0.056442905
0.11609825 0.1604128 0.064455666
-0.050236367 0.15107897 -0.06714665
0.101168916 -0.1957193 0.15230879
-0.21490203 0.051193323 -0.047166176
0.078442484 -0.10593034 0.09803326
-0.06646746 0.24443252 -0.04681007
0.23902163 -0.07665455 0.02402895
-0.08330789 0.05644615 -0.20894967
0.19521503 0.12266247 0.0760536
-0.2673483 -0.035549864 -0.07389555
0.00035654005 0.23542267 0.0016612917
0.26213416 0.075881936 0.016124716
-0.16536298 -0.187833 0.04061438
0.15485857 -0.23167174 0.034198143
-0.25839797 0.06939971 -0.041531377
0.17941241 0.0007264516 0.14395173
-0.14203401 0.04932346 -0.09080878
0.10523362 -0.09432986 0.12684584
0.21331342 -0.0020888667 0.11560638
-0.16544288 -0.009375863 -0.07473794
-0.19910683 0.17466179 -0.04070274
-0.15305799 -0.113839604 0.011237519
0.084976815 0.03428471 0.040321633
-0.19259343 -0.1390094 0.0056583085
0.2380479 -0.05326452 -0.03403167
0.06604398 0.20246793 0.03504986
0.16103369 -0.12557864 0.15114103
-0.00059891137 -0.12719287 0.0117159905
0.019604081 -0.25880155 0.06677478
-0.0085421875 -0.20427305 0.06856011
-0.21547991 -0.08400146 0.017045332
0.15780897 -0.13024212 0.14425023
-0.29082224 -0.061472297 -0.07083284
-0.26575738 0.008129232 -0.023507213
-0.16624111 -0.08594519 0.025373282
-0.18881936 0.009663546 -0.06209129
-0.31590226 0.0052248742 -0.06601759
0.26464614 -0.028120937 -0.06670803
-0.14514184 -0.24128999 -0.11000932
-0.23363611 0.18173344 -0.0698185
0.10842206 -0.22086649 0.055188734
0.24243785 -0.043153446 0.013596066
0.19279414 -0.05420281 0.08900437
0.10966088 0.0068605784 0.038571317
0.05465104 0.2153034 0.0005568036
0.21398523 -0.15628415 0.019554233
-0.10960719 0.0163423 -0.215544
0.06682987 0.1411084 0.024687802
-0.17053169 -0.22710966 0.020746553
-0.16011685 0.13508528 -0.04585518
-0.08229645 -0.28995338 -0.105345994
0.1590668 -0.097837314 0.15672466
-0.16199529 0.046328623 -0.11354596
0.3211676 0.06989722 -0.043687712
0.21901631 -0.021051103 0.103630595
-0.12196248 0.11851639 -0.046321556
0.2644623 -0.032015607 -0.02740015
-0.08192942 0.1777518 -0.026612973
-0.11729585 0.25722814 -0.06602672
0.061521932 -0.12325252 0.12742464
0.022591822 0.27695906 0.02431925
0.09256397 -0.033176173 0.12278082
0.050263252 0.16151437 0.027604181
0.08889368 -0.07702377 0.11551003
-0.2581125 -0.007790791 -0.041950393
-0.1936939 0.23492074 -0.08285724
-0.16112484 0.1488757 -0.028465599
-0.08336665 0.2288737 -0.04263389
0.2119748 -0.045600522 0.04193672
-0.0026626976 -0.12368727 0.022907019
0.07498475 0.30281302 -0.10819546
-0.01420778 0.18717986 0.019815205
0.11404994 0.08677025 0.07291843
0.1198094 0.0153335305 0.091652565
-0.20309415 0.12575938 -0.0698587
0.12576894 0.2534775 0.036896124
-0.24627472 0.007212954 -0.05410037
0.11032568 0.23826313 0.028060101
-0.23590146 -0.17469254 -0.0065877507
-0.04436191 0.20905256 -0.009486003
0.019636143 0.1035811 -0.10756666
-0.14065088 -0.121470615 0.031686097
0.21608712 -0.1639784 -0.05520327
0.010577886 -0.2721899 -0.11696336
-0.24423304 -0.14518945 -0.030225871
0.08473013 -0.13485637 0.12618598
0.25234926 -0.02777651 0.040711574
-0.15494247 0.09013372 -0.0736891
-0.10868443 0.08518565 -0.09285764
-0.14783615 -0.10724923 0.010269771
-0.0077887145 -0.21709582 0.10819934
0.03483438 0.2884819 -0.02019727
-0.22590905 -0.001905318 -0.05640058
-0.1272514 0.05803231 -0.081335105
0.25097468 0.091989204 0.104702406
-0.13647445 -0.22813393 0.056723498
-0.060857624 0.28644168 -0.009348304
-0.00010290016 -0.18560208 0.0957684
-0.08343122 -0.26283523 0.050875485
0.02204399 -0.24826354 -0.018824914
0.11123924 0.19455777 0.058130693
0.08146458 -0.22298902 0.09178272
0.048533954 0.22059052 0.019369092
0.17062972 -0.030529464 0.09545222
-0.15616083 -0.12472935 0.030271819
0.17587987 0.089439124 0.11791866
-0.08283418 -0.26900247 0.0243792
0.18313536 -0.218426 0.044018023
0.15755732 0.11051188 0.074967824
0.10891042 -0.16053674 0.11570714
0.15284038 -0.1383229 0.07721415
0.17910059 0.16917376 0.051987655
-0.09819731 -0.21087305 0.066217124
