# .PCD v0.7 - Point Cloud Data file format
VERSION 0.7
FIELDS x y z
SIZE 4 4 4
TYPE F F F
COUNT 1 1 1
WIDTH 1000
HEIGHT 1
VIEWPOINT 0 0 0 1 0 0 0
POINTS 1000
DATA ascii
0.0027146745 -0.29455054 0.12597129
-0.02463295 0.20373978 0.017740386
0.2708437 -0.11790443 0.035654515
0.12852544 -0.1985433 0.10595732
0.11536652 0.17600244 0.04178547
-0.16861264 -0.15877369 0.056864377
0.028541408 -0.13171399 0.047521215
-0.14962907 0.0798518 -0.035500076
0.12170958 -0.18924914 0.10271259
0.3043318 0.13589118 -0.12391991
-0.22736453 -0.056714438 0.020975279
0.18412107 -0.012689858 0.065777384
-0.14739087 0.25116813 -0.010397171
0.13900499 0.12974438 0.040757824
0.14657338 -0.1831102 0.09061677
-0.15435 0.024652138 -0.16639559
-0.08351183 0.21291521 -0.008146976
-0.3067699 -0.0893847 -0.119242266
0.01311387 0.1566093 -0.035809
-0.18475765 0.027310237 -0.029469263
-0.19690274 0.059480544 0.024572577
0.17334425 0.004500745 0.020883989
0.19966573 0.0116741285 0.09557627
-0.27311066 0.09409932 0.021035424
0.11385501 0.21925306 0.0321266
0.19779733 -0.00043771192 0.061624818
0.29278737 -0.07523612 -0.11790047
0.27733034 0.05361725 -0.040574133
-0.29049185 -0.030546846 0.025686895
-0.19044155 -0.18432726 0.032765478
0.2883093 -0.031070087 0.061780587
-0.15839441 0.21171604 -0.0349055
0.21884401 0.061488777 0.046527017
0.1509009 -0.15327585 0.07574042
0.008392782 -0.2894791 0.11575976
0.1347181 0.017834503 0.033058397
-0.0429865 0.33008233 -0.049586885
0.19807741 -0.07051529 0.0897549
0.093387865 0.19934481 -0.00547713
0.2663172 -0.121930726 0.083350524
-0.13266766 -0.2856257 -0.04684051
-0.23343264 -0.075400494 0.027390782
-0.2879009 -0.15523654 0.054710943
-0.21801874 -0.16266668 0.043494772
0.19661175 0.13623358 0.071784
-0.06735375 0.21791025 0.017032966
0.12108005 0.22163387 0.015233015
0.2757174 -0.014103711 -0.024462067
-0.14408106 -0.2053281 0.053064782
0.15174006 -0.0012027521 0.018567061
0.29288736 0.06194821 0.0048881588
-0.13538364 0.20206301 -0.19993985
-0.23707645 0.078092575 0.0038114537
0.13388847 0.08742897 0.042554166
-0.26588717 -0.17059535 0.007503659
-0.17906137 -0.22623044 0.019673055
-0.29400715 -0.08082462 -0.116311185
-0.24795562 0.19442318 -0.043422054
-0.19334197 0.17089994 -0.24593562
-0.31031248 -0.08699446 0.01417875
0.28467456 0.16799112 0.04895306
0.12577806 -0.27519313 -0.015214251
-0.025448311 0.3286548 -0.0410606
0.07098472 0.08979351 -0.0070879566
-0.24434139 -0.21629632 -0.12770201
0.0316084 0.31819686 0.004790628
0.20019057 0.14701106 0.021630991
-0.16536671 -0.21292277 -0.044566207
0.0765888 -0.2781689 0.0039694495
-0.15595046 -0.03855111 0.029781463
-0.0016252579 -0.28155306 0.120190576
-0.15414305 -0.2633787 0.011961437
0.12871502 0.26413456 -0.09384292
-0.09956532 -0.29385352 -0.009554967
-0.2845556 -0.021808805 0.0052088606
-0.23693475 0.11537966 -0.0006051871
0.012716352 0.17861646 0.019250445
0.09748368 0.20152085 0.008942878
0.13164905 0.07376696 0.069265366
-0.17452249 -0.18748173 0.051738996
-0.1306387 -0.15698041 0.083796546
0.15483019 0.25709224 -0.11916848
0.060962956 0.2899164 -0.023142563
0.019666517 -0.121632315 0.06486584
0.23504212 0.09437361 0.046340406
0.27248597 -0.056327254 -0.101363204
-0.102295995 0.040571183 -0.15942259
0.0664442 0.11051296 0.003900772
0.011190342 -0.18032587 0.09150773
-0.26755196 -0.2162278 -0.16490816
0.012074443 0.3051851 -0.024745267
-0.046722665 -0.26526976 0.12397644
-0.24765515 -0.18623413 0.05950557
-0.12422219 -0.24790984 0.0039599286
0.061240837 0.2804478 -0.021680076
-0.27382007 -0.012922287 0.0313211
0.22532304 -0.030230502 0.07503807
0.12954645 -0.26235712 0.061384592
0.2101397 0.1721707 0.038787056
0.12573218 0.23754197 0.02567275
0.20105542 -0.029866856 0.08362387
-0.089953765 0.15844058 -0.016368324
-0.12667304 -0.014842939 -0.014178839
0.30696136 0.02438301 -0.11387086
0.049528036 -0.07795801 0.055489097
0.15337761 0.042349227 0.07389194
-0.23698597 -0.14072041 0.0643967
-0.30344453 -0.12846346 -0.13367571
-0.25109112 -0.18063898 0.029212305
0.2682983 -0.13237709 -0.03738367
0.16518289 -0.006084517 0.086481236
0.23709147 0.019881124 0.065775946
-0.20776571 0.12193846 -0.023658488
-0.06366063 -0.30716318 -0.12154235
-0.080529965 -0.21021724 0.10415747
-0.1257551 0.22861043 -0.2121279
-0.18129228 -0.24068832 -0.040452164
-0.259844 -0.17831947 -0.13682847
-0.3085098 -0.052364584 -0.18021193
0.17581438 0.16544129 0.05787852
-0.06269168 0.29104224 -0.09221815
0.033231772 0.2862247 -0.0017484725
0.19377638 0.14532545 0.020576857
0.03247084 0.18134752 -0.11515933
0.23816596 0.13229999 0.03721323
-0.25757995 -0.20706649 -0.031883366
0.25212434 0.011971592 0.0591051
-0.14721765 0.093983606 0.021492463
-0.016026357 0.30451012 -0.0025046233
-0.0796699 -0.27884516 0.011143201
-0.06547166 0.087515585 -0.17876455
-0.07404959 0.11574008 -0.086027205
-0.09096992 0.23683909 0.0016734573
0.017007083 0.3093511 -0.1388243
0.045256082 -0.11670868 0.07043724
0.09963844 0.10187618 -0.1884761
0.11974051 -0.04032077 0.07364894
0.030883783 -0.2624512 0.07158141
0.06714613 0.11582316 -0.10239636
0.21179526 -0.14932479 0.084137335
-0.024213258 -0.29094428 0.10018628
0.1345619 -0.074795276 0.060575932
-0.07742477 0.12559989 -0.057817623
0.26345724 -0.022195924 0.098866135
-0.32053128 0.096787415 0.015241327
0.11449013 0.07819529 -0.02377363
-0.10531468 0.21789688 -0.023506774
-0.23461758 -0.06354665 0.019667497
0.1813491 -0.24032994 -0.0737365
-0.11550319 0.098162666 -0.06340323
-0.12137241 -0.17260905 0.06633975
0.026846988 0.13517009 -0.1321775
-0.15309042 -0.18798403 0.053635143
-0.20881268 0.1971512 -0.011082762
-0.053443342 -0.33826682 -0.07442323
-0.06352416 0.14109795 -0.13274764
0.26439536 -0.021333193 -0.043919813
-0.25102517 -0.19451144 -0.014810217
0.02668768 -0.29198408 0.1379355
0.206689 -0.19602835 0.026186796
0.027357135 0.16159058 -0.015457848
-0.22463249 -0.080035865 0.04860998
0.18531106 -0.079822205 0.11289252
-0.19982132 -0.13538982 0.041475717
0.13955078 0.08561832 0.024340697
0.22767879 -0.036583588 0.07979592
0.18382019 0.06519745 0.0392041
0.2447957 -0.13571446 0.07166086
-0.14785473 -0.2623848 -0.06956964
-0.2022143 -0.07091195 0.034308206
0.12309736 -0.082119994 0.06843615
0.046747446 -0.29264843 -0.032637335
0.31100422 -0.090201266 -0.13032573
-0.15111671 0.27776575 -0.04984157
0.27930906 -0.10466789 0.10572717
-0.13527532 -0.10798379 0.050570924
-0.29158923 -0.02908222 0.027880834
-0.053508803 -0.28169486 -0.085902765
-0.054874357 0.30709854 -0.0050116917
-0.055316903 0.29190192 -0.005034931
0.023479689 -0.3295719 -0.029646726
-0.012743487 0.2122084 -0.026056161
-0.25823465 -0.020900644 0.03395685
0.22301596 -0.20774707 -0.07156201
-0.29774818 -0.025776258 -0.23277086
0.116548076 0.20482254 0.0036874153
0.1294259 -0.1349522 0.09909405
-0.16019021 -0.1704648 0.059523933
-0.1823623 0.0013747816 -0.015245292
0.058199383 0.17411642 0.007079379
-0.014910072 -0.35923338 -0.031273462
0.24477723 0.12448681 0.05801078
0.12711935 0.22629872 0.03644756
0.17791314 0.118070245 0.041324068
-0.20046063 -0.22573426 -0.108531594
0.24203086 0.17505662 0.022212753
0.04805335 -0.22243866 0.12625912
0.25516507 0.0014849552 0.08241144
-0.15128891 -0.049260028 -0.08236125
-0.019011507 -0.22485822 0.07747135
0.24929042 -0.044923875 0.08434951
-0.2109798 0.2138414 -0.04206549
-0.23319179 -0.13876298 0.06680686
-0.16664155 0.16620557 0.0019137928
0.13559173 -0.1031955 0.10463367
0.27542135 0.099880114 -0.023065768
-0.16062243 -0.022329984 -0.0009240717
-0.11512393 0.07016156 -0.23681691
-0.29230452 -0.06326391 0.022480493
-0.26821676 0.050895754 0.02086291
-0.14431615 -0.078538656 0.03204209
-0.30437952 -0.05603599 0.023143541
0.005250113 0.1777942 -0.015090156
-0.036021385 -0.099159315 0.0012251259
0.060145218 0.1850188 0.014599344
-0.09100397 -0.30591443 -0.022105899
0.0897869 0.14634632 0.008966199
-0.19691241 -0.07547971 0.012332603
0.18424588 0.14559658 0.008784223
0.2929833 0.0689935 -0.042212795
0.11414333 0.2657728 -0.063690655
0.02089841 0.19264178 -0.05643514
0.06251665 -0.23436284 0.107250236
0.10242947 0.18844941 0.017003333
0.09705225 -0.15927207 0.08874731
0.01857914 0.26787773 -0.028411541
-0.28072575 0.14424424 0.0059400788
-0.30888504 -0.027049532 -0.011507322
-0.18188517 -0.23943026 -0.12526762
-0.23793209 -0.22130552 -0.1705179
0.08681386 -0.08389708 0.036020618
-0.08252723 0.13691205 -0.092931
0.1973125 -0.061396156 0.07017201
0.11265827 0.092240974 -0.059718132
-0.1435084 -0.12754397 0.05179393
0.26008573 -0.1432204 0.011504807
0.32332566 -0.033848625 -0.13044286
0.011048901 0.2093371 -0.018134385
-0.017192023 -0.3323999 0.0013169291
-0.21542297 -0.13789022 0.07222778
-0.12548599 -0.08144815 -0.14062414
0.014234786 0.16041623 -0.11859856
0.0045040944 -0.1594294 0.079555154
-0.24836653 0.082373604 -0.03001655
0.18091413 0.19475228 0.041965358
-0.22981581 -0.1396318 0.04215242
0.1622838 -0.034503046 -0.07075865
-0.18575971 -0.19320945 0.08328227
0.083547994 -0.29860982 -0.064447455
0.18066105 0.16782 0.018125465
0.12665477 0.23180795 -0.11364491
0.14768255 0.13732056 0.049535062
0.17039168 -0.123935185 0.121330395
-0.19303809 0.14269038 0.008393389
-0.016673213 0.3320213 -0.045916677
0.31247178 0.037633378 -0.11844974
-0.041244626 -0.110895455 0.02936121
0.03783171 -0.22038627 0.09512522
-0.023801545 0.16356146 -0.01331612
0.11672415 -0.25730175 0.0041733016
-0.04934747 -0.301035 0.11112548
0.1350169 -0.013653737 0.07361581
0.1442391 0.013478249 -0.059874013
0.27369082 0.16322201 0.024824912
0.046172474 0.08151875 -0.16554983
-0.042855363 -0.2275844 0.10033598
0.23951815 0.20413129 0.022359438
-0.10870454 -0.28797406 -0.1551377
-0.07146214 -0.15981805 0.056347016
0.1274051 0.29461092 -0.08234508
0.26551732 -0.08559937 0.047566783
-0.060187694 -0.30288124 0.0690089
-0.074324444 0.25180358 -0.04322718
-0.083371535 0.120176375 -0.19677496
-0.17339818 0.13661204 0.0044622514
0.24706629 0.15943888 0.059313793
-0.20267276 0.15357186 -0.014801665
-0.07979964 -0.3292751 -0.14306065
-0.13922013 -0.21692826 0.08379289
-0.3045813 -0.13002937 -0.07639355
0.08495617 0.2109707 0.013328624
-0.17729388 -0.19305438 0.03405212
-0.04750548 0.29613963 -0.023517473
0.15193254 0.19334403 0.03269791
-0.18423295 -0.03179849 -0.07200533
-0.0055757235 -0.2800424 0.10609542
0.11258452 0.14804107 0.029605087
0.29296336 0.15065275 0.033258077
-0.13973539 0.25347108 -0.02162997
-0.024422545 0.29255882 -0.030171348
0.026985738 0.33621335 -0.10557331
0.21465766 0.21183707 -0.14822005
-0.23230824 -0.08492695 0.033152148
0.17528099 0.18606761 0.04654841
-0.17256708 0.21789667 -0.14504156
-0.24841392 -0.12425112 0.06344808
-0.29062063 0.15181746 -0.020469412
-0.09643094 0.29073343 -0.0021746855
0.16565868 -0.041232556 0.08030562
-0.22585371 0.1487753 -0.2174202
-0.13183112 -0.16212837 0.09029594
-0.1471088 -0.27503383 -0.1716996
-0.27616605 -0.08216936 -0.09613107
0.11532298 0.015946005 0.058351226
-0.036405705 0.30597144 -0.12890343
0.063058466 -0.20107009 0.079863556
0.092695825 0.08419249 -0.052759692
0.28145084 -0.019012442 0.08607194
0.19870985 0.040628064 0.056256257
-0.18658864 -0.23217033 -0.1547837
-0.24733497 0.08148745 -0.010282352
0.21359617 0.21005549 -0.17765796
0.0041894712 0.33464456 -0.035909586
-0.21263394 -0.183682 0.08081169
0.09819471 -0.27001345 -0.0253809
0.28672257 0.08450795 0.02425433
-0.26642308 -0.17365272 -0.08458696
-0.06948622 -0.24675782 0.09898482
0.25347427 0.20528932 -0.09801705
-0.08488332 0.21897976 -0.029909609
-0.1488087 0.18663788 0.0083081
-0.27372292 0.18988605 -0.12303376
-0.24568021 -0.039010983 0.03659553
-0.16969742 -0.04398967 -0.17684494
0.0980456 -0.046397604 0.056090884
0.09003807 -0.17381692 0.086691745
-0.18057309 0.22705543 0.0022494013
-0.04734062 -0.22941786 0.08530151
0.09648727 0.30190045 0.0034490817
0.0019569527 -0.2051335 0.1023343
0.18784143 0.2249632 -0.09842517
-0.16283445 0.19190414 -0.0052177003
0.27199373 -0.16248687 0.028521473
0.15018184 0.010924464 0.03925102
-0.24616802 0.1175443 -0.033463668
0.002392611 0.1592894 -0.104820535
-0.18281026 0.15341514 -0.026393022
-0.16564475 0.076152526 0.00595447
-0.21693677 -0.12999895 0.048872855
-0.12881063 0.04583417 -0.11808527
-0.2855786 -0.108809724 0.044052806
-0.27678704 0.19622524 -0.021274218
0.15807472 0.24626525 -0.17380933
-0.2924729 0.08945644 -0.010489303
-0.22720309 0.05679035 0.029664636
-0.19928537 0.030834805 0.015851969
0.21669431 0.026762567 0.068553366
-0.24513412 0.023182616 -0.0074173626
-0.2744962 -0.08371498 0.023199923
0.27522781 -0.15586573 -0.026072068
0.09527614 0.291017 0.022049217
-0.15065673 0.2094498 0.009914816
-0.25627524 -0.14793037 0.071474046
0.07410857 0.2457632 -0.014324268
-0.11411755 0.24007887 -0.16253893
-0.102910206 0.18745394 -0.0017409542
0.12203044 -0.1722958 0.10965142
-0.3092027 -0.063454986 0.0077687777
-0.023056174 0.1813102 -0.02950198
0.27902082 0.12100586 -0.14129247
0.15930232 0.2546053 -0.155142
0.0570829 -0.31104568 0.0046918443
0.30026078 -0.086222395 -0.16273074
-0.13167082 -0.07243617 -0.10064758
0.2972369 -0.0035434181 0.081060454
0.020598024 0.15172333 -0.03886176
-0.16333997 0.25062242 -0.0003825368
0.11675245 0.2699118 0.0019589856
-0.050421998 -0.3546798 -0.094435856
-0.18375467 -0.22084247 -0.03972788
-0.18674262 -0.21430635 -0.04615845
-0.15496555 0.19085225 -0.27553865
-0.30358547 0.15978992 -0.013523262
0.10717258 0.03710334 0.021624088
-0.23219205 0.026625156 0.008980591
-0.115734674 -0.24790214 -0.035909846
0.10283068 -0.21996798 0.13263121
-0.03507936 -0.14159538 0.104158476
0.20162655 0.0067785797 0.08183947
-0.008321333 -0.1872258 0.065399215
-0.021339245 0.15380311 -0.017914735
0.19722496 0.09705416 0.06779473
-0.042548258 -0.26968408 0.10852294
0.2748281 0.15125893 0.02880233
-0.08240623 -0.15630999 0.09024731
-0.08565506 -0.14654054 -0.09047818
-0.21428478 0.025782289 0.0089830365
0.20336713 0.184409 0.037829243
0.31029677 -0.113275066 -0.09887394
-0.032256667 0.3389242 -0.059934326
-0.09728964 -0.20700344 0.09080753
-0.17468424 0.087105095 -0.0013855933
-0.17421217 -0.023639243 0.048419937
0.20817481 -0.23021698 -0.083180025
0.14476398 -0.21718356 -0.0014507738
-0.06466339 -0.23519725 0.07169825
0.2761158 0.05626821 0.0029819775
-0.16357481 -0.19031349 0.07901197
0.08852123 0.15551773 -0.09054604
-0.16448553 -0.08266506 0.057046
0.13164726 -0.08687604 0.10353078
-0.1329475 -0.23260391 0.09784754
0.22601277 0.048490286 0.055206474
0.023799252 -0.22170576 0.112455234
-0.1708392 0.19016288 -0.02208858
-0.100115865 -0.12763546 0.085455105
-0.21353373 -0.21903323 0.06434398
0.22305214 -0.0013339211 0.0602767
-0.32644576 -0.07817455 -0.004009963
-0.2366464 -0.12482342 0.059773527
0.079325356 -0.15599085 0.097694255
-0.24668963 0.07277982 -0.001714082
0.076425105 -0.26967913 0.033042356
0.15371744 -0.15640762 0.102560475
0.29611564 0.10642732 -0.12172567
0.13210973 0.04936084 -0.08221248
-0.01497838 0.19034813 0.014783203
0.101465255 0.130491 0.017090114
-0.091933005 -0.16768594 0.09397482
-0.28243104 -0.14929171 0.020937752
-0.19591624 -0.07140561 0.020880563
-0.15139629 -0.01833277 0.021700336
-0.24511857 0.108902454 -0.02923517
0.15625846 -0.24873394 -0.061266508
0.12959546 0.12906471 0.019326117
0.2313009 -0.09814266 0.09667275
-0.0602658 0.33418334 -0.04307869
0.22237577 -0.14307944 0.099499226
0.033947848 0.27449992 -0.0035112675
-0.104474135 0.1910045 0.0021661534
-0.08855914 -0.2454753 0.085505195
-0.18378207 -0.07204811 -0.130037
0.23947306 -0.1872969 0.07328964
-0.012742357 -0.3268378 0.052948344
0.17589809 -0.13673653 0.11169825
-0.21319656 0.021556089 0.021289872
0.057994325 0.3149699 -0.06030267
0.20877397 -0.26062 -0.133216
-0.28881514 0.0923309 -0.02864812
-0.020429853 -0.29111624 0.12450969
-0.121811725 -0.06487139 -0.07362417
0.014578957 -0.20974511 0.09817034
0.14937732 0.2872962 -0.060309842
0.010286753 -0.19591478 0.07951203
0.17309673 -0.02459073 0.07221234
-0.27903074 0.18816046 -0.058293093
0.10893183 0.063200235 0.032008275
0.12868652 0.11251795 0.051425893
-0.24166311 0.12423974 -0.021677373
-0.17204046 -0.014047661 -0.04348728
-0.19930859 -0.11335618 0.04699399
0.28356707 -0.117114484 0.095050596
-0.006004776 -0.29989952 0.039991625
-0.15188459 0.063826345 0.026574582
-0.10966822 0.106330365 -0.025253458
0.16288279 0.0049283435 0.07980489
-0.005517915 0.35569933 -0.07623427
-0.23809114 0.16945228 -0.039308485
-0.28930002 0.095279284 -0.005471767
-0.28902945 -0.069020666 0.00044004864
0.20735332 -0.14320457 0.080337845
0.24253738 -0.0569174 0.096079886
0.17020275 0.050070647 0.06410002
-0.22183856 -0.21001893 -0.15755081
0.15385416 -0.032035172 0.08372178
-0.0849042 0.25198573 -0.021484207
0.18568598 -0.2175071 0.061745074
-0.18906364 -0.1506456 0.05044787
-0.26301083 0.15571102 -0.018812852
0.30294085 -0.06412639 -0.155039
-0.066711545 0.22347024 0.0014460327
-0.24456246 -0.07394802 0.025632042
-0.2889977 -0.18163717 -0.12070674
-0.23187713 -0.06368109 0.051895086
0.2622712 -0.0929438 0.104199484
0.2963579 -0.052883532 -0.10986684
0.038487084 -0.1806648 0.117590345
0.13554244 -0.06809077 0.0916343
-0.1841465 -0.14345618 0.037957285
0.2892986 -0.1887053 -0.09947072
0.04872403 0.24266317 0.005693569
0.24600951 0.05466393 0.056681603
-0.053548213 -0.20469168 0.10964998
-0.21726009 -0.12893777 0.0627951
-0.17808715 -0.17188102 0.08248612
0.17457798 -0.2574189 0.037921727
0.053125333 -0.2403171 0.09904735
-0.15298328 0.26139116 -0.012535223
-0.23076977 0.12095167 0.0064399512
0.3039154 0.07888831 -0.161512
-0.21165085 0.18303101 -0.023355287
-0.19415012 0.1592989 -0.0074550756
0.1832464 0.18271044 0.011370344
0.09035053 -0.18065943 0.07219869
-0.13191506 -0.082238115 0.068101175
0.048018172 0.21263833 0.0031180955
-0.28401121 -0.03903285 -0.0720337
-0.120119415 0.20116906 -0.012737959
-0.30795664 -0.12051348 -0.10120999
0.15970987 0.25430492 -0.059739634
-0.25683388 -0.13456959 0.04461763
-0.24959765 0.10604983 -0.009597892
-0.053739082 -0.110461056 0.0054861377
-0.28866556 -0.0049042962 0.01364865
-0.0037949714 0.1975 0.01325993
-0.09440841 0.26090053 -0.030263703
-0.13092788 -0.28787404 -0.0413401
-0.05742496 -0.22626254 0.0990188
-0.08644498 -0.19503632 0.066266745
-0.0012087708 0.19152851 0.017666806
-0.28748187 0.19931844 -0.08333952
-0.29382876 -0.1348498 -0.000497229
-0.12703063 -0.12191283 0.057862196
0.11617237 -0.19547205 0.121024065
0.09213325 0.1427155 0.027135288
0.09554136 -0.25936905 0.090944864
0.09448935 -0.068906546 0.07526796
-0.21610337 0.07141439 0.0144270575
0.020490091 -0.15050231 0.06580448
-0.08298191 0.25365445 -0.015443228
-0.048440203 0.094320916 -0.24110067
0.043869335 0.24098401 -0.0017027898
-0.104504466 -0.24361189 0.10381472
-0.12881948 0.09009635 -0.13141678
-0.21943134 0.06851578 -0.011397074
-0.04516708 0.2430203 -0.027596777
0.24447353 -0.07253023 0.122864194
-0.18403296 -0.00081841915 0.03515057
-0.18915705 -0.038568936 0.0064994283
-0.20881207 0.20255111 -0.006497442
0.27362832 -0.06193703 -0.013613623
0.014182883 -0.23040146 0.10362911
-0.029370965 0.10881895 -0.16018392
0.046579078 -0.16785154 0.08292333
-0.08002317 -0.1458039 0.071121186
-0.14116754 -0.1507106 0.08805494
0.29460737 -0.081259795 -0.10095294
-0.14082858 -0.15246752 0.090011105
0.22876438 -0.01655294 0.10659054
-0.18087302 0.22251827 0.00029580496
-0.040138535 -0.16665852 0.09408781
-0.13225704 0.12508337 -0.014092139
0.19222501 0.21416304 -0.021434082
0.16082264 -0.0034746153 -0.116292976
-0.27826527 -0.005420778 -0.14826769
0.051962584 0.1439723 -0.11539196
0.3031021 -0.18709017 -0.013299298
0.2434837 0.0387002 0.06548119
0.26431417 -0.13214824 0.10806979
0.09154393 -0.11115553 -0.021409888
0.27628854 -0.05148771 -0.14663
-0.1240701 0.0773612 -0.14718191
-0.13046564 -0.011485504 -0.16940843
0.13946567 -0.065219074 0.08657318
0.0765886 0.31180406 -0.016678786
0.23196213 -0.057225205 0.07762946
0.22854294 -0.12236162 0.076223016
0.14448777 0.16891408 0.019787604
-0.04290434 -0.13993184 0.09897459
-0.00889252 0.23019548 -0.012762977
-0.010444925 0.17750038 0.017307147
0.0037935178 0.15954502 -0.058215898
-0.122641094 -0.28803924 -0.018275855
-0.30491367 0.17480072 -0.10026671
0.05225274 -0.26390508 0.003783355
0.24378408 -0.10534319 0.09523869
0.057565935 0.1681489 -0.06253003
-0.28586033 0.07779281 0.006011335
-0.301446 -0.12786886 -0.054532442
0.16838102 -0.09230941 0.07807035
-0.109980606 0.17836985 0.011844965
-0.19121331 -0.11851091 0.05914394
0.14671041 -0.22505005 0.12774988
0.06972194 0.16252893 0.020440685
-0.21739174 -0.13717061 0.060229976
-0.14839797 0.06551613 -0.14559536
-0.17998344 -0.1928003 0.076194674
0.23121238 -0.0631625 0.09707029
-0.2023014 -0.11653786 0.060752418
-0.077414304 0.14057054 -0.15239596
-0.012872983 0.12944779 -0.06452544
0.13894571 0.11132166 0.037372533
0.19691564 0.116623014 0.030088834
-0.031825125 -0.3237032 0.074902035
0.09993543 0.24542674 -0.1819164
-0.20917644 -0.038422495 0.051496588
-0.11799115 0.11102036 -0.09344754
0.11349993 0.07486477 -0.034902792
0.19388106 0.20080152 0.052022472
-0.120693415 -0.24540031 0.09971897
0.29428965 -0.00018886646 0.004929541
0.27599755 -0.013570581 0.084480554
0.11008474 -0.28721875 -0.026253175
-0.05204913 -0.30246496 0.09175848
0.06006305 -0.23632993 0.124316595
-0.12187589 0.11231397 -0.12450901
0.056051895 0.32071322 -0.14444897
-0.013293647 0.3004778 -0.038697977
0.23090221 -0.056645703 0.09797101
0.28323695 0.0534022 -0.010524754
-0.18810225 -0.05328977 0.019996366
-0.030915253 -0.35851127 -0.081881404
-0.13237599 0.22928898 -0.017568065
-0.031603556 -0.3426337 -0.072244145
0.028169595 -0.20035627 0.09674652
0.147667 -0.043447427 0.08014959
0.12200228 0.09514998 0.02877964
0.15058555 -0.083926715 -0.11703131
0.27598542 0.040929526 0.034707543
0.18779695 0.23383056 0.039431896
0.18136106 0.19491257 0.027719036
0.010302461 -0.36729124 -0.09207792
0.12864718 -0.052889522 0.033380553
0.028927166 0.119801864 -0.15046386
0.060839392 0.22948255 0.006834008
-0.30646944 0.122492515 -0.016444545
0.0631853 -0.12838769 0.035608068
-0.032946136 0.16334829 -0.05119756
-0.015421067 -0.16234887 0.06196976
-0.15477091 -0.105334595 0.036323335
0.066610366 0.13476308 -0.10930321
0.017075 -0.35387737 -0.14236839
0.1822845 0.14921086 0.04528593
0.29688606 -0.15563007 -0.019977033
0.18833637 -0.1876409 0.09721717
-0.1434851 -0.10784023 -0.0149636725
0.07646164 0.09754678 -0.056049075
0.101798095 -0.27739033 -0.1256658
-0.008363478 0.18604207 4.055959e-05
0.06020156 -0.24120733 0.08614995
-0.21868506 0.013254082 0.032837655
-0.19987237 0.261365 -0.050791956
0.2925115 0.09539674 0.056232344
0.2572575 -0.0072297105 0.09353753
0.14940378 0.12961239 0.052161675
0.11191869 0.19571017 0.01518645
0.11807475 0.102601744 -0.14180711
0.14986815 -0.15670875 0.11181016
0.23717538 -0.2173962 -0.05038052
0.32405967 -0.046468068 -0.1013672
0.021252152 0.19627228 -0.014980088
-0.13059054 -0.14829588 0.08630848
-0.25176018 -0.105515495 0.037727334
-0.29540342 0.14571719 -0.17872322
-0.050949506 -0.23437586 0.1085198
0.11247821 0.20612402 0.007965399
0.23247342 0.06048945 0.09209491
0.1943947 0.14802337 0.047720585
0.2850667 -0.08385232 0.109026596
-0.12360001 -0.25029713 0.0751206
-0.08628645 -0.14764233 0.07038615
-0.24923106 -0.16630426 -0.006460263
-0.29308802 -0.025886964 -0.02516832
0.023690887 -0.17639737 0.07273288
-0.07799019 0.1718736 0.0012741786
0.23916367 0.0848455 0.081457086
0.2480366 0.08224802 0.054899756
0.23028518 -0.10006052 0.11955328
0.04622917 0.2877248 -0.022630597
0.20011386 0.13945995 0.026507253
-0.3298982 -0.09185788 -0.005944364
-0.05086023 0.32303149 -0.022131383
-0.17715554 0.13681376 -0.0004433162
0.056592148 -0.31527838 -0.047884677
0.24530004 -0.13067207 0.11036041
-0.23870556 0.10426852 -0.008196737
0.12616749 -0.087619625 0.09158128
-0.12681086 -0.23193482 -0.027735537
0.04836179 0.22143692 0.015647214
0.1750316 -0.098799005 0.10846806
0.24659434 0.19430815 0.03386003
-0.029881263 -0.31676772 0.0009693108
0.11819538 -0.25156537 0.07020557
-0.1542478 0.25599685 -0.016156986
0.024615908 0.20370112 -0.017592771
-0.119065896 0.10559866 -0.123934135
0.07461366 -0.19152158 0.08135992
-0.024866609 -0.1469932 0.06354
-0.235532 0.19706288 -0.047738027
0.16404572 -0.05562268 0.0958591
0.05595654 -0.15327564 0.10984775
-0.21216497 -0.13532957 0.05258762
-0.008710067 -0.2447204 0.08004173
0.1675118 0.20194793 -0.11738048
-0.22548743 -0.12468062 0.060635027
0.21819563 0.17295049 0.043252986
0.22053356 0.14500564 0.050530788
0.18456353 0.22230561 0.031954363
-0.25636402 0.05545255 0.0042819246
-0.22318995 -0.1446091 0.04875066
-0.22751929 -0.1915914 -0.15356648
0.23401688 -0.19729848 -0.09473986
0.17297481 0.024613604 0.08854658
0.19883223 0.19264731 0.03421174
-0.09760715 0.27447534 -0.04656039
0.011053969 -0.34115836 -0.118938014
0.12161855 0.24722467 -0.14619263
0.090054356 -0.11094032 -0.0032999667
-0.29061666 0.14524193 -0.02838865
0.035853725 0.27451015 -0.013928152
-0.15020737 0.10612397 -0.020822387
0.10790318 -0.27787054 0.046076782
0.2845594 -0.0648343 -0.12708913
-0.2621563 0.14431104 -0.025174443
0.11793692 -0.17113759 0.08546274
0.20375532 0.09555648 0.04814795
-0.18197204 -0.23009978 -0.0854527
0.14341775 0.13309073 0.050795496
-0.110343315 -0.20828378 0.0779553
0.06057093 0.17978999 -0.04220648
0.13671866 0.047642242 -0.021079242
-0.2522988 0.07441123 0.010192035
0.1402651 0.27045533 -0.01636272
-0.2713935 -0.02443289 -0.0044581485
-0.10326842 0.12466376 -0.007843533
-0.2726154 0.0023813234 0.013806374
-0.018175427 -0.3402362 -0.0061124717
-0.27287933 -0.08852118 0.045059334
-0.050098676 0.30122924 -0.038589984
0.16535148 -0.25232145 0.024324
-0.13528502 0.17615198 0.0011500394
0.25028077 0.16799635 0.06444947
-0.26410753 -0.14254646 0.042729244
0.27121398 0.13651243 0.043158397
-0.110978454 -0.25095397 0.11866706
0.050651502 0.19707106 0.012856415
0.16677581 0.18721358 0.04100882
-0.2877345 -0.044281 -0.042051427
-0.23070723 -0.09071166 0.06353732
-0.18976735 0.18714876 -0.039887246
-0.006540664 -0.23588589 0.10172215
-0.23376371 -0.08531481 0.053796336
-0.1138369 0.19762756 0.0022392694
-0.13057609 -0.15500595 0.082981
0.28032595 -0.03534445 -0.0903617
-0.08185245 -0.2851027 0.045439735
-0.016937623 -0.19133702 0.06498966
0.122717574 0.085628055 0.029735738
0.14021148 -0.025745269 0.069664404
0.25614515 0.09688929 0.03950633
-0.17681096 0.12002948 -0.0014354135
-0.24750973 0.18012242 0.00477373
-0.119613044 -0.29645887 -0.110067606
-0.30728525 -0.06357581 0.039288115
-0.15073718 0.005882828 -0.06593326
0.051364742 0.1334039 -0.01201442
0.033802405 0.3275156 -0.01227676
0.3096046 -0.15873532 -0.08218472
-0.14449064 -0.2652611 -0.046049446
-0.29103628 -0.00028886157 -0.12671681
0.26418826 0.19906716 -0.00058467797
-0.22320178 -0.15796778 0.061458007
0.22397089 0.12999913 0.04042948
-0.13658382 0.19205745 -0.040110294
-0.14161542 0.005273577 -0.0155976005
-0.039881088 0.25294214 0.015974317
-0.12963147 -0.06734107 -0.020642595
-0.14705211 -0.24090473 -0.17231295
-0.275419 -0.07463935 0.022111243
0.16841464 -0.21366085 -0.034799382
0.027452955 0.19442362 0.009104727
-0.15256712 0.102221705 -0.018929914
0.030769622 0.32596052 -0.045753013
-0.051101033 0.18942145 -0.00921496
0.06858475 0.1291872 -0.00944817
-0.21114223 -0.03110137 0.039953575
-0.06486829 0.2440027 -0.024717843
0.29266217 -0.051297903 0.0641592
-0.10124772 -0.21691258 0.104548186
0.011704798 -0.22604455 0.08966703
0.16787359 -0.25339314 -0.06615855
-0.118199326 -0.13408312 0.08034816
-0.089547314 0.21128553 -0.027678581
0.16642965 -0.047976658 0.08834101
0.023410296 -0.18317941 0.12288379
0.24040534 0.1803946 -0.09324281
0.089445665 -0.2723385 -0.019503033
0.13061093 0.14500824 0.049952276
-0.05610951 -0.33376956 -0.051640477
0.22962691 0.17315264 0.017652279
0.12971754 -0.12902799 0.0804455
-0.30413532 -0.09803979 -0.04733622
0.14682727 0.17864281 0.03418951
0.26585636 0.013180411 -0.03255358
-0.13988325 -0.06945441 -0.033262476
-0.056287732 -0.2045017 0.08808881
-0.16676918 -0.24420264 0.045052454
0.020850977 0.2936577 -0.22817066
-0.12817301 -0.048217203 -0.20760156
0.115964115 -0.023179432 0.053379368
0.118919715 -0.09854333 0.072797745
0.313688 0.15039894 -0.13437808
0.041270677 -0.27966338 -0.0047591254
-0.15205163 0.14419025 0.012400595
0.0014038327 -0.18831271 0.07133782
-0.065499306 -0.16215543 -0.10733453
0.04025493 0.24477369 0.01608574
0.06267088 0.28434387 -0.00879038
-0.11324281 -0.2102633 0.09920375
-0.21871305 -0.023237962 0.043759216
0.20925243 -0.15656327 0.076370716
0.19829501 -0.17841366 0.10909056
0.25599754 0.10480309 0.04859672
0.1542826 -0.102451615 0.09837063
0.0900073 0.18582456 0.02082953
-0.036071066 0.30169627 -0.043509744
-0.051613007 0.35241222 -0.03461982
-0.07511432 0.23648494 -0.0064429184
-0.093509875 0.16903272 -0.019705867
-0.0029391076 -0.33350617 0.0283072
0.22975719 -0.20945615 0.0012717766
-0.13898756 -0.008014187 -0.113569245
0.16261563 -0.05919782 0.058280047
-0.17455797 0.250431 -0.04345719
-0.16523395 -0.24100713 0.094345845
0.11403409 0.3015706 -0.057366814
-0.035388004 -0.10272172 0.016690332
0.14073744 -0.21738052 0.049710445
0.19964407 0.09196651 0.0285992
-0.14622445 -0.058285438 0.033901818
-0.11920514 -0.22327861 0.10392551
-0.10834002 0.1038741 -0.03127303
0.07931304 0.27248225 -0.007961714
0.22821634 -0.027079133 0.07309132
0.2754908 -0.06608257 -0.09293144
-0.16964187 -0.095757075 0.06203822
0.29015028 0.015986612 -0.12526295
-0.06618276 -0.122467704 0.091283515
0.2960972 -0.18942402 -0.07499981
0.1903216 0.22427756 0.041367847
-0.0980587 0.10866478 -0.26387355
0.21580799 0.19387361 -0.0930061
0.0004076659 0.17249668 0.020725824
0.117461294 -0.16031091 0.083462745
0.24808954 -0.13704197 0.119031005
0.042429652 -0.29666325 0.076416984
-0.19461663 0.055691782 0.017453616
-0.15059093 -0.24299872 -0.030158592
-0.16116914 0.084969126 -0.0512314
0.1683794 -0.24604765 0.0015949816
-0.139252 0.11954904 -0.0034839816
0.15344425 -0.24255009 -0.055333547
0.18080847 -0.2293692 0.066121235
-0.0500822 -0.15833904 0.086489916
-0.2766507 -0.015417635 0.0465186
-0.22420214 -0.13462824 0.04992562
-0.0019328695 0.32308626 -0.21720058
0.28642732 -0.02092459 -0.04026198
-0.0912406 0.26090288 -0.024836138
-0.12747082 0.058855593 -0.14547011
0.13773404 0.015127599 0.020829588
-0.040504012 -0.2973063 -0.07758987
-0.18341765 -0.1554455 0.035654113
-0.24603797 -0.0015763706 0.036163352
0.13065217 0.093094304 0.01177661
0.028116442 -0.16859643 0.10166381
0.25901777 -0.16362077 0.007031187
-0.27832597 -0.16093984 0.023465138
0.04532227 -0.15213268 0.07109119
-0.2687379 0.0035632104 0.002907468
0.2135519 0.082750484 0.04762929
-0.13443427 0.036450416 -0.1773907
0.15005589 -0.18577665 0.0831173
0.103117995 0.25922412 -0.0045211166
0.16680099 0.06542648 0.036956117
-0.21780546 0.15202917 0.003910923
-0.27133012 0.06659399 0.012516297
0.27157772 0.09240283 -0.027397534
0.005497633 0.20991613 -0.01953976
0.15688473 -0.04666905 0.087441854
-0.13579504 0.08753079 -0.09571146
-0.22914357 -0.0026694147 0.02726968
-0.087834865 -0.11827248 -0.0017460965
0.06634535 0.32636318 -0.12509674
-0.06272836 0.27643234 -0.21588051
0.11633078 0.08018241 0.051221646
0.09155508 -0.19395585 0.10644412
0.09849523 0.23736623 0.020210005
0.09352363 -0.13910079 0.09254615
0.20028904 0.15190718 0.022770694
-0.012609472 0.29030958 -0.045552056
-0.21551266 0.16886885 -0.014229278
-0.1428321 0.23942424 -0.00039238244
0.20945369 0.07786872 0.053870037
0.077266425 0.09255773 -0.058998406
0.23729739 -0.17027752 0.10163617
0.027985895 0.2654458 0.0151546355
0.29429072 0.14297484 -0.074053474
-0.12379436 0.13214634 -0.062850356
0.11285824 0.26750845 -0.075232945
0.15476355 -0.2189026 0.0345407
0.24467804 0.2020023 -0.17883806
-0.07821411 0.23673575 -0.03191316
-0.030031035 0.29577464 -0.023849651
0.09535054 -0.26687884 0.019377664
-0.0891529 -0.28766817 -0.14970545
0.27636558 -0.01883965 0.039237283
0.07379392 0.28154415 -0.25266007
0.21150637 0.14488028 0.03314825
-0.1698018 -0.12972702 0.058753688
-0.15794641 -0.22010829 0.07344719
-0.25375357 0.15354548 -0.036145546
0.13877374 0.28585956 -0.021929651
0.08472926 0.30346498 -0.029564338
-0.024750976 0.22996981 -0.025240488
-0.12987936 -0.10813967 -0.18241629
0.20207438 -0.09691012 0.07826117
0.107981145 0.21248528 0.028410736
0.0885715 0.2961423 -0.004701574
0.23727493 0.19645369 0.036083743
0.11236579 0.27431074 -0.17519593
-0.17369968 0.11122729 0.012032667
-0.19070078 -0.07803654 0.037370425
0.0143849645 0.32582396 -0.040090825
-0.11872197 -0.16952927 0.08373819
0.029162478 -0.13971777 0.07992161
-0.013820077 -0.2976282 0.043535788
-0.3060063 0.1761714 -0.037696026
-0.24540925 -0.16484842 0.0392624
0.28932732 -0.079618685 -0.08956982
0.13227162 -0.021717058 -0.12784061
0.12798837 0.17572482 0.01774333
0.17747012 0.13191986 0.029083397
-0.035395097 0.13347255 -0.17559163
0.08302394 -0.10328604 0.09301007
-0.16920209 0.17478952 -0.02671147
0.13548708 -0.14371066 0.08812907
-0.25503424 -0.043222424 0.012469663
-0.19912529 0.17221673 -0.030378904
0.08619903 0.15940313 0.017191622
0.22848701 0.002256272 0.06610035
0.2365406 -0.09797307 0.0837645
-0.024070062 -0.2871329 0.098705366
0.2578176 0.10058996 0.051182948
0.21609259 0.17657322 0.025441943
-0.010447801 -0.27834636 0.123544335
-0.27254942 0.2096278 -0.026501365
0.045946658 0.21851745 -0.01595911
-0.11428345 0.15325004 -0.12203867
-0.22747897 -0.08349253 0.054025926
0.11619528 0.047361266 0.0432282
0.020444093 -0.21411078 0.09420228
0.06315479 0.26861554 -0.18965244
-0.121637195 -0.073124036 -0.031586625
0.31080648 -0.070120595 -0.080972776
0.2133834 0.23178163 0.013582549
0.11285446 0.16900624 0.006222001
0.075807996 -0.19979683 0.07927553
0.03258232 -0.15101878 0.08419596
0.1871279 -0.04822334 0.078344695
-0.18679337 0.18375383 -0.038089797
0.0368031 0.2796918 -0.010662049
0.0017599382 0.32468978 -0.05989264
0.17134023 -0.11027793 0.111208774
-0.25140303 -0.23416688 -0.14993854
-0.2918074 0.03906763 -0.021530468
-0.077518225 -0.24950945 0.052908108
0.3125017 0.1315968 -0.20146306
0.07059355 -0.1327229 -0.14556658
0.07169632 0.28927657 -0.23340029
-0.10304337 -0.10077702 0.03221741
-0.1329152 -0.07927675 -0.12020304
0.15727623 -0.2225069 -0.038343213
0.23814575 -0.0019567974 0.07111891
-0.16408187 -0.19142486 0.060545173
-0.30788812 -0.023987304 -0.10571363
0.030929847 0.19947278 -0.01670642
0.05599835 0.13473015 0.0021015208
0.16818288 -0.18123133 0.049870204
-0.17381574 0.17735772 -0.016960256
0.12415774 0.14687851 0.030460222
-0.23446478 0.09037871 -0.022615496
0.026052006 -0.34139097 -0.018872766
-0.031386748 0.27285528 -0.033708632
0.11892573 -0.024538146 0.06413329
-3.284534e-05 0.14948352 -0.067479186
0.26328677 0.048992876 -0.058393348
0.22233285 0.17636578 0.02582722
-0.10842577 -0.13621117 -0.15952498
-0.11251883 -0.025711698 -0.09879142
-0.19484617 -0.049720094 0.046904717
0.14730933 -0.21156852 0.13138004
0.2715734 -0.055076092 -0.046403546
0.17622498 0.027231062 0.07307205
-0.046063572 -0.23955463 0.108370155
0.15189773 0.021058347 0.09086359
0.2083312 -0.23204182 0.03816306
0.26610285 0.08880578 0.033091843
0.11349259 -0.25025353 0.0038021707
-0.16316111 0.07073643 -0.037981443
-0.1496005 -0.041369196 -0.0025522471
0.2509803 -0.16187765 0.055285625
0.16870248 0.15701358 0.051559974
-0.10991925 0.10692142 -0.18612765
0.25846276 -0.09351951 0.084902406
-0.07443586 -0.22836497 0.088355556
0.28444093 -0.1010444 0.11920857
-0.1356956 0.047813945 -0.11523393
0.07567938 0.13903022 0.015792243
-0.24712695 0.13175203 -0.027397104
