# .PCD v0.7 - Point Cloud Data file format
VERSION 0.7
FIELDS x y z
SIZE 4 4 4
TYPE F F F
COUNT 1 1 1
WIDTH 1000
HEIGHT 1
VIEWPOINT 0 0 0 1 0 0 0
POINTS 1000
DATA ascii
0.18048051 -0.21587433 -0.04593572
-0.035994876 -0.23841521 0.028682012
-0.053929973 -0.14279504 -0.01361898
0.17537148 -0.10115822 0.17479512
-0.08002084 -0.20562819 -0.025555644
-0.23731747 0.10953797 -0.079343006
0.077239275 0.021165151 0.17429145
-0.25832483 0.053277846 -0.12412701
-0.06606028 0.29041964 -0.054512743
0.13260582 -0.20359203 0.08040507
0.051473495 0.019515386 0.07152895
-0.15735343 0.043837648 -0.15325803
-0.07683457 0.10574877 0.009368023
0.1339414 -0.27058607 -0.1563761
-0.11064785 -0.16288497 -0.060160622
0.006431001 0.2366238 0.06629985
-0.027893273 -0.30080664 -0.07819934
0.065690696 -0.013700573 0.106011726
0.059767853 -0.21251005 0.091243654
-0.20057374 -0.028189246 -0.106666885
-0.2162938 -0.15817788 -0.098020926
-0.14584908 0.15786973 -0.051884722
0.25465986 0.017293481 0.06344842
-0.064942025 -0.22978565 -0.0026426204
-0.10553888 -0.04752419 -0.108265676
0.11728252 -0.013213179 0.15442884
0.15655681 0.19664481 0.09268724
0.14975333 0.018499698 0.14414203
-0.16191374 -0.25051585 -0.08814953
-0.013686506 -0.18490331 0.04440705
0.06787716 0.21646088 0.1427413
0.24273239 0.03564316 0.017709123
0.022602962 0.08520582 0.14700922
-0.22476038 -0.033341985 -0.13607769
0.07741036 -0.08248483 0.11606351
-0.14915149 -0.10909248 -0.10200614
0.16577768 0.085420966 0.12759143
0.27742898 -0.01390612 0.054381583
-0.17337787 0.1715953 -0.059490193
0.010812902 0.14829047 0.09578218
-0.191586 0.19372723 -0.050171353
-0.05773722 0.041195706 -0.20820868
0.019773902 0.13683288 0.1077441
-0.14115071 0.27550992 -0.052859724
0.23835647 0.0047336295 0.051429488
0.0013252201 -0.3057577 0.0011201927
0.11089425 0.20214804 0.03564833
0.17456195 -0.21966386 -0.07131184
-0.15970014 0.0116978455 -0.14842267
0.08348777 -0.09588966 0.14415275
-0.22318237 -0.17783064 -0.15914133
-0.19348915 0.0041402164 -0.08011033
-0.17603993 0.17583539 -0.028489374
-0.19030261 0.08659413 -0.054069217
0.07401064 -0.21277532 0.12947308
-0.077803835 0.12171983 -0.019029317
-0.1752414 0.13460566 -0.069825314
-0.17848696 0.02186416 -0.12011248
0.2302347 -0.110203385 0.12830254
-0.29202154 0.033853516 -0.18063
-0.040776357 0.0879232 -0.17850009
0.18846942 -0.21697333 -0.021530861
0.16333514 0.12051924 0.10303032
0.11761017 -0.1502538 0.16092762
0.031177368 0.12043457 0.12522218
-0.20596023 0.1768521 -0.12545358
0.11723534 0.12595853 0.13893485
0.09144434 -0.23103558 0.056562062
-0.062213235 -0.121595345 -0.09122673
0.19172716 0.015661435 0.1164723
0.0052594603 -0.27909786 0.04557244
0.18506733 0.09873067 0.039954312
0.022363298 -0.18265033 0.091562964
0.044789102 0.20480047 0.08032001
-0.11386837 0.22421955 0.013067787
-0.26971188 -0.042911507 -0.18916634
-0.029797005 0.088885285 -0.21659124
0.10738737 0.231056 0.08121785
0.001079171 0.19732381 0.12697503
0.09269727 -0.17786185 0.123961136
0.15697704 -0.040592052 0.19250526
0.055886608 0.17179729 0.15367109
-0.25570837 -0.027852612 -0.13574894
-0.21547125 -0.108469486 -0.0928345
0.104421444 0.18260293 0.14732455
-0.09910449 -0.111679286 -0.14394762
0.036084753 -0.101401806 0.0896205
-0.13126369 -0.061831187 -0.14545211
-0.18423766 -0.20669131 -0.10413415
0.0072368896 -0.21963766 0.04845156
0.07658416 0.2544237 -0.045278512
-0.14385751 0.25946233 -0.09519051
-0.09652814 0.021735575 -0.15907653
-0.062114064 0.24527302 0.042670973
-0.085330345 0.27676514 -0.036131196
0.20418118 0.22358596 0.016679052
0.11224231 0.15781827 0.1600198
-0.10245102 0.29497954 0.016595887
0.046195764 -0.11369174 0.105690524
0.21729192 0.1030871 0.061176114
-0.06282279 0.048884645 -0.22713152
0.14036864 -0.034679968 0.1477805
0.2414591 0.099137135 -0.004164653
-0.08532686 0.26735047 -0.026594704
0.07239885 -0.12888137 -0.06296449
-0.1317954 0.26663977 -0.0829259
-0.13971722 0.036747713 -0.079441644
-0.17713122 0.044158824 -0.10787215
0.09577554 0.23223828 -0.06135045
-0.19485955 -0.04326442 -0.07903173
0.1497966 0.18552274 0.088656925
0.11034212 -0.16571611 0.14938053
-0.16866285 -0.06173373 -0.08058299
0.059681322 -0.1939453 0.10087642
-0.18017012 0.14390187 -0.023558386
0.18345563 0.22038095 -0.0386682
-0.03287075 0.31511134 -0.1759944
-0.06542833 -0.26960546 -0.057876274
-0.18556876 0.0776033 -0.075704046
0.1953919 0.062451206 0.06889056
-0.055900805 -0.27913472 -0.02166163
0.25494632 -0.046953537 0.060043607
-0.30349398 -0.05022822 -0.17641418
-0.12056431 0.14661211 0.020582706
0.2124579 0.0983166 0.070341006
-0.14136676 0.18588437 -0.005951877
-0.17874366 0.18802366 -0.0010772104
0.16455986 -0.0603804 0.155404
0.12080447 -0.014178085 0.16890095
-0.1486349 -0.14423768 -0.07511155
-0.1099878 -0.11025888 -0.10694638
-0.043632682 0.2602992 0.0014542263
0.1944749 -0.15079656 0.040853776
0.06166909 -0.16422862 0.10165956
-0.1856676 0.1637487 -0.06691413
-0.09483548 0.25828984 0.04628848
-0.0704894 0.20611934 0.040007968
0.14914906 0.011289677 0.16835678
0.21788017 -0.0142560825 0.11036276
0.17345908 -0.087950364 0.1719593
-0.045290664 -0.20840761 0.043430127
-0.22462441 0.069703735 -0.0645346
-0.1453346 -0.118484646 -0.10712817
0.10166362 0.1391774 0.16610321
0.13486741 -0.048886508 0.18612574
-0.14466888 0.26107904 0.0054894453
0.2617147 -0.023341943 0.028325351
0.07359048 -0.099252366 0.122129805
-0.08434723 -0.26167983 -0.06177947
0.016067522 -0.18692781 0.06025322
-0.17717567 -0.0659039 -0.11816987
0.07692693 -0.19070174 0.1360313
-0.26703736 -0.13079378 -0.17299068
0.06137212 -0.25642854 0.06055488
0.18694946 -0.14661579 0.09045629
-0.13916318 0.17108327 -0.03243365
-0.1132709 0.1510683 0.01392169
-0.10234798 0.21971156 0.019817926
0.07236176 0.056246012 0.16291817
-0.0033870777 -0.2315333 0.04243997
0.054462336 0.20710362 0.16434897
-0.052552912 -0.1600071 -0.11604322
0.15258789 -0.031314068 0.16768739
-0.11902158 -0.095821075 -0.14470828
0.04800361 0.23361343 -0.013582492
-0.256017 -0.086525634 -0.15588346
0.19348054 -0.07406811 0.10461908
-0.24903767 -0.099802494 -0.11901483
-0.13989295 0.24895829 -0.00785904
0.21380699 -0.16991518 0.004502628
0.0052782213 0.11597891 0.08359785
-0.10040149 0.27162197 -0.029635336
0.20390981 0.20838296 -0.022567358
-0.06927205 0.19240403 0.052775245
0.17529108 0.24551912 0.0251284
0.10663382 -0.19480444 0.056830905
-0.18399554 -0.20425956 -0.121950746
-0.08989846 0.2648439 -0.07146465
-0.2986261 0.09321765 -0.1816893
-0.2305607 0.011187831 -0.078415915
0.007537458 0.15504484 0.108752795
-0.16093868 -0.01499297 -0.14215872
0.15605894 -0.29700366 -0.12072924
0.03789886 0.28260556 -0.11357763
0.18512198 0.14816006 0.038199864
-0.27580693 0.06913195 -0.13769203
-0.011148262 -0.17636772 0.036228776
0.17861186 -0.17847954 0.050098155
-0.18850021 -0.14071195 -0.12545234
-0.030651843 0.12253309 0.042656615
0.0031970958 -0.25653803 0.02481969
0.20804717 -0.11969054 0.063272744
-0.037791967 -0.16746917 -0.065210596
-0.04064469 -0.18968378 -0.019707179
0.0063397414 0.21321447 0.10196757
-0.030035198 -0.19657347 0.031990398
0.10476469 0.17179875 0.13940111
-0.24852206 -0.045518108 -0.14926296
0.078376494 0.2857123 -0.04795749
0.039867852 0.052257784 0.124019966
0.031829707 0.06501087 0.110958576
-0.097756185 0.18163316 -0.0036500415
-0.017808136 0.2892112 -0.05165115
0.19250366 0.16068894 0.044891916
0.25249022 -0.06678452 0.061882026
0.020163648 0.08847155 0.064869486
-0.21686305 0.14939818 -0.10135446
0.1382769 0.1915942 0.14472409
0.056992963 -0.0415848 0.08570442
0.09071361 0.046002112 0.16600695
0.23759247 0.08176146 0.025893195
0.15172328 0.2326726 0.036283784
-0.123219445 0.14000665 -0.3475637
-0.16457756 -0.22111054 -0.09244189
-0.20454483 -0.061400138 -0.11573725
-0.14767328 -0.21772268 -0.18780038
0.15823616 0.19204009 0.09485072
-0.02854803 -0.25551578 -0.0036404207
-0.26862422 0.07668809 -0.17973374
-0.083073094 0.2485357 0.029933613
-0.07499089 -0.06574526 -0.17053312
0.20185755 -0.20640373 0.00052097515
0.18267477 -0.110456236 0.18022907
-0.119567454 -0.24913521 -0.02600534
0.13515788 -0.29643434 -0.08301498
0.13754775 -0.13243438 0.13489702
0.06004019 -0.28136438 0.05053189
0.14248863 0.21670565 0.07409631
-0.09249517 0.2682416 0.014883618
0.024195805 0.113536954 0.110340364
-0.28791222 -0.066215254 -0.1471722
0.049391884 0.17758895 0.13311787
-0.07645399 0.25085476 0.053903304
-0.029691808 0.2878069 -0.038522903
-0.10814279 0.21398354 0.035550736
0.08597095 0.16872352 0.17993563
-0.114544146 -0.074594595 -0.13610645
0.10434716 -0.27463096 -0.029805826
0.056291565 -0.07298704 0.11307008
0.04115956 0.09944052 0.1373877
0.22747286 0.08128246 0.013153222
-0.07110889 0.09587592 -0.05975502
-0.010877099 -0.2947471 0.015064862
0.08567584 0.1532342 0.17939596
-0.019943306 -0.17506336 0.04848647
-0.12870453 -0.0026422916 -0.15228203
0.23745704 0.007882633 0.020513294
-0.22265317 -0.18416005 -0.1560471
0.24829514 -0.031460613 0.059672534
0.25349098 -0.15131578 -0.046543572
-0.07116429 0.111289464 -0.14273867
-0.28595674 0.026209759 -0.17980723
-0.009247827 -0.2701069 -0.00034620336
-0.20334719 -0.16236088 -0.13797678
0.15332596 0.24214366 -0.005788169
0.21664299 -0.06045648 0.05660798
-0.16072457 -0.15182067 -0.07600369
-0.13453113 -0.07756607 -0.19369842
-0.20766817 -0.13529398 -0.118600994
-0.17619377 0.028580295 -0.12214606
0.0065801744 -0.14244755 -0.017451428
-0.20809853 -0.12625332 -0.104221135
0.23932576 -0.061642237 0.044281755
0.18475458 0.05789914 0.08422837
0.23612791 0.19141616 0.03593975
0.17942722 -0.16983794 0.100770436
-0.0697777 0.16115138 0.071371704
-0.18841116 -0.0485563 -0.10161105
0.13149482 0.04668365 0.17673913
0.15114981 0.14349915 0.12231481
0.22292891 -0.10946764 0.08967723
-0.11457629 -0.13420641 -0.09088226
-0.04144984 0.2505568 0.026248556
0.059244633 -0.14984179 0.08410939
0.27330804 0.068273276 0.0261058
0.041922312 0.24318984 0.00199763
0.22653073 -0.080731966 0.056995243
-0.16862737 -0.1611825 -0.11090455
0.008529041 0.26880124 -0.018589936
-0.13994233 -0.18369949 -0.04746314
0.14998241 -0.1224892 0.13829717
-0.08971949 0.16729096 0.032791805
-0.20517685 0.053258073 -0.09273306
-0.26302183 -0.09090744 -0.15166397
0.048789408 0.23970996 0.04456313
0.1696372 -0.18682179 0.02847088
0.3013801 -0.032018542 0.04595791
-0.01189858 -0.14871003 -0.12156642
2.0996642e-05 0.250323 0.07338176
-0.042729914 0.06281771 -0.20681287
-0.11538548 0.10885553 -0.039012868
-0.23514491 -0.012368405 -0.13530952
0.18700835 -0.18434425 0.019516338
-0.100544386 -0.070222676 -0.17595924
-0.1067727 0.030259367 -0.1552451
0.055202626 0.0764638 0.11502759
0.02455888 0.2854659 -0.12000638
0.13243262 0.15592332 0.13649988
0.17042507 0.034170207 0.17312205
0.10226064 -0.29652745 -0.052581284
-0.048642214 -0.22323696 -0.00011672792
0.05418508 -0.12561701 0.096656166
0.19063793 -0.13599005 0.02936368
-0.124867246 0.21942186 0.019344961
-0.12287014 0.003428398 -0.16218796
-0.15472545 0.08696282 -0.07239157
-0.24384852 0.03498543 -0.15257373
-0.1523192 -0.20428707 -0.09715121
0.08053356 0.106514126 0.15299712
0.16172175 0.044271436 0.15054706
-0.23747297 0.058842123 -0.13889189
-0.23550974 -0.039955694 -0.099491805
-0.09582337 -0.052485175 -0.1659899
0.18806301 -0.23570748 -0.063594215
0.16517213 -0.16177717 0.113861844
-0.041383505 0.0284488 -0.2702549
0.051645827 0.16929281 0.1476192
0.061237637 0.05487682 0.14930554
-0.13764308 0.1696596 -0.0055700466
0.25039223 0.07245042 0.020408835
0.04406242 -0.071411625 0.15222579
0.13076684 0.24017915 -0.04941744
0.2616498 -0.0039807553 0.0066119717
-0.06256576 0.12331328 -0.013584662
-0.035547595 -0.2354797 -0.1796535
0.16274716 -0.06481175 0.1381756
0.04470558 -0.11397462 -0.09261441
0.16015877 0.045477107 0.1006614
0.05309325 0.20052986 0.15266421
-0.16081557 0.21162443 -0.029947842
0.23332474 -0.20956811 -0.08284068
0.016811611 -0.20209846 0.077537745
0.24175657 -0.0066563706 0.05804579
0.24904156 0.004228329 0.039730974
0.11129638 -0.09181293 0.13288432
-0.19837509 -0.036207452 -0.09142253
-0.23970094 -0.0835506 -0.12745705
-0.24675553 -0.12559861 -0.14340158
-0.081882715 -0.28715643 -0.10898003
0.09579902 -0.2010122 0.1088832
0.18653624 0.0444847 0.1044615
0.22754359 -0.03389681 0.09089047
0.15196541 0.13750142 0.10207476
-0.036259618 0.16230583 0.057374753
-0.023313748 -0.25337872 -0.0036778315
-0.07477862 0.10164754 -0.04487146
0.032254543 0.12804279 -0.13941981
-0.0030200887 0.16037112 0.11941522
-0.09101422 0.26180685 -0.06679682
0.031215573 0.26430544 -0.005391179
-0.032858353 0.12282179 -0.15973333
0.096694835 -0.19052906 0.12067848
-0.09036103 0.29136363 -0.07501532
-0.15965985 0.065070294 -0.09952059
0.044942927 -0.2804661 -0.14029199
0.044892967 -0.04797948 0.103375964
0.20009065 -0.2375325 -0.12066545
-0.2613535 0.009117774 -0.11199075
-0.13636999 0.053021368 -0.06810769
0.27882475 0.011960202 0.03804272
0.07371785 0.011413328 0.18351682
-0.12157929 0.22634262 0.010371382
0.06931747 -0.30759647 -0.01651091
0.16938218 0.22933121 0.0570984
-0.13393877 0.23547208 0.004860608
-0.15945724 -0.18637703 -0.11549313
-0.11717351 -0.28979883 -0.09565006
0.17707025 0.090710916 0.12658493
-0.034802474 0.10156899 -0.16694516
0.29846925 -0.03959662 0.036983125
-0.18519022 -0.09440032 -0.08134504
-0.23004578 -0.024706826 -0.15648124
0.074242026 -0.20613535 0.123307824
-0.20987998 -0.06868921 -0.09437443
-0.19539958 0.017805941 -0.06885543
-0.05141624 0.039985362 -0.19784746
-0.17708476 -0.2122416 -0.10886178
0.20232794 0.015028448 0.08517904
-0.11407326 -0.079371996 -0.108068846
0.03733418 -0.26588345 0.06735255
0.06552266 0.17552495 0.15200217
0.050311293 0.083836235 0.11161709
0.26289746 -0.0783614 0.05868942
-0.07999559 0.10276331 -0.13354163
-0.13855709 0.03950567 -0.13236456
0.07960199 0.19052248 0.15211862
0.13882296 0.15354156 0.092552185
0.2001095 -0.116972774 0.082896434
0.09245991 -0.18309648 0.1244026
0.18487543 -0.10216925 0.16720463
0.18341276 0.18446155 0.0443527
0.102165915 -0.13156343 0.13530578
-0.06778818 -0.15837711 -0.07155307
0.19077118 0.19863708 0.08686577
-0.19869326 0.12565954 -0.05173573
-0.008554413 -0.33238295 -0.028190667
0.17380953 0.20648783 0.041393466
0.21942587 0.21012108 -0.01470545
0.0023537108 0.1796699 0.078743175
-0.18292549 -0.034836605 -0.11923367
-0.0032436366 0.18424723 0.11534716
0.12849355 -0.2639528 -0.07189289
0.11270288 -0.028261388 0.18304841
-0.18763717 0.07907249 -0.070333935
-0.017724475 0.15098235 0.10713335
-0.16865882 -0.16290252 -0.100558154
-0.20365736 0.09687617 -0.059464376
0.05076637 -0.11698413 -0.14385186
0.04156676 0.05607011 0.12324291
0.12137594 -0.23033565 0.020542484
-0.08062605 -0.1987843 -0.045231536
-0.2826779 0.025018154 -0.16377571
0.0748959 0.09241015 0.18165039
0.036590368 -0.11459131 0.08891454
0.248446 0.012129424 0.08072341
-0.18515483 0.19439529 -0.045742717
0.21599463 -0.14895575 -0.017970173
0.13525717 0.06714943 0.1302757
0.1450982 -0.07649562 0.17336647
0.19565722 -0.041044306 0.14460894
0.131194 0.110364355 0.121445216
-0.0801699 -0.11698598 -0.113578975
-0.17235401 0.019082943 -0.1383497
0.054847464 -0.15222684 0.06774631
0.19449483 -0.015955124 0.11646968
-0.09497074 0.20112805 -0.20256054
-0.07443481 0.20532832 0.060562685
0.22149898 0.16827376 0.043323692
-0.24740706 0.14665668 -0.09208984
0.076063655 -0.08900385 0.15117595
0.010558511 0.28216186 -0.044017613
0.20307776 -0.08811126 0.13943982
-0.0008763009 -0.14992437 0.034133583
-0.044994425 -0.26479587 -0.031286262
0.09604256 0.24793586 0.053302698
0.005868887 0.2364276 0.034646228
-0.16930866 -0.07109512 -0.10587183
0.036543198 0.04854268 0.11922189
0.015603698 -0.3126126 0.035271615
0.045408677 0.08314195 0.14598326
-0.11816069 0.14240022 -0.011312537
0.20594357 -0.006566632 0.09667465
0.13375117 -0.032084048 0.17079975
0.2215308 -0.09469418 0.10237038
-0.16622159 -0.06487805 -0.12670611
-0.094438285 -0.009309545 -0.2002814
-0.09442245 0.14924335 0.030269796
-0.1657427 0.20756887 -0.0411533
0.099817485 0.17624103 0.10943081
-0.018396495 0.25617787 0.0038549306
-0.22063065 -0.1597126 -0.120208055
0.038058005 -0.1658324 0.09487293
0.0794273 -0.24937823 -0.01718711
0.10768609 0.08372152 0.13914827
-0.1950274 -0.13568462 -0.09827062
0.019445064 0.2972299 -0.14605536
-0.03381435 -0.13585989 -0.18807752
0.16702107 0.089851715 0.08312033
-0.033931635 0.12013457 -0.12422302
0.19394854 -0.0041151703 0.105282634
0.026477514 0.089570545 0.06350773
0.1697965 -0.25446278 -0.119727574
0.103588365 0.15188424 0.15548821
-0.12844801 -0.23873535 -0.064755
0.16889273 -0.20966184 0.023229947
-0.12140223 -0.12152797 -0.09436723
0.062477976 0.08251938 0.1437166
0.24856752 -0.012610013 0.0656303
0.08354054 0.25753555 -0.07079946
0.14004387 -0.053476017 0.19850859
-0.1449165 -0.01564257 -0.16024712
0.050262865 -0.24268141 0.048294373
-0.27607325 -0.09343844 -0.17489669
0.18632862 -0.15101534 0.022254726
-0.20385362 -0.18534459 -0.112198636
-0.0637988 -0.23616049 -0.012495092
-0.2997318 -0.012087577 -0.16379681
-0.063035846 -0.2688186 -0.0107914945
-0.10239168 0.08107164 -0.08918989
0.11222657 -0.0505323 0.15222104
-0.18848313 0.14744477 -0.061469615
0.018569356 -0.16724972 0.07258453
0.10583713 0.2623118 -0.051113516
-0.14810598 0.010292094 -0.08070383
0.14519331 0.18726763 0.10804923
-0.13135713 0.12552735 -0.03945162
0.08802104 0.15702124 0.14680928
0.30426028 -0.023340356 -0.014832252
0.1896955 -0.12572327 0.08614254
-0.15567061 -0.21234798 -0.1238831
0.033810575 -0.15092745 0.042365618
-0.05481344 -0.10930898 -0.17467038
0.06827657 -0.2994737 -0.11489007
-0.015524606 -0.16331118 0.04008943
-0.17554072 0.17959645 -0.14284569
0.0085383225 -0.19531348 0.073090196
-0.26728374 0.06669846 -0.13207299
0.13240522 0.10031013 0.11045308
-0.039595876 0.17070946 0.06434365
-0.2020269 -0.18046807 -0.087654896
-0.097977385 0.17658837 0.054392714
-0.23601513 0.11577067 -0.12788935
0.111417644 -0.22968388 0.062104806
-0.14111069 0.3011773 -0.061446793
0.13588667 -0.28230056 -0.14690487
-0.18527287 0.13813753 -0.22973618
-0.21078476 -0.14616102 -0.14250645
0.156212 0.19763619 0.107434265
-0.03407652 -0.232997 -0.2551266
0.2224449 0.19186153 0.013642993
0.09589429 -0.2623464 -0.054719605
0.11409596 0.23796648 -0.021804715
0.17541607 -0.12382856 0.114247106
-0.24347815 0.024362288 -0.09799774
0.2589268 -0.123674974 0.037632365
-0.17212212 0.18745156 -0.030656407
0.3002422 -0.10100667 0.039579537
-0.22974105 0.0146844685 -0.13115714
-0.2294954 0.18963856 -0.09553817
0.035506677 -0.12567413 -0.013149568
0.24124616 0.14053416 0.041263323
0.20151764 0.21156277 -0.008958647
0.10038836 -0.15758993 0.1418416
0.11179657 -0.08350139 0.1771831
0.15663259 0.1465471 0.1011053
0.17718412 -0.15067564 0.11381641
0.024931334 -0.104146555 0.10664692
0.017891934 0.12838385 0.12005008
-0.038169023 0.09990849 -0.03879488
0.115839764 -0.2504456 -0.013384487
0.19766933 0.109256916 0.072152674
-0.0105984565 -0.15393464 -0.012518329
-0.10748319 -0.12340847 -0.099847704
-0.2062433 -0.21128179 -0.12058961
-0.094519876 0.0096347695 -0.18766542
0.14479761 0.19330646 0.10848351
0.029408129 -0.08984431 0.10517012
0.05202505 -0.0044768183 0.11864454
-0.24075751 -0.08087928 -0.14437148
0.20833085 0.12875488 0.079785116
-0.28249833 0.02846435 -0.17947192
-0.19323914 -0.16567509 -0.12199918
0.0621795 -0.15308909 0.071302734
-0.10711769 0.13181701 -0.021907814
-0.174023 -0.20797579 -0.101413436
0.026837999 0.12126935 0.13897195
0.08044788 -0.025710788 0.14873925
0.23282444 -0.18699801 -0.0044809305
0.106050655 -0.29347554 -0.09646561
-0.17067897 -0.22752951 -0.09930101
-0.012528229 -0.22214511 0.07196293
-0.20774518 0.14066157 -0.09879918
-0.13513324 0.010116568 -0.11230046
-0.05835417 -0.19656701 0.022827456
0.1682989 -0.25187835 -0.13819714
-0.168641 0.03903719 -0.09416291
0.032850534 0.20767444 0.09983075
-0.024550522 0.27738592 -0.022157192
-0.09847463 0.29448408 -0.022880657
0.021610113 0.13208434 0.13789049
-0.26617616 0.06973324 -0.18901369
0.07157858 0.009389785 0.17529313
0.23353136 -0.21253482 -0.08243002
-0.1009362 0.22121502 0.008055263
-0.20207095 -0.19636625 -0.1223554
0.15124783 0.15993017 0.082653694
-0.017796887 0.09840192 0.08335337
-0.18192491 -0.22320434 -0.15032876
0.09726739 -0.15397847 0.1294594
0.14700556 0.103251025 0.12402835
0.103962265 0.16811584 0.14703484
-0.25575784 -0.008764353 -0.16445549
0.066595964 0.051066387 0.14522961
0.07943939 -0.12242979 0.12754907
0.13508825 -0.24898317 -0.043941375
-0.12792554 0.16221079 -0.0077017723
-0.17991874 -0.22320455 -0.12559406
-0.2215874 -0.058943007 -0.08108461
0.05271566 -0.064566 0.06361221
-0.13345946 0.20479864 -0.018030215
0.14046796 -0.2011085 0.09001784
-0.07593311 0.13389575 0.07238755
-0.17960136 0.10106922 -0.07151667
0.04992528 0.018265544 0.111365445
-0.020497123 -0.29956746 0.040989928
-0.009070612 0.1836384 0.12265064
-0.1171758 -0.09507062 -0.10974478
-0.267081 0.048106443 -0.1621116
-0.2105539 0.14169775 -0.06749278
-0.17669033 -0.08200375 -0.1477514
-0.20626445 -0.1674597 -0.11896669
0.06328234 0.2633927 -0.11461333
0.13962844 0.021139065 0.14433576
-0.06818028 -0.2224053 -0.029399116
-0.07531471 0.2788542 -0.07469734
0.17215629 -0.20601536 -0.03410088
0.019241221 0.13279325 0.1422577
0.07835596 0.14816767 0.13977768
-0.05852907 -0.1681262 -0.021523898
0.12469484 -0.12400846 0.14544745
-0.016727708 -0.046438374 -0.25281018
0.016574277 0.1745726 0.09503521
0.21501063 0.10614542 0.078526415
-0.27091527 -0.054576397 -0.17491375
0.17502846 0.22574095 -0.02283902
-0.15786579 0.21478258 -0.02726956
0.070614524 -0.23676823 0.074548155
-0.18705186 0.12405015 -0.06598307
0.2579017 -0.06708016 0.07910104
-0.13531733 0.18374915 -0.023208534
0.13380033 0.08873371 0.108476065
0.03150113 0.27153787 -0.05673189
0.029783823 -0.17205824 0.09921574
-0.20818703 -0.07721061 -0.12982185
-0.0029409484 0.25863123 -0.047447544
0.058335926 -0.24931571 0.09563419
-0.13351418 -0.12869807 -0.09398365
-0.04048974 0.11992093 0.09248687
-0.16269651 -0.16279253 -0.071004726
-0.095218495 -0.17357731 0.0032412675
-0.13239983 0.25888202 0.021877164
-0.2510624 0.08739669 -0.12008428
-0.13873601 0.09242224 -0.02530699
-0.15124981 0.26395753 -0.039765835
0.21084355 -0.13477585 0.01595326
0.05231013 -0.15146124 0.099855825
0.26578957 0.06384148 0.024282202
0.19691786 -0.14098023 0.03887367
-0.18910228 0.0054991865 -0.07613734
0.20335872 0.0822618 0.048967488
0.0653957 0.28102404 -0.06774993
0.057877213 -0.060021054 0.12383305
-0.28652674 -0.057795603 -0.160684
-0.073420465 -0.14351432 -0.07291881
0.17281194 0.22158737 0.06578283
-0.00615321 -0.14003216 0.076598436
-0.06964742 0.2995573 -0.07265762
-0.08981086 -0.17515552 -0.039511997
0.14754368 -0.17838643 0.05357597
0.2667482 -0.097101495 0.023842137
0.016245851 0.13501391 0.11929324
0.10494391 -0.18165272 0.14230783
-0.041207183 -0.2737962 0.010731473
-0.1824383 -0.20108135 -0.10607612
-0.14193669 0.08699235 -0.08491118
0.18831612 -0.21398908 -0.0063426006
0.007899076 -0.15834026 0.03626941
0.22463578 -0.020594828 0.09140125
-0.09856387 -0.2513091 -0.12172845
0.14063844 0.19436528 0.053353753
0.17346056 -0.20806438 0.0033174031
-0.22056124 0.12863013 -0.12605049
-0.1388954 0.22182348 0.012233682
-0.24136257 -0.05421369 -0.12652215
-0.23200926 0.13588193 -0.100721955
-0.20972514 0.16219744 -0.06062116
0.065540545 0.08416029 0.13593075
-0.23060234 0.15117578 -0.10537678
-0.10929426 -0.21458372 -0.024090027
0.008882212 -0.18609327 0.053829227
0.12726822 -0.18733926 0.06766188
-0.15416615 -0.12711664 -0.09440724
0.020657986 -0.019411283 0.11241217
0.21194938 -0.066921934 0.09958151
0.26011685 0.1520715 0.016711598
0.07345652 -0.13351123 0.13368867
0.10034456 -0.097547024 0.15832879
0.09309098 -0.079537086 0.18544163
0.25298128 0.011449716 0.048316542
0.19367181 0.14841063 0.06216408
0.03721465 -0.21317554 0.041090917
-0.12149487 -0.14489952 -0.0870172
-0.16355653 -0.03993596 -0.14279068
0.15115154 0.23882574 -0.0655516
0.13347213 -0.21025084 0.06694799
-0.112238966 0.016469687 -0.16240482
0.020641455 -0.12173753 -0.08180784
-0.07756077 -0.09392923 -0.16957924
0.07066693 0.26189536 -0.05588535
0.070446 -0.30290422 -0.034146797
-0.013824896 -0.2630397 0.0087395
-0.21453498 -0.1998459 -0.1490512
-0.050036576 0.067896165 -0.20890304
-0.07623355 0.20701165 0.054608732
0.17800277 0.08936356 0.06392864
0.05969427 -0.17306727 0.09697615
-0.10222069 0.27692518 -0.10681934
0.11659606 -0.25162038 -0.033324134
-0.08304091 -0.2514137 -0.026716843
-0.013781083 -0.23987333 0.037891246
0.037262775 -0.13370451 -0.08371992
-0.16461022 -0.18049023 -0.098412104
0.2571047 -0.08159156 0.024973692
-0.011482459 -0.18881357 0.07261401
0.21124148 0.19047333 0.034760695
0.05202729 0.09034802 0.1557568
0.2118728 0.14590056 4.4613036e-05
-0.18702199 -0.18273841 -0.09182127
0.124226324 -0.22087102 -0.024745286
-0.14096284 -0.13929158 -0.08031112
0.012537648 0.12150176 0.037195623
0.031884026 0.23212895 0.11327668
-0.26855302 -0.009876935 -0.15321097
0.031657 -0.19469093 0.059291076
-0.17629747 0.04378391 -0.1053348
0.02656021 -0.073618226 0.081880674
-0.029941645 0.041687466 -0.2682708
0.026744967 -0.08354033 0.09163748
0.11295248 -0.30517152 -0.111085795
0.19288406 0.071948394 0.13945082
0.13727564 -0.08331589 0.17613053
0.12694417 -0.2316627 0.02453867
-0.12520854 0.092884205 -0.06688064
0.2474483 -0.06773593 0.10328448
0.06561947 -0.00079331925 0.1512685
0.13111788 -0.17632191 0.16996287
0.15934826 -0.22845355 -0.029597532
0.21236882 0.051657505 0.09911489
0.24438031 0.008562447 0.05944942
0.10003719 0.06349487 0.15462062
0.03324145 -0.22793669 0.063111916
0.120270275 -0.2510726 -0.056472473
-0.082082465 0.27981392 0.03104952
0.027443964 0.15726751 0.14926772
0.013429538 0.19613643 0.1405608
-0.10861069 0.20923172 0.025900507
-0.26261577 -0.0013849413 -0.13194425
0.22566858 0.052026104 0.06063412
-0.14155515 0.10289283 -0.03327951
-0.22422223 0.028426234 -0.1049004
-0.16363548 -0.02741829 -0.15364064
0.22063382 -0.19489157 -0.08693252
-0.17916049 0.005825452 -0.12105746
-0.06532447 -0.17900982 -0.031559333
-0.21969835 -0.06709079 -0.10828359
-0.22910924 0.14171648 -0.058104668
-0.1838203 -0.08050587 -0.09598311
-0.033877123 -0.14818397 0.017323935
-0.20795195 -0.16284287 -0.11551467
0.15030214 -0.2258018 -0.023942277
-0.04295506 -0.14462626 -0.09870331
0.05669836 -0.12424245 0.08401626
0.11669205 -0.20607682 0.11377579
0.2097536 0.14539099 0.04253196
0.13813706 -0.1376988 0.17281422
0.101355314 -0.14095984 0.14630778
-0.10960283 -0.09307905 -0.11421759
0.009354357 0.07697237 0.12401287
-0.0971124 -0.20330934 -0.036718715
-0.027592855 -0.20643921 -0.28027633
0.21457072 0.19315444 0.003039009
-0.23806672 -0.18161324 -0.16505349
-0.063626766 0.011610556 -0.2376069
0.07537754 -0.16683769 0.09623673
0.11173647 -0.20854338 0.0037171377
0.10805012 -0.047256898 0.16650467
-0.06922017 0.100461185 -0.19572966
-0.15583697 -0.07901749 -0.096503995
0.056747213 0.14351024 0.14487714
-0.024053505 0.22291997 0.11316388
0.14612235 -0.060246482 0.19374187
0.12827466 0.07913769 0.1717157
0.0010443863 0.12760012 0.050563358
-0.0974604 -0.15655147 -0.058371454
0.15913309 0.22660217 0.0603209
-0.14613126 -0.02620638 -0.131834
-0.10798851 0.03666411 -0.17877339
0.1537007 -0.01834482 0.17911653
0.039304234 0.10021735 0.10710997
0.12265603 -0.031242276 0.17286418
0.033618115 0.088627554 0.03741909
-0.19000094 -0.18072021 -0.11260626
-0.064548776 -0.15051933 -0.05102509
-0.22205244 -0.07028314 -0.1301162
0.1972127 0.048828486 0.10800947
-0.18556102 0.15950567 -0.076709524
0.16126862 0.11146011 0.059759732
-0.12698248 0.15584794 -0.25923914
-0.2515563 0.15474528 -0.08014
-0.08531158 -0.18790229 0.0070696943
0.112456776 -0.016903799 0.16834697
-0.13401665 0.056803275 -0.10235846
0.25596327 -0.030043408 0.06392494
-0.14306706 -0.018581705 -0.13810466
0.07599726 0.17910188 0.13198851
0.06749312 0.04957829 0.17600627
-0.20710881 -0.059578422 -0.12235209
-0.023377925 0.2658114 -0.07552663
-0.082416035 -0.12290465 -0.14895698
0.09413024 0.29205537 -0.13247871
0.22671561 -0.07558015 0.08326865
-0.04016921 0.21871798 0.084821954
0.19720733 0.21145019 0.040338382
-0.1541803 0.22166395 0.011819612
0.21048991 -0.038764592 0.12193831
-0.10633347 -0.21227255 -0.03628314
0.11928998 0.18124105 0.13807802
-0.02528442 -0.13937138 -0.13135675
-0.058916166 0.0704847 -0.1610945
0.14017174 0.2394288 0.014706161
0.25691992 0.09169187 0.02370123
-0.27365392 0.090594985 -0.119789764
-0.21830946 -0.151135 -0.092752576
-0.21307458 -0.18172875 -0.10106196
-0.017590307 0.21985805 0.08142304
-0.18436116 -0.10620502 -0.08138107
-0.14599553 0.113014735 -0.057756007
-0.12822732 0.16138628 0.000373674
0.12028823 -0.032880716 0.17832936
0.12705983 -0.2203606 0.00755787
-0.19091769 0.16119415 -0.072471
-0.0102467565 0.1850314 0.10642956
-0.2612895 0.11253527 -0.08234558
-0.1460172 -0.044776846 -0.0966049
-0.22191224 -0.07694451 -0.13575147
-0.021499207 0.17763871 0.0586566
-0.26225406 -0.0003829681 -0.13778651
0.0848006 -0.17596927 0.15802822
0.09873759 0.19957271 0.05061269
-0.18104596 0.07062669 -0.06607864
0.003962381 0.08036337 0.097836986
-0.24259578 -0.088103324 -0.17797768
0.16004758 -0.14329697 0.13605969
-0.097437754 0.100643724 -0.06089637
-0.14594968 -0.1369503 -0.072321765
-0.20733638 -0.117910646 -0.118258804
0.014112754 0.23626351 0.00755794
0.16157052 -0.07715417 0.19391961
0.09973723 -0.24515529 0.0004950272
0.12788138 -0.21693632 0.021780828
-0.098562896 0.23782648 0.027150773
0.022805218 -0.1599322 0.05170897
0.230935 0.1301245 0.04985999
-0.11936783 -0.24278845 -0.06589354
0.27592126 -0.10283016 0.010702822
0.2428153 -0.07524521 0.09251776
0.01134019 0.19711253 0.12587768
-0.13652058 -0.07257335 -0.10989604
0.11423687 0.2114821 0.038095452
-0.28013808 -0.03556543 -0.16888615
0.23488465 0.12604403 0.010719025
-0.20451507 0.14891826 -0.036928866
-0.102572724 -0.17296986 -0.06315118
-0.1017872 0.2024186 0.0467184
0.16119827 0.1601412 0.055332176
0.10144295 0.22342058 0.07091933
0.08632643 -0.25110245 -0.19309098
-0.21347131 -0.18006895 -0.12773378
0.20580955 0.060740843 0.054118004
-0.08521643 0.23837863 0.084138036
-0.11976262 -0.08173739 -0.09928299
-0.2843508 0.03928889 -0.19791453
-0.21445724 -0.083748974 -0.1266751
-0.037724648 0.3011162 -0.06922003
0.15564762 -0.14826731 0.1042019
-0.16243604 -0.048902117 -0.12291265
-0.029999489 0.28150067 -0.1488982
-0.12667477 -0.20473137 -0.07762177
0.047950108 -0.13803944 0.13109337
0.013860726 0.18328975 0.10052007
-0.23114024 0.11112888 -0.16797031
-0.15120386 0.08993252 -0.024864981
0.113611 0.14342861 0.14140755
0.0907574 0.24941821 0.011341632
0.16354766 0.10465565 0.062249463
-0.030433405 0.23457342 0.097611025
-0.14570557 -0.06919272 -0.14803742
-0.20717813 0.20279376 -0.060553353
0.19001226 0.18910033 0.051952
-0.059901472 -0.2077706 0.029211666
0.09482488 0.1607776 0.12879571
0.047121167 0.14833057 0.15690827
0.17042363 0.18788835 0.07860614
0.18520027 0.21365276 0.09654538
0.24646634 0.12027874 -0.009559974
-0.15258038 0.008127893 -0.11691792
0.11919582 0.11795307 0.17721541
0.20310779 -0.14438473 0.058119494
-0.14089201 0.20156759 0.014316666
0.25069436 -0.082648166 0.053580355
0.12358461 -0.014466177 0.1651474
0.14632197 0.1517424 0.14770122
0.085723475 -0.29642034 -0.048254326
-0.047496054 -0.001855596 -0.22748299
0.24646534 -0.13249479 0.049721375
-0.04605384 -0.2177725 -0.02679261
-0.10231501 -0.16832064 -0.047576293
0.094128355 -0.08036564 0.17366233
0.12224235 -0.14634219 0.13210963
-0.20474546 -0.10153678 -0.12014604
0.17953351 -0.24637052 -0.058113813
-0.24258578 0.17280462 -0.0779919
0.07523319 0.041796718 0.18196982
0.045851458 -0.22553338 0.080920875
0.07749396 -0.24768108 -0.20103125
0.082528435 -0.2575522 -0.049004845
0.06275246 0.087898664 0.14765698
0.1931831 0.020303892 0.10650023
0.090746544 -0.128406 0.097538315
0.15808563 -0.018109467 0.14734907
-0.27275833 0.026879463 -0.17823061
-0.17377765 -0.0928755 -0.104145624
0.1473354 -0.054749854 0.15423533
-0.21481468 0.23525065 -0.08182584
-0.09021827 0.28040314 0.02792625
0.10045135 -0.14911282 0.123946905
-0.23062648 0.12072129 -0.111661345
0.121057756 0.12514451 0.10510938
0.15555415 -0.09817649 0.19415863
-0.023557113 -0.24726008 0.011785665
0.15830432 -0.20062408 0.07203701
-0.054048643 0.2572635 -0.0065693157
-0.019122459 -0.11910247 -0.14381032
0.25926387 0.008186104 0.019147437
0.16676098 -0.1866765 0.038393427
-0.16995405 -0.089946136 -0.11379422
-0.16449986 -0.22893307 -0.09295902
-0.2599596 0.017305832 -0.13784501
0.18122762 0.26117146 -0.060290027
0.23984462 0.036706474 0.0059412587
-0.24035233 -0.0010232516 -0.10316757
0.21345966 0.03780291 0.056322467
0.034474578 0.020676618 0.107453406
0.1988937 0.0998556 0.078520656
-0.06581921 -0.26638493 -0.009587469
0.15856178 0.15458576 0.121009715
-0.09354346 -0.24230386 -0.014205706
-0.08118526 0.1962477 -0.23970133
0.08592374 0.0121380575 0.14872266
0.06316879 0.15981917 0.14578186
0.04789803 -0.27314782 0.035252437
0.0022213445 0.2660987 -0.04926088
0.19551711 0.11166531 0.05510689
0.07024594 -0.26694152 0.023904681
0.15483913 -0.18770082 0.0017283722
-0.024217973 0.13049123 -0.13137865
0.015005631 0.26533654 -0.048022732
0.054625556 0.22018975 0.14751227
-0.29397124 -0.014036521 -0.16202408
-0.029665641 0.1639993 0.09458132
0.1077212 0.23070312 -0.042890877
-0.17232192 0.17562437 -0.029969681
0.14679974 0.04343252 0.18246557
-0.14104871 0.17967913 -0.00039022032
0.21018906 0.20876238 0.008011022
0.24667703 -0.023045909 0.056999136
-0.16340521 0.040199257 -0.082593955
0.07634721 0.29167062 -0.09798711
0.05566492 -0.20883667 0.13387106
-0.23608296 -0.024442416 -0.124068335
-0.084672764 0.16734926 0.03665623
-0.230692 0.072289646 -0.10852831
0.10155646 0.110520326 0.17654891
0.03462676 -0.11538769 0.05283901
0.0077106124 -0.32931235 0.020934867
-0.19423796 0.19075619 -0.06666086
0.15845244 0.039414205 0.13006942
0.057365194 0.082161695 0.14626035
0.0007802816 -0.17096975 -0.05066355
0.06943798 0.24421526 -0.074892804
0.19981222 -0.11753667 0.058524154
-0.021983733 0.22434355 0.05125423
0.1597674 0.07390868 0.16721988
0.07768885 0.19433945 0.13164319
-0.046669237 -0.15777725 0.02907492
-0.05682673 -0.0049071857 -0.23156436
0.15526061 0.01148747 0.14805306
-0.20482767 0.13066937 -0.05644347
-0.19631037 0.0027597263 -0.08403023
-0.19860905 0.07633965 -0.07150745
-0.06571096 0.009560007 -0.21759292
-0.13331473 0.20921732 -0.007264211
-0.16390303 0.04160199 -0.1121245
0.117916055 0.1865677 0.13682938
-0.022872768 0.24271758 0.08762577
0.21188624 0.033044487 0.059744034
0.14384766 -0.20099221 0.010418361
0.13230106 -0.19929895 -0.048817452
0.22703159 -0.058797065 0.079079986
0.13474138 -0.3017154 -0.1271445
-0.2525811 -0.13687655 -0.16434996
0.22246504 0.11002002 0.057081353
-0.041765384 0.14752053 -0.09501213
0.045300085 0.13701172 0.14255458
-0.23158006 -0.100685194 -0.16244371
-0.11244593 -0.22870968 -0.0444682
-0.061274793 -0.2088797 0.00011624569
-0.07508186 0.22456615 0.038633555
-0.10193106 -0.26232156 -0.07012699
0.02889739 0.18718548 0.1627974
0.20162468 -0.040289614 0.12491458
-0.23973776 -0.03582912 -0.09711792
0.18752265 0.15698124 0.100420974
0.080050506 0.1352508 0.14782149
-0.024532592 -0.11996955 -0.09721921
-0.20676643 -0.073017284 -0.08881281
0.12296043 0.08368599 0.17278863
0.018804548 0.19541092 0.08624618
0.038979758 -0.14473 0.0892198
0.27972347 0.009066809 0.038111657
