# .PCD v0.7 - Point Cloud Data file format
VERSION 0.7
FIELDS x y z
SIZE 4 4 4
TYPE F F F
COUNT 1 1 1
WIDTH 1000
HEIGHT 1
VIEWPOINT 0 0 0 1 0 0 0
POINTS 1000
DATA ascii
-0.13700654 -0.07346626 0.0600753
-0.19446838 -0.20137241 0.050146166
0.26492047 0.033114944 0.00120262
-0.0391633 0.13387597 0.031937774
-0.037657958 -0.29187402 0.053699754
0.23396544 0.23038666 -0.1670015
0.319301 -0.111889794 -0.030501762
-0.20584422 -0.23460999 0.04738647
-0.12559919 0.012498295 0.0012602692
0.1422665 0.18172735 0.028076328
0.2437469 0.16965488 0.022820128
0.103783585 -0.07774144 -0.102409974
0.1958271 0.19875748 0.003734113
0.26510718 0.1988994 0.036085255
-0.09801911 0.34124294 -0.14142618
0.13128287 -0.19666782 0.009070723
-0.1172428 0.111290656 0.07473236
0.0324645 0.1467848 0.08319543
-0.19118479 -0.12215585 0.09774962
-0.30628905 0.09053765 0.031289786
-0.121965356 0.105361156 0.07831417
0.15174481 0.16287287 0.0370835
-0.18662366 -0.09864361 0.05666196
0.19240929 0.24904571 -0.031704914
-0.024818823 -0.16343121 0.052007645
-0.18888788 -0.24011469 0.059980463
-0.05040397 -0.24787831 0.0583344
-0.1378415 -0.09677775 0.051581785
-0.2948381 -0.037895214 -0.14867991
-0.232241 -0.20826094 0.033738032
0.30347657 0.088968225 0.015229538
-0.022217399 -0.14350343 -0.02007015
-0.29440513 0.07591991 0.10911498
-0.06576957 -0.20966765 0.05130221
-0.15094362 0.13773473 0.09412088
0.08165734 0.29240686 -0.036315694
0.28401524 -0.12657858 0.005652147
-0.016071064 0.2080884 0.08898423
0.1896921 -0.21632044 -0.15368134
0.124271184 0.05472398 -0.20196858
0.14720441 0.2469033 0.020252641
-0.008685101 0.28737283 0.0067374976
-0.21701847 0.06527448 0.117162645
-0.24932894 -0.23045617 -0.12682058
-0.1920683 -0.027185712 0.06970898
-0.027438246 -0.23722148 0.035338357
-0.19918627 -0.060860243 0.058310036
0.25106212 0.026830602 0.017942058
0.28569117 0.15743169 -0.023158126
0.14763181 -0.1601976 0.012638475
-0.1456593 0.14338912 0.08492919
0.020341704 0.26956576 0.045783244
0.08450793 -0.26220408 0.025304165
0.16948739 0.2541558 -0.20137197
0.21735896 -0.07783313 0.016729753
-0.10839045 -0.23486659 0.02882493
0.023304254 0.16446151 -0.04204764
-0.30010477 0.11276214 -0.049271703
-0.090267144 0.21594517 0.08625418
-0.09920059 -0.2717961 -0.12145909
-0.06805222 -0.25262713 0.047934677
-0.14738551 0.264957 -0.025310786
0.18601975 0.25269037 0.009503606
-0.1827505 -0.0026904936 0.10430503
-0.16331713 0.2102907 0.0065383464
0.16365361 -0.26020673 -0.085734025
-0.298615 0.10472551 -0.012001529
0.13213319 0.18236414 0.06347665
0.0688348 -0.1589258 -0.009462928
-0.10050306 -0.11012071 -0.0068094735
0.07794278 -0.0853823 -0.17508304
-0.3162474 0.12571609 -0.044936784
-0.09792848 0.20319724 0.082991995
0.28619114 0.035361692 0.013202266
0.08620992 0.26566553 0.067532144
-0.0885406 -0.27362838 0.047505014
0.20333003 -0.070157886 0.03289404
-0.23610923 0.10902716 0.082257755
-0.2573302 0.16218728 0.0011070325
-0.060306303 0.19071224 0.061520107
0.32878676 0.0060709724 0.014689226
0.12220739 -0.2934465 0.012464034
-0.064588204 -0.16534826 -0.00923813
0.055691782 -0.2777438 0.0018726593
-0.17739707 -0.03141158 -0.15639772
0.11523369 -0.06585299 -0.06929993
0.15664755 -0.05367203 -0.009555438
-0.2891693 0.018291933 0.11571951
-0.13849089 -0.06653389 0.057371877
-0.21600667 -0.1295047 0.09601173
0.21599647 -0.06769291 -0.009443169
0.2838452 0.14132468 -0.02017134
-0.16479902 0.04724139 0.072092764
-0.1322148 0.03125979 0.084249035
-0.25406873 -0.21638022 -0.0943458
0.081617616 -0.30943313 -0.15645958
-0.032450005 0.13678135 0.046874765
0.06407178 -0.163121 0.019330382
-0.11022997 -0.102269106 -0.17822044
0.123899095 -0.22999285 -0.25813293
0.18130746 -0.21974269 0.0022525592
0.15148397 -0.27408275 0.025648417
0.13417536 -0.023636606 -0.1854195
-0.14904878 -0.20718025 0.05145521
0.18183957 0.267266 -0.20351647
0.11017265 0.025263634 -0.21956721
-0.029604724 0.20256293 0.0774719
0.24131867 -0.15763575 0.013892122
-0.02289692 -0.21040581 0.033543848
-0.3027367 0.0049795606 0.011294538
0.20455408 0.09715898 0.02863961
-0.1520576 -0.21758282 0.050143465
-0.23741503 -0.21426839 -0.14015667
-0.006894078 -0.21179275 0.028031891
-0.027108664 -0.119081564 -0.16115476
0.17024808 0.25071517 0.014385999
-0.13672481 -0.016633293 -0.06007874
-0.05848385 -0.14870642 -0.023477193
-0.2726211 0.15707324 0.009411751
0.19509637 -0.22493695 -0.0084435465
-0.15723275 -0.25383133 -0.08312248
0.059137445 -0.15204471 -0.031572677
-0.29654694 0.114847094 -0.031160235
-0.072100565 -0.28395152 0.06082976
-0.05111496 0.22002661 0.06734828
0.15836109 -0.1001331 -0.0051480643
-0.32272035 0.012104443 -0.106261656
-0.16191122 -0.24807595 0.047084775
0.2374625 0.10483128 0.04355976
0.044482373 -0.14705695 0.021324614
-3.212868e-05 0.27940387 0.043814138
-0.2781169 -0.046219666 0.046968393
0.19247861 0.2609548 -0.13018882
0.112314336 -0.13330859 -0.011320292
0.0101787625 0.1653981 0.053676028
-0.026387716 -0.17623405 0.03463251
-0.3028106 -0.041845888 -0.12550893
0.13941325 -0.16053471 0.017835509
0.08551766 -0.23022187 0.02712269
-0.076904126 -0.25223336 0.031359024
-0.19218221 0.20418234 -0.006453954
0.13752623 -0.23338276 0.008582896
0.12157728 -0.2889702 -0.0018336781
0.26550117 0.08676439 0.022944616
0.13435127 -0.020759113 -0.0053654755
-0.15052867 0.12036747 0.09484772
0.29315674 0.011765031 -0.12012389
0.10291857 -0.21515276 -0.0055200104
0.1704328 0.097586155 0.0326458
0.112096936 -0.24710664 0.033522278
0.13252802 0.13042091 -0.001546801
0.19880302 -0.20604366 0.00030512095
0.08670713 -0.2773413 0.007964238
-0.032958988 -0.27182135 0.031781282
-0.11445182 -0.08127612 -0.058175728
0.17447723 -0.1778242 0.0073484792
-0.26493296 0.026397148 0.09995346
-0.10298802 -0.113130674 -0.023688288
-0.24108906 -0.06731283 0.10250232
0.21591808 0.16897173 0.015419133
0.19785751 -0.21900976 -0.0054201935
-0.05008829 -0.17131867 0.025212612
0.14156316 0.09347985 0.02348114
0.08945545 0.19626307 0.056924377
-0.115558 0.22825305 0.073312216
0.22695604 -0.213788 0.0015538733
0.0834328 0.19202289 0.06713905
0.14829254 -0.28560376 0.00010266457
0.20708674 0.21048297 0.015020901
0.06590697 -0.16198337 -0.069761775
-0.08791569 0.22101797 0.08801451
-0.049136825 0.3085827 0.054007784
-0.06108287 0.1588733 0.0794061
0.29538503 0.026856365 -0.22921874
-0.25957355 -0.12614308 -0.11408854
0.14197145 0.11517956 0.041926928
-0.21223222 -0.07491369 0.082075655
0.07917375 -0.28527385 0.008469305
-0.068641715 0.23728672 0.10324495
-0.09263134 0.29386052 -0.11095289
0.06874402 -0.16396965 -0.010246088
0.079745814 0.14252014 -0.062390205
0.22035292 -0.1003008 0.03197898
-0.06436573 -0.23058161 0.04562117
-0.15979075 -0.033215012 0.074673
-0.21267928 -0.25363725 -0.0148284435
0.12518506 0.051630065 -0.10622498
0.030330556 0.20471868 0.045235995
0.14950593 -0.06636508 -0.03054714
0.13921402 -0.15747383 -0.0048990734
0.16349562 0.17267983 0.03812859
-0.3267563 0.050141584 -0.1292181
0.13779323 -0.12952961 -0.0067811506
0.124390885 -0.0979648 -0.01399062
-0.078111075 -0.14308847 0.024625998
-0.05315769 0.30360526 -0.11076507
-0.19390428 0.078027725 0.088704504
0.14453869 -0.13179484 0.020942122
0.06577212 0.15059681 0.011187396
-0.09175 0.24475683 0.08806249
0.018542962 0.15968858 -0.0003701825
-0.029027458 -0.1690831 -0.0018388478
-0.15782139 -0.012556816 -0.17074126
0.120797016 -0.11476092 0.027003461
0.0753575 -0.2792163 0.006367001
-0.025118658 0.23702988 0.102370426
0.04174352 0.2663068 0.052910693
-0.24195762 0.10298261 0.11864699
-0.08305723 0.23113586 0.10809037
0.034806814 0.11381532 -0.14430732
0.14210558 0.11038946 0.032236796
-0.07490719 0.061552044 0.051837526
-0.009012134 0.30634418 -0.09680458
-0.29000825 -0.032469276 0.03057103
0.047841616 0.27988392 0.080330595
0.2591761 0.14947629 -0.14548665
0.29442993 0.053857237 -0.16248415
0.0003766738 -0.2846174 -0.07745597
-0.2654464 0.09983958 0.023131523
-0.08727802 0.27456102 0.037590414
-0.15792333 -0.2301853 0.008558488
-0.17605872 0.036002107 0.061028376
0.27511618 0.13770734 -0.20129216
-0.25371912 -0.12413118 -0.14242549
-0.04971884 0.27853468 0.09246117
-0.01533072 -0.29990023 -0.05242822
0.11703579 -0.049613312 -0.04402279
0.13809209 -0.06893374 -0.0054372596
-0.116890065 -0.08209963 -0.15854338
0.2415796 -0.038868316 -0.011395498
-0.2142787 0.20650013 -0.07584893
0.13378012 -0.06846965 -0.013887533
-0.13462119 0.14911614 0.07084194
0.1990473 0.107590854 0.015823094
-0.08826478 0.27444366 0.07203754
-0.2606725 0.007567715 0.10111027
-0.17606099 0.12663764 0.08533399
0.12673657 0.012143702 -0.065277345
0.22893332 0.23199068 -0.029972631
-0.014199633 -0.30007258 -0.05031743
0.24172704 0.006973101 -0.0010583949
0.14340128 -0.09372269 -0.07375789
-0.044138856 -0.15658203 0.0050764326
-0.15757371 0.13606355 0.11284446
-0.08799895 0.093765706 0.07173666
0.016794609 0.164167 -0.12532495
0.1910696 -0.19817318 -0.0038650017
0.12566304 0.0335647 -0.20656176
-0.04099948 0.2556649 0.06613302
-0.10280764 -0.11344977 -0.18847968
0.11811585 -0.23799205 -0.0057023987
-0.20648779 -0.050972454 0.0770151
-0.18193541 -0.13016401 0.062212553
-0.16414447 0.26680237 -0.13470834
-0.08913775 0.33901453 0.0062459423
0.21004432 0.09023504 0.03247449
0.10446424 0.27196026 0.040406384
0.14943571 -0.07259704 -0.014822457
0.14465944 0.26544297 0.01403108
0.31612587 -0.010846845 -0.16082361
-0.28379142 0.037303116 0.014188754
-0.19327478 0.03176619 0.09335895
-0.022164224 -0.28422427 0.050866794
-0.15337068 0.11362873 0.103550576
0.25208074 0.06735301 0.032049093
-0.049200103 0.295755 0.085558884
0.1491733 -0.21093352 -0.00035680406
0.035811685 0.19326794 0.050056715
-0.17831513 -0.14449546 0.057619385
0.20851852 -0.18793254 -0.010299194
0.08003702 0.18680103 0.075793184
-0.14613499 0.15989731 0.08055246
-0.15829413 0.082654834 0.109332845
-0.22384839 0.16204628 0.054328118
0.086622454 0.28429458 0.05166192
-0.025647689 0.22377504 0.0924471
-0.17277716 -0.13410869 0.06155657
-0.017448897 0.3067568 -0.1419999
-0.028166588 -0.13615331 -0.12184321
-0.07778576 -0.2962623 -0.0795475
0.1365182 -0.11987093 0.020008521
-0.006595217 0.17997496 0.050332658
-0.11165279 0.13411383 0.079766005
-0.27249435 0.03340011 0.10201069
-0.17715256 -0.16435115 0.09223264
0.01131711 0.21780905 0.0788476
-0.31571895 0.05167786 -0.03698934
0.1353622 0.085410364 0.030778326
-0.055949874 -0.14978102 0.03142708
0.026046969 0.16737223 -0.035531525
0.01712949 0.26146466 0.07219235
0.27153683 0.13073198 -0.22179668
0.10850576 -0.2936932 -0.009889636
0.086757995 0.25997728 0.042509235
0.1685585 0.20660053 0.060803838
0.09556715 0.29491934 -0.14209658
-0.25220975 -0.24396497 -0.018902268
-0.12236243 0.24448848 0.06791576
-0.2734265 -0.15428773 -0.051814806
-0.13057014 0.16835245 0.067381054
-0.2418972 -0.21796735 -0.13242969
0.18870273 0.05259606 0.04748657
0.16719058 0.2248357 0.0491438
0.12962854 0.11463924 0.0062416764
0.1781842 0.012680503 -0.0720504
-0.04440399 0.2403773 0.066498354
-0.27698806 -0.080634296 -0.03943549
-0.0028834145 0.2745301 0.07766635
-0.111096576 -0.05314241 0.06303341
0.21597865 0.24980116 -0.063540235
0.081892245 -0.13921715 0.000707584
0.18326427 -0.050245892 0.0172226
-0.23082799 0.1415556 0.10423404
-0.018868778 -0.1828815 0.050973523
-0.2530896 -0.09591621 -0.0011838179
0.18969767 0.08123424 -0.014809968
-0.001979337 -0.2383519 0.003931877
-0.34575105 0.072422855 -0.09078363
0.10371824 0.14693382 0.019549033
0.13246064 -0.13313428 0.0015784625
0.24126896 -0.13570021 0.0017976615
0.11157908 -0.23428565 0.017938202
0.12876672 0.20800564 0.05069953
0.046118427 -0.15668194 -0.004309786
-0.20738126 -0.23477556 0.0017679578
0.098237894 0.12363799 0.02265035
-0.2623288 -0.074877635 0.07441701
0.26515567 0.05290477 -0.008219087
0.23422447 -0.08651371 0.030114198
-0.00045005584 0.1289468 -0.03990592
0.009485342 -0.30317143 -0.17679825
-0.295341 0.03976851 9.283085e-05
0.13656884 -0.092256956 -0.13523968
0.154044 -0.051778942 0.014087287
0.008710202 -0.19895206 0.0568825
0.27294058 0.15102483 0.028823847
-0.23711497 0.03353889 0.11174034
-0.06663412 -0.1960466 0.060552012
-0.14785545 0.13307872 0.11837603
-0.17305638 -0.1070158 0.056894943
-0.20172603 0.19933577 -0.16429956
-0.17655848 0.07623341 0.08646328
-0.0071834004 -0.30685005 -0.1008129
-0.13799144 0.20421164 0.07525196
0.1954217 -0.11679382 0.017892567
0.033065394 -0.21230625 0.029693795
-0.10688666 -0.19281113 0.031813707
0.2776115 0.154105 -0.07143202
0.19039531 -0.09104909 0.033845212
0.025311895 -0.29081118 0.004068509
0.29439574 0.08862693 0.03196416
-0.16632801 -0.027366975 -0.1075163
0.02363026 0.17864174 -0.081886746
0.15247011 0.11933222 0.023161748
-0.14065026 0.013989898 0.09565421
0.0026365533 0.12340069 0.04323356
-0.13018364 0.26373807 -0.07104826
0.1702994 0.009967437 -0.0010970931
0.115323655 0.16517131 0.0519544
0.097629845 -0.1303521 -0.15727602
-0.17698994 -0.16682243 0.079952076
0.26199424 -0.15713267 -0.008301881
0.09792931 0.2005068 0.049757246
0.30520815 0.060253825 -0.13118666
-0.32084212 0.039338354 -0.099447764
0.33782098 -0.05268139 -0.053533033
0.12955539 -0.010902873 -0.15215138
-0.14653288 -0.24286751 0.07257078
0.19225128 -0.21635431 0.00010711473
0.045444686 -0.2884889 -0.103126034
0.12457149 -0.1644897 0.026097305
-0.18177305 -0.25035578 -0.065835215
0.14272262 0.2652856 0.029100293
-0.05476292 -0.28096956 0.031796027
0.012932895 0.2458669 0.0464829
0.1409338 0.13790014 0.027134651
0.20992737 -0.122385986 0.019875629
0.17921337 -0.026853139 -0.033030346
-0.13680384 -0.23651113 0.0771028
0.19490345 0.2612211 0.05248355
0.071760476 -0.30953944 -0.0108837895
-0.20616318 0.108758 0.115709424
0.18174206 -0.054302696 0.026678924
-0.16957165 -0.21193554 0.079169616
-0.28443223 0.04827997 -0.05327624
-0.0661819 0.14418213 0.0629423
-0.048232 -0.1638172 0.060681514
0.1985298 -0.18808925 0.026252026
-0.12199771 0.257745 0.082037084
-0.27842602 -0.11218114 -0.006281446
-0.041038577 -0.15162799 0.055075318
0.1338345 -0.008645446 -0.1769973
0.1541606 0.24008465 0.038192302
0.2845857 -0.044061895 0.020274557
-0.24197748 -0.24129505 -0.10897546
-0.09721044 0.27330744 0.017089203
-0.22213116 0.08802827 0.104573034
0.11540025 0.29558256 0.0010658285
-0.23378325 0.06821098 0.07802125
-0.17520791 -0.065879 0.07239218
0.24381103 0.02687471 0.035407797
-0.25351158 0.10588384 0.08093241
0.27745134 0.045133162 0.032054506
-0.23836657 -0.11273336 0.08751015
0.2682447 -0.08000974 0.0066055264
-0.21701157 -0.21964058 -0.15794763
-0.07747993 0.3495075 -0.121973164
0.28586122 -0.13409553 -0.008915327
-0.03649662 0.13059592 0.009033119
-0.008049383 -0.13260272 -0.1726679
0.2287696 0.122765854 0.023498429
0.34378418 -0.08988675 -0.08038215
-0.21293919 0.06285297 0.09282218
0.17881936 -0.053587 -0.038260993
-0.08744716 -0.18669057 0.036900315
-0.2455717 0.1493254 -0.0024177358
0.26690224 0.0029305867 -0.0077759544
-0.2307581 0.12800194 0.084411904
-0.12222812 0.16292377 0.06448632
-0.12833366 0.08460657 -0.06875889
-0.09683329 0.29114738 -0.054714933
0.03810176 -0.28183386 -0.000986649
-0.24369185 -0.14158429 -0.02624718
-0.21327238 -0.24053764 0.06955332
-0.30386394 0.014753614 -0.16828543
-0.092139035 0.076835796 0.04006158
-0.03019665 -0.20422424 0.029269556
0.23492846 0.14551038 -0.21823384
-0.013071566 0.2861755 0.070901416
0.10206732 0.27817217 -0.10517855
-0.14121222 0.294307 -0.13428752
-0.25698984 0.00940185 0.10746491
-0.009793259 0.22681078 0.07072201
0.091168985 -0.16492428 0.012039252
-0.0047354684 0.22743621 0.10002663
-0.09074381 0.29615292 -0.04350631
-0.1965028 -0.035193283 0.07402837
-0.049964074 -0.1977984 0.062231176
-0.21789539 0.17240034 0.0012170285
0.13803859 -0.123882875 -0.010336119
0.056884278 -0.24799988 0.02014135
0.27339485 -0.06438357 0.004178032
0.2561997 -0.037825417 0.016223356
-0.075965226 0.3302631 -0.04451737
-0.27042687 0.098184094 0.11122175
0.096771844 0.07364052 -0.17780598
-0.061567314 -0.14025047 0.050914448
-0.23343499 -0.22125778 -0.06326658
-0.26247084 -0.02352756 0.08262761
0.16990262 -0.19321537 -0.015189137
-0.27204522 -0.12524131 -0.05004959
-0.31816757 -0.03258054 -0.15774168
0.21617661 0.25118205 -0.20988445
-0.1404105 -0.13518834 0.05631614
0.12877078 0.14239226 0.06864121
-0.08189807 -0.27300814 -0.052379187
0.0010638908 -0.29445523 0.008410494
0.24947365 0.14226261 -0.08180766
0.14816466 0.048259705 0.019133257
-0.24349502 -0.11478141 0.07669016
-0.033154674 0.15960452 -0.10823897
-0.12363162 -0.08668057 -0.13639374
-0.17824546 0.21513936 0.05159927
0.014977695 0.29129767 -0.07000692
0.120388396 -0.22642313 0.014519129
-0.13125138 -0.079380795 -0.0029390047
0.19790535 0.072755784 0.04126761
-0.0702268 0.12957138 -0.1458988
-0.25594935 0.032781236 0.07338929
0.10160367 -0.2140673 0.027832711
0.19152428 0.110208526 0.02321905
-0.002803086 0.2986665 0.08061622
0.26959336 0.076844566 -0.16098017
0.13310756 0.27832955 -0.16776684
-0.1521155 -0.1533449 0.08585818
0.13320252 0.15035047 0.054537777
-0.051706646 0.20453674 0.06807106
-0.04221631 -0.12846838 -0.06572239
0.18699273 0.20061275 0.058652893
-0.0071148346 0.14164521 0.057504125
0.1552717 -0.29032555 -0.1153498
-0.048475396 0.34270245 -0.1183976
0.0760632 0.30342248 0.022542434
0.292712 -0.028031178 -0.20107836
-0.19247098 -0.2533663 -0.16590978
0.08084232 -0.2231263 0.015869217
0.068536445 0.29038757 0.08159841
0.1442448 0.21388674 0.04309131
-0.08844805 -0.1288206 -0.058282793
0.3149966 -0.08720269 -0.033143163
0.21664579 -0.08437675 -0.01612314
-0.069203 -0.19174273 0.043732338
0.020936461 -0.28967884 -0.045711927
0.16677774 0.10538708 0.00054876076
-0.094206244 -0.25781357 -0.20665748
0.14051387 -0.093186036 -0.19800447
0.24739346 0.11956857 0.020036684
0.2293686 0.028290305 0.015181512
-0.06166624 -0.156693 0.061498012
-0.10227328 -0.15061359 0.062994234
-0.10418278 -0.07338153 -0.0032658416
-0.0068564173 0.14294529 0.026195787
0.10937164 0.28979406 0.06778954
0.14136752 -0.14437644 0.020569984
-0.18127428 -0.07063921 0.093007185
0.11744318 0.22420546 0.05540851
0.17656353 -0.15600573 0.026780419
0.20733798 -0.106243044 0.027187718
-0.24465315 -0.024527173 0.0738762
-0.096439816 0.15059134 0.08677749
-0.022188948 -0.21301001 0.0268946
-0.17053348 -0.15041018 0.09268747
-0.16282628 -0.024776008 0.08022589
0.24864802 -0.13982792 -0.013518796
-0.12660359 0.18592519 0.09973691
-0.21583298 0.08164778 0.10011174
-0.017776653 0.3140408 -0.010817045
0.23404533 -0.042875823 0.03033014
-0.1690755 0.101976685 0.10270681
0.24137351 -0.15184416 -0.16734672
0.18347576 -0.24089074 -0.15244311
-0.06608974 0.31155547 -0.11469728
-0.039524883 0.25446007 0.106334046
-0.15344582 0.23336442 0.044866946
-0.1043861 -0.08753501 -0.13640721
-0.23682784 -0.22176518 0.055158474
0.22113 -0.20785606 -0.030209687
-0.040703505 0.2873737 0.09445933
-0.19059479 -0.0053942986 0.08190405
0.11891576 -0.26274237 -0.24440189
-0.050663296 0.17349559 0.09367923
0.1700283 -0.1972661 0.015646731
5.6985253e-05 0.21422638 0.05094505
-0.16156009 0.18859628 0.04303599
0.08628203 0.26579636 0.061602905
0.22424687 -0.15686151 0.004393493
0.26509798 0.011669936 -0.009544687
0.03176715 -0.29741916 -0.18445387
0.08133403 -0.23747084 0.030186148
-0.068212315 -0.26866394 -0.1397613
0.07450863 -0.27305505 0.02112452
-0.23243588 -0.16011772 0.094579235
-0.26010248 0.00044325565 0.081712656
-0.12976629 0.29011902 -0.09691741
-0.039679497 0.2983929 0.031405617
-0.02048988 0.22674596 0.060544662
0.032742146 0.15933318 0.015981205
0.16257548 -0.19557263 0.022631193
0.04511136 -0.09667469 -0.1563259
0.059072852 -0.3152403 0.0043847626
-0.17259751 0.08018989 0.10298732
0.014036789 -0.19545336 0.028553192
-0.24670424 -0.18873504 -0.15774225
-0.19768405 -0.18238205 0.059962098
0.23752844 0.049607024 0.0040410627
-0.28547326 -0.04753324 0.019839667
0.2325482 -0.19821848 0.0070884144
0.073386334 -0.29157174 0.008251636
-0.12359207 -0.12750348 0.07784946
0.015019959 -0.25649682 0.041065976
-0.13955235 0.14690636 0.06665597
-0.27870998 0.12572086 -0.045014307
-0.2971151 0.12747301 -0.110883094
0.15665789 0.19570182 0.054397296
0.1685634 -0.22397043 -0.09054916
-0.12624091 0.13413763 -0.13086525
0.31194153 -0.01498725 -0.08790877
0.023528656 -0.2976609 -0.13032933
0.054117266 -0.21481605 0.04488876
-0.17881456 -0.074770406 0.089801766
0.19667265 0.060919248 0.0027153352
0.26264456 -0.013502643 0.027160907
0.25230613 0.02134112 0.006985713
-0.14285265 -0.14474446 0.03796604
-0.15138489 0.2119691 0.08816699
0.30935264 -0.08363239 -0.027419208
-0.08595685 0.1477248 0.078044325
-0.17023154 0.2612447 -0.08888182
0.274959 0.045844417 0.022152951
-0.08138082 -0.15684135 0.062111188
-0.26188728 0.10403976 0.072059736
-0.029319936 0.3072945 -0.14778282
0.0053289956 -0.25987545 0.04215722
-0.26673755 -0.089929715 -0.08164544
0.1781361 -0.13958438 0.02382194
0.018753186 0.1466854 0.04782613
-0.055690065 0.15307483 0.057149116
-0.081744075 0.26344112 0.06867773
0.23822142 0.09012323 0.011984501
-0.085235104 0.29204664 0.08189038
0.18117502 -0.091355175 0.02176831
-0.28141087 0.10650191 0.05269551
0.27398252 0.139524 0.026260454
0.037797276 -0.30200502 -0.09726112
-0.25951767 -0.1632415 -0.09279835
-0.03202398 -0.23567885 0.056661002
0.110788696 0.18045446 0.0740751
-0.23946548 -0.21576431 0.038909547
0.051185273 0.21413524 0.086166404
-0.11577187 0.20736979 0.07898052
-0.11008154 -0.14561568 0.03370942
-0.24619408 0.14762981 0.032350596
0.040676445 -0.18052219 0.0033813005
-0.25720438 -0.17094369 -0.092098296
-0.10353332 0.1110031 0.064369805
0.10296446 -0.16407993 0.015342489
0.08618044 0.29084072 0.035288494
0.2888857 0.020417338 -0.24268517
-0.19301684 0.17746106 0.0032208117
-0.03934313 0.32132295 -0.118550025
-0.25810313 -0.21693864 -0.1654509
-0.031789612 0.26128057 0.064140104
-0.061928812 0.12635294 -0.11440715
-0.17435168 -0.1343858 0.0523512
-0.1589161 0.007660738 0.068933606
0.060222212 0.28703693 0.08823849
0.20773038 0.10678353 0.03371851
-0.06768045 0.30683038 -0.118467666
-0.33003074 0.037101 -0.1379577
-0.056979723 -0.16179706 -0.09215858
0.07827476 -0.1776569 -0.043114893
0.24768221 -0.13155541 0.006723749
0.28546873 -0.10775107 -0.026077993
-0.010350374 -0.2468818 0.012829762
0.05450711 -0.23582347 0.04453459
-0.09827397 -0.19187881 0.06307664
0.02763065 -0.30985638 0.0072635044
0.23174812 0.04767978 0.030459452
0.061428748 -0.28220975 0.037941474
-0.3099381 0.09085815 -0.08891126
-0.18797466 -0.24414748 -0.0026911777
0.15325461 0.27719375 0.016308462
0.17668015 0.018557169 -0.036121067
0.27163634 -0.10786092 0.0014670102
0.1189906 -0.21174254 0.030014642
-0.17354575 -0.17454907 0.05564809
-0.013570707 0.18874067 0.05025294
0.17062172 0.084357955 0.031978972
-0.060288936 0.17147413 0.09878346
-0.1505822 0.2635645 -0.12593488
-0.02709058 0.17714767 0.069476634
0.06005804 -0.22707944 0.016337201
-0.035561256 0.29650903 0.044585675
0.0020437487 0.15950523 0.044782415
0.104191504 -0.21721837 0.019600902
-0.18365574 -0.2266561 0.028846303
0.26904017 -0.16901967 -0.034949463
0.019804245 0.32501248 -0.0032051639
0.17535535 0.11131919 0.013013874
-0.13724555 -0.061011992 0.063223094
-0.24941273 -0.07364931 0.08923099
0.0756204 -0.2719138 -0.0048246505
-0.05729434 0.09231418 0.033268493
-0.2436592 0.004978036 0.09649813
0.19906764 -0.15303664 0.033003934
0.28318602 -0.096831165 -0.012756546
0.14639343 -0.065941066 -0.01237429
0.086037144 0.1899795 0.048378833
0.22533353 0.18237531 -0.19542734
0.05551728 -0.33321333 -0.17580566
-0.05185947 -0.16808055 -0.047126286
-0.16371736 0.09774277 0.10216803
-0.14868411 -0.122402295 0.048045557
-0.14818569 -0.05469775 0.04042279
-0.23367348 0.20536277 -0.044023428
-0.024625577 -0.17491467 0.047028556
-0.013140391 -0.2507379 0.018938433
-0.24462362 0.13668647 0.029680772
-0.201852 0.16493902 0.04747201
-0.12559228 -0.008838836 0.037905432
0.124818526 -0.028828768 -0.15788704
-0.2505363 0.04909827 0.112370804
-0.15214589 -0.008861717 0.100225
0.023736903 0.13344769 -0.035803653
0.2670222 0.16221417 0.029992545
0.07066525 -0.30370218 -0.19675745
0.2931048 -0.0073196627 -0.008349278
0.21410273 0.19649844 0.025641173
0.11593246 0.26291814 0.07189904
0.35657308 -0.09477005 -0.03474655
-0.06106439 0.16341253 0.09920563
-0.23367193 0.1785806 -0.05984671
-0.1493974 -0.17855246 0.05337628
0.14150847 0.05023956 -0.06873978
0.13283987 -0.1524496 0.041277826
-0.043247014 0.29021952 0.07765379
0.27752832 -0.0032527726 -0.109631434
0.23124301 0.121332414 0.028638417
-0.07085915 0.15100114 -0.0767364
-0.10905643 0.32153162 -0.1494581
-0.1475284 0.2523109 -0.012698494
-0.06870009 0.18960561 0.07102075
0.25573888 0.012371143 0.026234739
-0.2263111 -0.13888304 0.030245144
0.051907744 0.27972478 0.078070946
0.18753725 0.17879073 0.05296341
0.028383903 -0.2946091 -0.116264984
0.2957414 0.007905499 -0.09306289
-0.33219057 0.055523057 0.0070268014
0.07604221 -0.23982245 0.0021636125
-0.029868424 -0.2920593 -0.044537466
-0.257488 -0.050788317 0.057383236
0.0096825855 -0.1910862 0.050414406
0.0162629 0.1970657 0.05177137
-0.14634018 -0.08663623 0.074382305
-0.14551412 -0.1369993 0.067482635
0.1290807 0.28695804 -0.13599063
-0.04801393 -0.26200587 -0.11447794
0.15540332 0.13709846 0.056071945
0.16632824 0.12610483 0.06350184
0.1847475 -0.12403214 -0.0050995024
-0.22395779 0.048567176 0.08911615
0.22428146 -0.23243898 -0.021260336
0.22112447 0.2087233 0.0122466
-0.07099141 -0.27103743 -0.11402943
0.017858354 0.1810923 0.06802811
0.06304513 0.20520376 0.0836485
-0.099011414 -0.16470324 0.06290752
0.12696429 -0.046207 -0.09676153
-0.3018129 0.06544998 -0.060527503
-0.11317381 -0.26802287 0.063675866
-0.004534346 0.242944 0.07996068
-0.24259622 0.06345761 0.092675254
0.25073883 0.09307964 0.022262732
-0.08370952 0.33457613 -0.06843709
-0.29540595 0.10850208 0.029714026
-0.039364204 0.25312525 0.07652696
0.01500078 0.2830153 0.06085084
-0.11579378 0.116563275 -0.15229303
-0.2608834 -0.11770045 -0.04626299
0.22309478 -0.04368507 0.01682112
-0.117033996 -0.15706937 0.04003132
0.06228702 0.2459984 0.046396
0.01801225 -0.17187051 -0.083294384
-0.1415782 -0.08171718 0.08414471
-0.06623853 -0.30357075 0.04229528
0.11651857 0.1942329 0.032556813
0.27228436 0.020514943 -0.014255637
-0.14305599 -0.24403577 0.051186636
0.048988096 0.23662168 0.078676395
-0.075939454 0.27759218 0.056157704
-0.051763557 -0.24943973 0.048541505
-0.14343834 0.10589225 0.09310849
-0.028971123 0.30195156 -0.12128676
0.1106705 -0.23671441 -0.007777396
0.15185153 0.07689347 -0.09043783
-0.110008925 0.28052646 0.03889089
-0.15183489 -0.075154476 -0.10021632
0.32205874 -0.056358874 -0.08629924
-0.050266746 0.23951726 0.0824663
-0.29144782 0.14386305 -0.1167171
-0.23892972 -0.1556166 -0.10430552
-0.10249948 0.30621418 0.069761515
0.1635471 0.04422045 -0.016253065
-0.05227222 0.2720032 0.102553084
-0.18359527 0.13789268 0.10994378
-0.049181964 0.30409956 -0.02481289
-0.2720405 0.01027028 0.08632819
0.15183417 -0.14950572 -0.0102211125
0.24417834 -0.014889234 -0.0013753575
0.17175984 -0.12939084 0.020885913
-0.073753156 0.21423393 0.08495887
0.21042705 0.24358317 -0.05581749
0.2347388 -0.048685428 0.030575292
0.0023828922 -0.17243874 -0.088526584
-0.15578814 0.2276224 0.07168747
0.25053656 -0.053652875 -0.0037963795
-0.2723035 -0.060836703 -0.10772305
0.1358575 -0.08715979 0.0151905
-0.30736592 -0.039507475 -0.023217857
-0.20947456 0.10699967 0.080680124
-0.014834193 0.2849005 0.050261527
0.04088173 -0.15599029 0.04930682
-0.28498206 -0.11158525 -0.15956397
-0.14673242 0.26464432 0.021778164
0.114515774 0.20517269 0.05799254
0.23930308 0.109767176 0.03685727
0.22788416 -0.07119382 -0.0072143
0.068481 0.28393674 0.012299812
-0.16633955 -0.26784548 -0.13403398
-0.048615072 -0.19455603 0.059400357
0.10829477 -0.25036985 0.028682694
-0.059579216 0.30520946 0.085004605
-0.05877241 -0.25282025 0.011807723
0.13653724 -0.2579618 -0.10175888
0.07537627 0.179308 0.04909341
-0.090866156 0.27817354 0.104569286
-0.25864187 -0.068576835 -0.050479885
-0.03366445 -0.25858718 -0.095212966
-0.20344152 0.10988281 0.08738119
0.22376233 -0.1763649 0.00911698
-0.2487355 -0.05054625 0.10690783
0.28406608 0.07052218 -0.021484638
0.26617107 0.041770335 -0.09871221
-0.04868137 -0.22060911 0.040626578
-0.09357827 -0.16601908 0.035473846
-0.1640478 0.24131063 -0.046504624
0.1035496 0.21436659 0.06211765
-0.07134614 -0.27316335 -0.0650061
0.14800219 0.16393314 0.023002174
0.04846849 -0.21242455 0.026158674
0.14860004 0.25052062 0.053621013
-0.23048152 -0.14900482 0.03614319
0.12440736 -0.22248188 -0.22575167
-0.04453117 -0.1401947 -0.07184176
-0.2838193 0.08992423 0.102287665
0.1491301 0.2178121 0.06279681
-0.20433325 0.16249235 0.10992894
0.17673285 0.052344717 0.00181823
0.26768136 0.08552538 -0.23723578
0.0053205527 0.20647791 0.07670218
0.07598397 0.12615423 0.0344275
-0.20680538 -0.20080498 -0.0017331727
-0.2009104 -0.22708333 0.07495521
-0.12926754 -0.101728104 0.08866684
0.27758443 -0.06052991 0.014622546
0.09461113 0.222249 0.05080019
0.1505933 -0.2634597 -0.006369886
-0.12217371 0.06989792 -0.012165054
0.102217264 0.28852808 -0.049427226
0.05683666 -0.18652093 0.036642876
0.21463369 0.083330244 0.04160458
-0.23896001 -0.07602012 0.11409411
-0.12032381 0.1986769 0.07420108
-0.2709099 -0.11377259 -0.16844133
-0.14018159 0.2972948 -0.04729866
0.20490856 -0.20756896 -0.017548684
-0.06458646 -0.2864371 -0.12184737
-0.1618221 -0.25777373 0.05841232
-0.16794604 -0.051102087 0.05711932
-0.20299308 0.04260143 0.09580983
0.17982364 -0.22477946 -0.018188378
0.121802166 -0.25702453 0.016927602
-0.16606168 -0.17119385 0.044034094
0.2586507 -0.12086165 0.0008050231
-0.14133528 -0.19412765 0.05152997
-0.09167208 0.10888362 0.04534052
-0.0014847182 0.22913152 0.084197044
0.16806416 0.08001083 -0.092497
-0.23901108 -0.18799199 -0.058525767
0.2403038 -0.18868624 0.0024507341
-0.1422011 0.0653831 0.07337574
0.15452424 -0.15672019 0.0048172097
-0.060024995 -0.25442445 0.061530355
0.12070299 -0.093206145 -0.12558928
0.3155114 -0.118907064 -0.015746312
-0.05168277 -0.24800014 0.03691293
-0.19711696 0.022581106 0.06885191
-0.187879 0.05781821 0.11273557
0.034826014 -0.15526916 -0.00097027957
-0.14000535 0.021845609 0.061143085
0.2500691 -0.18114007 -0.023958078
0.16198905 -0.16558437 0.031751942
0.14966434 0.09240603 0.024916317
-0.26922962 -0.08731666 0.026044648
0.010201069 -0.15400273 -0.18907103
-0.23349507 -0.21047576 0.020058176
0.24324904 0.17587818 0.028325709
0.21598937 -0.14058459 -0.18979587
-0.17726813 -0.09481764 0.057972465
-0.15645291 -0.095716834 0.06274638
0.2785215 0.08100525 0.004915636
0.2552571 0.13763165 0.0076398156
-0.0553572 0.32650828 0.04860856
0.09597196 -0.3113355 -0.01683749
-0.2511022 0.121527396 0.12116051
-0.28176358 -0.15219754 -0.11494737
0.023365662 0.20968759 0.05651105
0.13477896 -0.13101998 0.000386888
0.18732062 0.08235396 0.025557961
0.24246553 0.012393216 0.030639963
0.006825813 0.2900968 -0.12579165
0.030163199 0.23650144 0.08618396
0.1650709 -0.029080005 -0.026837388
0.048100207 -0.21108343 0.049116455
0.23780678 -0.07002213 -0.01777126
-0.15260081 -0.07192391 0.05130385
-0.16970123 -0.24839315 0.043830443
-0.30284986 -0.020010354 -0.0070645306
0.29641643 0.08305323 0.027387576
0.09306679 -0.11688947 -0.03677774
-0.023067351 -0.12967575 -0.025542967
0.11720241 -0.31573558 -0.038356427
0.09062225 0.1306836 0.028936636
-0.19935828 -0.22078279 -0.14206925
0.1636714 -0.006495526 -0.036539692
-0.015619903 -0.18124275 0.05963852
-0.039992426 -0.12881832 -0.059724335
-0.14430557 0.24110128 -0.04842398
0.32937852 -0.065286614 -0.020778978
-0.055668976 -0.20026758 0.058223598
-0.27097845 -0.06208809 -0.0905049
0.27652982 -0.062059138 0.00980782
0.2723707 -0.009138022 0.028784746
-0.078167945 0.090475924 -0.002357881
-0.1897179 0.17313096 0.08036254
0.27352187 -0.10531699 0.018558051
-0.134682 0.109591864 0.0961789
0.07798746 0.1801455 0.05519131
-0.16130674 0.21773656 0.050862208
-0.10865557 0.30151188 -0.041855834
0.12478282 0.2253289 0.052175447
-0.01833788 -0.1439102 0.04095037
-0.28526315 0.05322112 0.03867142
-0.24853098 -0.15006976 -0.03496721
0.07265995 0.25319538 0.048018698
0.23738007 0.12660941 0.03651519
-0.18338174 -0.044305936 0.089158975
-0.3102728 0.04009031 -0.11758892
-0.13272128 0.13885725 0.10985436
0.16826591 0.1240338 0.022332953
-0.27128732 -0.035779346 0.048604034
-0.109499395 0.12590906 0.088227525
0.14082308 -0.20036009 -0.010043436
-0.31091928 0.02166043 -0.06849037
-0.21393898 0.02367734 0.10111455
-0.18830767 0.22272854 -0.11322801
-0.10077632 -0.22076583 0.06974319
0.2809548 0.024717567 -0.011987911
0.12273124 0.18060069 0.064755544
-0.18545537 -0.251097 -0.19987853
-0.18042783 -0.1802011 0.09041907
0.018842895 -0.27893925 -0.13288729
0.3295806 -0.018202977 -0.02048699
0.27746534 -0.10006984 0.0085134795
0.052122794 -0.22397165 0.04628996
-0.12062516 0.10495168 0.082323834
-0.25653085 -0.15808384 -0.11711812
-0.03881404 0.22332314 0.077956825
0.11692507 0.10951752 0.040414684
0.12904142 0.2640034 -0.18419547
0.13862483 0.032890666 -0.0027711955
0.07304262 0.27654412 -0.16582507
0.06661974 0.28704566 -0.106631935
0.06997769 0.31677544 -0.04831574
0.14675757 -0.21654391 -0.07662599
0.17434742 0.14318362 0.027431987
0.10379993 0.29013887 -0.09069922
0.29883674 -0.024192981 -0.007086691
0.15532796 -0.18743172 0.011509281
-0.16185953 0.19851908 -0.0071590845
0.23018703 -0.024594413 0.03169042
-0.006381225 -0.13965449 -0.21615882
0.010612591 0.24108589 0.07316659
0.3371518 -0.05126441 -0.07159369
0.25125453 -0.21666662 -0.034163848
-0.24789725 -0.09652773 -0.08071624
0.25466907 0.14156312 -0.16860008
-0.23844261 -0.060614076 0.094229124
0.20628817 0.04477531 0.027560966
-0.17886797 -0.25156364 0.04004448
-0.23307821 0.00862743 0.085950635
-0.18659246 0.22768022 -0.08799675
0.08650984 -0.1704203 0.005613148
0.12447879 -0.024271647 -0.19626412
0.20860548 -0.02568809 0.009878968
-0.0033099556 -0.12418209 -0.043821108
0.09865055 -0.18764389 0.036515575
0.16619588 -0.25107965 -0.037290446
-0.16967389 -0.2112931 0.051825196
-0.116385244 0.0021429923 0.05951805
0.35105646 -0.087741084 -0.063087665
-0.0015798796 -0.14560758 -0.11756464
0.2537095 -0.07099283 -0.00414978
-0.11515575 -0.123230964 0.048484515
0.22901133 0.2244882 0.03760153
0.16891675 -0.15023252 0.010280624
-0.22170027 -0.13943604 0.07673821
0.05462574 -0.17896245 0.039270554
0.30798325 -0.07830315 -0.21565026
-0.105288796 -0.107926495 -0.15221883
-0.16158158 -0.20241608 0.06966589
0.18118228 -0.053853076 0.028913308
-0.24757062 0.083030105 0.077349
0.09832261 0.17019245 0.043780424
0.25961685 0.028761748 0.012839078
-0.007187637 -0.27068993 0.03685365
-0.04278389 0.33348227 0.06662994
-0.14799367 -0.19098078 0.081325635
0.14981282 -0.09860419 0.029566573
0.18316346 -0.18888994 -0.009535501
0.15707876 0.09155611 -0.024809515
0.17325659 0.17326142 0.055603236
-0.05115046 0.29944915 0.07271434
-0.13708958 0.030726781 0.08502286
-0.23180594 0.10829746 0.09128588
-0.25896367 0.028523792 0.10017371
-0.03731714 -0.3107017 0.009117944
-0.15111805 -0.002597756 0.055573687
-0.106036834 -0.08262595 -0.13574831
0.25498956 0.22528408 -0.056203585
0.11743406 -0.11938946 -0.05724258
-0.1652256 -0.21683183 0.044843797
0.088003464 0.26078165 -0.083194375
-0.22299996 0.06787936 0.0911555
-0.15691048 -0.25446817 -0.20902118
0.06236954 -0.1666078 -0.0018626289
-0.18353942 -0.24239573 -0.19672354
0.06873195 -0.12253814 -0.026677325
0.11499753 -0.3013306 0.008710537
