# .PCD v0.7 - Point Cloud Data file format
VERSION 0.7
FIELDS x y z
SIZE 4 4 4
TYPE F F F
COUNT 1 1 1
WIDTH 1000
HEIGHT 1
VIEWPOINT 0 0 0 1 0 0 0
POINTS 1000
DATA ascii
0.087550126 -0.026967473 0.019096702
-0.30790362 0.0926836 -0.14028046
0.16317692 -0.057164643 0.036616147
-0.22478941 0.03814708 0.053351145
0.14483404 -0.011578927 0.03712682
-0.16540495 0.23633489 0.020314809
0.083013944 0.02357482 0.015592412
-0.23325372 0.19960049 0.044662196
0.013729502 0.009709093 0.009011848
-0.19031766 0.009470049 -0.0016410829
-0.0077370764 0.08988519 0.009206997
-0.1882874 -0.014958012 0.0021404258
-0.2784146 0.06524537 0.04600732
0.26003775 -0.12353652 -0.00042845268
-0.28447488 0.20170696 -0.15161692
-0.3043558 0.15762505 -0.16897537
0.0104110595 -0.052254178 0.023518398
0.15699007 -0.16228077 0.016356265
0.12480445 -0.17419903 0.021532698
0.114387915 -0.11614409 0.0156092
0.2720119 -0.17319946 0.04091573
0.32427904 -0.22493915 0.034669917
-0.28694403 0.12227384 -0.15237026
-0.250837 0.00025863986 -0.03442401
0.11375526 -0.14097044 -0.025363704
0.08379182 -0.10088443 -0.003184167
0.11075364 -0.15025476 -0.036754787
0.07034713 -0.12812723 0.017493622
-0.01891499 0.12727928 -0.0065187505
0.25947934 -0.08960847 -0.0017746838
-0.25797927 0.006625113 -0.0033901886
0.2186154 -0.035815626 -0.036902335
0.2873917 -0.23600365 0.043949302
-0.2424481 0.14616707 0.08407431
0.21297391 -0.19338919 0.042082816
-0.20400871 0.2775677 0.0047004195
-0.24894555 0.038694102 0.048265938
-0.19676746 -0.033601288 -0.02966193
-0.31505305 0.03509818 -0.08846691
0.19949281 -0.055918317 -0.029747946
0.37183395 -0.14400773 0.016680649
-0.2555254 0.0638705 0.03018924
0.124007806 -0.18027401 -0.030087644
-0.2908857 0.038745668 0.0065371213
-0.05977306 0.115187116 0.010157732
-0.34572417 0.063790075 0.024336912
-0.24412657 0.20088522 0.04326479
0.073078744 -0.13761657 -0.024255909
0.2488835 -0.09258497 0.0128349075
-0.010099577 -0.09345395 -0.00797809
0.27597418 -0.2360118 0.019104106
-0.16217591 0.126869 0.060894497
-0.06975605 -0.024654908 -0.03239839
-0.04654675 -0.03291553 -4.9241975e-05
0.002109338 -0.101489075 -0.011550918
-0.0030224163 0.09558314 -0.04501646
-0.08462448 0.21248837 -0.015224685
-0.23037924 0.0027087508 -0.09866137
-0.096073665 0.15458643 -0.014894046
-0.17316239 0.093062386 0.082888275
-0.33133763 0.044440486 -0.04407957
-0.19540888 0.13245325 0.07806824
-0.16872054 0.021643106 0.05593775
0.212029 -0.10775071 -0.0018963036
-0.11678403 0.03450929 0.025719937
-0.25142843 0.06048811 0.07795954
-0.13644095 0.08218019 0.0050773397
0.111885056 -0.1484081 -0.050635546
0.21222405 -0.066706434 0.019777657
-0.31188512 0.06482114 0.037441358
-0.08218006 0.155186 0.06994224
-0.29459882 0.009491061 -0.01816912
-0.15331548 0.07177397 0.0777399
0.13346592 -0.03316895 0.031664696
-0.10623899 0.005741046 -0.010028875
0.18481465 -0.06416302 0.017370906
0.16913055 -0.029751778 0.009177279
-0.24321745 -0.049840033 -0.06732181
0.114098534 -0.12887567 0.022862544
-0.29820082 0.08024974 0.04059756
0.2760778 -0.28787926 -0.10575273
-0.30691522 0.071154565 0.028943665
-0.2121477 -0.03227336 -0.02445586
-0.05737961 0.054320514 -0.00948603
0.39038175 -0.15634719 -0.056063827
0.28702754 -0.14698637 -0.010907659
0.29487607 -0.22029674 0.016122267
-0.07150786 0.00027964637 0.011408187
-0.33636865 0.09638317 0.0120584015
-0.05301814 0.19459398 -0.033351477
0.07378162 -0.0570297 0.02918426
0.36787358 -0.13507214 -0.0092171775
0.12000537 -0.13348238 0.021138487
0.14885725 -0.15597561 0.013285115
0.044260945 -0.06295066 0.04061348
-0.16975704 0.09919469 0.066082515
-0.115696505 0.16411611 0.03730792
-0.062358808 0.037933044 0.029399117
0.19063403 -0.206545 0.015841361
-0.0138279535 0.0381654 0.020935692
-0.06702038 0.21549886 -0.011491595
-0.30352202 0.14508714 -0.15565524
0.20335999 -0.19393013 -0.015241242
0.033754412 -0.057396937 0.03370399
-0.06077325 -0.009680264 0.0064656944
-0.18696485 0.2685163 -0.023887431
-0.20304446 0.10066971 0.080811575
-0.21149334 0.24188523 -0.16060527
0.23956573 -0.22632143 -0.031658333
-0.16330747 0.17147215 0.055895828
-0.3606463 0.07638671 -0.13210846
-0.34345543 0.10242484 0.051087923
-0.26779756 0.096164174 0.0749642
-0.22635232 0.19069706 -0.117120646
-0.09349365 -0.057990987 -0.006584648
-0.18472728 0.09643923 0.086321175
0.18032376 -0.012464538 -0.036057852
0.283396 -0.13358457 0.020032156
0.3424858 -0.2125117 0.02111804
-0.05394376 -0.010839479 0.024324356
-0.22064605 0.0861677 0.041678555
0.27680603 -0.08282925 0.002172187
0.23967668 -0.12440028 0.032162134
-0.17557478 0.0047392775 -0.18332304
-0.21821375 0.050741386 0.049208082
0.05419232 -0.0021441872 -0.0051076296
0.39650804 -0.16165423 -0.001726791
0.020603897 0.102107346 -0.081484996
-0.21332659 0.1884068 -0.12703197
-0.16195388 0.014685958 0.06898739
0.039070174 -0.066738166 -0.015448494
-0.23842017 0.19621862 -0.116566055
-0.28706303 0.12602912 -0.14290816
-0.27858302 0.093763344 -0.1412642
-0.24530135 0.06845223 0.07394767
-0.022743674 -0.01178832 0.03564999
-0.28004652 0.03979577 0.008067061
0.31546688 -0.10326141 -0.05652816
-0.1763153 0.0145500135 -0.1844332
0.24811055 -0.14332569 0.04191378
-0.24006772 0.17435874 0.06886495
0.2771491 -0.07482799 -0.0025835102
0.30524832 -0.088823415 -0.030779082
-0.09332248 0.10578419 0.06638214
0.289945 -0.19966604 0.04726414
-0.24798875 0.105539575 0.073122405
0.11929298 -0.11578084 0.022615386
0.26841807 -0.0971316 0.0027437205
0.35858294 -0.26517886 0.0055488087
-0.19134513 0.0075856126 0.035510298
0.34276828 -0.23953032 0.029238049
-0.12572 -0.04337541 -0.0579395
0.15859845 -0.09992565 0.012604404
-0.06777053 0.0470937 0.032988604
0.07996467 -0.078094676 0.012381421
-0.06173225 -0.036544014 0.021904005
0.16573296 -0.10769138 0.0054064104
-0.21729013 0.2496392 0.0024808026
0.34216535 -0.17475857 0.006783045
-0.07155779 0.22111763 -0.05974969
0.012539969 0.06986989 0.018411899
0.0064883553 0.054215383 0.026411932
-0.089698054 0.1807241 0.03539018
-0.08340682 -0.005042562 -0.015120638
-0.062005624 0.12254559 -0.004770316
0.115636915 -0.14587541 0.020893505
-0.07843129 0.10425161 0.0125609115
-0.27892607 0.13450143 0.079265594
0.19431041 -0.21977867 0.02262815
-0.3127978 0.033743516 -0.12032353
-0.2709971 0.20071916 -0.13248101
-0.25661775 0.17047891 0.049631692
-0.15899569 0.21076049 0.03280741
-0.1640955 0.09160912 0.06828578
0.19291069 -0.027249824 -0.032905202
-0.08640277 0.19932579 -0.0057134405
-0.23646437 0.15205923 0.0768428
-0.11353985 0.11730919 0.0834598
0.21280001 -0.119105116 0.03392883
-0.03151167 0.07155964 0.03786043
0.35608727 -0.24418242 0.04519828
0.32083672 -0.1657171 0.03452901
0.32315496 -0.19062532 0.029611705
0.01643659 0.029979551 -0.009720563
0.3787371 -0.2307212 0.0056390115
0.36048138 -0.13094692 -0.013869478
0.108572066 -0.114096865 0.032233898
0.37971795 -0.135303 -0.02792873
0.08796402 -0.033509627 0.008558156
0.15238357 -0.119203076 0.041845545
0.23764664 -0.23502144 -0.01333651
-0.109604605 0.152025 0.009819405
0.19115615 -0.19957629 -0.0093404595
0.4107218 -0.18439813 -0.06834914
0.2174769 -0.0654802 0.004271769
-0.15272273 0.1397936 0.08268827
0.32279155 -0.2169492 0.025432138
-0.33773968 0.051577352 0.0069126002
-0.26546252 0.07358346 0.064456195
0.19400351 0.0026141463 -0.092705555
0.007610379 0.010071456 0.036686648
0.25858486 -0.10133183 0.017016385
0.21066931 -0.04536657 -0.0015419826
-0.1989237 0.17041522 0.060311966
-0.024595259 0.0011182241 -0.004317112
0.16422309 -0.0071536065 -0.0044059334
-0.052363973 0.097846515 0.017499726
-0.051657207 0.10825852 -0.09639262
0.025901528 -0.019388108 0.024470959
0.29327002 -0.15980883 0.013894751
0.14842252 -0.20738083 -0.020148994
-0.23295154 0.025665017 0.046309672
-0.05587819 0.124402545 -0.08982838
0.14519176 -0.042199034 0.008138232
-0.24671942 0.1800562 -0.1898647
0.22125718 -0.039400194 -0.023625933
-0.13216823 0.14132152 0.045106687
-0.24567811 0.0395099 -0.022875553
0.089031205 -0.030557917 0.029864343
-0.01244579 -0.0747138 -0.007065231
-0.07460323 -0.020523777 0.01915163
-0.108513854 0.2375532 -0.1311972
0.29424265 -0.1880521 0.0032512841
0.11414984 -0.039933853 -0.0052850205
0.36794406 -0.20068166 0.032144908
-0.015296732 -0.0153127 0.0055649583
-0.044091467 0.05284262 0.040037144
0.33289474 -0.31972644 -0.052705966
-0.12676743 0.09527265 0.09252859
0.18891342 -0.119328536 0.03558948
0.071881056 0.056708936 -0.066401035
-0.051641226 -0.008701469 0.0097370185
-0.20578331 0.017249558 0.014094189
0.017629052 -0.084945016 -0.061378688
0.08755471 -0.08256324 0.027295297
-0.12709047 0.15005316 0.036777467
0.23488083 -0.20784353 -0.0041459305
-0.19001308 0.09099247 0.060195155
0.00044736735 0.010121546 0.042057473
-0.23220953 0.2536052 0.0430959
0.092400536 -0.028716186 0.021695869
0.09695074 -0.086061984 -0.0015932522
-0.06195542 -0.046162646 -0.058912396
0.32307592 -0.1847911 0.028872136
-0.12331855 0.1556846 0.04777325
0.36121345 -0.18155608 0.006918011
-0.033117224 0.06305324 0.0028681546
-0.24940015 0.19105448 0.061094217
-0.21131301 0.22652808 0.051459618
0.18535769 -0.051113855 0.004098401
-0.2891384 0.17569722 0.06212024
-0.1343217 0.14083028 0.08515847
0.20041229 -0.09624413 0.041465066
-0.059814457 -0.0005059571 0.017620148
-0.2156425 0.256853 -0.048543524
0.0020110381 0.06689971 0.0055832267
0.2882255 -0.15199016 0.0060241753
-0.1526295 0.1399092 0.042444315
-0.10531934 0.09256429 -0.005903791
0.3766666 -0.2336985 -0.059731107
0.006738661 -0.081277 -0.033446718
-0.21323308 0.11042898 0.0777793
-0.14100443 0.19841231 0.03177912
-0.2283643 0.061900817 0.06644729
0.22725214 -0.03497837 -0.022326699
-0.26575336 0.14990085 0.09055559
-0.04044397 0.015938258 0.024242759
-0.039147418 0.08422934 -0.020157844
0.32052767 -0.2952627 -0.019381942
-0.22610188 0.25795144 0.014117003
-0.018328942 0.009216295 0.019034674
0.15557481 -0.11413865 0.03851378
-0.3167329 0.040342737 -0.01827158
-0.21202162 0.067427054 0.04453896
-0.16474679 0.2117053 0.029804468
-0.21284364 0.21948645 0.04696087
-0.105194665 0.049059726 -0.00712293
-0.29219148 0.17560901 0.04142561
-0.101645455 0.13961752 -0.12964346
0.05251001 -0.031105442 0.0013504496
-0.15418717 0.18429525 0.05840719
-0.07231164 0.12775043 -0.016430812
-0.04172471 0.10358418 -0.041052513
0.0813453 -0.12857053 -0.000503778
-0.16431543 0.1854441 0.047326144
-0.1023365 0.08184537 -0.01313255
0.09343157 -0.16282372 -0.067843236
0.08124878 -0.13304037 -0.0021145726
-0.09841682 0.17713411 -0.018840205
0.23812835 -0.15696882 0.048067182
-0.12299746 0.14451554 0.04414468
0.38317597 -0.18765754 0.0062203053
-0.24057655 0.13274115 0.081223935
0.18155524 -0.16307154 0.042494684
0.18353161 -0.12875679 0.013693569
-0.23962247 0.10615802 0.062608205
-0.3072974 0.13609725 -0.12886953
-0.027502248 0.12040632 -0.028889637
0.09111646 -0.04161955 0.027332898
0.21061756 -0.09425455 0.046277262
0.3768354 -0.17610705 0.01129696
0.21987635 -0.13926765 0.041352887
0.322347 -0.1798616 0.025820844
0.07485078 0.016153956 -0.0019577346
-0.26334947 0.09465087 0.04928667
0.32354468 -0.29357183 0.022667564
-0.012792073 -0.056611028 -0.020343844
0.20286505 -0.20612432 -0.024666488
-0.020816967 0.07514128 -0.021423297
0.111839116 0.02239912 -0.10381792
0.257484 -0.26839077 0.014863448
0.11889746 -0.034801133 0.031726018
-0.13500275 0.26842958 -0.032069523
0.14953609 -0.079467915 -0.0029139586
-0.26859125 0.17122585 0.049962826
0.29384714 -0.21250495 0.011120324
-0.13933541 0.2374387 -0.013732964
0.02533356 0.07068973 -0.048953757
-0.2678915 0.18815815 0.06428224
0.3346209 -0.21866359 0.018225439
-0.0053995857 -0.08453712 -0.045513015
-0.29174784 0.124895155 0.03921397
-0.010846235 0.04658649 0.0051582926
-0.11752942 0.12300237 0.059906844
-0.31754375 0.11219733 0.051400855
0.32406163 -0.20753556 0.03739419
0.3193915 -0.15765022 0.042999018
0.1342239 -0.0012636076 -0.04807472
0.3064341 -0.20781147 0.04182053
-0.19904974 -0.010329287 -0.15238813
-0.29639032 0.14197356 0.043429155
0.2992107 -0.14824669 0.007108111
0.04863474 0.028447641 -0.03866869
0.16972353 -0.1383844 0.023589665
-0.12909815 0.1958777 0.016988767
0.25436458 -0.083172806 0.006182302
-0.25197566 0.24454063 -0.035558183
-0.2120472 0.0011776856 0.024074025
0.03331794 -0.057427343 0.019338334
-0.016437318 0.08953601 -0.041585296
-0.28602624 0.032483697 0.027649885
-0.06771807 0.0019490955 -0.007959801
-0.040774886 0.03048638 0.021509493
0.28797632 -0.22511518 0.027348625
-0.014957325 0.0663094 -0.0027748737
-0.16666375 0.12522766 0.082832724
-0.23452824 0.22311723 0.0032184143
-0.18443185 0.041624248 0.06623375
0.23965643 -0.19167687 -0.0027020394
0.17766738 -0.1902221 -0.0028259612
0.34280282 -0.28358328 -0.089418225
0.073673785 -0.12161233 -0.06100833
-0.1413171 -0.0059912526 -0.018740484
-0.091094375 0.03036482 -0.0060064867
-0.1209518 0.0614695 0.0092085665
-0.08194467 0.1733929 0.023331614
-0.0057953666 -0.03817888 -0.012934408
0.09148809 -0.16208081 -0.093684405
-0.055319373 -0.04036069 0.0063207713
-0.0005559222 -0.009047299 0.038564943
-0.30432212 0.13787776 0.06091988
-0.2780392 0.028684761 0.0040295054
-0.022959908 0.07456614 0.0029558912
-0.33338177 0.098893516 0.060043972
-0.34563622 0.04075321 -0.05041093
-0.29246655 0.165727 0.07212824
-0.10348214 -0.06861092 -0.082814135
-0.17345324 0.27997366 0.00055580784
-0.09764922 0.18288961 0.058317885
-0.24217483 0.19912858 0.064715266
-0.1461775 0.19622384 0.062675506
-0.095387466 0.17886658 0.020871319
-0.25030744 0.18758568 0.07685275
-0.12452841 0.087454155 0.04972
0.2842356 -0.11213378 -0.014774565
0.25783053 -0.16607933 0.0023452914
-0.09892231 0.11929805 0.08338931
-0.12377399 -0.03698619 0.009427145
0.06548037 0.0026264463 0.03934711
0.265943 -0.2119204 0.020972604
-0.17544197 0.1524657 0.043559495
0.009975788 0.020074233 -0.0018458588
-0.106530726 0.040185947 -0.003217817
0.14994803 -0.00823877 -0.0072460305
-0.22149369 0.17085172 -0.13757257
0.19710693 -0.16203766 0.021237684
-0.117472425 -0.008856973 -0.011916112
-0.11609903 0.0788635 0.018403426
-0.17202753 0.011282652 0.07280416
-0.11440109 0.18506736 0.03836467
0.031468857 0.06980433 -0.030261207
0.066207446 0.04242296 -0.010002858
-0.20522921 0.1577764 -0.17401536
0.30463544 -0.1902546 0.019958802
-0.23175223 0.2572828 -0.13167493
0.29980415 -0.13498329 0.009817839
-0.26254958 0.05782008 0.021290185
-0.19450335 -0.015453837 0.013865796
-0.27905747 0.075392164 0.0041065994
0.05159326 -0.092127405 0.00853016
0.2584652 -0.26757422 -0.059239585
-0.00010029673 0.013035741 -0.005370777
-0.1395367 0.011209072 -0.014703198
0.12640344 -0.06634098 0.010053931
-0.29962754 0.12962556 0.061206337
0.15273552 -0.1358366 0.04226038
-0.035800688 -0.09513606 -0.082759835
0.038720813 0.0047707553 0.009392998
0.18898019 -0.17243282 -0.012149603
0.036236633 0.039330803 -0.029428046
0.34921396 -0.2656498 0.034211762
0.13520092 -0.20073245 -0.010619713
0.24078092 -0.18167137 0.04215663
0.24513125 -0.22385824 -0.0018568571
-0.2649435 -0.014579747 -0.00044787597
-0.0655632 0.10644172 -0.028590234
0.17346175 -0.034987032 -0.034792956
0.26184198 -0.2356152 -0.0047288695
-0.1656064 0.03854538 0.0295213
-0.35992166 0.043604758 -0.056294642
0.20610122 -0.101355605 0.0052440516
-0.09030303 0.21937315 -0.024822965
0.3099429 -0.19733673 0.04285008
-0.26805592 0.015013701 0.00020520862
0.39066297 -0.13410063 -0.11607576
0.048664134 0.022232216 0.034026034
0.13467073 -0.12754108 0.0095456485
-0.18635224 0.018264959 -0.032812502
0.30808502 -0.10424835 -0.08661045
-0.25359836 0.2409764 0.0076807574
0.28297067 -0.21263385 0.02216218
0.23020004 -0.10177208 -0.007038471
-0.05152993 -0.061829783 -0.022188859
0.020960977 -0.026539693 0.039650038
-0.16293432 0.19924363 0.026714955
0.33465543 -0.24720652 0.03480703
0.28451696 -0.20897688 0.017534155
0.23050839 -0.16107032 0.03983377
0.057437085 -0.122285545 0.030940501
-0.023750966 0.1285195 -0.049870677
0.021527274 -0.037968308 0.008903035
0.09595751 -0.02324014 0.018842658
0.048019607 -0.021574125 0.0022505084
0.1672968 -0.07402301 0.04003855
-0.18567105 0.18929121 0.06471364
0.1888466 -0.07079429 0.009688779
-0.29091895 0.13313843 0.06053323
-0.22806665 -0.02828224 -0.03218547
-0.16986771 0.20634486 -0.010042194
0.3769342 -0.19529207 -0.006047358
-0.052890904 0.06572181 -0.019869411
0.29294154 -0.13498063 -0.01906227
0.010471191 0.015226943 0.013386662
0.20806344 -0.118214406 0.035813633
0.18747449 -0.05083269 -0.017584063
-0.18304864 0.05718816 0.06993775
-0.3276123 0.029503053 -0.04194952
-0.15420276 0.2576409 -0.07027667
0.3020415 -0.27305177 -0.01133433
0.15288174 -0.007583425 -0.015807949
0.09626423 -0.039443295 0.015730174
-0.10102339 0.0636441 0.033955112
0.22497737 -0.24541546 -0.02256774
-0.29638186 0.11479002 0.062810116
0.32576048 -0.14431196 0.026460314
-0.029352883 0.102295056 -0.049721938
-0.11643325 0.22886595 -0.036827244
-0.21130157 0.01917179 0.043718748
-0.3147027 0.18043631 0.040080532
0.3415914 -0.13435344 0.016460609
-0.06770177 0.021713654 0.038210295
-0.21820506 0.112878606 -0.20978732
0.25396127 -0.21780156 0.040749297
0.16092652 -0.091796905 0.017372409
-0.3230324 0.027735142 -0.09265609
0.32068583 -0.121727526 -0.026729925
-0.24618673 0.10567363 0.05447648
0.13245802 -0.04007281 0.042015627
-0.15888634 0.16936256 0.056365665
0.17256975 -0.13396643 0.04566256
0.22605042 -0.21282105 -0.0047923345
-0.056084562 -0.03793718 0.0067049884
-0.27996936 0.1328534 -0.17797862
-0.1944021 0.16751708 0.04603814
-0.062234115 0.20261316 -0.11185609
-0.14961152 0.09777072 0.083078444
0.017612997 -0.15270343 -0.06440951
-0.32666293 0.09333258 0.012758572
-0.1789322 0.17193922 0.07688793
0.20032878 -0.063425705 -0.0071801483
0.091964364 -0.13896227 -0.03232644
0.29243487 -0.078382246 -0.01028611
0.0735329 -0.13567057 -0.04510497
0.2790809 -0.037301302 -0.024460562
0.29316565 -0.21606673 0.005080798
-0.2324744 0.11394111 0.065578334
-0.12036608 0.23390754 -0.05021017
-0.08189915 0.19265093 -0.067972854
-0.22866286 0.11711891 0.088304065
0.14354075 -0.17699681 -0.02408647
0.29145253 -0.25849098 -0.02791048
-0.09941003 0.20473415 0.0039360556
-0.19459689 0.22872882 0.047391802
0.058153268 -0.020110045 0.018465012
-0.19027564 0.047655463 0.02041261
-0.20955066 0.28250185 0.02855967
-0.24755049 0.2053732 0.06555269
-0.23867096 0.11285337 -0.16135837
0.3843621 -0.13929407 -0.032217145
-0.15064894 0.1911096 0.013711464
-0.13726763 0.20128024 0.01459398
-0.09554709 -0.04517477 -0.024326168
-0.19500661 0.28642842 -0.08613693
-0.2016911 -0.051205743 -0.009418763
-0.041455485 0.15254901 -0.06994659
0.24804239 -0.09851663 -0.025163561
-0.17820656 0.14941758 0.0654325
-0.08683926 0.1395707 -0.079304084
-0.08362965 0.184923 0.0033528719
-0.18120861 0.021809286 0.027324032
-0.20222172 0.15045476 0.0859105
-0.15168682 0.20189102 0.060494155
0.12508799 -0.16554505 5.9527647e-05
-0.29377705 0.08713842 0.0667736
0.20695549 -0.029166428 -0.0002102848
0.34791645 -0.15183899 0.028048618
-0.011927475 0.035130557 0.022010772
-0.27727988 0.20809354 -0.006298121
-0.11613825 -0.011766138 -0.07451032
-0.014297309 -0.11407475 -0.067225665
-0.14516634 0.14623846 0.08173265
-0.21545084 -0.04925651 -0.078669816
-0.07417353 0.112384155 0.018420236
0.28192422 -0.28106433 -0.028123897
-0.21893975 0.09154806 0.08221242
-0.20894732 0.04599549 0.06475538
-0.025196629 -0.07619041 -0.018390086
-0.06812877 -0.043687757 -0.028961003
-0.29308507 0.02974324 0.026418824
-0.014681324 0.116257004 -0.04129763
0.17554945 -0.1910302 -0.025566004
0.3427777 -0.2907075 -0.09890676
0.1465813 -0.049251877 -0.013206716
-0.13702105 0.16872211 0.052975412
0.17343903 -0.15044762 0.017417748
-0.0409247 -0.031950068 -0.019005874
-0.07935648 0.057284288 -0.0073289964
0.048792463 0.09716224 -0.09354428
0.3240728 -0.096298754 -0.054331966
0.32794452 -0.207566 0.04671895
0.3455094 -0.15264489 0.036089916
0.25814962 -0.21439053 0.017820582
0.31128618 -0.107748054 0.0038694364
0.021228457 -0.09744868 -0.0003506549
0.27469894 -0.184732 0.04743897
0.21603937 -0.05263995 0.02997048
0.10612021 -0.0017511114 -0.0032474385
0.09640044 -0.005268467 0.007191162
0.12704927 0.022623317 -0.040049236
-0.26717204 0.07421585 0.056964073
-0.040463034 0.09329648 -0.0023724246
-0.18290862 0.16376169 0.040232293
0.108358316 -0.067037776 0.020381877
0.27211016 -0.24975434 0.021915874
-0.075679734 0.141778 -0.007923422
0.13765024 -0.14072919 0.0027547113
-0.23387219 0.17860144 -0.12464695
0.28650975 -0.18777633 0.025941294
-0.27703214 0.13905917 0.08858149
0.37509048 -0.22989322 0.0013111421
0.3305645 -0.15082166 -0.010985807
-0.1520887 0.03184154 0.08389216
-0.13899957 0.2529748 -0.029314905
-0.16552375 0.026358174 -0.049540404
-0.3167521 0.16245946 0.057342116
-0.084518835 0.19673485 0.0022256465
0.19603816 -0.13602316 0.03937216
-0.16105449 0.029830515 0.012869688
0.1659098 -0.19621664 0.01656957
-0.042335924 0.026769277 0.027403383
0.2828629 -0.17242227 0.0064456468
-0.090495326 0.03136451 0.021620678
0.15344019 -0.020854468 -0.022553772
-0.11121764 0.14350216 0.016404182
-0.032931175 0.115768604 -0.009614874
-0.20119686 0.24184681 0.050927423
0.18227322 -0.20014602 -0.029430479
-0.19349465 0.006727557 -0.055332318
0.2204628 -0.05855599 -0.012335242
-0.07193387 0.17635846 -0.03712898
0.3059784 -0.08751236 -0.07428306
-0.20280617 -0.019155357 -0.022241928
-0.30921736 0.18691897 0.03297829
0.013699948 -0.059417885 0.009913028
0.005851748 -0.083803 -0.019341357
0.18750857 -0.22921541 -0.01115043
-0.22012658 0.03611621 0.018964687
0.2618321 -0.14570735 0.022258246
-0.03261469 0.051752623 -0.015973957
-0.12698656 0.09978451 -0.21035063
0.079683095 -0.016088584 0.018010885
-0.28567055 0.16596138 -0.16607295
-0.20462106 0.18051635 0.08524163
-0.22015885 0.060497608 0.06652307
0.04388529 0.0613666 -0.014053766
-0.06441874 0.09992967 -0.027667107
0.41375977 -0.22151275 0.0054977485
-0.2846967 0.14933608 0.086482525
0.10384995 -0.13355258 -0.0017880551
0.3276607 -0.23079507 0.03498004
0.0026874663 0.046322607 0.021983963
0.14287202 -0.102092005 0.046159577
0.11453399 -0.020705685 0.028224034
-0.36837688 0.05089137 -0.04608522
-0.052291762 0.031549457 -0.005580519
0.09182326 -0.11558314 0.01411447
0.24582663 -0.23946309 -0.019374348
-0.056545265 0.07187074 0.008391588
-0.1731034 0.038997054 0.04211964
0.19289178 -0.08102624 0.04010039
0.25125337 -0.13038918 0.02915318
-0.074900195 0.17006668 -0.024897205
-0.09539441 0.0010923708 0.031328745
-0.26685283 0.20811684 0.033510264
0.0025439123 0.08021963 -0.028099123
0.13536909 -0.058062404 0.0035423716
-0.2219653 0.12699729 0.0764355
0.33148578 -0.13727231 -0.017026694
-0.17681347 -0.046479445 0.002739753
0.1285408 0.044818733 -0.09407197
0.11764957 -0.08778214 0.021894462
-0.07062863 0.08891405 0.030263156
0.2675964 -0.15609929 0.0044890414
-0.21529812 0.027917996 0.03560461
-0.32638806 0.08888098 0.02425842
0.15309148 -0.10483048 0.045411047
-0.056471355 0.005038296 0.020381963
0.37988353 -0.24442136 -0.06894185
-0.1424224 0.22266924 -0.0015603886
0.24276716 -0.069664314 -0.11543544
-0.057041306 0.041354194 0.0146503905
0.29185852 -0.0917934 0.018433128
-0.08911382 -0.027575629 -0.0075362716
-0.06370785 -0.025046578 -0.00934502
-0.0101442365 -0.028248912 0.0004200519
0.032067984 0.03544653 -0.023255473
0.029013135 -0.026561411 0.0014052471
0.0053284825 -0.08688656 -0.017837541
-0.1613309 0.13121241 0.07484894
0.07918672 -0.040674355 0.008829446
0.19708358 -0.112074636 0.0024878476
0.3179441 -0.26726693 0.004631891
-0.2167711 0.08669053 0.08033324
-0.09870667 0.1210553 0.069863215
0.031190665 0.016450608 -0.0057318434
-0.23411264 0.16611949 0.07428093
-0.073324256 0.064058565 0.0030612778
0.07677716 -0.121266924 -0.012337304
-0.19131577 0.26029205 0.005868495
-0.044546288 0.0121531 0.028743392
-0.3654328 0.08359472 -0.095334105
-0.18940605 0.18567954 0.034353536
-0.016645579 0.056722082 -0.0080484515
0.3022586 -0.30517572 -0.024315631
0.26035997 -0.13782187 0.05083968
0.09511036 -0.14892362 -0.009688284
0.27183202 -0.079311684 0.0049172537
-0.11709413 0.0972913 0.049102925
0.38274837 -0.21454638 0.015415465
-0.13261189 0.120402776 0.07089461
-0.19836834 0.2002054 0.03697628
0.24281791 -0.19321173 0.049433853
0.037234604 0.030830462 -0.044107314
-0.2096752 -0.0062808674 0.009936242
0.09005829 -0.119309075 0.03026006
-0.14759414 0.16426277 0.020928891
-0.24310927 0.07716033 0.029671181
-0.22904941 0.07025073 0.053841364
0.26647493 -0.27393588 -0.0047814655
0.16507521 -0.05861333 0.018308174
-0.08585997 0.17395501 -0.096957944
0.053271092 -0.13673091 -0.007475908
0.10028735 -0.11676053 0.0107490495
-0.19040307 -0.015687037 -0.105039306
0.024903385 -0.049876038 -0.0059948405
0.25378746 -0.19313765 0.04011087
0.08152981 -0.09331521 0.008589284
0.02859963 0.031543452 -0.012001816
-0.19872965 0.13096654 0.085665286
-0.14025377 -0.037974544 -0.054151118
-0.0660074 -0.015078537 0.02471728
0.35593268 -0.23865205 -0.02527254
0.29802203 -0.20314305 0.044901215
0.29498813 -0.25954834 0.011732876
-0.13087317 0.19585411 0.020652423
0.3432718 -0.1380807 0.011332778
0.23917478 -0.25721213 -0.033118766
0.35783845 -0.21392085 -0.0078046275
0.08014691 -0.050328817 0.00483605
-0.19307236 0.1358239 0.04989198
0.3739751 -0.24240154 -0.034661245
-0.085342735 0.23005444 -0.0050515365
0.3403756 -0.08530859 -0.06422645
-0.20575076 0.2725886 -0.12976557
-0.08889337 0.055507544 0.030984063
-0.0029820942 0.0375901 0.009867935
0.1439623 0.023736779 -0.052077133
0.28715184 -0.18350275 0.018298859
-0.17055571 0.24903843 -0.0021148603
-0.117841266 0.2284649 -0.07404833
0.22933224 -0.08966051 -0.005910745
0.15141492 -0.17238241 -0.0034815744
0.08130717 -0.14578176 -0.09261428
-0.11426857 0.26885074 -0.037787117
-0.074542835 0.18979138 -0.016807886
0.17947246 -0.16408342 0.010156765
0.27792752 -0.08327244 -0.025584536
0.31068453 -0.2983702 0.0115649495
-0.2935244 0.10208175 0.035449214
-0.07269304 0.09922685 -0.01439392
-0.021120112 0.005762493 0.019416867
0.15045999 0.010759086 -0.012132731
-0.19113995 0.0073064473 0.031687107
-0.044911828 0.17445873 -0.05136967
0.17715074 -0.13186988 0.001245916
-0.17093444 0.09536868 0.06514263
0.20752789 -0.044893242 0.007528366
0.34264037 -0.20413063 0.0005116014
0.30328158 -0.23152748 0.037937116
0.22341506 -0.071966186 -0.027359562
-0.18622807 0.053468946 0.06298634
0.1656675 -0.085303806 0.038825
-0.02163743 -0.09547517 -0.01596613
-0.20878269 0.12827301 0.08000501
-0.23385155 0.108873725 0.062306374
-0.29454058 0.1712845 -0.15476581
-0.2295905 0.052821547 0.0470669
0.19849591 -0.032644786 -0.038153972
0.24408115 -0.11157742 0.025287576
0.33959204 -0.10754913 -0.0392666
-0.022415841 -0.09649827 -0.04031684
0.28958917 -0.09766329 -0.024842815
0.2883314 -0.15130484 0.038358103
0.2036428 -0.14705122 0.0417365
-0.22770368 0.13111617 0.09160506
0.0056533227 -0.008335391 0.04072028
-0.30618447 0.10624612 0.044793174
-0.22581756 0.24324675 0.015830616
0.0052877716 0.0030408306 0.005454809
-0.010892395 0.04752827 0.030858027
0.13129929 -0.114239365 0.00046370964
-0.066442 0.18761975 0.0022523964
-0.20249909 0.17208695 0.062245417
-0.20695618 0.055494137 0.08383949
-0.25072193 0.18763466 -0.17608464
-0.32965195 0.07141636 0.028755132
-0.27119368 0.21764782 0.0656673
-0.20386483 0.22566904 0.038358
-0.11929224 0.069070525 0.08237727
0.14305177 -0.08061058 0.025280448
0.19288117 -0.11214348 0.009059942
-0.06972919 0.16714637 -0.008711416
0.048481733 0.0440895 -0.029245386
-0.3245554 0.14860055 -0.14126536
-0.05285298 0.026195096 -0.0035417862
-0.16521122 0.16640827 0.058715373
-0.27029294 0.11524746 -0.13423853
-0.26443788 -0.010164649 -0.013908709
-0.047832016 -0.0055695074 8.187969e-05
-0.09729608 0.1777756 -0.16082275
0.19351035 -0.13411221 0.016286854
-0.26877746 0.14538074 -0.18008065
0.110915855 0.027520392 0.008675335
0.05640406 -0.071583845 0.0030651465
-0.13534597 0.12502176 0.050024513
0.23486702 -0.21906705 -0.025361385
-0.14878146 0.21589445 0.0330111
0.076321766 -0.08645744 0.04039721
-0.13845298 0.2442147 -0.060046587
-0.042391483 0.0379583 0.040222257
0.33074692 -0.27678496 -0.007836663
-0.15992707 0.26747805 -0.07239418
0.20519644 -0.105921894 0.017924711
-0.13186774 0.25582027 -0.10036839
0.010694853 -0.021484083 0.0042215493
-0.08651279 0.10156824 0.019326182
0.0094580855 -0.0865954 -0.05121454
-0.13322079 0.25539255 -0.051720522
0.22671856 -0.10732883 0.029761916
0.31118912 -0.19555062 0.020185415
-0.2532769 0.056443475 0.0648847
-0.14326069 0.03560129 -0.0017769331
0.031193009 -0.060893416 0.002177455
-0.1737885 0.2144591 0.06957075
0.39272302 -0.21810935 -0.0803847
0.011279603 -0.0013826881 0.01809613
0.03123647 -0.05966329 0.018381476
-0.08536899 0.17124324 0.03753997
-0.30386358 0.064733736 0.03293648
0.35774735 -0.25873664 0.03099477
-0.16305593 0.06505083 0.050196644
-0.19531602 0.005995724 0.018369347
0.017275803 0.05002976 -0.011516247
0.2452819 -0.21520069 0.023290338
0.28911093 -0.1593428 0.020230886
-0.2977107 0.04701804 -0.01694977
0.17701493 -0.027251506 -0.024363762
-0.11544148 -0.046180975 -0.04412508
-0.062001474 0.19475223 -0.06614897
-0.3305387 0.12169891 -0.051458634
0.11205531 -0.11457612 0.007730362
-0.14669973 0.18520099 0.047682308
-0.06444465 0.020447982 0.04046224
-0.21254791 0.20490366 0.025940405
0.03610495 0.07032864 -0.04478027
-0.23956667 0.09053367 0.06194201
-0.32137883 0.14113407 0.05711966
-0.18866614 0.24736527 0.0356998
-0.06280677 0.18900304 -0.0139151765
0.15105689 -0.21112135 -0.06137762
-0.09902047 0.040705796 0.031791415
-0.26456696 0.19932768 -0.15239173
0.10073563 -0.03987504 -0.0038549
0.13897246 -0.014151177 0.012720529
0.07632518 -0.018298954 0.0071891835
-0.09858625 0.07522379 0.04122442
0.24077913 -0.08451417 0.0007723144
0.0042510633 -0.018114444 -0.00047087308
-0.3190439 0.05090845 -0.0010804274
0.10236983 -0.031035013 0.025626814
-0.22527747 0.21047395 0.075488895
0.28626382 -0.28545186 -0.03878389
0.042052183 -0.110586904 -0.012997254
0.042617645 -0.10432365 -0.009719286
-0.24039055 0.060944516 0.04021082
-0.1550534 0.1552718 0.044453524
-0.1632906 0.031777356 -0.20677237
0.13417263 -0.075505674 0.01678788
0.2872239 -0.06695098 -0.036481258
0.18450962 -0.13282439 0.021196486
-0.30527148 0.108293176 -0.0068736994
-0.12069741 0.23851906 0.013502268
-0.27856588 0.086985774 0.05313714
0.37439716 -0.17620575 0.007862525
-0.11303988 0.06900225 0.06057617
-0.22244698 0.23347409 0.019112585
0.24508001 -0.046064235 -0.045638066
-0.23496975 0.08783887 0.073211335
-0.33592469 0.1145204 0.062162172
0.14575745 -0.12869921 0.02884435
0.25741035 -0.26337805 -0.051680643
-0.060340386 -0.030592805 -0.010734066
-0.064138964 0.1674683 0.038409352
0.13602652 -0.17307904 -0.014453243
0.16733287 -0.20519456 -0.06265982
0.12322411 0.030558182 -0.051943835
0.18669935 0.008669305 -0.055242185
0.23461288 -0.07077394 -0.027587973
-0.12688693 0.2272127 -0.0063367337
-0.14994815 0.14570743 0.09119667
-0.035228997 -0.11376943 -0.06262566
-0.21704973 -0.0047974237 0.0060099857
-0.12776685 0.24783285 -0.048713427
0.335008 -0.23492855 0.035991628
-0.11651442 0.21982971 0.003905238
-0.2016134 0.2709289 -0.04816626
0.35516462 -0.26597592 -0.056521002
0.3780459 -0.19662908 -0.10362854
-0.007900693 -0.13426784 -0.04682066
-0.280313 0.15934409 -0.20384029
-0.20961879 0.17429164 0.07687881
-0.1733319 0.013976411 -0.15935823
0.16864866 -0.03467743 0.024963848
-0.11775067 0.25406507 -0.018242337
0.33497334 -0.12408026 -0.015118147
-0.15716718 0.26241577 -0.032371752
-0.13523988 0.05334726 0.034467086
0.27150753 -0.2567679 0.01937935
-0.075738385 -0.049126748 -0.016054727
0.23540024 -0.092853986 -0.0037639532
0.21707197 -0.057657506 0.016106086
-0.213813 0.20356844 0.070441835
-0.2961246 0.0652022 0.043540426
-0.22363672 0.06677775 0.035344
0.3031434 -0.141864 0.0032809705
-0.15707281 0.09188551 0.0712317
0.052833863 -0.028820718 -0.0012541782
0.26767865 -0.16986978 0.024268879
-0.05169725 -0.057199556 0.02313814
-0.1879693 0.23824963 -0.03317999
-0.25731334 0.18862692 -0.1902923
-0.045062184 -0.0038995252 -0.015411548
-0.26014158 0.14799313 0.084844604
-0.1005879 0.056013267 0.028906247
0.3413395 -0.24883431 0.028282668
-0.2345259 -0.03365746 -0.02958407
0.053992778 -0.029117316 0.024527231
0.24099025 -0.10757454 -0.009190926
-0.21151355 0.25139368 0.029353002
-0.22600794 0.17308815 -0.16400255
0.2655012 -0.08383773 0.015962413
0.059411217 -0.04679036 0.039229065
-0.10061563 0.16243261 0.03158392
0.04312112 0.030240653 0.019553494
0.333624 -0.16521937 0.027907085
0.32059687 -0.12554568 0.016867232
-0.2475627 0.087033674 0.06365206
-0.1150124 0.13301297 0.03980638
-0.19020787 -0.049102414 -0.03214625
0.39537135 -0.125578 -0.062845506
-0.101323165 0.18343173 0.015629107
-0.2226661 -0.0077862544 0.005398892
-0.052587327 -0.061860546 -0.032189425
0.1469718 -0.011442807 -0.050368685
0.12851115 -0.054340187 0.025301902
0.09849117 -0.08725851 0.034756795
-0.23034367 -0.013385162 -0.07497197
-0.21710807 0.28229097 0.00081791694
-0.04657688 0.01118395 0.019960491
-0.12071224 0.23411989 0.038859084
-0.07875629 0.11281437 -0.04443908
-0.052719243 0.118384376 -0.030833388
0.07341169 0.00304922 0.0052570486
0.28687182 -0.24537095 0.013288611
-0.06904415 0.0013500277 0.007156349
0.29448757 -0.3059185 -0.06928263
0.397799 -0.2283849 0.017294839
0.060063396 -0.06507897 0.026362535
0.0013321493 0.056212552 0.016355319
0.30297214 -0.2949309 -0.022656737
0.35003006 -0.29871678 -0.012200944
-0.19678855 -0.0069022495 -0.0030668278
-0.22723185 0.026770502 0.0275864
-0.06318203 0.120082244 -0.07602576
-0.15777752 0.23851661 0.034619216
-0.19075145 0.24623282 0.02306621
-0.019861812 -0.07524426 0.014748858
-0.28565332 0.16257314 0.02123015
-0.034257602 -0.05730522 -0.012415342
0.022924144 -0.0010193794 0.037245505
-0.049799092 0.116997816 -0.06607963
-0.014245027 -0.04986554 0.02936263
0.17362028 -0.02840326 0.0057330593
0.24628979 -0.10305989 -0.0014597168
-0.14238131 0.12956281 0.065099366
0.10108466 -0.08926905 0.007052006
0.04189917 0.04982336 -0.028244343
0.031828027 -0.088217825 -7.961912e-06
0.06994519 -0.11106228 -0.0080820415
0.37618476 -0.22233047 0.007408797
-0.29743114 0.15845075 0.06390373
-0.24679564 -0.007344105 -0.012371047
0.11050775 0.039915666 -0.01982359
-0.11576544 0.12170169 -0.0054949047
0.037803043 -0.08470314 0.03799473
-0.09031648 0.059655834 -0.005873813
0.31495428 -0.2590662 -0.0059348037
-0.3423024 0.0777143 -0.07771957
0.2567595 -0.15008162 0.014433742
-0.25477895 0.040747486 0.06656482
-0.12501465 0.020051973 0.0062787826
0.4115211 -0.17523386 -0.03514546
0.2243094 -0.027054593 -0.054306123
0.20529081 -0.17256545 0.021743596
-0.07285644 -0.010793416 -0.0054427776
-0.21329583 0.2091479 0.018832536
-0.13920979 0.15319012 0.033591643
0.14535487 -0.11763599 0.01571416
-0.048754457 -0.0018873541 0.025603747
-0.054887645 0.07600931 0.03189542
0.1523691 -0.049383175 0.0073996047
0.23676002 -0.19295982 0.014179464
-0.14246875 -0.01419187 -0.036894813
0.2212469 -0.07008145 -0.04507281
-0.29732418 0.014420472 -0.019658234
-0.23094323 -0.022002446 -0.10011334
-0.006475402 -0.008696347 0.018858269
0.3892197 -0.17190999 -0.00036295425
-0.21687257 0.065841846 0.047288414
0.40549007 -0.17413719 -0.05469647
-0.30235052 0.06737464 -0.024047844
0.3651022 -0.22372542 0.053300295
-0.31566933 0.11987757 0.040414274
0.3293946 -0.25609297 0.024644444
-0.08734 0.033108544 0.008370729
-0.14842579 0.21500567 0.020867912
0.17619684 -0.11760195 0.03936886
-0.20146838 0.25487468 0.00039114192
0.40400848 -0.19956696 -0.07715133
-0.0107007 -0.099467345 -0.07058209
0.3505731 -0.18278679 0.038705062
0.15880631 -0.13849908 0.023576472
-0.23249781 0.007942188 -0.17062643
-0.19544837 0.16429763 0.03370453
-0.14576477 0.13948375 0.043051213
-0.034905724 0.07887465 -0.00019846798
-0.096731134 0.13631001 0.0031840606
0.22969386 -0.07145203 0.00039008984
0.18142992 -0.12563603 0.021941768
0.24174607 -0.2424404 -0.034108423
