# .PCD v0.7 - Point Cloud Data file format
VERSION 0.7
FIELDS x y z
SIZE 4 4 4
TYPE F F F
COUNT 1 1 1
WIDTH 1000
HEIGHT 1
VIEWPOINT 0 0 0 1 0 0 0
POINTS 1000
DATA ascii
0.020744475 0.11682556 -0.033546463
0.05744869 0.23403396 -0.07917781
-0.002646224 0.20769052 -0.05692823
-0.08946254 -0.15819238 0.0941431
0.10696202 -0.11982787 0.038620807
-0.011714248 0.17591043 -0.08557179
-0.048461203 -0.35187134 0.11150758
0.0476402 0.30100185 -0.11960232
-0.004000111 -0.11992668 0.12938976
0.028646743 0.049245607 0.005522564
0.073044 0.07467477 -0.039132055
0.06908071 0.07692757 -0.055284508
0.13813548 0.17011783 -0.25900453
-0.17234121 0.26247057 -0.18988629
-0.024658667 -0.16978404 0.1462402
-0.012711952 -0.29306152 0.2381041
-0.07526455 -0.29705086 0.08868398
0.08319609 -0.20300631 0.053336717
0.04825194 0.14167653 -0.12879142
0.0007761992 -0.03415145 0.06614029
-0.053397287 0.041389763 0.002912208
0.030976584 0.3482263 -0.16688666
0.024876615 -0.35513878 0.20307033
-0.12137806 0.19606094 -0.07633497
0.039039195 0.017610911 0.027134167
0.031621985 0.21705385 -0.07930529
-0.04121981 -0.325861 0.25686148
-0.14979357 0.08652696 -0.20194563
-0.03888356 -0.08772597 0.055103578
-0.068080716 -0.0070868265 -0.033753254
0.1083738 -0.18681324 0.07289882
-0.10215975 0.28689706 -0.122184075
-0.03221997 0.11633906 -0.03181511
0.09496411 -0.28513378 0.18656363
-0.032788355 -0.17532402 0.12297692
-0.00047889684 0.35593045 -0.15565826
0.07341664 -0.3789694 0.15027556
-0.062442467 -0.11975628 0.08633808
-0.0032960253 -0.01824516 0.03788535
0.015649 0.062222183 0.0008248123
-0.010651996 0.27198496 -0.12287036
-0.09946675 -0.12402537 0.033544306
-0.13238645 0.1958799 -0.10192969
0.07017626 0.02551128 -0.07476378
0.0010531932 -0.27278203 0.22024514
0.08440329 0.11738601 -0.19309022
-0.03375835 0.0015704307 0.013767219
-0.16191272 0.18631028 -0.13750699
-0.09570705 -0.26731795 0.04985854
0.002053185 -0.34357557 0.20883654
-0.069021046 0.013054758 -0.08239506
-0.059750933 0.019344823 0.0043922756
0.015470062 0.08536707 -0.027187545
-0.083297595 0.037811738 -0.042570207
0.10278546 0.28908703 -0.18748319
0.06766438 -0.03213271 0.03592609
-0.09462307 0.059363544 -0.081098
0.047908057 0.09095476 -0.06949188
-0.05313758 0.33346236 -0.1565516
-0.038250193 0.1555727 -0.10850759
0.147555 0.10622499 -0.17630567
0.057642587 -0.13139182 0.13665389
0.026441807 -0.31372312 0.2653402
-0.13909344 0.10020261 -0.19890831
0.08378562 0.10751014 -0.10829484
-0.015441126 0.0051146215 0.05535264
0.06841388 0.26830006 -0.105156854
0.06514834 -0.33992985 0.25737402
-0.057530306 -0.20651166 0.18629166
-0.088600375 0.15118296 -0.101867296
0.018078072 -0.11173603 0.13045321
0.13172738 0.15379049 -0.14390568
-0.06897227 -0.31533343 0.16739368
-0.115318395 0.2478569 -0.12435372
0.038401764 -0.27686122 0.23966357
0.06039472 0.35128736 -0.15701595
0.064042605 0.14955646 -0.08577386
-0.12190589 0.13532875 -0.12688823
0.10882762 0.041471664 -0.07526064
-0.062345732 -0.11591387 -0.007225661
0.030090963 -0.017931113 0.019176617
0.0016188808 0.15985611 -0.09949041
-0.06317651 0.041529004 -0.0072183865
-0.031198718 -0.17182158 0.16586585
0.026052438 0.118896216 -0.08374261
0.032873686 0.10629896 -0.081831776
0.10850358 0.24563307 -0.12701617
0.009795914 0.02932251 -0.024686297
0.05996457 0.101906806 -0.09767826
0.06924427 0.12519258 -0.10158991
0.07333538 0.20243038 -0.10361856
0.021842767 -0.2548543 0.18610671
-0.023682276 -0.19988835 0.17257114
0.07146727 -0.09034599 0.0114645595
0.053224027 0.17231388 -0.11221815
-0.038286556 -0.09404053 0.10594643
-0.06187607 0.06130684 -0.23676993
0.00073256105 -0.38249046 0.1986324
-0.16347703 0.27302295 -0.22409406
0.082103536 -0.32934558 0.22766778
-0.077817634 0.012844761 -0.039357852
0.10009045 0.10369547 -0.17977345
0.062032737 -0.122339115 0.086344995
0.051982444 -0.0726388 0.0729281
-0.016141322 -0.32378513 0.23619106
-0.078446284 0.27320093 -0.13476917
-0.030660605 0.051557906 -0.0031056218
-0.13430816 0.24437286 -0.11550154
-0.030034866 -0.32605198 0.21253063
0.12746373 0.13573572 -0.13250151
0.03245728 0.21861432 -0.07555856
-0.046471253 -0.27241412 0.19710092
0.077720344 -0.3270992 0.23307821
0.12585075 0.20928748 -0.15943496
0.11547585 -0.3814374 0.17121734
0.08446061 -0.26337564 0.1703253
-0.009313781 0.27997696 -0.09549182
-0.13173042 0.11949132 -0.18613043
0.010976028 0.1649911 -0.10930814
-0.017804226 0.1659407 -0.07758263
-0.035700142 0.15799639 -0.08282494
0.083933845 -0.06472735 -0.039599452
0.02482171 -0.11254492 0.07810642
0.02521442 0.112418786 -0.06045667
-0.12523654 0.13540609 -0.1960515
-0.079249136 -0.36957094 0.16520022
0.10081894 0.0109592145 -0.048628863
0.08537317 -0.29592043 0.2008992
-0.13373499 0.23678245 -0.18035193
-0.09436803 0.2322991 -0.091297254
0.0783467 -0.2802892 0.1744477
0.021734595 -0.3720422 0.2108964
-0.023165513 -0.36893427 0.15366495
-0.002834622 -0.09627256 0.095902115
-0.023083009 -0.043834478 0.026638595
-0.15667374 0.16219333 -0.15244697
0.14376545 0.19289686 -0.12189311
0.0904153 0.15022187 -0.090592325
-0.041691933 0.16374978 -0.08751292
0.11030722 0.15667146 -0.13904437
-0.12923084 0.1182792 -0.21469714
0.004811502 0.27439147 -0.08344003
0.06448711 0.16225405 -0.11199919
0.0019433007 0.25925684 -0.058756262
0.06326533 0.100350246 -0.041667126
0.06033405 0.07893483 -0.09756714
-0.08033686 0.3172931 -0.14572307
-0.024471218 0.32019317 -0.10383731
0.11686565 0.11034243 -0.22160494
-0.059567865 -0.28026557 0.18180695
-0.0006488865 0.1982089 -0.09214084
-0.006192356 -0.26552555 0.18697073
-0.02408936 -0.04001134 0.05941284
0.03055363 -0.23240353 0.20957994
0.10544846 0.2551808 -0.13890146
0.11142791 0.15151514 -0.118558735
0.0148982825 -0.14633727 0.10408707
0.04464727 -0.34744915 0.23459238
0.0197489 -0.061618235 0.087127574
-0.03575709 -0.3833531 0.15270601
0.1266813 0.32786164 -0.19084515
0.029850492 -0.39868742 0.15553717
-0.031680394 0.023807608 -0.014525043
0.08478345 -0.17415124 0.08392452
0.022372937 -0.2607095 0.2283586
-0.047492787 0.2876867 -0.11671831
-0.089626655 0.31840494 -0.14470167
-0.05058326 -0.28337327 0.191946
-0.16307776 0.20493299 -0.16920805
0.039698448 0.2630839 -0.085496
0.032945015 -0.055606253 0.04035711
0.04727139 -0.022072384 0.040088326
0.01394004 -0.12898698 0.116204634
-0.05764587 0.15183032 -0.067583136
0.042616107 0.2649566 -0.10847641
-0.029197318 -0.18333118 0.17442453
0.008438887 -0.20222075 0.16102965
-0.11000251 0.13549754 -0.14338154
-0.04673032 -0.20894125 0.14095446
0.020449167 0.23106071 -0.040528033
0.059725374 -0.18471664 0.1790474
0.08810465 -0.0070754895 -0.08321636
0.07347286 -0.17931305 0.16603845
0.030901123 -0.122891195 0.10401864
-0.04340696 -0.36587432 0.20602678
0.006152234 0.06679474 -0.023332251
-0.014903805 -0.3767019 0.21423087
0.06516634 -0.33105278 0.20946716
-0.13235982 0.2737119 -0.1529349
0.03220752 -0.25971064 0.24654105
0.054980125 0.33571056 -0.13407667
0.022696983 0.11264332 -0.042616792
0.003259315 0.27424896 -0.09891969
0.008094681 -0.41033563 0.15318349
-0.10938489 0.13786264 -0.120548226
0.0010204761 0.11103328 -0.058566857
-0.15156333 0.22850767 -0.14105135
0.009084057 0.042436074 -0.024655608
0.09839255 0.116523914 -0.18486418
0.0007778831 0.17127912 -0.09824807
-0.077341765 -0.2883632 0.13821402
0.00041902135 -0.11979629 0.14104877
-0.030151004 0.24696775 -0.08074876
-0.14508775 0.11897383 -0.20616683
0.057728548 0.055364817 -0.058963932
-0.04899918 0.095230736 -0.04734348
0.06862218 0.07925658 -0.06479471
-0.07264751 0.04782516 -0.037694346
0.03321092 -0.07261679 0.06771368
0.057278745 -0.24981569 0.1743165
0.01973777 -0.122513235 0.14891878
-0.0395769 0.22567745 -0.06111459
0.0020205479 0.31103492 -0.090088956
-0.17876987 0.15549475 -0.1737117
-0.0649784 -0.2618451 0.18689324
-0.08056509 -0.20716381 0.14175485
0.022052126 0.30668068 -0.13234533
0.056939002 -0.35681257 0.24401963
0.007516937 0.26873586 -0.081765704
0.10052493 0.26514196 -0.21937273
-0.08273872 -0.13355608 0.09364653
0.1101075 0.003997181 -0.08952723
0.0050298376 -0.22628959 0.17460299
-0.16935691 0.23628119 -0.18355143
0.07019753 -0.28527755 0.19455875
-0.061684474 -0.014932562 0.026621904
0.04738752 -0.4219196 0.11666546
0.021538915 -0.31510708 0.21849145
8.0278216e-05 -0.3513373 0.21118924
0.106265634 -0.084316306 -0.009761746
0.08396069 0.23995154 -0.10173466
0.06248775 0.27959007 -0.15435658
0.051875167 0.0026326708 0.012994242
-0.030788926 0.21681325 -0.08492134
-0.0640385 0.2050441 -0.08191653
0.08096039 0.236178 -0.093689404
-0.058945287 -0.18153419 0.14272279
0.15841694 0.2765314 -0.2120571
0.12052224 0.3055472 -0.24804993
-0.14626804 0.23260865 -0.14397426
0.038524553 -0.08194711 0.08068958
-0.0045609185 -0.09723917 0.091911495
0.04912871 0.32725245 -0.15464696
0.018992117 0.020166116 0.009883076
0.039957557 -0.262281 0.20179635
-0.04873485 0.1859198 -0.09062784
0.0708812 -0.14674138 0.13064958
0.018506521 -0.22746585 0.19164062
-0.12268408 0.17495976 -0.13368213
-0.079991914 -0.02430664 -0.043150783
0.07110835 0.10723432 -0.16038989
0.017836582 0.31633 -0.12667128
0.070760466 0.01895126 -0.03986049
0.08249383 0.25803387 -0.13717073
-0.041766614 -0.3544062 0.21837261
0.027692966 -0.016576175 0.04273247
0.068999045 0.096410796 -0.21119519
0.008434913 0.27702183 -0.088435404
0.06845819 -0.36571324 0.17893635
0.047364704 -0.4024177 0.09343929
0.100288056 -0.30917302 0.22536978
-0.14981677 0.15264882 -0.16248213
-0.09989934 0.023332834 -0.07804797
0.049484406 0.062384106 -0.04626478
-0.004153932 -0.22010733 0.15414271
0.018596455 0.12307594 -0.0637391
-0.04081467 0.06711494 -0.024502164
-0.09161623 -0.021033118 -0.06710028
-0.06168951 0.072378136 -0.034897476
-0.11753355 0.2837931 -0.15279344
-0.11940713 0.2717417 -0.24124579
0.023827676 -0.0021837999 -0.0110155
0.0037100918 0.34304813 -0.15803133
-0.17019212 0.21158464 -0.1738872
-0.060773246 0.046325944 -0.012904321
-0.09380644 0.007057739 -0.02503258
0.038438782 -0.07397162 0.076896064
0.096301004 -0.009248329 -0.03583496
-0.031566855 -0.021925403 0.06859509
-0.04820649 -0.29925883 0.17618969
0.032736383 -0.29274696 0.22652555
-0.02398205 -0.32393685 0.22888449
0.007823238 0.30871162 -0.15433283
0.10789797 0.2023429 -0.14246102
0.016498247 0.061913855 -0.02251271
-0.076065965 -0.17158586 0.11471519
-0.09659326 0.22638078 -0.12255956
-0.047656704 0.25119823 -0.08035688
-0.105251245 -0.22712897 0.0623537
-0.053134117 -0.26884747 0.18657511
0.05781657 -0.05550724 0.01512592
-0.06652374 -0.30300316 0.19573744
0.033252392 0.11609246 -0.02755846
-0.033297986 -0.33083996 0.22639167
-0.06472256 -0.017469676 0.016399158
-0.011220576 0.15800762 -0.07513915
-0.0020883586 -0.034718562 0.07196966
-0.06153201 -0.2693277 0.09209027
0.11878896 0.13543636 -0.17133743
0.04089893 0.19820562 -0.085574046
0.08226749 0.045483418 -0.004252846
-0.08510883 0.30019608 -0.10158998
0.03341759 -0.037948776 0.0867472
0.06764852 -0.22069384 0.17380027
0.0039929277 0.2091501 -0.10241096
-0.08019599 0.062059462 -0.22197877
-0.04031702 -0.18115002 0.13057737
0.10836364 0.311314 -0.17746459
-0.13690943 0.1472776 -0.09157057
0.05604319 0.282909 -0.11448227
-0.058969375 -0.004771702 0.019484527
-0.023412975 0.091423236 -0.010785729
-0.13244458 0.08480998 -0.23600112
-0.025151739 0.31571472 -0.10506504
0.06788578 -0.04290601 0.03908822
-0.048407856 -0.3167681 0.2335934
0.017746221 0.15088277 -0.083646104
0.014608821 0.16812554 -0.08981821
0.13739473 0.17125465 -0.1615216
0.022959124 -0.2674329 0.21991418
0.004665941 -0.29254767 0.22439292
0.020619877 -0.110987015 0.10749619
-0.13850026 0.14937338 -0.117966086
0.053083073 -0.17265177 0.1383929
-0.04533928 -0.31747252 0.2197407
0.06998335 -0.2271072 0.16639327
-0.11531394 0.046003576 -0.08938257
0.13981485 0.0914382 -0.22566928
0.12747069 0.22090165 -0.22966547
0.08768595 -0.13026614 0.08376601
-0.048673213 -0.3173344 0.19948734
0.04910537 -0.15585256 0.1368356
0.009395112 0.09872157 -0.0228435
0.107700594 -0.03973297 -0.01162252
-0.09958454 0.11623544 -0.12648273
-0.14616168 0.29516113 -0.1702191
0.10470843 0.08355274 -0.08289617
-0.03906676 -0.01544004 0.014184167
-0.0845877 -0.10788693 0.0003527917
0.086722404 0.32835665 -0.13164549
-0.061662395 -0.14770995 0.071674205
0.069611706 0.007453247 -0.036707312
0.0071679424 0.30173364 -0.14920673
-0.07096309 -0.022700706 0.009226881
-0.16251208 0.19586033 -0.12682375
-0.037312604 -0.05282248 0.02787346
-0.06853668 -0.34862116 0.15959257
-0.05261109 -0.21860696 0.11580201
0.0357507 0.35546935 -0.14921951
-0.002853643 -0.23549004 0.20304117
-0.043256138 0.32185778 -0.11653706
0.01669729 0.013697587 0.0362866
-0.16501158 0.12089888 -0.16202396
-0.0359889 0.29630432 -0.07630211
0.052935027 0.17078453 -0.0926995
-0.049921088 0.0721683 -0.043854535
0.09756718 0.18985952 -0.10231655
-0.108967476 0.11595786 -0.16038221
-0.12689024 0.29009023 -0.16055252
0.051497042 -0.1331627 0.12187375
-0.0806513 -0.08037507 -0.0036791754
0.081403784 -0.20831366 0.14192575
0.039197955 -0.3242789 0.21100691
0.013109546 -0.36308703 0.17600065
0.110821605 -0.16288298 0.061635125
0.080976844 -0.0381881 0.035699833
0.085965216 -0.31077668 0.12799294
-0.06028844 0.31131643 -0.14831069
0.15977986 0.18310587 -0.18070285
0.06587984 0.17051657 -0.13246223
0.023844955 0.028046586 0.026028438
0.04326085 -0.08335823 0.048219036
-0.021855827 0.2549748 -0.0623633
-0.022186846 0.19480947 -0.11365917
0.039584313 -0.37423152 0.15063298
0.013758215 0.16862947 -0.10393924
0.11700397 0.21621275 -0.17000875
0.14001831 0.16657794 -0.19646637
0.08794155 -0.26577622 0.191319
0.065343596 -0.16615586 0.13814956
0.1189946 0.24318796 -0.18455234
-0.073965445 0.071620055 -0.2750157
-0.122949176 0.26472577 -0.15635924
0.025033608 0.22665855 -0.06467249
0.13059519 0.18626794 -0.27216107
-0.0049163844 -0.102453254 0.09915564
-0.029716983 -0.3406298 0.23341215
-0.038308777 0.30599543 -0.124831356
0.026431803 -0.3657351 0.15844782
-0.059582982 0.1927962 -0.06561304
0.08050152 -0.37661943 0.16853446
-0.054346148 -0.2907833 0.19203167
-0.07418888 0.005668747 -0.008467157
-0.03492503 -0.029923012 0.044272013
-0.09671464 0.23527576 -0.16227856
-0.008540302 0.14899218 -0.0715471
0.08581527 -0.26738095 0.16109665
0.033730835 -0.3016651 0.22047184
0.088117056 0.08395782 -0.14580818
-0.03722807 -0.0768889 0.08766082
-0.057055518 -0.037322063 0.0067925253
0.024380034 0.1849742 -0.098640226
0.028306123 -0.2948823 0.2627643
-0.0743693 0.26192123 -0.11539079
-0.045409944 -0.16008918 0.1647518
-0.091042265 0.18776184 -0.1078157
0.008476631 -0.29512656 0.2374943
0.016202128 0.33305418 -0.12302723
-0.071784616 0.32872647 -0.1502639
0.042792186 -0.1999549 0.14599507
-0.063949496 -0.038791012 0.06903027
0.030968344 0.25886503 -0.09772161
0.0025378978 0.35295868 -0.13833919
-0.03341545 0.060234383 -0.038326614
0.032642853 -0.2030894 0.14069107
-0.028421575 -0.23767133 0.18599935
-0.02585376 0.14691009 -0.07200146
0.04423961 -0.21246527 0.18168446
-0.07557428 0.08517106 -0.087368324
0.085188776 -0.119154304 0.011106207
0.070341244 -0.23348822 0.16338785
0.075057425 0.12921298 -0.17765225
0.001492515 -0.25622806 0.18990248
0.008882606 -0.17318067 0.1739313
0.03286192 -0.38750157 0.18572688
-0.15997355 0.14779794 -0.17258954
0.08182612 0.2391493 -0.1328011
-0.029651515 0.27218774 -0.10578358
-0.11605429 0.077010095 -0.12483518
0.040234253 0.27956235 -0.11064247
-0.07341892 0.09055109 -0.08644317
-0.09685014 0.064904705 -0.20709468
0.09285776 0.16141978 -0.084256895
0.022272807 -0.23184536 0.20336601
0.03700797 0.10610247 -0.044953216
0.022091653 -0.3169158 0.26608586
0.08159153 0.27373672 -0.12198144
0.11770752 -0.19905818 0.12603335
-0.08452949 -0.35050446 0.20763552
0.008957654 0.22421782 -0.06621275
-0.1707608 0.18050863 -0.15373544
-0.043532874 0.16410601 -0.064805314
-0.006459024 0.2130103 -0.041201208
-0.014979661 -0.20674755 0.1613567
0.06677908 0.15176037 -0.3402725
0.026918195 0.32077244 -0.094112426
0.0361337 -0.105652 0.09347657
0.09924352 -0.0667877 0.0038939777
0.0670746 -0.1650429 0.12276179
0.06575938 0.25644788 -0.10081598
-0.13900267 0.2414488 -0.2417356
-0.10752733 0.27416602 -0.12762377
-0.08058442 0.08980019 -0.09103846
0.050341185 0.17970178 -0.109723866
-0.010043693 0.09731228 -0.029620508
0.04285079 -0.3990618 0.13077015
0.07769079 0.1540245 -0.14210619
0.09853828 -0.30477569 0.24002294
0.06618539 -0.33614618 0.20692417
-0.036489632 0.070183605 0.006017013
-0.08785873 0.08911038 -0.21163474
-0.07699833 -0.120320134 0.03559543
-0.046355013 -0.2943348 0.19634429
-0.08416992 0.08227832 -0.07856165
0.075029135 -0.12635295 0.057897713
0.0503277 -0.079750836 0.103678435
-0.10946298 0.11763505 -0.16417985
0.063234724 0.30710918 -0.13236779
-0.047200855 0.19665028 -0.09864176
0.028493771 0.26404062 -0.090922914
-0.10624287 0.14084052 -0.15891962
-0.13079672 0.19799425 -0.1552673
0.043825738 0.08598403 -0.23877609
0.049942292 0.20709577 -0.08260043
-0.023096394 0.0678345 -0.035765428
-0.1203006 0.19606428 -0.13774568
-0.0706209 -0.1388717 0.029744638
-0.0059292563 -0.034855176 0.05949948
0.00104891 -0.40898573 0.14837079
-0.015171707 -0.17283036 0.12521158
0.067847155 0.3452825 -0.18854101
-0.1623821 0.1648082 -0.26506907
-0.14313145 0.1452623 -0.1637272
-0.0749099 -0.08688711 -0.022908093
0.018054558 -0.070748314 0.09407975
-0.07630515 -0.09777733 -0.000779008
-0.085790955 -0.14146706 0.073486
0.113683395 -0.30693525 0.12829947
0.026321871 -0.11012227 0.06214905
-0.027955877 0.020964125 0.043292653
0.054052774 0.24547078 -0.07884744
0.0012379508 -0.28336114 0.2169203
-0.03679806 0.14448854 -0.073096074
-0.05886808 -0.29478073 0.10022551
-0.10690848 0.12805031 -0.13567246
-0.03789383 -0.18018113 0.15846372
0.077308245 -0.29020637 0.20569691
0.10386387 -0.2947522 0.16948594
-0.14254206 0.28706032 -0.21724015
0.0038103263 -0.21158667 0.18332508
-0.03704827 -0.07471609 0.090442255
-0.10129266 -0.16251826 0.049066514
-0.002641246 -0.0371482 0.05803678
0.114183724 0.16748802 -0.15848947
-0.047456432 -0.10052843 0.06030385
-0.010410201 -0.20498511 0.16491295
-0.06963505 0.2650875 -0.08027166
-0.037322633 0.20997696 -0.062008593
0.049248554 0.22893707 -0.09802137
-0.06171967 0.019310746 -0.015009075
0.07705839 0.099011004 -0.22284666
-0.02366577 0.15663484 -0.058164507
0.07335092 0.19186807 -0.09311819
0.07665791 -0.30970672 0.19676809
0.13479163 0.18244222 -0.18247135
0.07195824 -0.3349046 0.2036162
0.048403006 -0.29315484 0.20141067
0.0893301 0.22019218 -0.15073457
0.021584388 -0.23178396 0.19754596
-0.08133221 0.28686398 -0.10158999
0.028824097 -0.0941749 0.12008432
-0.010993722 -0.33593482 0.20412385
-0.07991395 -0.24245745 0.15798073
-0.040678516 -0.2800935 0.23157251
0.007512867 -0.17320564 0.16745055
-0.014645581 0.14734294 -0.075078905
0.049118612 -0.0152527755 0.021461943
-0.006347027 0.16858353 -0.06705767
-0.019368183 -0.28830662 0.19320688
0.106513225 0.19486758 -0.13942271
-0.078923464 -0.015746588 -0.05869081
0.064947195 -0.20225742 0.17785254
-0.053566337 -0.08533549 0.05341487
-0.07244028 -0.34472185 0.21190006
0.011683487 -0.20188558 0.16715267
-0.0048334915 0.06861984 -0.034081854
-0.08878723 0.33125085 -0.1400189
0.07819265 0.11505834 -0.07018477
0.095649496 -0.25895014 0.17273979
0.0011758431 -0.26346305 0.23882131
-0.084339455 -0.2823594 0.17555323
0.03187882 -0.4076055 0.1661236
-0.062703885 0.15611167 -0.09351659
-0.024204575 -0.28585947 0.23591144
-0.060276795 0.19255956 -0.036971025
0.080819555 0.30619097 -0.13972168
-0.05742946 -0.0993295 0.09740265
0.034625478 -0.35604835 0.22838953
0.00050653465 -0.056668304 0.07813709
-0.043191053 0.068317845 -0.015144239
0.04424772 0.25499204 -0.1093653
0.008973413 0.3153018 -0.13864323
0.020893345 0.1433381 -0.067541175
0.022252217 -0.16468011 0.117570624
-0.07729668 0.2736912 -0.09944
-0.15326719 0.16675238 -0.22477186
-0.03870861 0.08870974 -0.027437003
-0.03439374 0.3705366 -0.14162213
0.06874833 0.0024823444 -0.0031659876
0.045412067 -0.26986423 0.23286022
0.03928972 0.069293186 -0.020239191
-0.096166246 0.31285226 -0.14031318
-0.11152368 0.07466516 -0.22340299
0.14677408 0.20125388 -0.13965066
-0.027291628 0.28994694 -0.09904827
0.07671116 -0.2932321 0.24145247
0.1064038 -0.35663766 0.18506728
0.059093438 -0.26928684 0.21710494
0.017180828 -0.05691156 0.049028233
-8.202504e-05 0.2886557 -0.11526233
0.0015174919 -0.33461025 0.21957774
-0.045463383 0.20656647 -0.056970462
-0.05240377 -0.036385123 0.036984704
-0.014467889 -0.24336861 0.20140763
-0.04796598 -0.17174937 0.120466776
-0.15483205 0.2696226 -0.21993889
-0.0047607454 -0.40959242 0.11614101
-0.09041624 0.20895551 -0.064043425
-0.041184526 -0.3823393 0.16823696
0.06994705 0.21891515 -0.07658987
-0.119457215 0.08975094 -0.14894548
-0.051115602 -0.29259607 0.20506808
0.043518163 -0.15663189 0.11787782
0.0923525 -0.14528665 0.00659125
0.022813523 -0.35030168 0.19144453
0.11413215 -0.34776983 0.1597465
0.002347017 -0.10563416 0.131664
-0.025124455 -0.31206807 0.21150264
-0.033942834 -0.28694046 0.19141658
0.077888355 0.1904062 -0.095364735
0.068818785 -0.11057148 0.08747203
-0.08925915 0.32894775 -0.17177442
-0.060779914 0.26833594 -0.123434715
0.058538068 -0.30195087 0.18860756
-0.12307068 0.18412092 -0.11529195
8.355401e-05 -0.40299225 0.1400343
0.0045293625 -0.35450318 0.2208681
-0.050619364 -0.1402375 0.10997312
-0.11724797 0.10124941 -0.22342637
0.09128739 -0.1926343 0.09020263
0.06522438 0.0016734789 0.013686033
-0.017305898 0.3292812 -0.105912685
-0.104982845 0.2620678 -0.09093321
0.05432905 0.17860882 -0.09817294
0.09505242 0.143718 -0.13023797
0.08516087 0.3002231 -0.14935927
0.008807165 -0.15687434 0.16192873
0.07401275 -0.077373095 0.047328632
0.08379982 -0.3765777 0.20973188
0.04531694 -0.052949395 0.011775733
0.06584545 0.10295146 -0.09195584
0.11884851 0.26186076 -0.22540791
0.0057735574 0.04696903 0.016592573
-0.068960495 -0.0028894253 -0.06444281
-0.07964626 0.19253762 -0.085213006
-0.113920294 0.08891112 -0.251867
-0.14472443 0.21959998 -0.15227754
-0.08846095 0.032075386 -0.1192859
-0.0026537944 0.011039754 0.011758555
-0.057845794 0.2882376 -0.11298209
-0.007997698 0.17860474 -0.09013753
-0.14920406 0.1721545 -0.16819063
0.015690235 -0.39161375 0.11988607
-0.0579804 -0.02978225 0.058638245
0.052051373 -0.39992425 0.15680149
-0.1321674 0.15692583 -0.13311642
-0.087919466 -0.09410253 0.010769592
0.06199459 0.012466945 0.013799792
-0.0841639 -0.13781396 0.040499907
-0.025698941 0.078058034 -0.045868378
0.0927086 -0.1640608 0.14174142
0.07382976 0.18845323 -0.10517938
0.080907315 -0.18829632 0.073116474
0.0072141704 -0.23641418 0.18672308
-0.005691468 0.027528126 -0.0011910932
-0.14244236 0.17893994 -0.16723008
0.11582365 0.16141507 -0.101550095
0.04358704 0.030712623 -0.010643918
0.064053506 0.18431965 -0.092936225
0.017541584 -0.2877085 0.2475755
-0.008739134 0.2808873 -0.09879419
-3.3821812e-05 0.34884095 -0.11622521
0.018962348 -0.20242247 0.18360604
0.16224098 0.18815254 -0.19628881
0.08718862 -0.21212317 0.046693817
0.09057653 0.18105452 -0.1045301
-0.07421705 0.08457886 -0.11503117
0.02197369 -0.09705228 0.095324114
0.03436592 -0.24111938 0.18304147
-0.034318704 0.13866593 -0.06796353
-0.03926813 0.11876771 -0.028282482
0.09337499 0.26622373 -0.10994397
-0.06343738 -0.17738262 0.045123782
0.060292188 -0.3108378 0.24681881
0.079261966 0.17332135 -0.073056154
-0.1384984 0.30942047 -0.2016573
0.07884525 0.2651157 -0.14607157
0.0074003586 0.06433368 -0.027657567
-0.022008969 0.24980703 -0.070888385
-0.15877151 0.12501729 -0.16211237
0.09296605 0.1095977 -0.19608055
0.052087314 0.15600935 -0.09183785
-0.1011551 0.13398536 -0.11986453
-0.04334664 0.30547073 -0.124001
-0.11567324 0.1267176 -0.30073225
0.059239376 -0.40879357 0.14419726
0.06495847 0.14845921 -0.13892888
-0.11504032 0.010588327 -0.08826413
-0.021693572 -0.29496893 0.22914249
-0.09829327 0.11947093 -0.14960524
-0.027028546 -0.16649683 0.13131697
-0.06378926 -0.06929686 0.049984004
-0.11967759 0.19361562 -0.11044496
-0.002307878 0.009573029 0.034144856
0.04328885 -0.04974812 0.032063387
0.08124944 -0.29143578 0.20763554
0.09061305 0.30106363 -0.13892163
0.13406807 0.20886083 -0.21110827
-0.040500224 -0.05213587 0.038098723
-0.17422038 0.1582458 -0.17863236
-0.002006878 0.12778804 -0.0417147
0.06345591 -0.3180403 0.20481816
0.11592286 0.20211764 -0.11545814
0.0070659826 -0.13502243 0.1273056
-0.09892717 0.2605966 -0.119862944
0.10773201 -0.17793551 0.13479365
-0.1072126 -0.093018346 -0.08423447
0.11622195 -0.22196013 0.10877912
-0.0257098 0.31429803 -0.13426177
0.10138449 0.1646766 -0.12267283
0.13610286 0.2505214 -0.26554844
0.08862776 -0.00533846 -0.0040942165
-0.05411252 -0.20442353 0.15625717
-0.017401025 -0.077834815 0.101589054
-0.03675567 0.22657897 -0.05351575
-0.028879415 -0.35571408 0.20374165
-0.13527586 0.2260442 -0.13401246
-0.022444846 0.21056382 -0.083759986
0.14992839 0.12470654 -0.23863502
0.016530866 0.2235492 -0.044812962
-0.10070503 0.07259243 -0.23130745
-0.067662984 -0.1998258 0.1264759
0.1397822 0.24466123 -0.18207961
-0.108447514 0.14900187 -0.1085611
-0.08017632 0.09663749 -0.08378663
-0.0732345 -0.23623109 0.15343
-0.057272475 -0.34126502 0.1888778
-0.07104551 -0.2071895 0.0124801835
-0.10671523 0.14129104 -0.15913756
0.095148526 0.21195337 -0.16872302
0.07125244 0.1434202 -0.10329196
0.07054154 -0.08650191 0.06987049
-0.118380584 0.2847739 -0.19173686
0.0072302553 -0.4195132 0.12796284
0.041940365 -0.25688472 0.21091577
-0.005391149 0.21570142 -0.07777843
0.014123874 -0.24895722 0.18044338
-0.025999 0.051405955 -0.019026386
0.102002285 0.22419132 -0.13237476
-0.07078146 -0.015290363 0.048310928
-0.032497652 0.06541711 -0.041300964
-0.09359948 0.23697047 -0.07534153
0.13846149 0.26692623 -0.18808767
0.025206072 -0.33710355 0.2445855
0.09860189 0.09187342 -0.09359971
0.11207971 -0.23553996 0.15135343
-0.09402677 0.30760378 -0.14085265
0.024801008 -0.17210911 0.17131029
0.00064334285 -0.010964455 0.03819112
0.07034632 0.115540475 -0.15182987
-0.06512962 -0.20659709 0.11676203
0.0019986087 0.0017711389 0.024986744
0.08692111 -0.31399986 0.21373335
0.062708326 -0.021721296 -0.0151445335
0.06621258 -0.38902563 0.17386238
0.05313585 0.1918568 -0.06420884
0.0814824 0.068017386 -0.07375623
0.025876537 -0.3685955 0.1990936
0.07495875 0.25369084 -0.12753522
-0.034558482 -0.34396833 0.1978768
0.10401202 0.21809494 -0.093398005
0.091691196 -0.11527552 0.09138547
0.13599311 0.1041128 -0.24154414
-0.04185518 -0.29858804 0.20544475
0.105839945 -0.26900503 0.15169144
0.0662661 -0.32316926 0.22182594
-0.053435262 0.122128755 -0.092974454
0.09369619 0.27100992 -0.15568054
0.024735408 0.06340118 -0.016740322
0.029228074 -0.42203757 0.15106085
-0.0023001526 -0.041270204 0.06974253
-0.03939473 -0.1839297 0.14175315
-0.028132383 -0.3205321 0.21841666
0.052111223 0.25319818 -0.09034297
0.07431234 -0.21843201 0.17008546
0.07318765 0.25079086 -0.08192247
-0.16263996 0.14620322 -0.17691387
-0.004635065 -0.30387256 0.21653432
0.025726356 0.2887485 -0.10289041
-0.122702256 0.11293755 -0.19080365
-0.0077765128 -0.07955105 0.09071348
0.07818504 -0.25854698 0.18515037
-0.109574795 0.051628947 -0.12294265
0.15026689 0.29847452 -0.22244205
-0.11492072 0.06916127 -0.26022047
-0.07340297 0.03568902 -0.027483122
-0.06987266 -0.19483872 0.16431549
0.10005984 -0.1557208 0.10801062
-0.00787838 -0.34014964 0.24596222
0.09595687 -0.39342391 0.14544582
0.0994757 -0.23677921 0.115468256
0.031051617 -0.07103058 0.09337375
-0.1215466 0.23401314 -0.113501534
-0.024022326 -0.11058636 0.083793
0.05236206 0.30715314 -0.18559478
0.01762507 -0.17933726 0.15890248
0.020279707 -0.34744105 0.22298321
0.065694764 0.17674443 -0.096357174
0.04113769 -0.37965405 0.20441686
0.09881951 -0.36552164 0.16997965
0.0034892503 -0.3298625 0.2549065
-0.03717743 -0.37167147 0.16731426
0.024716105 0.28879866 -0.091185994
0.0197689 0.05308515 -0.02399436
0.069927365 -0.06697901 0.060737565
0.020985574 -0.12655696 0.122953
-0.066656895 0.27168012 -0.1201955
-0.024787959 -0.18700226 0.14686495
-0.044624403 -0.20313998 0.118845135
0.13872024 0.25494683 -0.1796447
-0.06086619 0.24388726 -0.07751048
-0.018629758 -0.37076104 0.14256689
-0.06380646 0.30351532 -0.11443607
0.072106205 -0.2867101 0.16777302
-0.10971136 0.2705292 -0.1699205
0.012113916 -0.29544422 0.25750393
-0.077282585 0.11224162 -0.06974675
0.11895596 -0.22408696 0.06789355
0.07176101 0.1820132 -0.09453247
0.04242071 -0.23390378 0.20178
-0.014768981 0.24845167 -0.06614509
-0.08396734 -0.0038316522 -0.036574204
0.05662051 0.048527785 -0.032186136
-0.05460535 0.15174258 -0.08534322
0.06240312 -0.3792877 0.17132083
-0.07366051 -0.107964806 0.07373951
0.093360186 0.3244362 -0.19858438
0.121058546 -0.3236606 0.13342309
-0.124993436 0.18152893 -0.086688936
-0.0683462 -0.06312903 -0.018664584
-0.12558562 0.20586388 -0.108239695
0.09121456 0.008445713 -0.049207285
-0.12974457 0.12372332 -0.14265311
0.05934316 0.32288417 -0.13169265
0.071513586 -0.31301916 0.24956182
0.012345649 0.116205215 -0.062202938
-0.057207707 0.0012796443 0.05776748
0.04348816 0.08141121 -0.06823856
-0.11058466 0.24675372 -0.11718748
-0.010297693 -0.27933845 0.22322667
-0.046974428 0.29593766 -0.12931582
0.09502742 0.2197876 -0.1171166
-0.019591954 0.20126939 -0.08983687
0.010197763 0.07545718 -0.045191325
0.08020407 0.06438749 -0.079908796
0.0117892 0.08671472 -0.008364018
0.064950764 -0.20105141 0.15119176
-0.0684508 -0.1967466 0.11108908
0.076148026 -0.023370592 0.0077915923
-0.099660486 -0.13638335 0.029141508
-0.07349183 -0.07244055 -0.021506539
0.11231321 -0.3170065 0.14100666
0.059911963 -0.0637552 0.086008176
0.11597532 0.27676955 -0.17960005
0.013245347 -0.18492764 0.13880378
0.05467603 -0.24986592 0.18828176
0.115488574 -0.24593858 0.055279657
0.03486989 -0.4086944 0.15132317
-0.094587035 0.08055375 -0.114959456
-0.08721316 -0.15325098 0.014645448
0.1081989 0.07859505 -0.26057166
-0.16402197 0.101493225 -0.16308369
0.089398324 0.30125606 -0.15434594
0.12384258 0.14582029 -0.14589684
-0.059464537 0.060764823 -0.01833237
0.02274874 -0.17107649 0.15159562
0.09461572 -0.35801914 0.19444291
-0.09966495 0.12687574 -0.32052648
0.0013974741 0.0028914458 0.055450883
-0.031065188 -0.113359 0.10513972
-0.04539002 -0.24549024 0.22036497
0.046526127 -0.12923978 0.15218562
-0.040052623 -0.34533724 0.21742651
0.026114443 -0.3593664 0.21894726
0.06911254 -0.39112255 0.14271739
-0.13450234 0.17652471 -0.09792547
-0.0378095 -0.12605545 0.10085664
-0.038398392 0.33152732 -0.14246061
0.06905797 0.13301054 -0.18120424
-0.035811175 -0.32987604 0.2555873
-0.044774972 0.097150065 -0.02560466
0.10582391 -0.17473133 0.073515415
0.09889879 -0.018408824 0.0002944209
-0.042986445 0.2160826 -0.03416361
-0.053557158 -0.028935773 0.04029308
-0.060480673 0.13046424 -0.049895603
0.124449745 0.18209334 -0.121619
0.0041422285 0.19193596 -0.106926665
-0.08161065 -0.3663722 0.16719423
0.015249379 -0.29145545 0.25728786
-0.076978184 -0.024328878 -0.03322375
0.10092697 0.22568075 -0.14959027
0.019915532 0.18132214 -0.09236374
-0.16350646 0.09645749 -0.18776798
-0.01898329 0.102115296 -0.066974744
-0.110452116 0.006798254 -0.055933625
-0.059987217 -0.2087606 0.07474363
0.04010748 -0.26042685 0.22674899
0.05422801 -0.40667966 0.13315314
-0.10287795 0.16486418 -0.063166276
-0.1419849 0.19030194 -0.14087656
0.076436825 -0.03143037 0.054212056
-0.15039794 0.12206749 -0.21093637
-0.09505057 0.09126015 -0.17000943
-0.08067583 -0.33683044 0.1710471
0.02318593 -0.1227711 0.11705305
-0.04382325 0.3042906 -0.1116057
0.053003214 -0.31530365 0.23079456
0.042316716 0.20680088 -0.07860563
0.10251653 -0.32303017 0.22007248
0.10473191 0.24874584 -0.20493744
0.04653321 -0.3108543 0.24793918
0.07256755 -0.20906208 0.10604855
0.10192121 0.18189432 -0.07928756
0.014281128 -0.2890501 0.23409206
-0.07205365 0.22202405 -0.065832414
0.09038988 0.33389723 -0.17534898
0.019985572 -0.34671175 0.17733964
-0.07977127 0.09969834 -0.08235739
0.069427185 -0.2982626 0.17832318
-0.08419243 0.30162248 -0.1300331
0.15112992 0.11390908 -0.16245027
0.0010718153 -0.05254931 0.08190957
-0.117289945 0.1698397 -0.104519896
0.021576814 -0.13052787 0.1557638
-0.07137555 -0.27057812 0.17206955
0.04572443 0.2221137 -0.051770005
0.08427124 0.26380318 -0.14508973
0.02495174 0.30016583 -0.14174868
0.01434572 0.15743668 -0.053818878
0.07945698 0.107453965 -0.12887478
0.14374119 0.15040053 -0.2388369
0.103296034 0.10893203 -0.1552926
-0.07896652 -0.080737226 0.05489778
0.02865158 0.100123614 -0.07104957
-0.040646706 -0.21403892 0.15088254
0.016677378 0.2660591 -0.085494615
0.07076152 0.33775422 -0.15231982
-0.0076419017 0.313433 -0.1536517
0.030779341 -0.14445093 0.10846437
0.08731639 -0.10825338 0.079373345
-0.036611434 -0.32339823 0.22878575
0.08142778 0.0672899 -0.11751991
-0.052331526 -0.32516754 0.22952895
-0.12964484 0.2399557 -0.15637054
0.0052340142 0.23555796 -0.04344565
-0.0029411025 -0.058085416 0.062023457
-0.00896598 -0.044952378 0.07132143
0.039947204 -0.065194234 0.09150349
-0.005982948 0.33113134 -0.16435333
-0.023026003 -0.16328579 0.115073815
-0.10654216 -0.09153903 -0.06054639
0.013562873 -0.3379501 0.18753831
0.03887905 -0.12947959 0.15223227
-0.06585246 -0.13181572 0.12379374
-0.022796812 -0.41276547 0.14076662
-0.030242668 0.14531538 -0.07458942
-0.10255504 0.28704664 -0.13298202
0.050493162 0.29336396 -0.14431319
-0.066614345 -0.115611546 0.04801569
-0.14880721 0.2828067 -0.17174691
0.069382295 -0.051158067 0.03463087
-0.020752879 -0.28654718 0.21420404
0.09078676 0.09682426 -0.09017463
0.020520885 0.3365881 -0.14383896
-0.025717799 -0.25756747 0.21787392
-0.061111607 -0.24470115 0.116334826
-0.17211013 0.2809808 -0.2041286
-0.05264399 0.18173182 -0.07794194
-0.09608356 0.22667225 -0.06818152
-0.12038534 0.30090782 -0.20220728
-0.083204135 0.19848303 -0.07493649
0.047403764 0.07166085 -0.046997484
-0.09714189 0.10767686 -0.22823645
-0.07285334 -0.36689332 0.15152082
-0.0078076785 -0.26931491 0.22227381
0.05397329 0.0687655 -0.026209656
-0.025840037 -0.10768137 0.06661787
0.07833828 -0.07242725 0.033506766
-0.030506527 0.29348275 -0.080521904
0.062479183 -0.36126795 0.193243
0.0057375245 -0.05407442 0.08418192
0.011856883 0.19772819 -0.054007534
-0.019461457 -0.27200913 0.23430118
-0.106502324 0.08846344 -0.11854575
0.018044 0.08764449 -0.03876752
0.15111001 0.2078741 -0.3023795
0.061853517 0.14228314 -0.08314243
0.060799725 0.23119262 -0.10470416
0.020933429 -0.05456229 0.06055591
0.08155895 -0.36930314 0.16259563
0.06763416 0.07900485 -0.029395258
0.04936995 0.096934356 -0.03478293
-0.061102398 -0.3368208 0.22716913
-0.05925357 -0.19492155 0.1480146
0.07332672 0.017328367 -0.10847542
-0.13300027 0.24075833 -0.21361206
-0.050213803 -0.25900277 0.16556787
0.040060237 0.32442206 -0.13814417
0.010357737 -7.163761e-05 0.046940695
-0.0024426817 0.19487695 -0.06765337
-0.051957224 0.13646674 -0.0835361
0.08718282 -0.23539777 0.083916456
0.05418351 -0.3607924 0.16545136
0.12535849 0.08964208 -0.22021322
0.09630229 0.15418908 -0.14238004
-0.14719859 0.09093301 -0.18630195
0.061403528 0.33309534 -0.15003516
-0.0022811317 0.25086305 -0.08458221
0.06954217 -0.15989159 0.09126732
0.06040484 0.194817 -0.063783646
0.09901157 0.23129453 -0.14732383
0.085553415 -0.18834458 0.13481136
-0.020369602 0.1518248 -0.08560734
0.06536843 -0.13262437 0.11003582
-0.05572859 -0.29015255 0.22022969
0.15096413 0.18484235 -0.2224603
-0.09262495 0.2730975 -0.1450173
0.0044629797 -0.34477624 0.20094882
-0.04862049 -0.20772259 0.18757395
