# .PCD v0.7 - Point Cloud Data file format
VERSION 0.7
FIELDS x y z
SIZE 4 4 4
TYPE F F F
COUNT 1 1 1
WIDTH 1000
HEIGHT 1
VIEWPOINT 0 0 0 1 0 0 0
POINTS 1000
DATA ascii
0.1520817 -0.05445798 0.03195891
-0.060895987 0.07052966 -0.024135306
0.12640904 -0.052278373 0.12876363
-0.4742471 0.037475415 -0.15352562
-0.4074935 -0.019930381 -0.10258938
0.24351013 0.063758194 0.15978494
-0.37965274 -0.051344063 -0.09492103
-0.338559 0.0046536867 -0.050951228
0.15397286 0.07670218 0.06812667
0.3505783 -0.08675239 0.021824462
-0.0037479529 0.01245745 0.002401606
-0.108678035 0.061659098 -0.04071638
0.39212787 -0.048799153 -0.09097865
0.18237607 -0.033376083 0.15758523
0.13838843 0.008538059 0.12929052
-0.3604457 0.08235469 -0.08816767
-0.3968304 -0.061410625 -0.10228988
-0.14709547 0.07725385 -0.011341619
-0.1073334 -0.035213154 -0.030645419
0.14280422 -0.00054185843 0.11798853
-0.26060948 -0.013558854 -0.018249605
-0.0024113622 0.06974514 -0.0028850443
-0.26064786 0.028641447 -0.08306035
0.119636774 0.010099604 0.026748963
-0.28662977 0.06920018 -0.065818116
-0.24076544 -0.06028891 -0.040931493
-0.4648859 0.017170625 -0.108865045
-0.35574505 0.030797463 -0.06169471
-0.058982335 0.0026480246 0.009598413
-0.20398164 -0.0013014362 -0.053963657
0.29633778 0.1556507 0.031503662
0.2090956 0.11894197 0.04919808
-0.032133948 -0.05725762 0.0029284218
0.1361456 -0.02026246 0.12706904
0.28417382 -0.09009687 0.13284881
0.35341543 0.10650806 -0.071728
-0.0018961119 0.025939684 0.04508719
0.29807138 0.10851956 0.11478029
0.22975133 0.09370214 0.09228214
-0.19132641 0.049268182 -0.012100914
-0.33269042 -0.07837921 -0.11148265
0.298605 -0.12706211 0.1022615
0.2545994 0.17562217 -0.025031017
0.27471027 -0.17940731 0.00035327312
0.24180867 -0.018776095 0.13758405
-0.19724137 -0.0027224375 -0.027962562
0.21493289 0.017798973 0.14449233
-0.28869343 0.09752017 -0.106641576
-0.09269319 0.05173031 -0.0047343723
0.21679643 0.07495037 0.1356762
0.32730934 0.010908483 0.14783604
0.082491286 0.028910328 0.057213176
0.16657035 0.088997394 -0.001772733
0.18088667 0.117545456 0.04105667
0.22499545 -0.048284452 0.1280839
-0.12891322 0.055048075 -0.062204007
-0.17481716 0.08096459 -0.028389407
-0.13554011 0.08451177 -0.12523757
0.18852979 0.15458253 0.03681172
-0.28426123 -0.035422564 -0.033971038
-0.4011768 0.054432664 -0.07568687
0.16431935 -0.06319479 0.11459036
-0.122843444 0.09248792 -0.07270419
0.26577646 0.02770479 0.1564341
0.3396622 0.0691302 0.06509141
0.17762902 0.011346852 0.12905554
-0.3094148 -0.012400079 -0.08780404
0.073157735 -0.06596211 0.012696653
-0.2033479 0.03730717 -0.06579176
0.107408695 0.036426786 0.012374765
-0.38914853 0.07897912 -0.10847309
-0.15527111 0.006612845 -5.2792908e-05
-0.2431331 0.029369932 -0.035650894
-0.21254796 0.08662275 -0.06574277
0.11851643 -0.12980713 0.040652614
-0.18411236 -0.10206536 -0.1057011
-0.19632813 -0.08551689 -0.109536126
-0.19845928 0.02368067 -0.01283774
0.21776788 -0.15438178 -0.08142103
0.27231476 0.053820204 0.15135418
0.2662402 -0.14919335 0.029035877
0.31930348 0.059668414 0.12018248
-0.2749972 -0.10683166 -0.12454913
0.34306753 -0.10665497 0.00963922
-0.15502194 -0.05814937 -0.022369353
0.20695052 0.025296248 0.16192776
0.2193342 -0.03866704 0.15396295
0.15991624 -0.024704449 0.11224462
0.32477835 -0.11369963 0.065440126
-0.09320064 -0.04855823 -0.05421023
0.22046818 -0.16321704 -0.01696641
-0.20996912 0.1011973 -0.08938351
-0.13549197 -0.08730111 -0.047889546
0.028816389 -0.063112676 -0.0025004074
0.15996805 0.100055255 0.008006952
0.012055349 0.014335287 0.027510269
0.13267751 -0.07671629 0.08438403
0.36522198 -0.11969167 0.033512685
-0.05631298 -0.11583436 -0.057582058
-0.31827188 0.06046898 -0.10135908
0.17187408 0.09771871 0.08094564
0.16351818 -0.009634652 0.13715473
0.3420268 -0.023110839 0.11258891
-0.29204676 -0.05704849 -0.05262863
-0.17629851 -0.049301013 -0.04168766
-0.15318945 0.0047858953 -0.014243958
-0.41602618 0.056586526 -0.0979549
0.21906532 0.019556396 0.14818963
-0.24025539 -0.0905853 -0.07168247
0.13094792 -3.8342e-05 0.10371382
-0.03715215 0.10519388 -0.057272147
0.07315201 -0.095280945 -0.009182285
-0.46471438 0.008819687 -0.114015125
0.36923742 -0.15751056 0.026862029
0.26827037 -0.15930478 0.09028741
0.27978602 -0.06610707 0.13641797
-0.033111397 -0.11131599 -0.034306962
-0.299189 0.074466 -0.10917155
0.37056395 0.1453532 -0.045571245
0.21046638 -0.14416808 0.052824464
0.34663638 0.07719883 0.012686193
-0.21424922 -0.084583156 -0.04754831
0.16065033 0.03409953 0.13097575
-0.41647142 0.10994768 -0.15740582
-0.45234185 -0.07770965 -0.13313314
-0.3795444 0.02993432 -0.052969098
0.072799675 0.012919499 0.044036593
0.1832015 -0.11510486 0.056925792
0.3152132 0.12179668 0.05078364
-0.15260372 0.07452721 -0.037431408
0.072658725 -0.09183196 0.0006648703
-0.008770662 0.020456716 0.0027551441
0.20679782 -0.10539528 0.07805713
-0.4263774 0.05988631 -0.13149163
-0.12006043 -0.026399398 -0.005785916
0.07116222 0.020910151 0.043824274
0.15292247 0.038359754 0.108496115
-0.2332174 -0.011846554 -0.011346769
0.235172 -0.044172682 0.1566116
0.16305034 -0.048517283 0.119161986
-0.16959986 -0.110611565 -0.13712496
-0.081531025 0.096618704 -0.06323267
-0.31325433 -0.042627852 -0.07728486
-0.24876364 -0.0638487 -0.0706087
-0.2444818 -0.031378567 -0.013923274
-0.43644 0.07935648 -0.08765466
-0.0801459 -0.018119296 0.016152041
0.18108618 0.08284875 0.07357001
-0.37136826 0.047467783 -0.07855501
0.110179 0.077263676 0.027628917
0.24251279 -0.13990125 -0.10293584
0.014767736 -0.051585972 -0.032049987
-0.048575558 0.09098705 -0.04941098
-0.32488322 -0.04445812 -0.051326197
-0.05624522 -0.11397049 -0.06876044
0.025743881 -0.07728477 -0.0056406907
-0.3755532 0.0021259948 -0.06473915
0.15946141 0.086310364 0.08445761
-0.034568626 0.055251252 -0.0108181685
0.094268076 -0.03736277 0.041084085
-0.20643745 -0.03680832 -0.018356625
0.09221345 -0.10275998 -0.013820873
0.060164444 -0.095873445 0.006119971
-0.0054261517 -0.011597878 0.0006366712
-0.073375724 0.026640087 -0.031814918
0.21751198 0.16346656 0.020507697
0.023097605 -0.012914885 0.053519882
-0.43035617 0.09249228 -0.13403928
0.26167634 -0.056033835 0.15597045
-0.4181928 0.07896651 -0.11062016
0.09177043 0.043241978 0.010118884
0.32707736 0.030913668 0.119996324
-0.45679778 0.061711144 -0.15443467
0.15632999 0.106970064 0.09053492
0.09996092 0.010183293 0.06623594
-0.39235076 0.008864794 -0.098643824
0.1990793 -0.019772444 0.11609595
0.19619234 0.0520698 0.11126736
0.041377842 -0.04329866 0.022579746
0.31382787 -0.021059204 0.109803125
-0.14374807 -0.016667444 -0.034125447
-0.048726927 0.040045585 0.010881491
0.35804555 -0.020691654 -0.1048102
0.27949828 0.10465553 0.12606046
-0.35081977 0.026176069 -0.08805763
-0.14816292 -0.039951835 -0.040343508
-0.270954 0.0026354282 -0.064668976
0.10049852 0.026400032 0.054969743
0.32989576 0.059188206 0.1311384
0.18402046 -0.14792562 0.06892994
-0.35790318 -0.0736918 -0.05553353
-0.0863123 -0.05903087 -0.054828458
0.22982424 0.04279406 0.122156955
0.24047533 -0.07809138 0.15871729
0.118516974 0.03962261 0.040511068
-0.3557211 0.09897619 -0.15213959
0.22473116 0.06384513 0.15726505
0.008386185 0.06716269 0.0016015059
-0.2188062 -0.050438475 -0.033689782
0.31607527 -0.119879305 0.11114642
-0.2602228 -0.10884757 -0.104688995
0.3219612 -0.026268674 0.1531703
0.22148624 0.052161593 0.12387043
0.27069968 -0.14955945 0.0119887125
-0.29452148 -0.093375064 -0.096585125
0.25355086 0.09837137 0.100592926
0.16389902 0.06311169 0.09602506
0.32161582 -0.030989984 0.16876173
-0.23570412 0.032739222 -0.0113309175
-0.070937574 -0.06950206 0.002785595
-0.24488465 0.0763103 -0.04736609
0.13837191 0.04667519 0.059028514
-0.21928076 -0.05854941 -0.052948996
0.0015847761 -0.07475814 -0.012523653
0.07699134 -0.07126313 -0.043683216
-0.22923057 -0.041664973 -0.066370584
0.3171155 0.073361754 0.06414954
0.15275952 -0.12665367 0.08410375
-0.14509301 0.05744699 -0.043828417
0.2955372 -0.09229428 0.15324314
0.26821536 0.17035306 -0.004899735
0.22043864 0.07568206 -0.19174916
-0.0073599108 0.013212127 0.019304667
-0.3123029 0.11502456 -0.16079515
-0.3602161 -0.0992411 -0.124896936
-0.31590313 0.0077194693 -0.046136316
-0.017926361 -0.046018742 0.02999985
0.16562717 -0.16638057 0.008218369
-0.08314323 0.065252274 -0.043172438
0.068935804 -0.0028282597 0.064169645
-0.42481178 0.049687915 -0.11462756
0.1716006 0.07933397 0.110389255
0.010196267 -0.06920503 -0.021929642
0.29676875 0.014132787 0.149328
0.012817718 -0.041495528 0.03462118
-0.25353378 -0.040706288 -0.021301808
0.2908713 -0.1461765 0.014402419
0.1725164 0.15597287 0.03428737
0.31857532 0.01904324 -0.062157057
0.023093387 -0.07712495 -0.07270343
-0.33642727 0.0027926518 -0.08070553
0.15702644 -0.14586136 0.024592154
0.21161981 -0.035163842 0.16122806
-0.2750141 -0.030308975 -0.028536867
-0.25531933 0.054337665 -0.06661019
0.3561697 -0.12904817 0.0005150139
0.14062949 0.110734604 0.06720982
-0.0029069353 -0.0047615976 0.036906604
0.09695486 0.09211625 -0.02434276
0.34591934 -0.110655375 -0.06583498
-0.4533465 -0.031391885 -0.11136093
0.22261511 -0.13443701 0.07760347
0.043607768 0.06581528 0.0022919094
0.31835744 0.14753121 0.058449876
0.18848081 -0.07713433 0.099880606
0.019744199 -0.06605881 -0.028802026
-0.32889318 0.07348164 -0.08086109
0.1692498 0.08253499 0.10224705
0.2621217 -0.0018327086 0.17191511
-0.4309651 -0.031847093 -0.090942964
-0.4082989 -0.010000986 -0.08280714
-0.07298231 0.08480921 -0.022545133
0.06014451 0.042201564 0.05254157
-0.017613363 -0.119292535 -0.093987264
0.3266683 0.0023236128 -0.103783324
-0.0957148 0.06210733 -0.04317669
0.17642613 0.12906456 0.08184616
-0.03237274 -0.027366875 -0.005822659
-0.09684545 -0.0854446 -0.14470282
0.26628152 0.0956044 0.11815141
0.3239851 -0.0049210745 0.16737413
-0.05335192 -0.031710118 0.0082380045
-0.0035162608 0.012083833 0.0245333
-0.44924787 -0.10275018 -0.13893023
0.32041195 0.073633134 0.14376602
-0.27025947 0.01755862 -0.043236256
0.08205048 -0.081760414 -0.043518353
0.2998729 -0.12779947 0.06329926
-0.046706498 -0.058884654 6.5543536e-05
-0.1127873 -0.107743405 -0.14176452
-0.26068074 -0.03414578 -0.05118757
-0.29859662 -0.0034629826 -0.06464086
-0.25990582 -0.10074012 -0.15779465
0.049124066 0.06725493 -0.026204541
-0.36615184 -0.039471537 -0.069144726
0.10713896 -0.004000853 0.034454793
0.24418086 0.0629591 0.14448678
-0.04384372 0.08118854 -0.065956846
-0.048588693 0.06665172 -0.0047259503
0.18458982 -0.05310534 0.12992336
-0.0053682225 -0.04108242 0.0021968225
-0.4211198 0.06474027 -0.117555186
-0.24441537 -0.007688048 -0.017365316
0.05223728 -0.0727137 -0.0045951735
0.060244694 0.032468807 0.016867628
0.03279866 -0.090589814 -0.05086548
-0.038195044 -0.06829534 -0.013808262
0.28574297 0.10069429 0.09769334
-0.46901786 -0.038241826 -0.13692407
0.15459622 -0.041779 0.12797877
0.29463613 -0.07347484 -0.05056552
-0.31144515 -0.07684283 -0.12623107
-0.3861154 -0.06595218 -0.15213273
-0.19494586 0.03188583 -0.02018991
-0.3592592 -0.040035438 -0.056828924
-0.23053035 0.062724516 -0.07193338
-0.15518095 0.015868865 0.0016587999
0.23492347 -0.1491382 0.08861074
-0.27202916 0.0016030163 -0.062476944
0.2582211 0.112766 0.06085331
0.34147373 0.0465225 0.039407853
-0.24892549 0.015325879 -0.042821053
0.37347007 0.06525038 -0.06691411
0.029989086 0.028537828 0.019042999
-0.46216723 0.078174315 -0.10997683
-0.10676056 0.07060243 -0.049311373
0.015919745 0.045699846 0.028725004
-0.22586575 0.0810514 -0.13655445
-0.03370329 0.023591734 -0.028428748
0.16380897 -0.122149535 0.04848533
-0.15674298 -0.029006822 -0.04204281
0.0635037 -0.07271603 0.00652803
0.17210218 -0.13297163 0.08430624
0.25417662 0.07713325 0.12716775
-0.42446464 0.105328135 -0.17029646
-0.079902664 0.0791724 -0.09107296
0.0032279624 0.055041205 -0.013079483
-0.1389722 0.10521459 -0.05069476
0.2482036 0.08944064 0.09130864
-0.13579288 0.0143773705 -0.00039066482
-0.39481583 0.07707021 -0.14465654
0.31659612 -0.037828047 -0.034905374
-0.4457616 -0.0077464283 -0.116216846
-0.06576883 0.03910381 0.020942945
-0.16827616 -0.074878715 -0.08842641
0.17568855 -0.109296374 0.050390575
0.022366563 0.07662764 0.008083156
-0.009831808 -0.0028729 0.0142629
0.2785427 0.03689774 0.16139972
-0.24981767 -0.029529829 -0.06472801
-0.39420417 -0.105550975 -0.13841586
0.30570158 0.13899766 0.056496777
-0.048637804 0.09735369 -0.050024327
0.36841205 0.06761406 -0.08204044
-0.22856781 -0.07409477 -0.07644657
-0.24466036 0.07398699 -0.1122316
-0.2609998 0.086733274 -0.08381812
0.03196908 -0.087812096 0.013477593
0.222032 0.09542112 0.14399448
0.12896617 0.11153746 -0.032581624
-0.23503335 0.078075156 -0.08717361
0.36687887 -0.11438029 -0.06758582
0.27882773 0.048428107 0.117159665
-0.15782517 -0.078808606 -0.09299874
-0.41180122 0.015839163 -0.07208108
-0.13858439 0.033125836 -0.010131821
-0.09321669 0.041171815 -0.04071786
0.30784804 -0.083609045 -0.066219375
-0.30106878 0.059192065 -0.10437786
-0.11203399 0.08749505 -0.11458338
-0.09317765 -0.0036096172 -0.019592823
0.29741645 -0.099503115 0.12147059
-0.4332414 0.064647235 -0.086604185
-0.36075005 0.0648096 -0.10186356
0.13397017 0.024007954 0.023753412
-0.20391864 0.023666715 -0.021197675
-0.4314963 -0.025138041 -0.11236265
0.15589215 0.06648956 0.13356891
0.11423227 -0.09073676 -0.014845505
0.14384954 -0.07673555 0.085388504
0.32343185 0.13074562 0.067543924
0.20029151 0.13195233 -0.047200564
-0.0948076 0.0077667646 0.011358268
-0.23762669 -0.08354874 -0.10787631
0.33068642 0.103211336 0.08225877
0.0458217 0.0722325 -0.019830571
0.25647655 -0.09903579 0.14488123
0.08174997 0.028613692 -0.004100241
0.04731739 0.018546449 0.045357663
0.29602307 -0.066094585 -0.074432746
0.08322046 0.05685968 -0.029369526
0.2226757 0.1264823 0.042861033
0.08780121 0.07694682 0.0033344098
0.15829952 -0.11593682 0.068890795
0.14738466 -0.02782343 0.1307645
0.3374659 0.08124012 0.1436268
-0.069307715 -0.020994646 -0.02255944
-0.42510152 -0.01163468 -0.08118073
-0.11135994 -0.072792836 -0.08365452
0.30228996 0.10534443 0.11039438
-0.33713534 0.053922914 -0.08979545
0.31995353 0.017707236 0.15189256
-0.0012922559 0.014538993 0.0050459905
-0.13519153 -0.049873758 -0.0477467
-0.3549727 0.036009476 -0.09782377
0.35643426 0.005229917 -0.12870908
0.08352462 0.054897424 0.0127892755
0.021664828 0.015574925 0.014602589
-0.044642728 -0.055621587 -0.015825495
-0.4526504 0.06978132 -0.111986846
-0.0592872 0.017128961 -0.006251032
-0.39604107 0.032654826 -0.09331758
-0.45461774 -0.016061973 -0.103661075
0.2837583 -0.05661297 0.16201727
-0.13339004 -0.09006181 -0.056211025
0.21037734 0.1329981 0.050413303
0.0025379593 0.091315046 -0.055614427
0.17212208 0.077341914 0.09059891
-0.27451527 0.091962755 -0.11396455
-0.27607694 -0.1064166 -0.10303148
-0.34396204 0.11583558 -0.18601882
-0.12003917 0.017368346 0.01676344
0.29563984 0.086193286 0.12970427
-0.22552457 -0.090757884 -0.08004423
-0.324572 -0.077101156 -0.09751569
0.1086349 0.042234156 0.050016865
-0.43991277 0.06614525 -0.09477378
0.023412261 0.008206264 0.006471957
-0.24018574 -0.01298552 -0.052397754
0.0054758214 0.024053114 0.018040396
0.025159575 3.3952507e-05 0.005587117
-0.047367614 -0.0019382288 0.000387644
0.32733384 -0.06691327 -0.06168595
-0.041525736 -0.034986924 0.011671729
0.1396793 -0.095176265 0.12012571
-0.34745243 0.070236 -0.14186618
0.21291982 0.061449148 0.14007688
0.14941859 -0.117402524 0.00078138354
-0.3633023 0.063787065 -0.08663381
-0.1521693 0.0899035 -0.049438495
-0.23143575 -0.045779288 -0.07226224
0.22310477 -0.13524269 0.07494786
-0.16008005 0.07098324 -0.06009222
0.15933771 0.11070596 -0.055064637
0.19650285 0.14680277 0.024697259
-0.014304921 -0.10763389 -0.054225937
-0.0838678 -0.052350756 -0.0064695035
0.3335754 0.12883617 0.022366501
-0.30793875 -0.043925505 -0.06409503
-0.013322814 0.094471626 -0.057394702
0.21355218 0.017357958 0.13459615
-0.15606964 -0.058021814 -0.02306347
-0.3063814 0.038398802 -0.06872106
0.35291335 0.07123087 0.08812947
-0.32337067 0.07992453 -0.107871406
0.017527612 0.044602573 -0.015130559
-0.35062093 0.08922274 -0.13454673
-0.27808756 0.0030383982 -0.059278015
0.30719817 -0.10141005 0.11922702
0.22687379 0.14226076 -0.014294865
0.16037765 0.044184994 0.13183469
-0.34182918 -0.04876051 -0.08477854
-0.43135288 0.07068777 -0.17046238
0.4025516 -0.054334305 -0.10429038
0.11527303 -0.1262 0.05211161
0.22131626 -0.036316115 0.13428141
-0.018819226 -0.08734959 -0.03087479
0.08853067 -0.079938896 -0.07397386
0.158961 -0.071774736 0.09708081
0.20276155 -0.00993875 0.15453835
0.14536457 0.004838542 0.071135126
0.2176162 -0.03793607 0.14937805
-0.015145912 -0.085064635 -0.10938968
0.093168765 -0.088700496 -0.006552264
-0.14513713 -0.026981331 -0.028577924
-0.40216592 -0.11216208 -0.15464391
-0.30849016 0.029616684 -0.08623739
0.33668756 -0.07374769 0.15302157
0.16403688 0.10247828 -0.018792799
-0.24430074 0.10883489 -0.12406742
-0.46415415 -0.041395254 -0.12042402
0.056613855 -0.073228374 0.020888833
0.21917275 -0.058380533 0.15878215
0.13693202 0.062473394 0.10407098
0.20967613 -0.08478101 0.12840249
-0.2838658 -0.08827976 -0.11486846
-0.30649868 0.031657714 -0.036911592
-0.029841056 -0.104164734 -0.034369867
0.05580254 -0.024827223 0.032418594
0.20218925 -0.054745615 0.10362491
0.24956273 0.10402182 0.10964906
0.32683015 -0.12601729 0.11153939
0.17911959 -0.09229002 0.102177985
0.2880988 0.053955846 0.11612829
-0.077853575 0.028137013 0.010505364
-0.07820618 0.010918857 0.005834455
-0.33563623 0.053351484 -0.05538612
0.18536496 -0.034618475 0.12891063
-0.40476677 0.00061693223 -0.083517686
0.08454126 -0.034762453 0.053107593
0.07073592 0.08031259 -0.017163694
0.2233227 -0.12264703 0.057881523
0.26261488 -0.0993875 0.085923776
-0.4616943 0.017052678 -0.122257106
-0.15886049 -0.06257319 -0.040738896
0.06723341 0.08614082 -0.0027940269
0.15225409 -0.073931575 0.09160834
-0.080187775 0.004164384 -0.012716457
0.18831104 -0.1701345 0.031328864
0.31047168 -0.007102029 0.13447076
0.11562522 0.061058752 0.011376881
0.22638978 -0.056803588 0.119683616
0.1411943 0.060834903 -8.015559e-05
0.3410917 0.07384223 -0.007091177
-0.39693487 0.0254997 -0.10142247
-0.36856064 -0.07104098 -0.11392058
0.15776186 0.0065624495 0.11323365
-0.20758335 0.038549118 -0.022074103
0.30844283 -0.11607436 0.109125555
-0.03022597 -0.11210471 -0.021200184
0.19325133 0.04905968 0.09708746
0.21831791 0.010873302 0.14919394
0.08000616 -0.07986613 -0.011821742
-0.4411734 0.050163906 -0.11486699
-0.46711814 0.05306463 -0.17037441
-0.25455394 0.050645612 -0.062703185
-0.022956451 0.056311816 0.014819747
0.28417748 -0.028982067 0.16816284
0.07874416 -0.10766116 -0.0701977
-0.37871715 -0.1012275 -0.16372788
0.35449645 -0.12016586 0.047830876
-0.3200247 0.11587686 -0.123122476
0.06707974 0.026128387 0.012813728
0.35448182 -0.16249426 0.035488274
0.14758934 0.13711275 0.034198653
-0.36620694 0.103580624 -0.101009764
0.14039873 -0.097836375 0.020409305
-0.10014202 -0.06432436 -0.0672849
0.28524438 -0.0033723325 0.15784608
-0.4598109 -0.05153957 -0.265469
0.29323807 0.03368817 0.15621503
-0.12668759 -0.06281619 -0.03219083
0.33207598 -0.112036586 0.002419743
0.10839946 -0.073874906 -0.10299493
0.27131793 -0.058343034 0.14512588
0.34604183 -0.08132437 0.057661258
-0.12774555 -0.032044996 -0.0070344964
0.09312114 -0.054681238 0.018651957
0.34730455 0.11249788 0.09201735
0.0977411 -0.019289555 0.055752747
0.12458506 -0.0793284 0.04344049
0.27466196 -0.11883169 0.10610297
-0.05981651 -0.02558332 0.026164688
-0.03486328 0.0126110045 -0.018661963
0.112872414 -0.09260889 0.030012308
0.19169992 0.11597851 0.05045589
0.15707506 0.019320216 0.1472542
-0.19355926 0.05259512 -0.07258685
-0.40489578 0.033357784 -0.07463882
-0.31453755 0.10498248 -0.11566329
-0.19764331 0.04563461 -0.04766392
0.033705927 0.04986896 0.0060639605
-0.16650417 -0.067283966 -0.09427287
-0.46610624 0.030586198 -0.10095204
0.029243078 0.043058295 0.042462207
0.31786296 -0.09962544 0.0876057
-0.13755916 0.0017587589 -0.007792903
0.28607592 0.008177421 0.13545585
-0.13355488 -0.013333205 0.0043442654
0.01786569 0.06300843 -0.010183655
0.23532833 -0.12667248 0.0960287
-0.3219183 0.05368222 -0.06620268
-0.024550207 -0.042420994 -0.0028995478
-0.3094249 -0.05956635 -0.07320232
0.22581936 0.13127245 0.010200957
-0.3012178 -0.057765137 -0.08213322
-0.20372543 -0.066666104 -0.062232096
0.14659862 -0.099723004 0.0821416
0.23080845 -0.11106849 0.08293758
-0.24859963 -0.015497926 -0.056696564
0.2867802 -0.025675494 0.14872286
0.28474244 0.15167318 0.08006882
0.26641405 0.14118893 -0.0007912871
0.21125324 0.06094636 0.10525317
-0.18156753 0.08448863 -0.053030018
0.004105356 0.07131913 -0.040318094
0.31763726 0.06805346 0.08576256
0.07785393 0.09924983 -0.0056807892
0.298693 0.07212509 0.13512178
-0.076863326 0.004766969 0.022392953
0.026744882 -0.048113473 0.01795825
-0.13501766 0.11519671 -0.13897268
-0.34645706 0.050828043 -0.07588512
-0.289496 -0.026810694 -0.05891891
0.21279484 -0.031440154 0.13531108
-0.0093829455 0.010198236 0.037907798
0.16875567 0.041468304 0.102508284
-0.44464675 -0.04474278 -0.12722613
-0.096893035 0.0922708 -0.07788136
0.028767014 0.10939493 -0.06697006
0.1203074 -0.11500925 -0.093182415
0.317371 -0.08910869 -0.050713394
-0.4077254 0.016993782 -0.10237321
-0.27987733 0.047007464 -0.073088735
0.2688919 0.11766322 0.10792617
0.12816499 0.06738081 0.02567194
0.32444173 -0.08364168 0.10489527
-0.37400234 0.019107824 -0.087748624
-0.279678 -0.10982782 -0.20512481
-0.06211884 -0.0064010904 0.013679153
0.2778213 -0.15557277 0.05550486
-0.2586814 0.05415205 -0.033279117
-0.22833039 0.057861254 -0.10069444
-0.35265222 0.018160028 -0.061165426
-0.3327772 0.11094279 -0.16076048
0.0013137403 0.068779536 -0.003681797
-0.052926987 0.0061801756 0.019069895
0.28210583 -0.07080529 0.16497064
0.039695375 -0.026485475 0.014292142
-0.14257501 -0.001237068 -0.026528921
0.29242587 -0.090115145 -0.052184373
-0.16629007 0.01971886 -0.025565626
-0.015501015 0.1101379 -0.059550703
0.29728138 0.12929036 0.078478985
-0.09348756 0.04434482 -0.025289806
-0.09756418 0.029829552 0.0061092963
0.33907187 -0.07891101 0.09612308
-0.23186937 0.05001898 -0.047347073
0.2955494 0.00017121204 0.13567322
-0.07217479 -0.006655042 0.005284291
-0.11653356 -0.045322508 -0.03984312
-0.44458616 -0.0021109625 -0.09348248
0.35888106 0.06035258 0.0043883044
-0.4006885 0.0572406 -0.06090402
-0.4187732 -0.016602738 -0.09306306
-0.16050524 0.103862345 -0.065941304
0.066384695 -0.04763681 0.041069195
0.2939253 0.09315413 0.11147196
0.15177923 -0.12697057 0.045883574
0.3556967 0.12808445 -0.016282564
0.22553435 -0.11336841 0.10184136
0.19220361 0.16005462 0.03345715
0.36489323 -0.11287129 0.027985588
0.0065458175 -0.07112795 0.018513635
-0.053336576 -0.12195554 -0.08630953
-0.22519128 0.07669114 -0.062939174
-0.22328953 0.010922163 -0.017446179
0.1901745 0.03659881 0.10343829
0.021417731 -0.020826675 0.01633439
-0.0742393 -0.00027731084 -0.018619569
0.2517741 0.12700808 0.083760895
-0.45123658 0.026593484 -0.12526184
0.0622465 -0.033276618 0.0139530655
0.23740041 -0.03227619 0.13627689
0.27573043 0.11675776 0.057111356
0.15057127 0.01510475 0.13001055
0.32992858 -0.15189116 0.045654923
-0.13560258 0.09811691 -0.0776775
0.17547663 -0.078179896 0.12259366
-0.029015163 -0.05743764 -0.019637778
-0.38866135 0.077440776 -0.088586584
0.020853778 0.09030276 -0.0036749358
-0.027937518 -0.08524995 -0.024066264
-0.2658281 -0.07523861 -0.08511384
0.14671254 0.062295284 0.04609251
-0.1401917 -0.11612105 -0.079348244
0.31905958 -0.046637982 0.118797556
0.025069818 0.0077401856 0.030401
-0.030909838 0.005631528 0.0045031416
-0.15687865 0.06366476 -0.04082353
0.2807614 -0.044702146 0.14906345
0.31695208 0.09111611 0.08403552
-0.3972204 -0.09806461 -0.124999106
0.3795169 -0.01935756 -0.092503354
0.19334362 0.12889518 0.004709118
0.1490314 -0.07194076 0.08664999
0.25349265 0.026993116 0.15260468
0.22769587 0.015723811 0.1627757
-0.3058727 0.035423465 -0.053236097
-0.14486928 0.024038259 0.0026930561
-0.032002233 0.055543598 -0.0028209307
0.1904546 0.13848335 0.053802907
0.24236508 0.035560332 0.15724556
0.19304681 -0.054230276 0.10378485
0.19903861 0.038438734 0.13634865
0.11337054 0.07130333 0.05131662
0.31131384 0.003528977 -0.071685925
0.19822527 -0.11008141 0.050275277
0.34749097 -0.13450296 -0.009405689
0.09018034 -0.09958663 0.021699479
0.03814989 0.01139163 0.04047308
0.25745362 0.05162502 0.1412614
-0.2710133 0.054713618 -0.10202062
0.22723821 -0.10501107 0.112103835
-0.30049047 0.10917658 -0.098926924
-0.2484702 -0.10622966 -0.15557256
-0.105292454 0.00083196396 0.021139136
0.08196411 0.067028604 0.03688037
0.15959328 0.05717443 0.09375568
0.056336254 0.013157532 0.02585993
-0.4314249 0.025385559 -0.08793082
0.3436272 -0.08626594 0.106477425
-0.051235557 -0.104403384 -0.059705485
-0.31852305 0.063528016 -0.08664514
-0.4539208 0.0204811 -0.08300304
0.2333688 0.02412502 0.15462461
0.13629769 -0.10318332 -0.083572745
-0.23494464 -0.04588816 -0.030771196
0.33906507 0.07087814 0.09494744
0.0100255525 -0.053517453 0.028908787
0.13121851 0.106901884 0.11977005
0.18143505 0.15657404 -0.05934449
0.1918313 -0.16355264 -0.021216152
-0.46549165 0.038856957 -0.08576505
0.3205865 0.011851102 -0.058407154
-0.40977407 -0.01913669 -0.08748063
0.05769751 0.08155656 -0.025316052
-0.12576734 0.025292635 -0.00040332525
0.23250243 0.037227478 0.12749478
-0.051709276 -0.09746067 -0.028438011
0.20956977 -0.13051835 0.042742137
-0.044271737 0.0350171 0.012892878
0.3434178 0.074730955 -0.031901613
-0.048747588 -0.033358008 -0.0045311553
-0.4259144 -0.049564302 -0.11058968
0.29533604 -0.046996422 0.13364285
-0.21995728 0.10970204 -0.07982607
-0.21581225 0.005782235 -0.026859507
0.3736592 -0.012439377 -0.07924306
0.08269551 -0.03207595 0.018665664
0.084487244 -0.03497903 0.04505933
0.20274757 0.10846166 0.058382824
-0.3966063 -0.07697547 -0.100191064
0.027618589 0.020217948 0.020296806
-0.28287837 -0.082912154 -0.14534684
-0.12617274 -0.012785274 0.005693851
0.2173121 -0.07392723 0.13029575
0.12247541 -0.043771826 0.02059414
-0.09282446 -0.01765234 -0.0030979863
-0.3775034 -0.07519873 -0.14586969
0.14145324 -0.08629902 0.11048468
0.31338555 -0.11823182 0.09121279
-0.27693164 -0.08903607 -0.059337102
-0.28917077 -0.042392988 -0.049982995
-0.3069173 0.0823945 -0.08023299
0.17385468 -0.12679107 0.10474639
0.33891505 0.025283542 0.10952944
0.27285752 -0.049001012 0.12900797
-0.030198582 -0.118921004 -0.039964136
0.35791644 -0.06639445 -0.08834112
0.00360354 0.075509004 0.01948077
0.22259688 0.02355287 0.12363423
0.2541452 0.084781915 0.125874
-0.42432752 -0.09520136 -0.13620465
0.31206894 -0.10423951 0.10005976
-0.305203 0.017347997 -0.076671675
0.08873695 -0.017049896 0.03743621
0.31531394 -0.13931939 0.05186085
0.20474386 -0.10041817 0.09572285
-0.08556551 0.05369612 -0.024738621
-0.17748854 0.029581329 -0.052481774
0.26047245 0.120223455 0.124294914
-0.3951227 -0.0509962 -0.09162654
0.110194296 0.067632586 0.02828636
-0.05735498 0.094995536 -0.075871654
0.05540267 -0.005055029 0.010136105
0.07633429 -0.049311735 0.003208057
0.15906554 -0.014455673 0.10423934
0.15372364 0.05373496 0.13253301
0.16023111 -0.12311326 0.02370184
-0.10929722 -0.037898354 0.011948386
-0.45850608 0.053787746 -0.11117046
-0.18569352 0.04407995 -0.023158109
-0.0869782 -0.0679289 -0.13484494
-0.17532136 0.04320774 -0.050993647
0.38587332 -0.09706344 -0.020545132
0.17525247 0.05767159 0.13954702
-0.30814388 0.069905564 -0.067289434
0.22059673 0.15034512 0.006136616
0.29556242 -0.0324677 -0.05279465
-0.32146147 0.03977927 -0.094073094
0.005270075 -0.0038587793 0.023506762
-0.34505203 0.017754037 -0.08941103
-0.21103927 0.0671006 -0.0677522
0.17641264 0.1200725 0.036559805
-0.44098768 -0.015107354 -0.064395845
0.367238 -0.06391381 -0.03714746
-0.3468292 0.07154511 -0.16281106
0.31265745 -0.089331046 0.12744345
0.21674117 0.0047324207 0.119986005
0.30673975 0.07675622 0.089188844
0.15246105 0.10306707 0.098342575
0.29292935 -0.012944855 0.1480672
-0.33274546 -0.016672408 -0.07991018
0.2704883 -0.044330154 0.16374026
0.1911367 -0.16467339 -0.04459667
0.2495894 0.06267931 0.13000306
0.3778457 0.09427903 -0.115029454
0.19477727 0.073695526 0.12518856
-0.25402206 -0.035697483 -0.05996411
0.21835452 0.055439975 0.12981057
-0.16826858 -0.037380196 -0.02878653
-0.3590813 0.06542499 -0.13249402
-0.0880619 0.03470147 0.0038222617
-0.24318838 0.05227756 -0.053694736
-0.07950986 0.102850094 -0.058242526
-0.07520326 -0.060682964 -0.019544868
0.29489917 0.022345789 0.1460218
-0.45985794 -0.07384156 -0.15482265
-0.37161168 0.06342803 -0.10725573
0.27807185 0.06767062 0.12870273
0.19201423 -0.14633074 0.07915047
0.27589214 -0.11045335 0.13078621
0.19036122 0.018804913 0.15340406
-0.35369945 -0.0037592584 -0.07778587
0.28251007 0.06930453 0.12560739
-0.10154556 0.084680684 -0.06798318
0.2801648 0.10451723 0.08425513
-0.3823897 -0.041742716 -0.07938375
0.12737069 -0.012796166 0.073853284
-0.30934605 -0.07233912 -0.13552365
0.34035054 0.09190995 0.10174023
-0.07396704 0.04193368 -0.005575228
-0.3722176 -0.017270355 -0.06086317
-0.33088082 0.013246616 -0.04502328
-0.10882107 0.04335613 0.0053456207
0.078776054 -0.030080209 0.063286595
0.19974495 0.14300515 0.046685018
0.060589284 -0.05810092 -0.026953975
0.31339294 0.038478658 0.16425331
-0.043942068 0.049921457 -0.0007087293
-0.28567097 0.058758084 -0.07709017
0.026335314 -0.038812228 0.015786823
0.19671705 0.05954515 0.15475805
0.24887416 -0.14639841 0.012618646
-0.44700307 0.055662256 -0.089852214
-0.09326991 -0.09540598 -0.08080997
-0.19981715 -0.00951691 -0.015810037
0.10235987 0.068890564 -0.018086093
0.12035186 -0.034391865 0.094476484
-0.2624546 -0.038874865 -0.054992307
-0.48008347 -0.021743314 -0.18017188
-0.33669865 0.10830866 -0.10976623
0.09042282 -0.04223933 0.015003688
-0.48010552 -0.046014547 -0.14278318
-0.33464924 0.0068313284 -0.045111444
-0.18552123 -0.050170284 -0.02898537
0.28260466 -0.15606703 0.008117936
0.3447843 -0.020432554 -0.056574468
0.13644207 -0.09806945 0.0838527
0.2506515 -0.1065393 0.0777362
0.20322163 0.03775883 0.12693122
0.17791489 -0.0596276 0.095209405
0.2156058 0.038131054 0.11413004
0.08247447 0.045600865 0.049188178
0.17268562 -0.09840634 0.07156973
0.2787941 -0.07025881 -0.03790304
-0.13805655 -0.09707352 -0.085440725
-0.037798442 0.074329324 -0.077519484
0.3575147 -0.00350479 -0.10431953
0.24295795 -0.099068865 0.1260394
-0.3992539 -0.049835857 -0.09086775
0.21400075 0.07326082 0.13228911
-0.31209356 0.07844837 -0.09500572
0.24594939 0.08813556 0.11106716
-0.36043575 0.07572386 -0.1271418
0.1753786 -0.17199096 -0.037817933
-0.43333122 0.036582284 -0.09492059
-0.34344172 -0.045475792 -0.06942796
-0.051905084 -0.000403477 0.016471317
0.23651363 -0.068930686 0.12649846
0.22074302 -0.15091641 -0.068032615
-0.42956212 -0.08733133 -0.19843285
-0.27396896 -0.0049757254 -0.029719993
0.12189152 -0.102893285 -0.028462075
0.13740444 -0.08016648 -0.0015857599
0.16622771 0.011668045 0.09719148
0.12816666 -0.067990996 0.024723632
0.113301694 -0.054339696 0.027029041
-0.32686982 0.05920698 -0.093939
-0.36828643 0.10353675 -0.1706906
0.25507504 -0.031485736 -0.09851915
0.193336 0.13251625 0.017992677
0.11134067 -0.020107968 0.11247536
-0.1674758 -0.040836997 -0.038643233
-0.29479918 -0.021262381 -0.06283531
0.30669433 0.14600837 0.036998328
-0.1478922 -0.071664385 -0.058122974
-0.31235296 0.0681292 -0.058506485
0.06331391 -0.04895754 -0.0013479271
0.16945472 0.04766391 0.12108561
0.18036819 0.06561277 -0.106116444
-0.32215962 -0.09271803 -0.13049409
-0.2906419 0.10114084 -0.15664612
0.19509986 0.09385783 0.08813399
0.37811366 0.007600285 -0.11460062
-0.22847581 0.04070309 -0.025391102
-0.24627893 -0.012349405 -0.020657718
0.059327956 -0.041703455 0.034513794
0.28330967 -0.055930287 0.17166762
0.24967179 -0.13215967 0.059526443
-0.4538059 -0.0037746 -0.14839697
0.16187793 -0.02753906 0.13262632
0.16554016 0.11224474 0.009520425
0.078611165 -0.10286574 -0.024501812
0.31351638 0.075498275 0.13481034
-0.41983998 0.063147046 -0.10299431
0.14599887 0.044094976 0.11508234
0.15803789 0.00866158 0.09331
0.012439461 -0.004459683 0.036797058
0.37255138 0.035156254 -0.14063253
0.11020016 0.035950296 0.044212203
0.11443903 0.044761315 0.036386535
-0.27003777 0.06285913 -0.06389984
-0.016262721 0.000600791 0.020292727
0.00039038702 0.042542495 -0.01873182
-0.1656816 0.017527536 -0.025464695
-0.15585043 -0.051709976 -0.043157034
-0.19061704 -0.05419118 -0.047877826
0.060985927 -0.06084601 -0.0074025267
-0.21303067 -0.0068033966 -0.059958912
-0.13286316 0.014848075 -0.020368945
0.1342378 0.13180423 0.035221186
-0.14234126 -0.061760522 -0.06712253
0.09663535 0.10139494 -0.089553356
0.18119685 -0.025431242 0.13256761
0.17706004 0.07008945 0.08359383
0.2813009 0.009665245 0.15407822
-0.31253392 0.0040549547 -0.06120868
-0.17254718 0.09103408 -0.09924352
0.3650203 -0.07766977 -0.06991705
-0.43115982 -0.06705131 -0.11659629
-0.1782047 0.07516954 -0.05654826
-0.27907616 -0.04641654 -0.07022532
-0.17933849 0.09096205 -0.10756915
0.3642568 0.055942208 -0.0559079
0.32216492 0.08500772 0.11381102
0.2365845 0.08173107 0.12842695
-0.3517653 -0.03947955 -0.06550096
-0.032818276 0.10870806 -0.06612524
0.33886564 0.118314445 0.018521542
0.27573293 0.08684724 0.12235074
0.24121319 0.0768056 0.1317407
-0.45670506 0.047696214 -0.1725256
0.14092931 -0.018870942 0.13997321
-0.015075318 0.04261726 0.028163647
0.21521829 0.14220631 0.023617534
0.14577097 -0.15361305 -0.015679829
-0.34655753 0.11509896 -0.15373279
0.09915622 -0.024822269 0.041590992
0.31366146 -0.06629454 -0.018872371
0.1415111 0.020839093 0.12176652
-0.19037819 0.08777074 -0.09268705
0.32121196 -0.083932735 0.08001408
0.029836727 0.051179435 -0.003715909
0.07125764 0.005834564 0.046921033
-0.36951774 -0.024103891 -0.07899809
0.25947332 -0.05797439 0.11517717
0.17235257 0.110790536 0.072365925
0.12742682 -0.015379704 0.1375341
0.065491825 0.022596506 0.042942278
-0.12978603 -0.025762938 7.459531e-05
-0.2899051 -0.0043301852 -0.042439416
-0.14033183 -0.057697926 -0.050341196
0.20053552 -0.08095254 0.13501616
0.2401891 -0.066132344 0.15667628
-0.20250997 -0.016165588 -0.035560414
0.16132787 -0.101533435 0.10482591
-0.07602241 -0.021120714 0.011266963
0.3645572 0.06677293 -0.057928503
0.19553882 0.014171883 0.114660315
-0.33737853 -0.0883209 -0.1496088
0.17634761 -0.100155026 0.08442815
0.21157503 0.059237976 0.14847764
0.28102502 -0.08209462 -0.036432363
-0.3251446 0.016159719 -0.059779778
0.14088877 -0.05161926 0.08923986
0.13583857 0.004269995 0.12211829
-0.33395386 0.0328031 -0.063827366
0.25605485 -0.14385353 0.07888823
-0.10214255 -0.03323869 -0.0235532
-0.26804227 0.08525985 -0.06594441
-0.3949748 0.08787339 -0.13885246
-0.19234334 -0.11349394 -0.08332302
-0.019010404 -0.030467812 0.011420086
0.13712658 -0.046352997 0.036744688
0.24376355 0.14384416 0.05365835
0.2957035 -0.08247019 -0.06863722
0.005656296 -0.05225649 -0.0023418837
-0.37886792 -0.07542791 -0.095288016
-0.11379943 0.092525095 -0.050142072
-0.12728083 -0.076973304 -0.06872853
0.177573 0.023286795 0.13507588
0.1873674 -0.16540852 -0.003421533
-0.28682384 0.113378115 -0.11463941
0.057211492 0.07548257 -0.05848799
0.17494237 -0.007145769 0.14763305
-0.4334594 -0.053912595 -0.098833434
0.23465322 0.029394032 0.1377938
-0.048921056 -0.05999916 0.007546442
0.16969065 0.11642013 -0.13220051
-0.42513874 0.018138288 -0.08115675
-0.17595533 0.06587192 -0.06866539
-0.004437057 0.0009746532 0.0059647695
-0.43481588 -0.076611534 -0.09105499
0.31299606 -0.055157576 0.095803924
0.020277197 -0.058007747 -0.010528937
0.19546483 0.13827533 0.060740165
0.21291026 -0.04257855 0.121736
-0.25304568 0.029830955 -0.055482484
