# .PCD v0.7 - Point Cloud Data file format
VERSION 0.7
FIELDS x y z
SIZE 4 4 4
TYPE F F F
COUNT 1 1 1
WIDTH 1000
HEIGHT 1
VIEWPOINT 0 0 0 1 0 0 0
POINTS 1000
DATA ascii
-0.19095418 0.27479008 0.11626965
-0.14460692 0.24291052 0.110680886
-0.032539256 0.017875891 0.012911176
-0.03669542 -0.25228605 -0.18154143
-0.1300961 0.060978815 0.0075084586
0.0791781 -0.001641306 -0.06519984
0.1758866 -0.23824205 -0.03144717
0.11967797 -0.2606787 -0.0008795419
0.076924436 -0.27006543 -0.028263338
0.11957613 -0.30114782 0.007597212
0.24056798 -0.19495799 -0.0054161754
0.047929384 -0.114018865 -0.030519597
0.1116989 -0.14869624 -0.04452464
-0.18099254 0.28962865 0.079680726
0.102809295 -0.110018514 -0.014475227
-0.08863685 0.28787956 0.038724396
-0.028551802 0.062203474 0.009351591
-0.19199316 0.21073355 0.07608054
-0.213794 0.3035745 0.11355015
0.058391523 -0.06507532 -0.005082842
-0.18882853 0.29528314 0.12315652
0.18509218 -0.10793131 0.01000326
0.11217079 -0.33383083 -0.2380739
-0.016874325 0.019112237 0.019505331
0.038515326 -0.2445237 -0.020438982
0.18904208 -0.2399321 0.009307446
-0.20995884 0.3569025 0.0043748165
-0.034818634 0.07554131 0.019849058
-0.2293595 0.1760084 0.012738189
-0.04890313 0.15018578 0.069072515
0.14344668 -0.22401366 -0.019978622
0.24519768 -0.09042211 -0.055635735
0.0062703616 -0.24617377 -0.0118109
-0.06210368 -0.02978839 0.034448013
-0.19533005 0.33629638 0.046938464
-0.013092656 0.099339314 0.04210493
-0.041043676 0.019912379 0.03747726
-0.2531481 0.24444377 0.06914057
0.23998523 -0.2491621 -0.047844335
-0.12163537 0.054927565 -0.018981826
-0.026284773 0.023160791 0.03649394
-0.20553538 0.3064773 0.11787491
0.18779185 -0.19855994 0.020058544
-0.08394093 0.25344977 0.05944791
0.08479294 -0.07385017 0.0052636913
0.24965583 -0.2611487 -0.054136004
-0.08656415 0.22706924 0.07261433
-0.060998622 0.15645796 0.050966106
-0.018136237 0.07502038 0.012007607
0.16957553 -0.18080145 -0.008478648
-0.0021432857 -0.018456258 0.01724205
-0.0027708763 -0.13255681 -0.0372358
0.19436999 -0.10253341 -0.024541691
-0.16377898 0.2547609 0.10599029
-0.0009151204 -0.0036927685 -0.0046919542
-0.24647489 0.23503277 0.08043991
-0.12308599 0.20568582 0.099662274
-0.17018934 0.17886701 0.09387099
-0.08128979 0.07194005 0.05606685
0.27183896 -0.17833379 -0.110266976
-0.11026748 0.10060493 0.04396131
0.0020504824 -0.1884661 -0.017014988
-0.19366728 0.34233776 0.050145146
-0.016948897 0.11304981 0.004954411
-0.102111705 0.29292625 0.06730097
-0.13197388 0.28024197 0.0825079
0.086859025 -0.028530955 -0.079263344
0.14932689 -0.19829851 0.010447374
0.16285896 -0.27560422 -0.012645709
0.16763379 -0.09501235 -0.10860861
-0.040537573 0.18463624 0.05515255
0.12787144 -0.16030551 -0.259714
-0.008010336 -0.07573488 -0.015693484
-0.0032492734 -0.024768164 -0.016757198
-0.048155252 -0.11467093 -0.05314491
0.18315467 -0.08250961 -0.06697276
0.11214145 -0.14745551 0.028165407
-0.095682256 0.07723564 0.05821492
-0.018118255 0.14342287 0.0020808852
-0.1420717 0.3456441 0.03250555
0.209942 -0.205951 -0.019196287
-0.22776736 0.36020845 0.0063907877
-0.14791842 0.28058085 0.08322891
-0.09710971 0.101456344 0.030953854
-0.11058367 0.27569783 0.058431376
-0.19716613 0.35801357 0.0064350935
-0.036013607 0.22211891 -0.014632426
0.057527047 -0.21740544 -0.0042508957
0.30073196 -0.20517206 -0.13246152
0.088368244 -0.09168503 -0.049635187
-0.025418596 -0.14999993 -0.03354683
-0.12978181 0.3365525 0.046052236
0.09661227 -0.280654 -0.033207357
0.16190116 -0.26550242 0.009022298
0.17527448 -0.060999803 -0.16007647
-0.06099919 0.18186134 0.052987114
0.15074097 -0.2518383 -0.022706429
0.21497373 -0.16513963 -0.054722976
-0.22966047 0.24168834 0.078851566
-0.11498929 0.020352134 -0.008444259
-0.15711322 0.114882715 0.027346542
-0.037797473 -0.21511893 -0.09231933
0.066998705 0.042303342 -0.039278656
0.09585708 -0.2902043 -0.02474817
-0.15509896 0.20700717 0.06962255
-0.039458863 -0.06536907 -0.066940404
0.043592677 -0.046068728 0.019741457
-0.19574289 0.27942982 0.11307016
-0.08271105 0.30023128 0.039658297
0.017560374 0.07112112 -0.0020319482
0.048041333 -0.082150705 -0.014814766
-0.022971727 0.07784296 0.0014575513
-0.22039783 0.31818768 0.09619533
0.10545661 -0.28347725 0.0054003913
-0.13383792 0.25854483 0.09248507
0.2183375 -0.12774992 -0.008825828
-0.036206175 -0.01083865 -0.015834918
-0.15989633 0.06495072 0.009819232
-0.09806986 0.1898462 0.09042721
0.19798473 -0.2512709 -0.020359937
-0.17793797 0.27626634 0.09098325
0.08016019 -0.30787122 -0.046498984
0.17719658 -0.20128316 0.014250261
-0.040049013 0.06609451 0.010557945
-0.24182889 0.2559446 0.09808426
0.037033793 -0.24328318 -0.02587917
-0.13677216 0.23412298 0.11473261
0.17189804 -0.078683004 -0.068569586
0.03478571 -0.17344722 -0.0043430035
0.048966438 -0.3200562 -0.07414082
0.03206198 0.028246105 0.0005747206
-0.08574779 0.31313902 0.0057556788
0.17331989 -0.15919986 0.012030289
-0.008866857 -0.19004934 -0.21087614
-0.28597128 0.29925266 0.03538935
0.118972026 -0.096967556 -0.02280105
0.20941488 -0.1991166 -0.023134483
-0.23906766 0.32766291 0.045859892
-0.17256017 0.16524053 0.067001864
-0.20379445 0.21804833 0.10090865
0.2305828 -0.27077913 -0.02065753
0.17568636 -0.25192818 0.016587026
-0.2250772 0.14574224 -0.014165654
0.0115362555 -0.16464584 -0.12750836
-0.14145654 0.28364733 0.049482305
-0.18605576 0.3515053 0.07157959
-0.12004001 0.15357076 0.04846034
-0.11101137 0.18245015 0.059822977
0.073006496 -0.08474069 -0.0009361816
0.049816206 -0.2448302 -0.024246214
0.036447406 0.004144565 0.012392774
-0.09150326 0.25904796 0.04360501
0.08174781 -0.0003556091 -0.06048015
0.24627839 -0.119813755 -0.0805858
0.20304555 -0.14552213 -0.012532883
-0.032674093 0.16783203 0.017540695
0.18041562 -0.11691279 -0.009464658
-0.014503805 0.16280854 0.004392167
0.035579793 -0.077153124 -0.021956138
-0.17349847 0.22689657 0.065658845
-0.2331055 0.29678953 0.07999526
0.12385067 -0.07657388 -0.05341698
0.19767523 -0.2376086 -0.021861942
-0.028595936 0.1408069 -0.03205185
0.1412998 -0.055638444 -0.16735718
-0.072597064 0.27159977 0.041984722
-0.163365 0.13667034 0.042084534
0.112466544 -0.34426156 -0.0802795
-0.1485649 0.14357409 0.059734873
-0.051638402 0.02535925 0.02021789
-0.0964806 0.30597073 0.048966367
0.20808241 -0.19975321 -0.0041216942
0.08099272 -0.18436702 0.013711828
0.12675703 -0.15568043 0.00081134686
0.11191259 -0.213519 0.02686472
-0.10292249 0.019270638 -0.012326583
-0.1817224 0.33168268 0.10566277
0.24885826 -0.24013862 -0.043725558
0.051400177 -0.24339741 0.004581463
-0.005287298 0.09275343 0.013586657
-0.19939563 0.20928892 0.048761137
-0.13662837 0.014496488 -0.044524852
0.18804805 -0.19779123 0.021077685
-0.08681761 0.065134995 0.03191013
0.19434719 -0.21382271 -0.025923925
-0.10942809 0.18742324 0.09053624
0.13893987 -0.22072767 0.016952261
-0.010009395 -0.11524233 -0.047689468
0.15949452 -0.14208737 -0.0030662697
0.004246632 -0.0255841 0.033973362
0.05817061 -0.24392655 -0.018625299
-0.18311375 0.13690358 0.031397782
-0.10053405 0.31807697 0.0694934
-0.13354547 0.11525944 0.019550422
-0.03009138 0.16052216 0.03674868
0.13526623 -0.33633736 -0.0127979675
0.22123112 -0.26432997 -0.02671527
0.13915357 -0.09804747 -0.032425486
-0.11119697 0.08100068 0.023785172
-0.10792641 0.25974512 0.08959259
0.041293196 -0.27050424 -0.045811202
-0.20124073 0.2904706 0.11987169
-0.04516449 0.19069405 0.06397826
0.19814806 -0.08519501 -0.1507382
-0.06685299 0.14925538 0.027762622
0.07818122 -0.0044573057 -0.035590034
0.1615982 -0.17087477 0.01769014
0.22983426 -0.15521583 -0.06520044
0.025648925 -0.17722169 -0.092803575
0.23833086 -0.2874788 -0.0019206338
0.07605457 -0.248905 -0.019363103
0.08532351 -0.16963664 -0.037255872
-0.039820038 0.15250966 0.058721386
-0.08525275 0.05202347 0.008521485
0.10624157 -0.21739751 -0.013046401
-0.21179543 0.20059647 0.09564779
-0.03551341 0.25959674 0.023465263
-0.0074184597 -0.055662487 0.0073957406
0.24418887 -0.23480415 -0.022308584
-0.16892447 0.20878187 0.09266419
-0.0041765654 -0.04438008 0.015648864
-0.24511491 0.22433569 -0.022306198
-0.1614965 0.33705035 0.099546745
0.15929507 -0.30599657 0.0016952099
-0.108677946 0.15895638 0.07929952
-0.04671663 0.006054507 -0.010964326
-0.26770934 0.29057038 0.06448763
0.0711412 -0.01114623 -0.022238312
0.13701594 -0.2806946 -0.01123624
0.0609034 0.042215683 -0.10601247
0.010260227 0.05242372 0.029792788
0.18532825 -0.09513304 -0.020194715
0.056440294 -0.145089 -0.027221184
-0.17962502 0.37200266 0.07130961
-0.050204765 0.07422619 0.036883283
0.25625026 -0.18993634 -0.1063306
-0.12284044 0.14540961 0.053318474
-0.16554855 0.3020252 0.08398473
-0.21190092 0.29687333 0.1311931
-0.13786876 0.34872493 0.042354632
0.21040884 -0.23873791 -0.04177864
-0.20468295 0.28859696 0.097927526
-0.019183718 0.03313783 0.008686234
0.13590924 -0.30835876 -0.019646473
0.07267467 -0.20530953 0.015019236
0.17358075 -0.19771126 -0.008886095
-0.15437384 0.3852528 0.03327916
0.2016908 -0.16904725 0.0067430018
0.17642629 -0.09503714 -0.07467743
-0.2093177 0.25456876 0.085405804
0.019032702 -0.19030835 -0.07994224
0.23590487 -0.14329 -0.07241671
-0.08582918 0.13290344 0.049749356
0.10229643 -0.11587897 -0.0030033106
0.097945236 0.009663055 -0.03848676
-0.05832876 -0.0006554296 0.0035475586
0.247057 -0.24878933 -0.034827873
-0.12171538 0.17777038 0.07135632
-0.061212353 -0.009621821 0.013905914
-0.09681965 0.2498878 0.060264193
0.010100474 0.02631112 0.0440372
-0.19574754 0.16209668 0.04416725
0.03119324 -0.024857597 0.02007889
-0.13216065 0.26724502 0.06728797
0.0729758 -0.017947199 0.011437007
-0.0591824 -0.107436 -0.098559454
-0.19227494 0.12700602 0.0071957656
0.19321208 -0.046224333 -0.16950876
-0.19374536 0.21765307 0.057612572
-0.075611815 -0.051583115 -0.05415853
0.009632015 -0.0025186962 0.01482176
0.020700803 -0.0067753172 0.025861707
-0.26447982 0.25596616 -0.008614379
-0.16358936 0.23635806 0.058858756
0.06499468 -0.17079508 0.011506324
0.017798046 -0.17149611 -0.12219194
-0.20673135 0.1893871 0.06827613
-0.00085628347 -0.094102554 -0.017015953
-0.1651727 0.108004175 -0.0042213355
-0.18025891 0.24896401 0.084555894
0.04352009 -0.20788696 -0.031189792
0.093044125 -0.049867604 -0.007974843
-0.022489268 0.15565073 0.03597869
-0.009651896 -0.06610852 -0.020078441
-0.056897532 -0.09419299 -0.014078543
0.20467435 -0.26564103 -0.061381247
-0.02459414 -0.029311711 0.0061014174
-0.15911508 0.24224263 0.10833884
-0.13135308 0.1101682 0.038190927
0.27056867 -0.12280089 -0.1791692
0.1787515 -0.27001736 0.010548616
-0.22726266 0.32274812 0.018888222
-0.11742653 0.1494841 0.06723963
0.08336784 -0.3273894 -0.12187472
0.13453932 -0.167979 -0.00057362794
0.10116362 -0.17800365 -0.0012115476
0.12841806 -0.323209 -0.006404133
0.2308316 -0.1449399 -0.050660346
-0.23115669 0.254798 0.091846645
0.19301035 -0.11952063 -0.030926509
-0.071075015 0.01577702 0.0003061073
-0.10837288 0.2941529 0.09075421
0.026000585 -0.24340439 -0.068554685
-0.079502545 0.0457236 0.030937772
-0.023330618 -0.17935394 -0.09615023
-0.08028599 0.14776106 0.06250163
0.02142272 -0.32646513 -0.080478534
-0.003999992 0.1833039 -0.0041011567
-0.23177586 0.27721095 0.10852957
0.19812016 -0.07988825 -0.020712225
-0.07173874 0.12759276 0.062045477
0.12066915 -0.16055785 0.020595152
0.23733296 -0.08697283 -0.052972503
0.22475499 -0.089790225 -0.061949212
-0.2588765 0.25308287 0.03644319
0.1455303 -0.33580136 -0.03885068
-0.03224436 0.17877506 0.016565993
0.07400552 -0.06428316 -0.0106842
0.030068975 0.059821706 0.009176762
0.056180947 -0.20447809 0.02618586
0.2699738 -0.22958349 -0.031432524
-0.16863896 0.23817109 0.104184434
0.0047833617 -0.06776858 0.01281443
0.015327824 -0.063497774 0.01086388
-0.27068394 0.3257669 -0.028727513
-0.10332694 0.006133294 -0.05148902
-0.043871667 -0.009185234 -0.010213845
-0.24590024 0.28149667 0.074237585
0.11270177 -0.1121142 -0.0051063555
0.03560791 0.07334792 -0.059848633
0.022550546 -0.3346832 -0.108697206
0.18164212 -0.22030175 -0.014124542
-0.09429869 -0.055380996 -0.07733771
-0.15821788 0.26968604 0.08205892
-0.17572683 0.3414335 0.09128408
-0.14977287 0.3454984 0.09739691
0.123783246 -0.044427544 -0.0031255274
0.019836312 0.11923644 -0.015986113
-0.07317381 0.21540801 0.06808775
0.06322662 -0.082922004 -0.0014425613
-0.11064152 0.047128864 -0.021175826
0.074263155 -0.23121189 0.0051897783
0.20857334 -0.1032901 -0.09684829
-0.08425143 0.056544274 0.0401498
-0.20031102 0.31165642 0.07883999
0.05210358 -0.15597685 -0.013306514
0.24241716 -0.18527518 -0.09232976
0.013711527 0.06342277 0.033783965
0.078640334 0.045797348 -0.026158186
0.028438134 -0.12917481 -0.03477234
0.22905831 -0.21037503 -0.04767534
0.09673975 -0.3139708 -0.030627633
0.0304971 0.03779987 0.013301588
0.0069214627 -0.22505759 -0.045725632
0.20368992 -0.11852936 -0.11535199
0.07968848 -0.06600995 -0.0061845775
-0.06762162 0.18064839 0.078432925
0.124328986 -0.041828938 -0.0640635
-0.053884298 0.20221877 0.014245803
-0.017916515 -0.21429981 -0.15740953
0.28424558 -0.15371928 -0.112926126
-0.09638667 0.084401 0.04002508
-0.1884647 0.23046933 0.08401103
0.18879987 -0.18580624 0.019308368
-0.057306945 0.14101832 0.048813898
0.04626092 -0.20744635 -0.006635047
-0.018695835 -0.1942859 -0.057311594
-0.018974338 -0.22187988 -0.10978901
-0.16865619 0.20240566 0.06471359
-0.12397728 -0.0061346996 -0.006453868
0.05882273 -0.32731578 -0.065722875
-0.009297992 -0.24018717 -0.07115909
-0.0063393014 -0.26142794 -0.09300655
0.057992637 -0.0044073667 0.011775811
0.01388095 0.039302997 0.03611047
-0.19934036 0.3397393 0.07013971
-0.021585837 -0.08761175 -0.008050688
0.038480256 0.052613184 -0.023694064
-0.01873448 -0.18295209 -0.106665954
0.2734865 -0.12890993 -0.15384254
-0.17962277 0.25603557 0.123902954
-0.09455572 0.26521716 0.063804395
0.20153937 -0.15403904 0.009241855
-0.04547815 -0.09412258 -0.04740666
0.23709048 -0.15145697 -0.05172155
-0.061518174 0.047271583 0.01853653
0.155777 -0.04792197 -0.123564065
-0.024041936 0.025975348 0.01490294
-0.11386854 0.32613027 0.027733093
-0.05664679 -0.03623334 -0.009464449
0.08931554 -0.081471525 -0.01349589
-0.008901169 0.14541012 0.011347159
-0.20631495 0.38354036 -0.0067859297
-0.105709635 0.114892736 0.054837834
0.26217285 -0.18891534 -0.08503023
0.23003136 -0.1168429 -0.038680438
0.1375641 -0.057643622 -0.03341072
-0.21709155 0.22255912 0.07692441
-0.1283329 0.30814555 0.07161314
-0.030874733 -0.123253405 -0.09930787
0.0028145427 0.10997536 0.03596614
0.18235947 -0.25530186 -0.02246789
0.03139579 -0.1307938 -0.020770967
0.21531108 -0.088541046 -0.05923067
0.19383597 -0.24632666 0.0026433354
-0.031559806 -0.24208364 -0.07523143
0.10721038 -0.1834748 0.017582566
-0.20905322 0.16417697 0.00855699
-0.048476234 -0.07368905 -0.01157953
-0.15778576 0.12805851 0.055320203
-0.23076262 0.208925 0.051623896
0.25956824 -0.2130083 -0.04045294
-0.11168693 -0.0055970103 -0.011606791
0.12387665 -0.101008125 -0.06916184
0.19178507 -0.20600566 -0.014473666
-0.018915 -0.21013257 -0.029096495
-0.14084968 0.35347423 0.013455254
0.21379308 -0.08381567 -0.05255783
-0.11494758 0.08858125 0.06271551
-0.092479646 0.031075599 0.027126124
0.021060092 -0.14753047 -0.038840163
-0.21282911 0.23344067 0.105545364
0.26828963 -0.18516049 -0.075061746
0.035330642 0.031041987 -0.016852947
-0.0127761215 0.13859497 0.014712281
0.07412637 -0.17111258 -0.021154283
-0.22095016 0.30049324 0.092646256
-0.073176354 0.15369636 0.055289883
0.054374274 -0.29472506 -0.04939431
0.17078313 -0.19091804 0.016407777
-0.0636232 0.2584763 0.01118029
-0.07055845 0.21876027 0.048385072
0.045156755 -0.3240711 -0.11069638
0.07096504 -0.13005222 -0.030631384
-0.064584635 -0.026614297 -0.026198188
0.05577016 0.020684628 0.0017799478
-0.16523209 0.33497515 0.09297217
0.14752808 -0.18901242 0.032060277
0.016983883 -0.13084325 -0.033724327
-0.07980778 0.26557532 -0.020759057
0.058529735 0.0654642 -0.031458013
0.12404184 -0.16262174 0.01357968
-0.03365288 0.1389162 0.034165703
-0.232631 0.33541697 0.035989445
-0.05909363 0.19503066 0.0564369
0.12018049 -0.22032934 0.0347505
0.23821428 -0.14389743 -0.056665696
0.037489984 -0.05478861 -0.007763467
0.16291603 -0.28142965 -0.03696582
0.02053563 0.05591321 0.021270603
-0.13869515 0.3486638 0.05329548
0.008657729 -0.20741186 -0.01911975
-0.25545496 0.27811906 0.009266404
0.010390229 -0.28976917 -0.10974827
0.013322993 -0.17094412 -0.22952081
0.014633305 -0.16050105 -0.05410496
-0.22393562 0.32167426 0.07899983
-0.14804237 0.13521938 0.04382162
-0.20288795 0.1850523 0.051342335
0.19407614 -0.1091779 0.013934652
-0.06011721 0.08273347 0.04684685
0.15371345 -0.087759994 -0.061437767
-0.06648679 0.20219612 0.05638699
0.116529465 -0.10820343 -0.026222643
-0.16139042 0.35411787 0.054126963
0.036652785 -0.065674566 0.0044769216
0.07801395 -0.27619687 -0.03010997
-0.14807428 0.21305001 0.051826645
-0.12680502 0.2959993 0.11688528
0.23673674 -0.12245915 -0.07343083
0.093073435 -0.013699567 -0.014187229
0.05052453 -0.18839046 -0.00217953
-0.23152308 0.32223886 0.0054284413
0.18716727 -0.15099543 0.02003793
-0.10674816 0.020293126 -0.062193718
-0.05991557 0.20655675 -0.060104433
0.14545044 -0.24548231 -0.22622184
0.24939458 -0.19915083 -0.03390173
0.14072075 -0.32913578 -0.03062638
-0.13810381 0.32963738 0.070794605
0.17572898 -0.19432369 -0.009742203
-0.0904975 0.25007752 0.040577333
-0.07532674 -0.005051173 -0.05640283
-0.044302024 0.18988623 0.02372728
-0.15344724 0.2552337 0.09049514
0.10923007 -0.23518726 -0.0017123874
0.16030267 -0.20811528 0.016362777
0.08130673 -0.24559012 0.02046035
0.12161217 -0.34908676 -0.0832563
-0.08118809 0.0860554 0.037625317
0.20712928 -0.2993546 -0.028639473
0.026755443 -0.20433743 -0.07471908
0.047155548 0.02149776 -0.057001397
-0.05770925 -0.010991233 0.023211416
0.23299064 -0.08821288 -0.21669993
-0.22147857 0.31348702 0.047502622
-0.16324674 0.17918806 0.066102855
0.028263805 -0.13274789 -0.012714582
0.12582475 -0.21174121 0.022574224
0.08186946 -0.2795383 -0.027549691
-0.00060258614 0.017141225 -0.004211352
-0.24799629 0.27761784 0.085298404
0.06439768 -0.01059686 0.0019379718
-0.00022557058 -0.10409339 -0.046974804
-0.16469307 0.23031795 0.09292467
-0.079790264 0.2667509 0.032851197
-0.24272127 0.21301174 0.016395463
-0.068052 0.030452417 0.020685706
0.19484308 -0.10355745 -0.2193426
-0.1735616 0.33203456 0.10758396
0.22808519 -0.19244693 -0.017021073
-0.19855423 0.1787295 0.06911843
0.0036382615 0.1647694 -0.024361307
0.050297204 -0.064886495 -0.01876008
0.21548109 -0.1312682 -0.04545258
0.11463679 -0.252144 -0.015805507
-0.041843913 -0.20670027 -0.102566384
-0.0017711207 0.08754305 -0.0010021903
-0.21009833 0.2195678 0.073601425
-0.14160533 0.15248904 0.038677614
0.28611967 -0.14726917 -0.17410673
-0.08637517 0.08520398 0.026483625
-0.09946024 0.31896195 0.06788443
-0.05453019 -0.03946958 -0.02285196
-0.0026649435 -0.016832953 0.0069440533
0.03380708 0.113317296 -0.007462089
0.1936649 -0.2614829 -0.029170124
0.1962285 -0.08531468 -0.12611549
-0.035204448 0.087697335 0.015379336
0.02282072 -0.2778405 -0.09993647
0.24757788 -0.24137151 -0.02383355
-0.23370193 0.29615873 0.09291724
-0.02430896 -0.083007134 -0.031015469
0.2699987 -0.24948682 -0.07148665
-0.14557415 0.37638006 0.08088
-0.17448649 0.27528387 0.1299131
-0.06309792 0.08599826 0.052048422
0.19251026 -0.3030104 -0.029083189
-0.02695237 0.068995565 0.024469052
0.08668384 -0.17709295 0.0032099595
0.07300993 -0.34115005 -0.12148652
0.19818322 -0.2107616 0.009086437
-0.15328477 0.31141755 0.092932984
-0.10209998 0.30276546 0.052768253
-0.14030577 0.23160756 0.0574904
-0.2548827 0.32014877 0.03676213
-0.18673223 0.36084846 0.05138369
0.20074053 -0.13353103 -0.039903667
0.05776015 -0.3029502 -0.062016346
0.14072432 -0.26108348 0.003991991
-0.0025014644 -0.28599298 -0.10108521
-0.16011468 0.36059573 0.015743926
-0.06522548 0.13947685 0.040007103
-0.068428956 0.2808904 -0.0058524623
0.084715955 -0.03836714 -0.0056998855
0.1482544 -0.0724723 -0.06675523
-0.034257375 -0.07486303 -0.06252468
0.03849695 0.023716476 0.02755271
-0.1488845 0.26221895 0.07435541
0.2692538 -0.1355254 -0.0764984
0.010990833 -0.20980354 -0.037362736
-0.15840709 0.15299253 0.03923565
0.01286275 -0.28263983 -0.12119806
0.06526323 -0.09231106 0.0032472124
0.27520332 -0.22340369 -0.05471442
-0.08519186 0.17406026 0.060482964
-0.13465646 0.33878145 0.07654155
0.014051728 -0.1646915 -0.08994586
-0.00047409724 0.16256832 -0.046818025
0.14064263 -0.18762128 0.0218968
-0.17344849 0.36296588 0.0686015
-0.2056938 0.2926757 0.09582043
0.06683107 -0.14983232 -0.007727857
0.18552947 -0.24910848 0.010390501
-0.06865043 0.03292444 0.037537027
0.1972793 -0.060156327 -0.07848653
0.17883113 -0.075732484 -0.13068937
-0.26246995 0.2777316 0.030343557
-0.12315442 0.3155556 0.10127968
0.21884578 -0.10821868 -0.13226424
0.15500228 -0.23357844 -0.008753547
-0.26322946 0.30785015 0.08249926
0.023979703 -0.23827371 -0.013507229
0.20219825 -0.098341376 -0.057604227
-0.0031013787 -0.12641943 -0.020612646
-0.29288995 0.266608 0.070065334
-0.034015663 0.04012578 0.053612124
-0.10408342 0.20724276 0.06536604
-0.14300242 0.115311384 0.03683585
-0.057764087 -0.058681495 -0.03053913
0.17033659 -0.2666035 0.014228908
0.025781306 -0.038032982 -0.013335414
-0.14332418 0.18893711 0.07007912
-0.1376631 0.32269907 0.08148602
0.09279022 -0.27011204 -0.01726959
-0.0002815907 0.11927951 0.004048578
-0.07427052 0.08399731 0.018111551
0.13079919 -0.10960661 -0.03654805
0.025704494 -0.039515354 0.030656135
-0.05641004 -0.022431508 -0.0021229112
0.18594204 -0.34493124 -0.03768265
0.05361465 0.0705388 -0.01611584
-0.18725708 0.19929005 0.09285322
-0.116820835 0.251483 0.07568936
-0.15034837 0.27633232 0.11467313
-0.09148899 0.17537008 0.057895735
0.031108636 -0.13437368 -0.019499976
-0.01612795 -0.09437531 -0.0312392
-0.12917432 0.19108762 0.059174713
0.21831359 -0.14279406 -0.19106416
0.11523291 -0.15981798 0.04206258
-0.08712765 -0.012350055 -0.022280373
0.18718918 -0.0868324 -0.017094174
0.08360616 -0.3098411 -0.079345964
-0.07010029 0.11950077 0.051327854
-0.18358463 0.3618859 0.041853167
-0.17387314 0.36286828 0.05982978
-0.07795058 -0.040108867 -0.041492287
0.06863082 -0.2623292 -0.036065165
0.102385536 -0.11213268 -0.049526848
0.066673696 -0.051724903 0.008785605
-0.066157825 0.039887644 0.037243657
0.25624672 -0.22771119 -0.050631255
-0.05431752 -0.043690827 -0.028513975
-0.13399749 0.02786088 0.030623484
0.009676216 0.09043225 0.0018634293
0.0087560555 -0.18713504 -0.09218571
0.16418079 -0.28964284 0.010516605
0.20538452 -0.122869976 -0.056369875
-0.07737779 0.119813845 0.02945013
-0.041173443 0.113756016 0.044481557
0.058119085 -0.20002346 -0.004671032
0.21847409 -0.06606064 -0.068879485
0.027211128 -0.16498171 -0.22049457
-0.14100884 0.38661587 0.033475842
0.15038571 -0.27544376 -0.01858769
0.14788182 -0.20083115 0.01262997
0.07082135 -0.27624616 -0.0245876
-0.19960324 0.26379663 0.11817492
0.15252669 -0.23604472 -0.23688297
0.11984684 -0.33098716 -0.04014978
0.0013076271 -0.17474821 -0.0765801
-0.11012544 0.32431468 0.0005114451
-0.08819334 0.051948816 0.002429617
0.096486844 -0.2614938 -0.029319048
0.06291718 0.0528405 -0.05378199
0.20545328 -0.1760221 0.000265608
0.12890476 -0.29559273 -0.27597085
-0.2298114 0.29182467 0.11949585
0.03757666 -0.19613153 -0.0041839024
-0.29949507 0.28207552 0.031581122
0.04754354 -0.21914923 0.034354735
0.119131066 -0.2773332 -0.008411334
0.06207755 0.0010866766 -0.02148503
0.13591339 -0.2938147 -0.014845892
-0.13379206 0.23177534 0.05907126
0.10673791 -0.18272395 0.015948156
0.14880028 -0.29438606 -0.029798824
0.053839546 -0.27623656 -0.038056985
-0.18242988 0.14938258 0.02411061
-0.15439697 0.19361988 0.05979738
-0.12512991 0.12886098 0.043940872
-0.037436433 0.062369216 0.053151093
0.22251332 -0.2406367 -0.20093319
0.034757234 -0.07913552 0.01797785
0.21702312 -0.13594803 -0.023455072
-0.1384857 0.16460264 0.08801087
-0.17745198 0.14944503 0.011852309
0.09967214 -0.30336142 -0.005812294
0.15532376 -0.2537139 -0.013130211
-0.29189622 0.26752493 0.060255095
0.07375871 -0.1337072 -0.046338134
0.12445518 -0.30423996 0.0056996606
0.24176611 -0.18543181 -0.064905845
-0.09029605 0.153927 0.04251451
0.09265595 -0.15510854 -0.020867959
-0.016169077 0.017915746 0.05101929
-0.18097383 0.15069962 0.053756855
0.1226535 -0.18377237 0.033013996
-0.031848744 -0.15114398 -0.10050435
0.12863696 -0.04511799 -0.08584676
-0.07170826 0.21262558 0.04913736
-0.0049406365 -0.1553292 -0.06947693
0.15914501 -0.22538821 0.0012736963
-0.098514594 0.15958445 0.08389695
-0.022872966 -0.24863149 -0.1203765
0.14641128 -0.18627274 -0.002349223
0.17966257 -0.27442726 0.00826805
-0.043144718 -0.07573519 -0.030941159
0.06984914 -0.33134833 -0.069838665
-0.037279338 0.03668818 0.043345254
-0.21265881 0.34733787 0.011879455
0.02389842 -0.11940376 -0.04479158
0.007380903 -0.22600268 -0.029700525
0.025374675 -0.18169725 -0.07132427
-0.029096847 -0.013153086 -0.00399977
-0.017863639 -0.09442088 -0.087837644
0.109186925 -0.0025661096 -0.090490125
0.3064502 -0.18338855 -0.11381243
0.04703576 -0.2974299 -0.061131187
0.14535876 -0.3084508 -0.011428202
0.27052194 -0.2101805 -0.17371796
-0.057083562 -0.073112406 -0.060335647
0.2364516 -0.25730345 0.0068833414
0.023279577 0.03781321 -0.010526701
0.023404613 -0.002096502 -0.013938109
0.023610666 0.09663844 -0.009721494
0.13706438 -0.29720324 -0.011776013
-0.077455804 -0.01097973 -0.016343828
0.083573714 -0.10912958 -0.033962466
-0.13173938 0.28867793 0.08154218
-0.24799617 0.31860036 -0.026770871
-0.124028005 0.3098343 0.08331512
0.10859858 -0.29971737 -0.023751473
-0.15189317 0.0926111 -0.008631662
0.1093333 -0.20391607 0.029118055
-0.16245188 0.39161152 0.024093494
-0.12601708 0.3387549 0.041977797
-0.21777129 0.23284493 0.07083647
-0.16670239 0.21170051 0.07940574
0.06689038 -0.16942842 -0.015006331
-0.04706074 0.1630232 0.04102453
0.14874786 -0.2947503 -0.025831133
0.014876217 -0.32086858 -0.11702517
-0.03946731 0.007977006 0.009408596
0.13351773 -0.24773963 0.024964394
-0.025762256 0.08590744 0.036278293
-0.06760645 0.07341045 0.040261377
-0.02400279 -0.23706217 -0.08950734
-0.25099063 0.2564115 0.10660477
-0.039406706 0.03169474 0.051941805
-0.03233705 0.0037935139 -0.012927573
-0.2288556 0.24514602 0.06941686
0.18550149 -0.30826005 -0.023547783
-0.16800258 0.33637166 0.041115757
-0.09541354 0.12728909 0.03489966
0.18307874 -0.110350326 -0.0025034396
0.08349296 0.015078901 -0.04437917
-0.061240643 0.24681607 0.0015129303
-0.22342949 0.23777474 0.04882233
0.045199342 -0.07418215 0.014588906
-0.037922043 0.123803 0.035330858
-0.00627244 -0.03008693 0.032281227
0.14290497 -0.105538025 -0.062995024
0.096360765 -0.02497431 -0.040792685
-0.06392771 -0.06791186 -0.07110879
-0.11123539 0.040582616 -0.048085123
0.11307223 -0.36137655 -0.032798514
0.09788214 -0.13476662 -0.0048419586
-0.16488536 0.12072946 0.018907404
0.022476645 -0.018869877 0.015677895
0.14921401 -0.29822275 -0.0119409915
0.046633583 0.060055546 -0.025662154
-0.13152705 0.21383698 0.05824566
-0.007714545 0.1890412 -0.040272173
-0.09051258 0.10061886 0.053937685
0.012834768 0.042968225 0.022961061
-0.00077726366 -0.17733237 -0.12936985
0.08146033 -0.34518886 -0.077071026
0.04720772 -0.026194176 0.014875294
-0.0047230995 -0.041794777 0.03159724
0.08590224 -0.31798118 -0.060469594
0.04121024 -0.16290037 -0.07537941
0.21767156 -0.19256765 -0.036224734
-0.044765536 0.02125502 -0.0074844
-0.14887029 0.23142941 0.11037752
0.19485839 -0.20147833 0.0268577
0.2370388 -0.13962495 -0.03801578
0.27575547 -0.2563411 -0.05570767
-0.03235529 0.17939444 -0.0029572903
-0.081531286 0.17255603 0.071080014
-0.044995602 0.074382715 0.057686247
0.039648294 -0.2163567 -0.03025283
-0.21015848 0.29349545 0.09751108
-0.1364358 0.059006594 0.025100037
-0.066732004 0.23220634 0.017778356
0.14717379 -0.16285633 0.020992113
-0.045016695 0.1735248 0.018974375
-0.2181248 0.29282275 0.08057507
-0.0044989064 0.14218453 0.004029453
0.06264085 -0.103005156 -0.032243606
0.22252074 -0.118274644 -0.013495901
0.08374937 -0.18862505 0.01567522
-0.2584017 0.28959045 0.07220767
0.04803082 0.04255153 0.013546446
0.17821866 -0.1700872 0.024464127
0.095840745 -0.13958316 -0.00066004053
-0.17119448 0.13565183 0.0026656082
0.05861546 -0.16491085 -0.048346456
0.08920822 -0.049239133 -0.04707173
-0.26674652 0.27781424 0.07849174
-0.017360572 -0.07288069 -0.027472718
0.14022446 -0.24578114 -0.016095132
0.03813231 -0.29736987 -0.10410825
-0.14000818 0.39022407 0.031017764
0.041769784 -0.25389916 -0.049858842
-0.038448337 0.11425724 0.069821395
0.2092411 -0.04904684 -0.091840565
0.14544351 -0.092022136 -0.100190215
-0.11626534 0.2516975 0.05337493
-0.19941156 0.27666515 0.116834
0.093705766 0.0057903943 -0.03059457
-0.1545819 0.2660948 0.08258137
-0.11218252 0.2113006 0.082979776
-0.035667963 0.19013825 0.050177608
0.066004016 -0.04015145 -0.0027473783
0.11727689 -0.084857635 -0.037370414
-0.04959686 0.22405665 0.052076686
0.08050241 -0.07705611 0.006239143
-0.09183086 0.27492103 0.07093104
0.0059285373 -0.005480914 0.031406198
-0.27240312 0.28576198 0.08349778
-0.04903064 0.17495897 0.021273287
0.060218886 -0.14360905 -0.033543892
-0.23657292 0.20891117 0.045079153
-0.15942647 0.33807915 0.07323939
-0.18649895 0.3520892 0.10402298
0.21829715 -0.1653069 -0.019509973
0.04813548 -0.05097974 -0.018320175
0.07673221 0.02387744 -0.04268822
0.096304916 -0.21440779 0.012505642
-0.14554672 0.12305564 0.057339944
-0.12863992 0.052794963 -0.009711323
0.052835237 -0.29081565 -0.06038763
0.2125716 -0.11830344 -0.019325977
-0.016248452 0.10889524 0.056983557
-0.13235217 0.09826219 0.02729202
0.1809031 -0.095610656 -0.033904884
-0.024883376 0.017648911 0.0054180655
0.19124216 -0.23586653 -0.009466495
-0.026147824 -0.16212384 -0.10736157
0.12805772 -0.2847333 -0.04484951
0.20714065 -0.15766206 -0.043927174
0.2043401 -0.14685091 -0.015596696
-0.21654516 0.2085309 0.048892207
0.07651072 -0.0759298 -0.01376789
0.0359592 -0.22321473 0.01409775
-0.110909596 0.14479014 0.08523796
-0.009642637 -0.15678467 -0.08119093
0.07776561 -0.10969698 0.00069962157
-0.010814251 -0.03586879 0.03854726
0.08756559 -0.090221494 -0.0434088
-0.1920266 0.14009726 0.032247823
-0.054508787 -0.022350155 0.012906957
0.08795087 -0.02390962 -0.022690417
0.029430207 -0.024142489 0.017439144
-0.22785589 0.30243528 0.08699038
-0.106089994 0.26466796 0.06920936
0.10493156 -0.031505976 -0.009592356
0.10679177 -0.12214059 -0.037333902
-0.14449564 0.08768846 0.048611056
-0.2666983 0.23588122 0.06780895
0.2846362 -0.20881307 -0.0750667
0.13074927 -0.3469411 -0.043295845
-0.0024760617 0.040643547 0.022762625
-0.13857268 0.37767643 -0.0029289909
-0.21240026 0.3113098 0.1142583
-0.13115786 0.07350098 0.03184373
0.13623565 -0.16299799 0.009411937
0.17529984 -0.09722299 -0.102897204
-0.122554496 0.045819547 0.024668591
-0.09537688 0.26435196 0.041566156
0.011129088 -0.2614549 -0.17237295
-0.1285315 0.062324297 0.046741154
0.045018222 -0.022765677 -0.0029053797
-0.25730476 0.31664312 0.03283944
-0.094359584 0.23736154 0.029132878
0.13239744 -0.24142778 0.011870024
-0.23621497 0.2296226 0.047865216
-0.13790052 0.23169473 0.08859456
0.010895848 0.038878717 0.023275217
0.11378472 -0.18537235 0.035231274
0.016927402 0.08408059 0.011496257
0.1572841 -0.09247661 -0.1340161
-0.02889501 0.10917322 0.018895559
0.21945435 -0.068556584 -0.17234328
-0.13800415 0.22820242 0.08459735
0.0745081 -0.04824621 -0.00735888
0.23907404 -0.1403514 -0.042281218
0.022862066 -0.17372854 -0.037261955
0.23833969 -0.234465 0.0047267256
-0.1656271 0.24559009 0.07543166
0.10804424 -0.13244662 -0.009996793
0.025314832 -0.14854982 -0.058033083
0.27843192 -0.24055079 -0.04242768
0.15597254 -0.17950614 -0.12586932
-0.1853652 0.3101897 0.098302566
0.09995628 -0.09267098 -0.044995062
-0.034084845 0.15016417 0.057611927
-0.0069331024 0.16198437 0.051461387
0.079104 -0.11101724 -0.010518608
0.2619103 -0.22244598 -0.054838803
0.07793993 -0.14442092 -0.028055795
-0.03708451 0.19605121 0.0383093
-0.12325885 0.07043664 0.002438039
-0.09190961 0.2468322 0.0919629
0.21248832 -0.29179788 -0.07378685
-0.10436738 0.17113703 0.059402194
0.10701612 -0.24201463 0.005760477
-0.09451022 -0.056419365 -0.040125955
-0.013521313 -0.12416374 -0.05372407
-0.13443731 0.3294018 0.1001707
-0.016548572 -0.05042301 0.0069124517
0.1465633 -0.3153866 -0.00806408
0.19400197 -0.12720646 -0.056813575
0.13673556 -0.11722267 -0.0026845667
0.03783672 -0.26971656 -0.11952771
0.1893686 -0.23703729 -0.0011292526
0.10160031 -0.123824775 -0.04287135
0.016051255 -0.027680209 -0.0011339554
-0.17096385 0.35107416 0.02756665
0.16983742 -0.099483445 -0.09192396
-0.06983451 0.27609035 -0.0023272173
0.17993115 -0.09843497 -0.02828994
-0.22405356 0.19850646 0.02907746
0.17781267 -0.18318169 0.0029445519
0.13819708 -0.14512579 -0.0106535815
-0.027236434 -0.120597176 -0.019273346
-0.14183311 0.025721129 -0.012268803
0.029425325 -0.240635 -0.016441708
-0.12435671 0.20287713 0.072227925
-0.19928189 0.15743576 0.0019979484
-0.11655773 0.30862224 0.07934027
-0.012740853 0.046939533 0.032308307
0.1873628 -0.08863943 -0.11571047
-0.20358832 0.20101494 0.08437548
-0.19318108 0.18074533 0.027726423
-0.009263317 0.12619668 0.034085974
-0.0917864 0.28762338 0.01453223
0.0239892 -0.056436785 0.022877308
-0.16899891 0.34607068 0.037786663
-0.05008183 -0.008295451 -0.016194586
0.24822728 -0.15531857 -0.040269848
0.092742495 -0.17048502 -0.014330095
-0.293007 0.28420907 0.042823467
-0.19315329 0.20138425 0.079123095
-0.057227522 -0.042935874 -0.03409934
-0.006254927 -0.17598833 -0.16260812
0.08831022 -0.22351404 -0.005417475
-0.09058767 0.23550653 0.07329703
-0.0023613665 -0.06542369 -0.021610191
-0.025201453 0.09799632 0.05171695
0.032685313 -0.03042475 0.022775754
0.21537726 -0.12927659 -0.026340432
-0.16826978 0.17294088 0.062281918
0.08939788 -0.053974763 -0.00890141
0.05881162 -0.10655342 -0.030894507
0.26665923 -0.20984946 -0.013339329
-0.032010622 0.20540695 -0.034480978
-0.17356826 0.117861755 0.014574098
-0.22907898 0.23683919 0.09453357
-0.11657904 0.31104788 0.075885236
-0.20839716 0.33114854 0.046090025
0.015126572 0.14644538 -0.02564653
-0.09820038 0.035242494 0.02102101
-0.019140635 -0.039649416 -0.011167623
-0.075805046 0.12893984 0.035871986
0.14333229 -0.14194046 -0.039894953
0.03296548 0.025999354 0.022033073
0.11784048 -0.2285973 0.017746553
0.10948844 -0.07072227 -0.04699038
-0.237708 0.34273472 0.016572986
-0.1608668 0.33622605 0.09892397
0.21120183 -0.28465232 -0.00077093876
-0.10699189 0.0425572 0.045082025
0.20305917 -0.20791024 -0.006026004
-0.15317784 0.2365848 0.09419339
-0.04647311 -0.10590416 -0.052261148
-0.0024834787 0.0096987765 0.032991294
0.091102496 -0.08663086 0.00048274297
0.15130083 -0.11268426 -0.027991196
0.12011675 -0.2808442 -0.23371962
0.082752325 -0.3549429 -0.06710493
0.15369114 -0.26486123 -0.019378543
-0.114196815 0.34065428 0.019268582
-0.24357954 0.32188734 0.073106654
-0.18322131 0.19708145 0.09908166
-0.22390649 0.32325986 0.047013104
0.21485251 -0.22811618 0.00086643005
-0.12033639 0.14665726 0.056729577
-0.24513224 0.32558116 0.016691262
0.038182154 -0.16108316 -0.04757582
0.24449924 -0.24588613 -0.040043816
-0.20737992 0.22002174 0.040401604
0.19115867 -0.25555855 -0.005630379
-0.055722937 0.029717587 0.03140703
0.011390004 -0.31133297 -0.15113492
-0.13197954 0.08564358 0.03228537
0.1561555 -0.32694837 -0.02347263
0.0019121557 0.102782376 0.010547867
-0.027811296 0.0050065606 -0.0056753047
-0.13074039 0.28479612 0.085681506
0.06043587 -0.19602512 0.010940373
-0.011778851 0.016423319 0.033465143
-0.039122704 0.14567122 0.023622518
0.064465456 -0.14198355 -0.026160961
0.10682528 -0.10030368 -0.049931694
0.015050609 0.038038168 0.00023859844
0.03179453 0.113996476 -0.060699593
0.01871455 -0.102266744 -0.013572287
