# .PCD v0.7 - Point Cloud Data file format
VERSION 0.7
FIELDS x y z
SIZE 4 4 4
TYPE F F F
COUNT 1 1 1
WIDTH 1000
HEIGHT 1
VIEWPOINT 0 0 0 1 0 0 0
POINTS 1000
DATA ascii
0.23922545 -0.021787433 -0.1206435
-0.06693528 -0.19370769 0.03476636
-0.03188094 -0.114602 -0.06605519
0.19445173 0.12751906 -0.06095569
0.12029317 -0.010625419 -0.18986736
-0.12301388 -0.050258845 0.19564812
-0.09194838 -0.20759194 0.008824287
0.03379337 -0.06774688 0.010160169
0.13860527 -0.04251356 -0.1918089
-0.0021957464 -0.072127186 -0.17057985
0.13065322 0.26443672 -0.09286491
-0.04844031 -0.22217412 -0.10861896
0.09934684 0.27056545 -0.18860953
-0.2971423 0.030245848 0.12736808
-0.07933077 0.060016353 0.16625552
0.06368147 -0.13722622 -0.033535235
0.09563998 0.23885767 -0.09449563
-0.17427577 -0.11324674 0.28487098
-0.08631797 -0.2208879 -0.1803456
-0.037187565 -0.018965887 0.10635988
0.038767844 0.092477344 0.107466266
-0.034765016 -0.22699027 -0.11303915
0.001961145 0.13335565 0.097339176
-0.23291095 -0.09849634 0.21804848
0.06771675 0.08742976 -0.012561363
-0.029666811 0.00031331024 0.09360897
-0.012298815 -0.0014142862 0.0890526
0.21076529 -0.1345605 -0.15748793
0.17844923 0.2569726 -0.18616028
0.11574654 0.06733403 -0.06296665
-0.06141313 -0.020853234 0.14918594
-0.12752028 -0.20750964 -0.11380219
0.09739995 0.110179305 0.06800616
0.03562295 -0.24786666 -0.1296927
-0.052104425 -0.26007542 -0.060782492
0.115545005 -0.14834496 -0.11410952
-0.017865274 0.17142096 0.083808005
0.014573216 0.044575676 0.09237543
-0.048327968 -0.14654066 0.063501485
0.019353868 -0.0009810247 -0.050625786
-0.08480647 0.120069906 0.03907515
-0.084284395 -0.11582445 0.11531675
0.049645633 -0.09968655 -0.1758359
-0.06746302 0.18084486 0.0050116396
-0.15183389 -0.16323371 -0.114195794
0.17819776 -0.131694 -0.2738574
-0.1730817 -0.060922354 0.22421509
0.1672389 -0.081587486 -0.17125872
0.16427441 -0.11857135 -0.13444947
-0.042522613 -0.11449474 0.062243573
0.046809893 0.017949698 -0.011438548
-0.09870075 -0.16445497 0.0562435
-0.10058601 0.06952786 0.07274176
-0.1907784 -0.102242365 0.10046119
0.21806222 -0.0865666 -0.27071497
0.102461085 -0.0063715097 0.035644237
0.0064828238 0.022863667 0.08667731
0.089574136 0.19473062 0.027202273
0.03390863 0.08156308 0.043625962
0.06699644 0.09215709 0.062267736
0.11574607 -0.16459097 -0.24840963
-0.04755431 0.14786647 0.046691503
0.047232963 -0.20761487 -0.15665026
-0.23143436 0.13366704 0.09627535
0.20087567 -0.17980026 -0.2804503
0.01912682 0.15810016 0.05339214
0.19575156 -0.053894587 -0.1794303
0.025580604 -0.17085573 -0.056489524
0.043672185 -0.062448833 0.043968808
0.0795899 0.0053717624 -0.019206448
0.13905935 0.12206236 -0.012445036
0.14944549 0.18405978 -0.009625258
-0.09899998 -0.033147067 0.17084491
0.0764803 0.29138303 -0.15476553
-0.07328785 -0.048787314 0.10511594
-0.13083643 -0.08430097 0.153709
-0.12115201 -0.0042016627 0.22385313
-0.0169881 -0.1700905 -0.058295116
0.20229448 0.04437124 -0.0693801
0.17482658 0.089044295 -0.04916849
-0.0904103 -0.08709105 0.11028986
0.18134464 -0.16757266 -0.17364815
0.11591388 0.10768895 -0.0668436
0.084139936 -0.10508597 -0.09286223
0.067383125 0.10743551 0.00014913887
-0.09993023 -0.09417573 -0.12353859
-0.10205322 -0.12960525 0.1253462
0.18339933 0.18901376 -0.035636157
-0.30158326 -0.019416183 0.16928189
0.099722564 -0.096851505 -0.19596975
0.1371601 0.27013406 -0.06331656
0.12974356 0.050991282 -0.019567944
-0.1377236 -0.0019295559 0.23566808
0.12624924 0.07840404 -0.17660864
0.020830983 -0.014709697 0.051257573
-0.076650396 -0.08097854 0.16812517
0.008523469 0.0022757112 -0.01858283
-0.0052188584 0.24653308 -0.03354035
0.08785895 0.124999255 0.034403585
-0.079814255 0.16015142 0.084653325
0.18958005 0.08813283 -0.13491595
-0.15222973 0.08548419 0.18118764
0.12437517 -0.121372975 -0.15933621
-0.009007566 0.052067593 0.10084218
0.0940275 -0.12034563 -0.0037856423
0.09200854 -0.17169265 -0.20717572
-0.11860172 0.045881763 0.13595478
-0.28359872 -0.0067188814 0.15515299
-0.0010180207 -0.03773685 0.06382656
-0.13463116 -0.18969613 -0.1643506
-0.17883915 -0.116766095 0.23722142
-0.15240388 -0.048121326 0.2462805
-0.043835055 -0.02486286 0.09553187
0.12846468 -0.08233385 -0.19734348
0.019835701 -0.192612 -0.08898221
-0.09464703 0.0039798436 0.08897486
-0.20800403 -0.10989529 0.080730915
-0.08167721 0.00028616047 0.16925956
-0.085471965 0.09374215 0.0472098
0.14469102 -0.13520463 -0.11484835
0.2121203 -0.07715273 -0.18504854
0.19202773 0.073314145 -0.06882047
-0.1526031 -0.106952325 0.16094469
0.19148675 0.2004287 -0.086439446
0.17427161 0.13319829 -0.09050848
-0.043261852 0.180121 0.006987757
-0.22429296 0.079473376 0.12008218
-0.10268822 0.038313217 0.078835696
0.14142755 0.07392781 -0.1595927
-0.15986615 0.10490146 0.14545773
-0.029938953 0.08445526 0.08699313
-0.1236215 -0.22739886 -0.15244463
-0.13395031 0.04482456 0.0967865
0.08317177 -0.022932172 0.01626022
0.12745112 0.006374586 0.002591528
0.015216081 0.030590799 0.09570368
-0.007318236 -0.062746935 -0.028595183
0.15676644 0.15801756 0.023835573
0.16376396 0.14545715 -0.01323625
0.009201873 0.0016386489 -0.02677298
-0.10584622 -0.16988562 -0.008021127
0.037816558 -0.1716786 -0.1399251
-0.12729006 0.008386128 0.21969134
0.22178733 0.21249859 -0.17970428
0.18857872 0.18346128 -0.07679093
-0.08960179 -0.060497366 0.14035027
-0.079723105 0.11438222 0.059715662
0.0012642866 -0.018841045 0.07896274
0.026995135 0.14951846 0.085892
0.14401834 0.006354812 -0.030986995
-0.15036538 0.0866926 0.02430413
0.20844796 0.17029677 -0.056888454
-0.106243335 0.16100135 0.044473782
0.058198877 -0.22540496 -0.21240932
-0.09213328 -0.02619847 0.16348258
-0.067108415 -0.17073643 0.053993955
-0.1131687 -0.05985919 -0.09998834
-0.09449019 -0.15426369 0.082618065
-0.017042212 -0.027462559 0.07529953
-0.10447857 -0.24049102 -0.17023443
-0.09416761 0.018673189 0.21071659
-0.010319637 0.025236601 0.10854016
-0.22538516 0.046153862 0.13404463
0.17772228 0.12513211 -0.05286495
0.10138204 -0.1306413 -0.06398842
-0.1177143 0.15746717 0.057023518
-0.018933682 0.2864896 -0.08068385
0.02496864 -0.24472673 -0.13654797
-0.1415458 0.06769266 0.20076089
-0.12484605 0.026500812 0.21018985
-0.023514697 -0.058883384 -0.024372304
0.12653854 0.11403937 -0.04235412
0.20870163 0.1870877 -0.09260765
-0.08424659 -0.122176565 0.13430665
-0.044403356 -0.05102692 0.09897362
-0.07209735 -0.09505638 0.10521261
0.14240374 0.027703019 -0.0055499915
-0.07763275 0.13741717 0.069310494
0.046085723 -0.07679629 0.048882436
0.14117841 -0.14145437 -0.09057742
-0.06416258 0.009603923 0.24400751
0.15690967 0.009892705 -0.016875671
0.024792273 0.26197055 -0.07040143
0.14513221 0.02600295 0.03409883
0.22037646 -0.041565113 -0.1346256
0.16912927 0.049611464 -0.12116882
-0.15132624 0.09559172 0.017889611
-0.052042995 -0.20604226 -0.030619258
-0.050268304 -0.18161708 -0.29624394
0.026305718 0.090018176 0.07441261
0.0354904 -0.02893746 -0.018682014
-0.04788656 -0.21794064 0.018475058
0.026241535 0.041155875 0.06810423
-0.014039427 0.010822458 0.10875646
0.020861404 -0.045633126 0.012129402
0.07383056 0.0012496719 0.017716194
-0.11347156 0.074517146 0.06910474
0.0059543056 0.019130068 0.089330226
0.07110357 0.26442114 -0.046897102
0.08325995 0.03298104 -0.0139504
-0.14010407 -0.2191825 -0.22062576
-0.2460117 -0.011557968 0.16727613
0.05109665 -0.119668745 -0.117205314
-0.10067619 0.18339498 0.0028863924
-0.09744793 0.21396439 0.026901107
0.25012326 0.051348902 -0.19138342
-0.22651117 -0.091834635 0.025467714
-0.09402236 0.094586916 0.058099337
0.005725164 -0.13159004 -0.018298121
0.09182754 0.0072320327 -0.22087201
-0.030908272 -0.1605043 0.045010503
0.08360341 0.26924205 -0.10342171
-0.12425711 0.078885965 0.044675983
0.09538031 0.025869386 -0.00337675
-0.007939033 -0.13184121 -0.07685586
0.016821915 0.0929262 0.084022604
0.04063328 -0.26663357 -0.1707194
-0.09977404 -0.030388955 -0.0608391
0.018592445 0.024348274 0.03775612
-0.11214844 -0.08080572 0.17072324
-0.10226986 0.0990056 0.04677524
-0.16639884 -0.10822613 0.26915008
-0.04937991 0.11340094 0.07760257
-0.05091271 0.21129082 0.027765995
0.23471233 0.12950806 -0.21677622
-0.28267375 -0.016667053 0.1618884
0.1078517 0.09245387 0.01329765
0.0025786613 -0.20431075 -0.055336155
0.19905326 0.1976847 -0.12177726
-0.1711914 -0.14797838 0.25739503
0.23351385 -0.018566467 -0.2316908
0.2565049 0.009175757 -0.13227198
0.017089779 0.057941765 0.068403564
-0.09265905 0.15620111 0.013434639
-0.0469365 0.19543965 0.014984375
-0.15629151 -0.1440446 0.0630855
0.114891626 0.28064638 -0.1609001
-0.114982545 0.10797298 0.063696355
-0.068805076 0.062307153 0.09674966
-0.030410154 -0.20123266 -0.29938766
-0.048509475 -0.14239669 0.096452236
-0.1717038 -0.07012563 0.22136827
-0.098324195 0.027265362 0.22595538
-0.12700902 -0.055439517 0.20582826
-0.22230862 0.068824 0.12355728
-0.14659448 0.104131676 0.19264041
0.0030655954 -0.1943852 -0.025294412
-0.11388173 0.015570268 0.20298104
0.20646247 0.020729642 -0.119441256
0.18784198 0.029621122 -0.0020232468
-0.05560546 -0.10024407 -0.089409836
0.033982094 -0.26047093 -0.13371558
0.2392371 0.16424744 -0.17377031
-0.2571612 0.04036118 0.11604891
0.0022436702 0.15486988 0.09432678
0.004541152 0.0035044807 0.074908115
-0.015318577 -0.23788936 -0.11836809
-0.12993966 0.07698118 0.057978023
-0.10058769 0.017245593 0.079474404
-0.043720517 -0.024602147 0.1251968
-0.010009481 0.058110107 0.08961381
0.064160824 -0.24254012 -0.23923102
-0.015158307 0.09234579 0.095575266
-0.059679504 -0.049537983 0.07859676
-0.107386105 0.09491718 0.070660114
0.19459932 -0.07504063 -0.29631573
-0.07166426 -0.10488957 0.06314187
0.21638338 -0.039816435 -0.27561587
-0.024036132 0.058627028 0.089996904
0.20747969 0.23683387 -0.08745323
-0.06940445 -0.16271873 0.07745254
-0.2391556 -0.035676304 0.084001414
0.09848301 0.21157753 0.011498636
0.2470703 0.042305052 -0.23122095
0.020533647 -0.047411606 -0.0038567192
-0.1716097 0.12546265 0.13665904
-0.17316817 -0.12863307 0.15117165
0.021022063 0.0025380629 0.07028662
-0.010528408 -0.118689075 -0.032065444
-0.1280043 -0.07176404 0.24950406
0.20758311 0.11571549 -0.14677146
-0.11104852 -0.024470644 0.16150519
-0.099012606 0.057568137 0.12541972
-0.2612453 -0.009778459 0.103297025
0.015610737 -0.23752747 -0.13700722
0.055871267 -0.17674497 -0.14777613
0.07619634 0.26322937 -0.047867164
-0.027623165 0.019297078 0.12320463
0.20860212 -0.0035587566 -0.11517325
-0.22434324 -0.0020742775 0.083523616
-0.26784033 -0.04247662 0.11728185
0.07255029 -0.119270556 0.00016664466
0.037143156 0.0017297865 0.059162453
-0.10686703 -0.078084856 0.15986876
0.19271272 -0.028479893 -0.17331891
0.12815647 -0.07647719 -0.17589955
0.070596494 -0.1513216 -0.016879411
-0.011458784 -0.09618418 0.018606387
-0.03019829 0.08222484 0.10487767
0.16856834 0.050683357 -0.08429927
-0.124366395 -0.12550618 0.13123858
0.03382971 -0.22775614 -0.13400783
0.0019032102 0.06959161 0.08433953
0.044077 -0.22557564 -0.13071233
0.046096057 -0.08410067 -0.03325703
0.0011934494 0.024369534 0.08996088
-0.08892161 -0.13311863 0.09443931
0.17720267 -0.07036441 -0.20284359
-0.001205741 0.25671992 -0.025329463
0.116388865 0.09844491 0.001987665
0.19897936 0.01551683 -0.10410637
0.040669017 0.2745776 -0.11770937
-0.1600694 -0.19644125 -0.21937615
0.051016986 0.1665695 0.06971881
0.09002683 0.18098474 0.0509037
-0.24413142 0.09271652 0.1564153
0.051363956 0.16317901 0.03736811
0.03571135 -0.0979103 -0.11488329
-0.1909657 -0.06237918 0.21209866
0.159187 0.044556554 -0.09064722
-0.019324835 0.21115783 -0.005669694
-0.05482437 0.20797442 0.049293753
0.16494684 0.2440838 -0.114489086
-0.058637228 -0.1651581 -0.002285829
-0.07902695 -0.03776677 0.12759726
0.055808008 -0.15296656 -0.071479656
-0.067012765 -0.043253675 0.13464503
-0.014539848 -0.13123934 -0.0013980911
-0.05266195 -0.17892562 -0.3189811
-0.09800279 -0.007894262 0.24130452
0.08244091 0.19168736 0.03276475
-0.032054503 -0.067907855 0.045869187
-0.14920047 0.04500053 0.20147558
0.06013479 0.031470966 0.036849186
-0.1407501 -0.029487371 0.22999328
0.21164346 0.13482448 -0.14333816
0.23405142 0.11309985 -0.19888528
0.08832576 0.13678756 0.009093332
0.034208253 0.22547027 0.03105803
0.15862437 0.15738104 -0.08766495
-0.11666217 0.15706633 0.012197759
0.18938349 0.19657177 -0.013490843
0.037783857 -0.012215932 -0.016520685
-0.06812717 0.16658694 0.006581453
-0.045958728 -0.2382358 -0.14263302
0.07749787 -0.1385668 -0.18249261
0.038003173 -0.22820516 -0.16212806
-0.11015109 0.11765531 0.020750651
-0.2932966 -0.03031389 0.16902864
-0.0006894705 -0.28300026 -0.14132833
0.2606269 0.048679896 -0.22025304
0.21695106 -0.0014507595 -0.21798298
-0.03353999 0.061528657 0.106162496
-0.022772947 0.22039458 -0.0017243788
0.017895358 -0.060511388 -0.018540848
0.082111634 0.2519161 -0.0152273
-0.13275413 -0.14105752 0.15354452
-0.047487076 0.21159989 0.011713138
-0.22761607 -0.06324094 0.08015294
-0.18057497 -0.10087811 0.2631557
0.012241002 -0.19558543 -0.08066065
-0.04965158 -0.040143676 0.1648505
-0.020462452 -0.21106611 -0.0019170145
-0.123517185 0.07120487 0.18513599
0.16840726 0.16227213 -0.026402416
-0.043739244 0.11488735 0.093457334
-0.0899864 -0.1261551 0.12278126
0.13480273 -0.21904837 -0.2579967
0.18258414 0.19814171 -0.08747024
0.016337223 -0.2161027 -0.0727744
0.12654701 -0.14760329 -0.1431605
-0.20416519 -0.08281561 0.21198107
-0.08132669 -0.12769085 0.10441074
0.078454025 -0.0032272725 0.04143976
0.051103517 -0.08050946 0.031009044
0.15796901 -0.12286051 -0.14730105
-0.002117248 0.091657236 0.08421652
-0.11696505 0.06305433 0.2080707
-0.14904892 -0.09436837 0.23722419
-0.15747066 -0.16330418 0.08004544
0.20958287 -0.015988074 -0.1497523
0.2718547 0.17594409 -0.1712869
-0.09267764 0.053499117 0.07208157
-0.16156533 -0.087516025 0.21404012
-0.095284045 -0.013948386 0.2114401
0.16611546 0.0642121 -0.16842
0.010678067 0.07146968 0.123750076
-0.07430593 -0.012491225 0.12713195
-0.22519787 0.11573057 0.118400075
0.11508583 -0.049171 -0.22340463
0.05882407 0.06675999 0.05488575
-0.042301673 0.17764074 0.06723429
0.16782756 0.08580455 -0.102876075
-0.1317719 0.0410446 0.21332976
0.04138844 -0.21817288 -0.105347954
0.22450772 -0.06047183 -0.24436797
-0.23567648 0.12384331 0.108327605
-0.27722222 0.03813711 0.13835372
0.11330731 0.26281792 -0.08352903
0.02486822 -0.20940192 -0.13730757
0.028641526 -0.19066176 -0.32840705
-0.16857105 -0.15889956 0.1390357
-0.2595896 -0.06958873 0.22589755
-0.10479012 -0.13450852 0.16082253
0.122402914 0.25433043 -0.067788765
0.10489673 -0.08129326 -0.18356448
-0.005740269 0.09917291 0.09749202
-0.004099449 -0.1219863 -0.017266933
-0.12021115 -0.06911851 0.25755176
0.15431613 -0.13561662 -0.15607
-0.17208137 -0.20522581 -0.14239216
-0.12508918 0.024567453 0.23357335
0.07911624 0.16146922 0.07672563
-0.052269883 -0.17662463 0.013985082
-0.053582154 0.09895096 0.071344405
-0.08900421 0.1865632 -0.0054585994
-0.02063232 0.18385361 0.050353315
0.1176916 -0.0010599971 0.04694202
-0.06005679 -0.049523145 0.11392477
-0.049485583 0.23035486 0.0009124607
-0.09911045 -0.2224605 -0.045577884
-0.06853521 0.07235075 0.06793705
-0.29314122 -0.045106463 0.15489379
-0.21353225 0.053699385 0.11438176
0.1704177 0.05355279 -0.009762242
0.17414428 0.23059162 -0.06788436
0.033181418 0.2418815 -0.004039351
0.11355072 -0.03096883 0.043944605
-0.2223063 0.045583654 0.11201682
-0.073559836 0.12260855 0.04150777
0.099296875 -0.05843904 0.046694834
0.16629438 0.06579873 -0.13452113
0.023458326 0.12076983 0.061995577
0.05490669 -0.0920165 -0.01483566
0.10273269 0.06397787 -0.07962651
0.115851335 -0.15635143 -0.25187647
0.016344687 -0.021103503 0.03638382
0.16413173 0.015976058 -0.03195538
-0.17651701 0.060049262 0.09864868
0.108999796 -0.1964977 -0.08965614
0.06453678 -0.12709925 -0.1323149
0.16025291 -0.1396716 -0.14092614
0.10245069 -0.16057763 -0.108008884
0.034490433 0.10798636 0.082804814
-0.21216008 0.1087433 0.15892446
0.019007716 -0.2748424 -0.17433235
0.10546327 0.26644546 -0.029386943
0.10449631 -0.2240748 -0.19248399
-0.038153727 0.22575285 0.016576624
0.15648635 0.21822974 -0.016678393
0.05124634 -0.060098015 0.010353039
0.12883788 0.13895471 0.030992346
-0.12300197 0.0769899 0.18751456
-0.087110296 0.13143143 0.06960052
0.07364688 0.26733395 -0.10283673
-0.10624183 -0.1116962 0.16500236
-0.050048705 -0.123877846 -0.08713545
-0.20730098 0.09533326 0.13500352
0.15289153 0.23824525 -0.19720909
-0.01790188 0.19814043 0.052862737
0.0591091 -0.16158311 -0.169727
0.02652518 -0.07034712 -0.059408028
0.083001144 0.21260436 0.014488425
0.14203982 -0.14800265 -0.23389238
-0.106293514 0.06819221 0.2091964
0.03484718 0.22488345 0.028378818
-0.27854133 -0.015756981 0.14665839
0.21993336 -0.122352205 -0.13582163
-0.24284261 0.032166585 0.12655632
0.15521483 -0.05292113 -0.14650804
0.17049052 0.07128296 -0.04288803
-0.19812636 0.08136497 0.13608214
-0.07277909 -0.13678989 0.10146443
0.07822151 0.06458968 -0.017732313
0.23276462 0.18396664 -0.1510998
0.17867073 0.006671219 -0.13968958
-0.2142145 -0.07257915 0.25056934
-0.043117765 0.06243497 0.11684963
0.0830292 -0.0028814636 -0.25558627
0.09983691 -0.21877557 -0.27484715
-0.03010483 -0.1046588 -0.08556771
0.20203027 0.20073627 -0.0725868
-0.11609028 -0.14888747 0.11448722
-0.117621124 -0.18516508 0.04510886
0.25567222 0.007112275 -0.2806246
0.04774079 -0.19466238 -0.14707598
0.060277447 0.22636227 -0.047119208
-0.013097547 -0.18224254 -0.04996381
-0.047276907 -0.048494957 0.07376292
0.013871734 0.0775058 0.08555585
-0.12513737 -0.043716032 0.17123216
-0.104493394 0.024856197 0.23156495
0.020799104 -0.25883573 -0.21680483
0.04377457 0.29784408 -0.08078553
-0.029834377 -0.13416994 0.045404904
-0.034231182 0.152419 0.048141405
-0.20374002 -0.06363862 0.22695218
-0.09506879 0.08983243 0.036196142
0.031960778 -0.2101401 -0.11979618
0.231621 0.04710265 -0.08542624
-0.030324472 -0.047423713 -0.047314465
-0.00029005948 0.15456685 0.07063106
0.18559179 -0.10676197 -0.18637913
-0.06704711 -0.059139635 0.1528031
-0.12596366 -0.046728447 0.23878369
0.1299894 -0.019071722 -0.22901386
-0.07510094 -0.02999257 0.18538326
0.20218077 -0.014373197 -0.17235501
-0.22500284 0.06872035 0.12536101
-0.071285926 0.15996799 0.012340274
0.01577687 0.05562426 0.052415967
0.011025533 0.22729608 -0.046788555
-0.004403065 -0.12459594 0.024604144
0.0062965006 -0.25521895 -0.14567919
0.14756566 0.22089384 -0.026576102
-0.0021835738 -0.123384066 -0.057020333
0.07300312 -0.21890469 -0.14607
-0.26357654 -0.0057347827 0.13749969
0.0017447455 -0.13754271 0.008315064
-0.14053349 0.022294028 0.14538081
-0.01656513 -0.21215136 -0.05599275
-0.0006825581 -0.121154524 -0.058995694
-0.27930903 -0.06609619 0.14732668
0.026690004 0.24625248 -0.05385606
0.013207533 0.06575362 0.08413656
-0.26257247 0.014853945 0.15977924
-0.19607863 -0.12814555 0.2226451
0.084134854 0.017586557 0.024413202
0.08007913 -0.09806477 -0.16942732
-0.044631552 0.10283288 0.09049525
0.10323716 -0.23597771 -0.23276953
-0.06464922 -0.07427426 -0.066375144
-0.15485917 0.011135847 0.21351707
-0.17893602 -0.12892865 0.19398937
0.060169645 0.21237671 0.017536338
-0.15044147 -0.21096376 -0.07002283
0.12495005 0.21277416 -0.03297891
-0.02835364 -0.12415014 -0.024088636
0.061908823 -0.019499073 -0.01789489
-0.28308788 -0.007963093 0.13347606
-0.019646987 0.16709295 0.036688216
-0.019641088 -0.116460934 -0.004625644
0.21554904 -0.11909535 -0.28842315
-0.24236088 0.13782293 0.12749436
-0.19861396 0.09990625 0.17041607
-0.08384276 0.050173596 0.23634371
-0.06218582 -0.053322416 -0.07576061
0.00022217134 -0.08908037 0.057395484
-0.08785525 -0.083334774 0.15870783
-0.2766438 -0.0012488477 0.11466539
0.109322645 -0.03548697 0.017490579
-0.050119247 -0.21873704 0.005999955
0.1315954 0.021439655 0.01825113
-0.18540168 -0.06639962 0.2617972
-0.09774282 -0.21229267 -0.14167517
0.113903984 0.2693037 -0.12787405
0.16114457 0.19319057 -0.04695277
-0.28053543 0.02024833 0.15655832
0.06126711 0.10457228 0.08873086
0.12201999 0.27446985 -0.053369097
0.043244444 -0.2109966 -0.31536993
-0.28879648 -0.0049049375 0.16599457
-0.10749929 -0.002979423 0.061434112
-0.00440947 -0.07424065 -0.017427364
0.07007486 -0.09844681 0.0046658283
-0.0025762084 0.14840296 0.06563366
-0.08763257 0.12559305 0.066346355
0.19104372 -0.0979561 -0.22920878
0.15842114 0.025973158 -0.010750363
0.03477702 -0.24319609 -0.16855803
-0.13347898 -0.11504353 0.20220084
0.17104493 -0.14552005 -0.29795194
0.16701683 0.09523132 -0.09933986
0.15230742 0.24399252 -0.10245381
-0.11891419 -0.21476996 -0.06665441
0.026351903 -0.23028597 -0.14706744
-0.1453911 0.07010253 0.14303967
-0.29989395 0.03901879 0.12739839
-0.2632582 0.09363836 0.09775876
-0.075565495 -0.07844951 0.12946199
0.026579887 -0.10670435 -0.09935128
-0.18748114 -0.10058485 0.23161362
-0.08689094 -0.11938398 0.16242576
-0.28474197 -0.031878024 0.14314747
-0.03212513 -0.24687347 -0.049371924
0.08071681 -0.008390983 0.02578599
0.15374102 0.07852392 -0.16237591
0.10916659 0.025963835 -0.035340793
-0.07294331 -0.13107604 0.08556602
-0.05203291 -0.12922144 0.037649523
0.07587272 0.084117904 -0.012983412
-0.21511705 0.079265766 0.12290858
-0.07086807 0.18591642 0.024232732
-0.123924896 -0.19649562 -0.12797253
0.0023943959 0.0968355 0.08204908
0.087869465 0.004159177 -0.007920717
0.011503703 0.28285822 -0.06613216
0.11544276 0.17327681 0.0013468907
0.15294068 0.24417637 -0.046750434
-0.11085419 -0.12158804 0.16714123
0.09921658 0.28036886 -0.12987573
0.043811608 0.046639986 0.0113065895
0.046364713 0.26795277 -0.09864025
-0.07514367 -0.22592561 -0.269296
-0.28874698 0.008903101 0.16446917
0.1683444 -0.011715231 -0.18110548
0.009385033 0.1518334 0.089835726
0.0009974213 0.21134758 0.015892822
0.12113028 0.14117175 0.018791094
-0.034161825 0.011559954 0.11963925
0.09269228 0.081329845 -0.0132478615
0.020024877 -0.111736864 -0.027321318
-0.08220966 -0.046903335 0.12092083
-0.18192181 -0.091363356 0.24181443
0.10342219 0.13528515 0.03633122
0.13950711 0.046427216 0.04165041
-0.23820058 -0.050181214 0.18182914
-0.075615376 -0.21351808 0.035228845
0.20684241 -0.0035441893 -0.13970289
-0.018701253 -0.14882417 -0.060860172
0.13842058 0.16988863 0.0017510491
0.14254607 -0.12818123 -0.24033673
-0.24986005 0.08457685 0.15582457
0.15115182 -0.20154218 -0.31912646
0.12108318 -0.20836627 -0.26064473
-0.038569663 0.1432871 0.055297814
0.100772 -0.09428778 -0.21253718
-0.2997348 -0.0019408758 0.1369964
0.16866285 -0.05129746 -0.21137841
-0.2340329 0.03350976 0.15065397
-0.15150453 -0.23065415 -0.20320624
0.05926471 0.058682855 0.07011166
0.18617427 -0.13849226 -0.30522847
0.20802574 -0.04204316 -0.19881196
-0.12748078 -0.08928621 0.21433294
-0.18885882 0.07438833 0.1484476
-0.016535934 0.16660362 0.054123957
0.1419174 0.24051267 -0.23090081
0.22552563 0.0006961566 -0.2280179
-0.04831097 0.07242263 0.09114434
0.17024744 0.08035974 -0.030263582
-0.041963965 0.24316533 -0.005345278
-0.26881078 -0.02754281 0.16649334
0.06803718 0.15751003 0.05046486
-0.0547361 -0.061221592 -0.04795428
-0.19815609 -0.110816896 0.24953534
0.22438993 -0.060457643 -0.15622444
0.15148231 -0.11519177 -0.18145166
0.018613074 -0.013968812 0.08210159
0.045836866 -0.20413817 -0.12161986
-0.096318565 -0.018131249 0.18971503
-0.093087785 0.008118015 0.24414764
0.06129486 0.06432313 0.024339456
-0.24984159 -0.05194561 0.08341636
0.17861769 0.12255521 -0.11597402
-0.17718947 -0.035746858 0.24616697
-0.021312641 -0.18532415 -0.34001958
-0.17157237 -0.06900255 0.2673287
0.116554104 -0.027569912 0.008938061
-0.13999616 0.08810848 0.13652281
0.20345484 0.022172024 -0.12367274
0.05697065 -0.040637746 0.049386367
0.053700935 0.20786041 0.042109247
0.08690663 0.14257303 0.04129803
0.07368883 -0.22378868 -0.2051058
-0.23686026 0.01635923 0.09004146
0.068526424 -0.16303168 -0.033807833
-0.28290978 -0.001385522 0.16502224
0.046303723 0.076350585 0.0636191
-0.1448801 -0.10962379 0.1749162
-0.12111549 -0.16632518 0.1080415
-0.283324 0.019988436 0.1648863
0.11014298 0.21691842 0.010254313
-0.0058417595 -0.17963314 -0.061779678
0.10895673 -0.089204356 -0.17427064
0.102639094 -0.14219204 -0.14474937
0.1722412 -0.13286671 -0.17703213
-0.04580256 0.15028733 0.08473959
-0.13230243 -0.22138514 -0.15524864
-0.1258419 0.06964173 0.032415643
0.06331377 0.1141135 0.09468641
-0.06200192 -0.14100268 0.030203462
0.17042015 0.13280487 -0.09987436
0.09656318 0.03657162 -0.013050396
-0.13425155 -0.11761262 0.18948458
0.09577078 0.28147915 -0.081589885
0.07940647 -0.047756847 0.027714578
-0.106935225 0.021773748 0.20124125
-0.276758 -0.07938038 0.21031764
-0.13236997 -0.078939006 0.17465715
0.07091324 0.017302485 -0.0018900655
-0.2565051 0.06875448 0.121682756
-0.15210843 -0.16137305 0.08518773
0.014883824 -0.17595522 -0.06792893
-0.2554289 -0.09918619 0.19955313
-0.25657135 0.0943667 0.117643625
0.050983947 -0.22117254 -0.14841384
0.17400351 -0.010726836 -0.14486879
-0.1130614 0.060118634 0.1845665
0.11472857 0.098333634 -0.09626668
0.10131191 0.04764185 -0.0036340645
-0.2866327 0.042954795 0.12348201
0.12346575 -0.06870098 -0.21824302
0.20104621 0.049581446 -0.15922043
-0.06828558 0.11883198 0.08408963
-0.019878183 -0.19984764 -0.29494524
0.24044684 0.124376394 -0.17064105
-0.10314741 -0.027131822 0.17150374
-0.15815188 -0.061892904 0.23129256
-0.19617085 0.117129765 0.12100654
-0.06299193 -0.032687783 0.15236342
0.19295378 0.058309462 -0.036144875
0.021003012 0.0087570725 0.08605198
0.07634585 0.070967816 0.060165115
-0.044933505 0.09319397 0.089963034
-0.22253801 0.020865947 0.107283965
0.0053137643 0.17852786 0.06423861
-0.0035462466 0.22890984 0.01622878
-0.2421846 -0.04573517 0.12183441
-0.2572731 -0.047350746 0.16043176
-0.06511161 0.080046885 0.097723246
-0.177136 -0.1301248 0.16507083
0.06101435 -0.09943541 -0.02373689
0.06130098 0.2003903 0.042085018
0.12770903 -0.11405623 -0.1239188
-0.20214687 -0.12404496 -0.058898225
-0.09733647 -0.106183454 0.17797598
0.056170814 0.18739635 0.047024556
-0.09414698 -0.17267282 0.08830259
0.19251584 -0.08934651 -0.2925205
-0.0628552 -0.047638778 -0.038028605
0.14983389 0.076143585 -0.05217681
-0.07206124 0.042041656 0.20722468
0.16714193 -0.08974214 -0.1912475
0.016447837 -0.22396639 -0.08906964
0.24909161 0.02119468 -0.26324022
-0.05945604 0.22313732 0.013719024
-0.026082186 -0.20976853 -0.08166152
0.2101589 -0.0526022 -0.1683333
0.11818772 0.116055466 -0.101548396
-0.062839285 -0.009489596 0.12709486
-0.054359432 -0.050387893 0.099997506
0.050922364 -0.21866955 -0.17163485
0.004397011 -0.021098321 0.06694261
-0.05164328 0.14997631 0.018675935
-0.17602305 0.039754882 0.1308405
-0.22873335 0.06624144 0.14964926
0.018605316 0.052933995 0.07923062
-0.2151081 -0.052152295 0.09343502
-0.070004135 0.034420818 0.18612747
0.19785321 -0.05255651 -0.2667477
-0.022913618 -0.08751481 -0.00885727
0.031458046 0.1306958 0.09377407
-0.27701965 -0.08354816 0.17648019
-0.003525962 -0.13358305 0.022799352
0.072493136 0.30285 -0.13072172
0.21667741 -0.031856645 -0.12559475
0.19221836 -0.112587415 -0.18377939
0.07998568 0.17753445 0.042470634
0.045359746 -0.0015343792 -0.014778674
0.16609265 -0.095988505 -0.13394393
-0.11967818 -0.009097728 -0.071170695
0.2562335 0.1520216 -0.16265418
0.13761874 0.08573004 -0.090972155
-0.022325786 0.23117176 -0.010389796
0.074461915 -0.15975665 -0.10187851
0.25834557 0.006895141 -0.26996768
-0.059059985 -0.08740912 0.08334938
0.098297834 0.106413074 -0.0067127855
-0.16893569 -0.10646069 0.23878445
0.06399785 -0.1935493 -0.1375563
-0.23130712 0.031412758 0.096261196
0.041094687 0.15054339 0.0730544
-0.06446782 -0.19832824 0.025973884
-0.14413412 -0.12115853 0.1766361
0.1779521 -0.14514495 -0.2918264
-0.024652427 -0.20652226 -0.054030716
0.19760767 0.06711134 -0.031434968
-0.011983769 -0.06470874 0.056961812
-0.045297924 -0.17837769 0.02167898
0.058674615 -0.08260426 0.012852893
-0.16721132 0.07913669 0.13103004
-0.013822159 0.1407823 0.08898414
-0.23590642 -0.06338833 0.18527949
0.2209214 0.22493728 -0.18298998
-0.119544685 0.09831321 0.19258569
-0.015754934 -0.25999463 -0.083997935
-0.124982595 -0.18149751 0.07903058
0.18246944 0.19011033 -0.035727672
0.095003776 0.16225134 0.045460813
-0.039322603 0.21594478 0.004597069
0.068517536 0.22330725 -0.0353294
0.25348878 0.07679036 -0.26374045
0.06950231 0.19463308 0.045015365
-0.11240687 -0.1364354 0.09136227
0.029022943 0.25722727 -0.044715814
0.10591337 -0.011655048 0.058123514
0.17201056 0.069983564 -0.012517971
-0.077374086 0.10199004 0.08732157
0.094449505 0.2027427 0.035868593
-0.1329504 0.07601867 0.14675957
-0.04318257 -0.049293887 0.08553232
-0.17084356 0.10735633 0.15313713
0.08294843 0.11803781 -0.06808675
0.111879945 0.10654516 -0.012176164
0.014027183 -0.07393926 -0.029061684
0.12556435 0.13814971 0.035487488
0.07988528 -0.20327406 -0.2104828
0.097855024 -0.23086771 -0.22351477
0.08746899 -0.1575933 -0.13289644
0.020834252 -0.11218738 -0.042590693
-0.07331808 -0.2092477 -0.24804783
-0.03787624 0.028516285 0.090427496
0.013127388 -0.17425618 -0.10882902
-0.07029107 -0.2540298 -0.18541583
-0.03162597 0.09832001 0.07825034
0.04799701 0.03786035 -0.018060308
0.03272065 0.15901951 0.0985904
0.06737552 -0.075088084 0.019287847
-0.16118443 -0.13282892 0.19798289
-0.123333365 -0.22787455 -0.15016581
0.15601803 0.13524857 -0.08625514
-0.15857609 -0.12633336 0.17444237
0.22509918 -0.11699936 -0.19247203
0.06394916 -0.04539117 0.04320479
0.21937883 0.1463586 -0.1259546
-0.0031283204 -0.1131121 -0.18509942
-0.1655404 0.120488025 0.039302398
-0.0047547123 0.080036774 0.11523505
0.17602527 0.23547469 -0.09973623
0.22257222 0.14572042 -0.08059722
0.046598304 0.21398377 0.0002830069
0.037972294 0.19821797 0.034376163
0.19916008 0.05354903 -0.04033232
-0.10588311 -0.25614527 -0.14633182
0.03309325 -0.16356379 -0.14158025
0.066558585 -0.0529947 0.026837066
0.08659274 0.13364774 0.023946507
0.011713979 -0.13866043 -0.063584924
-0.2515054 0.13299242 0.11629154
0.09157754 -0.03286171 -0.21863109
-0.07452893 -0.17839962 0.019951386
-0.28866738 0.006942897 0.16440178
0.14768058 -0.15229996 -0.13188621
0.082314126 0.035491083 -0.01486234
-0.050856117 -0.2615661 -0.09002441
-0.053353515 -0.11680354 -0.1028718
0.16734935 -0.08658309 -0.15628861
0.07364985 0.05754188 -0.2068505
0.08026034 0.056213133 -0.06542564
0.10064551 0.093274534 -0.011224629
-0.09384996 -0.106285274 -0.11342015
0.14685097 0.027506558 -0.17250212
0.22859536 -0.010804164 -0.15204462
-0.0054834774 -0.24262148 -0.113530874
-0.059290808 -0.12784293 0.036508106
0.22036198 -0.103573866 -0.27885273
0.141117 -0.19015065 -0.2962249
0.24561884 0.12641898 -0.22356638
-0.3076928 -0.051059686 0.15273382
0.14311631 -0.13014375 -0.23924752
0.17238769 -0.03944704 -0.17219917
-0.10059798 -0.14010984 0.063291825
-0.09795357 -0.06006214 0.15706642
0.23022357 -0.009576134 -0.29016647
-0.065395124 -0.1441274 0.104941845
-0.26106396 0.031853143 0.12665492
0.12275999 0.119822495 0.05037259
0.20667887 -0.077907614 -0.2692669
0.059544954 0.16897321 0.06430546
0.031473707 -0.085934125 -0.20135546
0.21524508 0.046223823 -0.1254137
-0.16217908 -0.093839735 -0.03312882
-0.16444752 -0.092507936 0.16911724
-0.19659299 -0.13451898 0.08879547
0.17487909 0.024618078 -0.21899645
0.24640872 0.19654763 -0.10180029
-0.1398261 -0.1529783 0.11544777
0.23119837 -0.02017159 -0.29669672
0.0046677114 -0.00053136447 0.110773765
-0.01108159 0.2619082 -0.029384475
0.16271695 0.075925365 -0.14598188
0.15188092 0.2565509 -0.17536704
-0.05066993 0.10454024 0.105194986
-0.1693271 0.07357667 0.16442667
-0.21329167 -0.10240157 0.23932952
0.22596593 -0.039374646 -0.26647872
-0.017343488 0.26330262 -0.04202868
-0.20573457 0.025919884 0.10167579
0.13128279 0.16744614 0.013295481
-0.12647283 -0.17089847 0.06320219
0.20030181 -0.09732833 -0.30322784
-0.07854143 0.16386434 0.07192959
0.09502018 0.2206678 0.02849866
0.08221679 -0.1420102 -0.02388241
0.20891456 -0.004463336 -0.12124424
0.037943836 -0.208348 -0.30473012
0.03611513 -0.26736462 -0.119466975
-0.203981 0.043891493 0.12600175
0.16392371 0.056218978 -0.024840081
-0.08075144 -0.11240959 0.0771281
0.19038568 0.17980091 -0.08890591
0.18196318 0.029783715 -0.09857357
0.11484726 0.073808216 -0.1774807
-0.15125793 0.08904117 0.17344119
-0.11137722 -0.16772349 0.086527936
0.19835955 -0.059303768 -0.2573519
0.1263332 0.072690636 -0.15822625
0.17785418 -0.109794945 -0.24653897
0.0028502245 -0.114282936 -0.08004328
-0.054066263 0.1159087 0.04608093
0.067832015 0.01639524 0.019815614
0.020346511 0.0709263 0.12077915
-0.1072881 -0.11224115 0.16078769
0.14360055 0.13911946 -0.03437274
0.09071558 0.24473584 -0.11382283
0.13638559 0.009665923 -0.19631198
-0.13744175 0.08216821 0.18038414
-0.0126538 -0.12339048 -0.08759797
0.05970193 -0.26338175 -0.26536325
0.04074543 0.19764379 0.051021017
0.13622813 0.03775047 0.05680945
-0.121078484 -0.1908948 0.055039868
0.04968849 0.14275181 0.066534065
-0.10115399 -0.022461088 -0.06490246
0.11723723 0.057091355 -0.15824129
-0.17057809 0.079467006 0.1516368
-0.102187894 -0.09903182 0.1774822
-0.09498126 -0.014482143 -0.04770754
0.07413419 -0.10726231 -0.006881572
0.1217056 -0.12806329 -0.15784527
-0.025747668 0.023390066 0.112571456
-0.2465406 0.10312939 0.1244531
-0.20179464 -0.11572364 0.17937806
-0.04026109 -0.25582936 -0.21831189
-0.28382054 -0.013538308 0.1723992
0.16322535 0.17740245 0.010796603
0.1291826 -0.0837968 -0.17812239
-0.25568435 0.058197573 0.12693797
-0.047018282 0.15167497 0.02326901
0.0032358353 0.18439391 0.00086587993
0.15939777 0.14967692 -0.010927852
-0.068258844 0.15601486 0.06337368
0.036686428 -0.046811968 -0.003931908
0.1548592 -0.07801567 -0.19275486
0.09406851 0.001104364 0.061533216
0.18117459 -0.028405523 -0.15220705
-0.16698596 -0.16488256 0.14853597
-0.1246945 -0.06716336 0.19863595
-0.10281623 0.08016368 0.18221194
0.09023829 0.12243403 0.035358023
-0.014746442 0.011732536 0.08260061
0.013199703 0.1563175 0.07085235
-0.251464 0.005928171 0.13685921
-0.032997645 0.09510498 0.1107362
0.100974225 -0.082534984 -0.0030332115
0.009580248 -0.04399757 -0.023585977
0.0999025 0.09975206 -0.09114444
-0.23074326 0.05793883 0.13813865
0.23640092 0.067537986 -0.19106495
-0.1766145 -0.16840273 -0.0972333
0.047100928 -0.033736877 0.021330142
0.26150352 0.049625345 -0.24962138
0.01629339 0.006690103 0.10459198
0.27126724 -0.009127741 -0.28284064
-0.14865386 -0.10612652 0.20427771
0.0891754 -0.0003193435 0.032541636
0.09575493 0.23468673 0.022547945
0.020161673 -0.20506275 -0.14395367
0.17732865 0.060136583 -0.0399522
0.12001744 0.05345442 -0.21647783
0.19477965 -0.15330379 -0.18132281
-0.12950775 0.07623239 0.026861653
0.24391504 0.0031259442 -0.15201928
-0.13871984 -0.13156405 0.13233317
0.023816682 -0.09426163 -0.009775201
-0.02583384 0.13726823 0.10224453
-0.25371242 -0.100005545 0.23452622
0.06309183 0.21082269 -0.0064640064
-0.09480044 -0.025971007 0.12538119
0.20707394 0.21548574 -0.11417128
0.18046235 -0.06516219 -0.1614807
-0.025470106 -0.14465855 0.056571096
-0.14598304 -0.072949015 0.25777555
-0.0582616 -0.021728903 0.08733528
0.15374582 0.06045801 -0.02232805
-0.11709219 -0.032869224 0.23748863
0.09775393 0.18085462 0.0007663082
-0.1641244 0.07392908 0.10763016
-0.05406277 -0.009409522 0.114673816
0.06598964 0.054604445 0.052175194
-0.08638966 -0.0005839434 0.094046675
0.22203407 0.11143018 -0.17208971
-0.13214986 -0.05924021 0.17457308
-0.008727543 0.22250159 -0.0146724535
-0.296648 0.04597588 0.10960148
0.08822762 0.08970181 0.05709656
0.1203537 0.06309175 -0.21834023
-0.21911053 0.10895032 0.13831425
0.059134573 0.2812037 -0.07623365
