# .PCD v0.7 - Point Cloud Data file format
VERSION 0.7
FIELDS x y z
SIZE 4 4 4
TYPE F F F
COUNT 1 1 1
WIDTH 1000
HEIGHT 1
VIEWPOINT 0 0 0 1 0 0 0
POINTS 1000
DATA ascii
-0.080395244 0.16231629 -0.009930461
-0.35264382 -0.046873048 0.11763084
-0.02100895 0.1618287 -0.023000795
0.014248201 0.22664121 -0.054996196
0.034302566 -0.27743745 -0.042236164
-0.035479072 -0.007129428 0.05652606
-0.09679863 -0.061665356 0.0818494
-0.3195228 -0.09555507 0.1391925
-0.026106505 -0.13164051 0.062476557
-0.2762016 -0.064654976 0.0898074
0.24389423 -0.109043986 -0.030305738
0.16144139 -0.14748883 0.028461408
-0.2777912 0.055766966 0.12790416
0.16792591 0.19774607 -0.102736376
0.013727308 -0.11044394 0.04516226
-0.06127017 -0.015767287 0.06350415
0.022795044 0.116456605 0.042021595
0.008907696 0.054554764 0.09092269
-0.14154533 -0.08048183 0.10745535
0.03316251 0.26827404 -0.065895885
-0.2704161 -0.05235575 0.12996934
-0.03573565 -0.09710263 0.06201142
0.07881479 0.2774893 -0.0943015
-0.027596748 0.10097518 0.033340644
0.08834605 0.12791246 -0.037771787
-0.29190427 -0.023006937 0.12245723
-0.2851481 0.03712461 0.10582965
-0.14993419 -0.13131027 0.10711832
-0.11817225 -0.006951745 0.039160177
-0.05894142 -0.04232573 0.063998945
0.07340237 0.17099255 0.010906415
0.32742423 0.044855095 -0.08219269
0.17716354 -0.23179038 -0.10077196
0.24923287 0.040606074 -0.09497013
-0.31715125 -0.039626505 -0.033572465
0.08566143 -0.060735762 -0.046545975
0.1743906 -0.13179417 0.013517216
0.048398048 0.17763074 0.03186322
-0.12982914 -0.19761115 -0.036953457
-0.30468753 -0.09580404 0.10454003
-0.10722869 -0.06749536 0.0676283
0.2214461 -0.16732572 -0.0455754
0.26573277 0.09102748 -0.06509386
0.09329004 -0.22874957 0.021630537
-0.2694411 -0.015623726 -0.05248281
-0.1654684 -0.0123654585 0.075356394
0.17237885 -0.17515507 -0.015186274
0.24797867 -0.12671728 0.0001470581
-0.02924106 -0.17190534 0.041335225
0.1743965 0.14070188 -0.026095953
-0.053391006 0.13280116 -0.021048233
-0.07248841 -0.018331021 0.042232864
-0.396475 -0.11165472 -0.006170051
0.19007446 0.100521065 -0.044580083
-0.07378989 -0.053835128 0.073077306
-0.24011596 -0.060322464 0.10955954
-0.23644814 -0.042299815 0.08350412
-0.25010008 0.04934253 0.043363776
-0.3245525 -0.045588344 0.17985824
-0.14547607 0.12522504 0.025827145
0.17819563 0.075002976 -0.037336085
-0.32643652 -0.12285266 0.04171422
-0.2883115 -0.06591939 0.13892809
-0.1562919 -0.14295352 0.020104727
0.22541834 -0.14294559 -0.008154109
0.18695365 -0.1622348 0.013039521
-0.23106532 0.03777191 0.07574745
-0.19588743 -0.03378214 0.08531878
0.20392965 -0.20342612 -0.012266213
0.13979295 0.07413216 -0.09291353
-0.20141603 0.0076348367 0.08210163
-0.30089763 -0.0032960274 0.1582282
-0.2961836 0.025396843 0.10158166
-0.35039398 -0.046802852 -0.0489983
0.14764538 -0.042221915 -0.051175952
0.13338245 -0.08091081 -0.059222188
-0.19995996 -0.043456826 0.08431232
-0.018559381 -0.042962823 -8.841879e-05
-0.12078618 0.037474964 0.053772774
0.0026215948 -0.16376933 0.074534066
0.20236841 0.18091936 -0.11462951
0.13963878 0.21088898 -0.082384
-0.0059406394 -0.027282499 0.012656732
0.07153328 -0.2008206 0.031932596
-0.2665029 -0.019639924 0.09351795
0.28991243 -0.08919549 -0.046950024
0.037414853 0.2856912 -0.11148168
-0.20498678 0.015459764 0.08113634
-0.08069317 -0.20160824 -0.06975221
-0.06033854 0.1546398 0.0056007137
0.2640129 -0.09373028 -0.035967078
-0.23262766 -0.10276619 0.06405077
0.08530865 -0.02097023 0.06350973
0.077485256 -0.13253836 0.041544925
0.2308577 0.045623433 -0.08865861
-0.17950349 0.05678787 0.02355239
0.072698236 0.29408163 -0.13555273
0.16027841 0.12417954 -0.029138153
0.10531274 -0.24864472 -0.07119798
-0.37815985 -0.13759172 0.030397136
0.026596282 0.30326456 -0.105333164
-0.0040751044 0.13009235 0.056893524
-0.025606098 0.087821245 0.05496692
0.010326514 -0.1452455 0.081892714
-0.2868792 0.053364445 0.014964811
-0.1146515 0.13604441 0.0029162501
-0.30354077 0.008614383 -0.04846922
-0.17380323 -0.13668127 0.10377133
0.31126994 -0.008177672 -0.07986526
0.32924965 0.090097494 -0.09325195
-0.28373155 0.035282984 0.1183629
-0.1046526 0.12828967 -0.010255553
0.08667281 0.16790271 0.018025218
0.03879356 -0.00824069 0.09856529
0.21820456 0.06336493 0.024478313
-0.13898268 -0.06607815 0.11371385
-0.07885533 -0.1309576 0.09090047
-0.2456693 -0.013093613 0.07974297
0.26113772 0.15545195 -0.10338596
-0.25707045 0.022918003 0.06617892
-0.025868123 -0.16702352 0.07324648
0.2589046 -0.03101843 -0.05246729
-0.29881397 -0.008278501 0.1179074
-0.044129692 0.028661571 0.08964826
-0.22329511 -0.09474397 0.10412752
0.20823637 -0.19698767 -0.00024533182
0.20678484 0.1666815 -0.122717455
-0.27551407 0.07767649 0.11062165
0.20177019 -0.066355914 0.0005981642
-0.106961735 0.23607068 -0.05464305
0.234083 0.094972126 -0.0069129854
-0.20300168 0.022043504 0.09746954
0.26109228 0.0048517087 -0.04046026
0.21294957 0.044759665 -0.013206989
0.13954546 -0.1086767 0.009618172
0.2938981 -0.09784172 -0.05950685
0.21621002 -0.17150459 -0.062614456
-0.03017828 0.22917643 -0.0444113
0.099057466 -0.068315156 -0.007514807
-0.07827099 0.18366185 -0.02914988
-0.13514914 -0.10220747 0.0849623
0.27292946 0.020822402 -0.06793816
-0.24178112 -0.04599425 0.09187134
-0.1349878 0.0026387658 0.029771706
-0.2841131 0.06397544 0.06872579
0.08556426 0.13355619 -0.028474478
0.081070654 0.12971029 -0.1406802
0.033618186 0.0070734927 0.10248448
0.17156455 -0.2135819 -0.08254784
-0.04453133 -0.10000734 0.069983914
0.30167696 -0.014598044 -0.08457363
0.207051 -0.095892504 0.023373367
0.24088144 0.15664843 -0.12555955
-0.22729602 0.009725438 0.085155904
0.16542287 -0.21534146 -0.057377182
-0.13667013 0.09957756 -0.017985927
-0.21509923 0.017220238 0.0741853
-0.107690096 -0.18691307 0.03886702
-0.060688253 -0.17484607 0.05650294
-0.19402198 -0.025386106 0.084902845
0.19538136 -0.09615997 -0.0060551143
-0.21741131 0.096745886 -0.12363302
-0.049560606 0.21682027 -0.04535332
-0.3335876 0.080576874 0.0035087515
0.30368993 -0.102494024 -0.06279508
-0.09212176 0.077117 0.019017855
-0.13813809 -0.042689312 0.0726094
-0.12765798 -0.048538387 0.05114322
-0.14630526 0.1852779 -0.042539965
-0.11740913 -0.021699024 0.08167204
0.031223131 0.2593341 -0.07355388
-0.2644073 0.08974932 0.06831241
0.15262485 -0.029138213 0.058456466
0.039534725 0.163536 -0.06666705
-0.005989247 -0.106075674 0.066104464
0.12767974 -0.016554106 0.056253597
-0.36053997 -0.0524982 -0.027879404
-0.14141671 0.17282516 -0.03076164
-0.01474679 -0.08907215 0.026770474
0.0037275166 0.015613938 0.08405118
-0.094702825 -0.05258118 0.06413749
0.18401915 0.02742198 0.019760374
0.09483185 -0.09460694 0.043694798
0.2013106 0.26455873 -0.12877145
-0.20497607 0.04578777 0.052579988
0.17898858 0.13101731 -0.09876364
-0.28527445 -0.10336544 0.091059335
-0.092911564 0.16676356 -0.0036372312
-0.20015827 -0.0004724655 0.06611418
-0.10825781 -0.06554771 0.08767996
-0.10238065 -0.16944693 0.05617448
0.0801217 -0.22756979 -0.03482265
-0.17986326 0.18563505 -0.14557704
-0.09329002 -0.09713111 0.09345512
0.13312747 -0.024187574 0.015427623
0.15846872 0.0061911433 -0.10317131
0.13353314 -0.032411557 0.045579992
-0.03971607 -0.054780845 0.036581613
0.1981233 0.014233146 -0.058553882
-0.046003725 -0.2459001 -0.050387762
0.27351624 -0.11187482 -0.051899392
0.09584383 -0.051614653 0.049056135
0.16555029 -0.056712043 -0.014206206
0.18115088 -0.1667224 0.016722165
-0.062323224 -0.020140894 0.019773029
0.20077725 -0.22682837 -0.07080371
-0.016245758 -0.06557321 0.02642216
0.13109104 0.18465905 -0.030967314
0.060616624 -0.1409598 0.06682088
0.04763759 0.0072971378 0.069307044
0.20718956 0.20830542 -0.11032552
-0.2152629 0.10706157 -0.045394186
-0.1042483 -0.15110298 0.0813544
0.0033275972 -0.033211198 -0.011095936
0.3055536 0.09058873 -0.12224424
-0.122915134 -0.18304539 0.053251285
-0.10469822 -0.030207003 0.042284567
-0.10404987 -0.026823876 0.07768859
-0.344068 0.056967583 -0.102703206
-0.08165997 0.033176824 0.024845835
-0.3004957 0.009416501 0.095778815
-0.32394597 -0.096824616 0.15054603
-0.2249726 -0.05092534 0.11028234
-0.03647213 -0.16717672 0.06627257
0.20304957 0.11334749 -0.0058290046
0.12817082 0.05238157 -0.12245106
0.0026225382 -0.11584184 0.04197637
-0.13921258 -0.09242214 0.099916115
-0.015201866 -0.08592203 0.06562904
0.100711845 -0.22426125 0.042765018
0.16870788 0.14342178 -0.05941053
2.1925098e-05 -0.19232485 0.05199267
0.31400436 0.13498373 -0.14306726
0.039227292 -0.09580785 -0.04248207
0.1471678 -0.008204345 -0.05138127
-0.04822901 0.12265936 0.0016952076
0.30714092 -0.07881101 -0.23535115
0.26135314 -0.11059614 -0.10046356
0.16636685 -0.17221491 0.02958565
0.25371224 -0.113599636 0.0028317147
0.19949205 0.03289995 -0.001152827
0.32104996 0.00095046946 -0.06433568
0.035184328 -0.19458583 0.074773125
0.01745851 -0.043950543 -0.0021800103
0.114670664 0.17566769 -0.0024090575
0.0046392605 0.09063312 0.012767214
0.096967846 -0.09892386 0.015748698
0.20795158 -0.11689492 -0.0055921203
-0.11436136 -0.11317265 0.0754976
0.0704014 -0.10196596 0.008835956
0.002081302 0.12043985 0.067885794
-0.19922328 0.09556578 -0.08066436
0.2889081 -0.09154454 -0.06286443
0.014508486 0.09310781 0.049236894
-0.036516927 0.08519379 -0.014968699
-0.03103138 -0.17336488 0.06356375
-0.10992633 0.17990138 0.0038480936
-0.14056788 0.02941173 0.043989558
0.20807163 -0.06080661 -0.022587597
0.16930343 0.14204955 -0.0028874015
0.018778294 -0.014734503 0.07270705
-0.030923046 0.09217703 -0.054084122
0.115994476 0.2662022 -0.13450146
-0.110594146 0.18527228 -0.04072145
-0.09374823 -0.16975386 0.04506236
0.22495966 -0.13356194 -0.032607514
0.18733782 0.07952454 -0.015962753
0.09382926 0.15522973 0.016052855
-0.34924835 0.05198012 -0.037781347
-0.03196595 -0.16380538 0.05045106
0.23811565 -0.1548834 -0.0067164074
0.28178632 -0.12855576 -0.10131138
0.25869986 -0.07098589 -0.043403883
0.06333294 0.0015847487 0.08121687
0.056983024 -0.17302822 0.048653893
0.17403394 -0.21947235 -0.001784939
0.22951397 -0.021451471 -0.017406328
-0.029439202 0.21605693 -0.06636908
0.03893666 -0.2653648 -0.11157098
0.17808037 -0.094282806 -0.02020716
-0.09002213 0.21249007 -0.03968081
0.18264589 0.0101480335 0.02257336
-0.18120259 -0.053981442 0.07722645
0.18786438 -0.0009793993 0.03920225
-0.109221295 0.11239696 0.033957317
-0.3207418 0.0936898 -0.020869415
0.24533875 -0.0582953 -0.033166766
0.13537014 -0.005651114 -0.14528203
0.22347389 0.079355836 0.005279657
-0.16320714 0.024597175 0.044975534
0.27243045 -0.13856868 -0.038177244
-0.15622814 -0.11304349 0.07551241
-0.22170913 0.013189078 0.09364314
-0.1646244 -0.087341286 0.122642055
0.11060028 -0.15129882 0.02629276
0.09452273 -0.18065354 0.0302604
0.15284008 0.15540336 0.013353117
-0.3408193 -0.085899666 0.071832836
-0.007779388 0.07661371 -0.0061698235
0.12660241 -0.23767506 -0.059372876
0.21588513 0.04739162 -0.02046012
-0.12355779 -0.013178821 0.06925679
-0.13916847 -0.10493925 0.10527405
0.028924882 -0.13789034 0.063894875
-0.2727706 0.06790206 0.07053239
-0.20354477 -0.18053569 0.025653407
-0.30465612 0.08207959 0.100158446
-0.06017784 -0.10141085 0.052663736
0.21291697 -0.019713257 0.0072311936
0.13635391 0.17804046 -0.10004992
0.14389119 -0.2033015 0.01270703
0.13229561 -0.09537957 -0.0024011992
-0.27992535 -0.10973621 0.07608054
0.062405046 0.20061035 -0.09884074
-0.3330496 0.0015448432 0.12220126
0.31979117 0.0692282 -0.09286945
0.105109885 -0.22542326 0.008776276
0.11322167 -0.2049788 0.02475304
-0.044206344 -0.1802271 0.05246893
0.0163704 -0.13426425 0.04841451
0.11109474 -0.17225939 0.017509913
-0.009100869 -0.07572567 0.08518096
0.30385756 0.10411682 -0.1805936
-0.12335656 -0.19036935 -0.038621347
-0.19577494 0.06936567 -0.060254592
0.16067982 -0.20180877 0.014224465
-0.020829108 0.23924734 -0.075170934
0.12344905 -0.046036687 -0.12651375
-0.027036142 -0.031932767 -0.022709476
-0.3173781 -0.090535335 0.14216228
0.19493827 0.08660603 -0.08656773
-0.27634016 0.058658097 0.07425457
-0.03323811 -0.16797198 0.05235898
0.14363876 -0.0339296 -0.14252846
0.0102477325 -0.1771448 0.05116551
0.0057084286 -0.20307359 0.04481268
0.14185402 -0.10366096 0.0154869
-0.030739054 -0.017597033 -0.025252145
0.22208974 -0.18474008 -0.10727729
0.023867782 -0.1621842 0.058993928
0.13163123 -0.2731287 -0.11423786
0.13960843 0.1251225 -0.06431124
-0.29053333 0.047202196 0.10064522
0.072277196 0.11000666 -0.11215363
0.04315912 -0.055532865 0.1026868
-0.031520896 -0.08403835 0.061676785
0.25727937 0.16420117 -0.10100464
-0.043240957 0.21360536 -0.011772636
-0.2381646 -0.13050997 0.011594023
-0.24492814 0.06987633 0.025810821
-0.17255916 -0.14036405 0.061648846
0.1997154 0.108338684 -0.011833735
0.27736768 -0.053719677 -0.04698221
0.29231724 -0.07777769 -0.20110975
0.06343192 -0.23165807 0.038902946
0.045262933 -0.27456713 -0.060635455
0.2600456 -0.12888967 -0.01265805
-0.15573929 -0.061857495 0.07892562
-0.2189806 -0.1291126 0.105777614
0.08437233 -0.12097202 0.05642647
-0.22096194 -0.07977747 0.13003275
0.25066042 0.13382658 -0.07926847
0.15122224 0.14163958 -0.035773728
-0.031715713 0.29637173 -0.09340718
0.2566704 -0.18529487 -0.15198897
0.23921672 0.043492924 -0.10239171
0.27793297 0.17336515 -0.1318192
0.31895483 0.09063646 -0.18623501
-0.14178239 -0.1527334 0.06173468
0.07677215 -0.23700178 0.051017404
-0.07865302 -0.21778946 -0.0106562
-0.14653988 -0.16107507 0.05095482
-0.16030887 -0.08556191 0.07382945
-0.19035444 0.13772158 -0.1952239
-0.057272255 -0.033547457 0.048911437
0.16998234 -0.16216756 0.020441322
-0.06539791 -0.020575615 0.06162895
-0.18573289 0.05868084 0.003219428
0.12674919 -0.024270475 0.052555952
0.099085964 0.18879034 -0.002407999
-0.24782215 0.006043277 0.062481076
0.0574227 -0.14305606 0.06879196
-0.06322489 -0.22925049 -0.022955203
0.31265256 0.06647298 -0.18542781
0.08185505 -0.0806205 0.0016933042
-0.12921692 -0.11654089 0.08891532
0.13353732 -0.123724364 0.020127786
0.056681197 -0.1725967 0.068031676
-0.2097118 0.05280486 -0.08458615
-0.06509199 0.20864496 -0.047730207
0.24025515 0.012356111 0.0057975254
-0.07714556 -0.16765206 -0.010153183
-0.00511878 0.13214338 -0.046583567
-0.017370922 0.01494279 -0.07345776
0.10911729 0.19257674 0.009007403
0.01877235 -0.14900461 0.041959755
0.18604611 -0.15248965 0.0026479792
-0.24175183 -0.06287713 0.09286256
-0.17796402 -0.13174649 0.044644557
-0.07277105 0.23075671 -0.046307255
-0.10276725 0.19023935 -0.025367124
0.04087754 0.25702015 -0.07348702
-0.10154369 0.02390554 0.034651916
-0.27829903 -0.08196817 0.084237404
-0.31013584 0.040116772 -0.012375445
-0.20385219 -0.04988717 0.079021916
-0.17286347 -0.07285706 0.09141857
-0.19317128 0.10555289 0.023781922
-0.26992422 -0.091466516 0.09466851
0.108533494 0.15523846 -0.13958085
-0.34303725 0.013736442 -0.060065214
-0.33575583 0.01797056 -0.046996556
-0.09848156 0.033482842 0.07078386
-0.2998942 0.063556075 0.09735733
0.16769 0.22455263 -0.13162784
0.17754067 0.16937885 -0.108882084
0.25418016 -0.1437452 -0.12017516
0.22084238 -0.013762921 -0.07722256
-0.047945708 0.26437488 -0.048107237
-0.31502253 -0.09107207 0.17800644
0.20164113 -0.18542585 -0.031984787
0.029231118 -0.05116724 0.07963256
0.190574 0.21580663 -0.105982125
-0.1850998 -0.07610187 0.10311689
0.1474113 0.12015256 -0.06383503
-0.15411827 0.09629967 0.035693135
-0.009893967 -0.054670487 0.0037604808
0.060184665 0.28337997 -0.100806825
0.15770626 -0.0100406185 0.046730872
0.013872587 -0.01317239 -0.012789314
0.069265746 -0.15164715 0.0633002
-0.29465574 0.01256613 0.1201603
0.0040125707 -0.015983768 0.082687475
0.12969767 -0.18805595 0.050773725
0.30087557 -0.078078024 -0.045770273
-7.7620934e-05 -0.22164597 -0.06868898
0.18599087 -0.21648848 -0.050916325
0.055197217 0.248956 -0.113725685
-0.061038278 0.24137583 -0.23991014
-0.16981177 -0.16066663 0.06279744
0.14025025 -0.038192894 0.037109103
0.19831495 0.21145736 -0.107715376
-0.3665668 -0.10700569 -0.016287217
0.055860307 -0.122545205 0.030112388
0.0700826 0.2956903 -0.14011942
0.08468584 -0.09600082 -0.007835799
-0.1661045 -0.12995714 0.040498096
-0.08070644 -0.1312734 0.09461784
0.2584203 0.0260061 -0.079014294
0.08213802 -0.19642213 0.04862453
0.08538606 0.13787946 -0.12905748
0.05805268 0.23135155 -0.07755934
0.027367424 0.110721566 -0.099715024
-0.12568204 0.1299491 0.024439033
-0.16858467 0.18482506 -0.04703169
0.009671092 -0.06166049 0.017836276
-0.3201624 0.018972728 -0.081110545
-0.22113843 -0.048688926 0.120604046
-0.07565408 -0.10611901 0.096287675
-0.03648328 0.22049382 -0.028042357
0.22427237 0.010144551 -0.0010955419
0.12904449 -0.11577435 0.024157364
0.30204195 -0.05213207 -0.06681278
0.22922996 -0.1797351 -0.02578927
-0.27338848 -0.10192997 0.07705924
-0.17928226 0.19815463 -0.06513874
0.051791925 -0.266062 -0.06810666
0.016764963 0.101902105 -0.060888894
-0.33119556 -0.107762955 -0.009815325
0.018441495 -0.06818438 0.0071800374
0.05882343 0.14556114 -0.046295237
-0.07308494 0.2381646 -0.060491446
0.08918367 -0.09764866 0.0625893
-0.17088 -0.15715231 0.0800538
-0.122857474 0.098154366 0.03449169
-0.20342451 -0.11940309 0.11963861
-0.3235834 -0.0989394 0.039910294
-0.021207467 0.03141958 0.067388944
0.037337523 -0.087826565 -0.054179035
0.13059139 0.15528877 -0.06348072
-0.22573549 -0.044493344 0.122607
0.06108753 0.15289783 -0.0046028476
0.28344715 -0.037453566 -0.05715973
-0.017540047 -0.01761273 0.07718001
-0.23008643 -0.06573448 0.12626283
-0.15086634 0.1692841 -0.071804754
0.14487366 0.1696614 -0.11228359
-0.20411612 0.11049721 -0.09418369
0.18891048 -0.1568369 0.00039391482
0.19364566 -0.22316295 0.016494475
0.05888398 -0.13037443 0.06653331
-0.28499642 0.05041941 0.09544441
0.2527816 0.112945944 -0.087603495
-0.10517054 -0.050688077 0.08420398
-0.07675727 0.20642863 -0.014249455
-0.06380758 -0.059358574 0.072162
-0.10332849 0.17342371 -0.008754107
-0.08256736 -0.107784085 0.07477253
-0.031631853 0.18703979 -0.041265365
-0.3119054 -0.054465 0.11922627
-0.028912446 0.10132477 0.039546542
-0.15670066 0.17788447 -0.21324573
-0.24037845 -0.03252557 0.09271662
0.28612742 -0.124144174 -0.016364908
0.2847031 0.106391296 -0.13005619
-0.14878735 0.17065288 -0.0062351944
-0.24712086 -0.15779854 0.016478077
-0.2923951 -0.08501979 0.10031971
-0.32162255 -0.1085056 0.14594506
0.024595357 -0.23511633 0.0020973673
-0.16161074 0.137089 -0.06375721
-0.13062096 0.18687397 -0.030302186
-0.17302062 0.11507581 -0.07482998
0.22116731 0.19992472 -0.12609048
-0.07330531 0.19730626 -0.02700425
-0.052584577 -0.018892137 0.040336292
0.11684989 -0.038172793 0.010518076
-0.30148494 0.0045970473 0.13039498
-0.3124004 -0.07698853 -0.038791504
0.1914558 -0.23980999 -0.10348957
0.024294188 0.2732187 -0.24189259
0.10954323 -0.17078151 0.06231805
0.045821503 -0.1336086 0.05002132
-0.24523278 0.06934165 0.068802446
0.2741167 0.054315522 -0.090286925
-0.020291384 -0.038794614 0.020823358
0.18336806 -0.23539145 -0.051285364
-0.11929063 0.04180282 0.04750139
-0.07157437 0.10650318 -0.07915067
-0.004555189 -0.162346 0.057594698
-0.062312625 0.16125268 -0.027778406
0.2901355 0.020412384 -0.065796144
-0.29525366 -0.0027880126 0.11160084
0.19587357 -0.037952103 -0.03855444
0.29977557 0.08358197 -0.10267773
0.0055378173 -0.17005451 0.05766352
0.28017876 0.194516 -0.12237768
-0.22851175 -0.061886206 0.094607584
-0.1410908 -0.10340781 0.09220332
0.113933764 -0.16591471 0.028148
0.28334275 0.085816026 -0.26478997
0.25925487 -0.040198278 -0.047150504
0.17612647 0.2401305 -0.17045799
0.119455144 -0.11705137 0.051934313
-0.28914362 -0.026791155 -0.06563561
-0.23956181 -0.036643498 0.122404106
-0.28056875 0.0013419484 0.09390184
-0.01992185 -0.070703134 0.024481736
-0.12450681 0.08680036 0.014871388
0.08586053 -0.26758954 -0.109934494
0.013221626 -0.14576901 0.059635878
-0.15329437 0.17101154 -0.09941517
-0.13134088 0.14884146 -0.023755254
0.24249475 -0.086119704 0.01953907
-0.053903773 0.21157165 -0.04294739
-0.22998096 -0.07878126 0.12333402
-0.14319178 -0.069681905 0.088020846
-0.09109794 -0.097321786 0.07715902
-0.13149929 0.110495575 0.03421727
0.2566272 -0.111979716 -0.012849216
0.049588554 -0.16420506 0.073162496
0.058717024 0.1731909 0.019528292
0.084902175 -0.15288287 0.078730084
0.15995954 -0.09384791 -6.905903e-05
0.16665293 -0.18858294 -0.01708588
-0.03643353 -0.18167485 0.041249096
-0.06879126 0.15241055 -0.018638704
0.11793756 -0.08135105 -0.003958957
-0.27490312 0.051954485 0.095638335
0.2819329 -0.03282316 -0.042056046
0.23561755 -0.10605623 -0.016274715
0.25987598 -0.12612791 0.015249732
0.33532783 0.09187709 -0.128041
-0.06577746 0.058645636 0.034654595
-0.03353895 0.07735531 0.07108906
0.1734035 -0.18065345 0.050406996
-0.0037832367 0.25716394 -0.08148868
-0.012213524 -0.14858119 0.094000906
0.1382157 0.14432141 -0.09841647
0.0921944 0.2091728 -0.013750227
0.27841124 -0.0065384284 -0.07432061
-0.13508667 0.13145639 -0.028235795
-0.15875964 -0.17361563 -0.013116874
0.11741564 0.23293278 -0.09513969
-0.030794997 0.2527377 -0.064214475
0.10397769 0.08992866 -0.14860433
0.04504668 0.24738543 -0.10299505
0.28497782 -0.10671365 -0.010141605
-0.16760609 -0.11451248 0.08364929
-0.35147804 -0.07886309 0.12975693
-0.16026855 0.15151481 -0.060994774
0.22350451 -0.19186312 -0.027123393
-0.10446302 0.24359164 -0.076522455
-0.31769347 -0.069944635 -0.060226098
-0.15739246 0.15031748 -0.17172235
0.07195697 -0.033511784 0.07573431
-0.027447626 -0.19992545 0.06668573
0.19805571 0.24537079 -0.13635236
0.14636989 0.14919303 -0.079184
-0.05498877 -0.20851049 -0.04302639
0.050846916 0.16809084 -0.03344093
0.0018609194 0.29707026 -0.08413077
0.08087212 0.23854277 -0.08486445
0.13360536 0.15548454 -0.07553081
0.037452 0.1675606 0.030411975
0.028298022 0.25269562 -0.064286485
-0.071301095 -0.024388924 0.04561372
-0.14187519 0.18890443 -0.027443185
-0.15105039 -0.18469958 0.058502458
-0.04812842 -0.08388084 0.074356034
-0.1453462 0.0033334154 0.06456457
0.027498668 0.16338584 0.031009171
-0.13206826 0.21858256 -0.17624843
0.0067748395 0.21439579 -0.05993693
0.11726813 -0.2045433 0.057938524
-0.017647952 0.21270292 -0.04910779
0.22425944 0.017908122 0.023559805
-0.23395562 -0.11336388 0.116397426
-0.15417677 -0.17231132 0.0489257
-0.09192513 -0.009430468 0.03091902
0.20656945 -0.08134377 -0.02112439
0.00834952 -0.030648315 0.07789717
-0.07389397 0.23114647 -0.052790422
0.20595127 -0.057206206 -0.036025606
-0.25433993 -0.10800506 0.04858135
-0.24362165 -0.1599559 0.002894522
-0.0638248 0.07402434 -0.01070699
-0.095022656 0.16284777 0.01265888
0.07983335 0.17217165 -0.005114659
0.06875495 0.24387197 -0.11202501
0.24295114 -0.018463746 -0.055911165
0.031005153 -0.08370802 -0.03815702
0.15133089 0.22214465 -0.1137269
0.09168629 -0.1326219 0.024538722
0.20759751 -0.09824871 0.010446515
0.24750896 0.17795095 -0.08939869
0.13948238 0.10839617 -0.028623803
-0.39274746 -0.07544375 -0.011735697
0.13534929 -0.083708376 0.0009402298
-0.08217235 -0.035136785 0.056917675
0.09996409 -0.13266154 0.037552495
0.13403763 -0.22721292 -0.030736653
0.19924818 0.12174955 -0.08484522
0.288385 -0.05612564 -0.07156212
0.07041963 0.27114534 -0.07275563
-0.16578569 -0.082963966 0.07685158
0.28568769 -0.0030055442 -0.0692641
-0.005232022 -0.020766363 0.0029079323
0.3234414 0.046735186 -0.102476574
0.18255873 -0.13815078 0.024615163
-0.14190732 -0.13930058 0.07865297
-0.09297473 0.2418487 -0.21638756
-0.080802254 -0.052622534 0.065208554
-0.08522379 -0.0709886 0.08315597
-0.30026954 0.04474484 0.043804433
-0.214581 -0.13202466 0.00026398868
0.008063001 -0.09543651 0.028475499
0.24984302 -0.1949895 -0.11664872
-0.22890912 0.037200525 0.106940925
-0.37545288 -0.11769256 0.07786138
-0.114193395 -0.026688138 0.052775443
0.18460798 0.08185587 0.011627316
0.049822554 0.1537589 -0.0047013788
-0.07447392 -0.08832768 0.06418993
-0.111877024 0.098816976 0.0218793
0.07860402 -0.22216131 0.061755255
0.018219763 -0.14659528 0.046237014
0.014528892 -0.1020062 0.036577962
-0.03287248 0.092845805 -0.031436756
-0.3420499 -0.117439926 0.08369378
-0.10199633 0.04731185 0.050576724
-0.31440622 -0.03101715 -0.04371471
0.19334793 -0.20182063 -0.018508803
-0.2925095 -0.13161565 0.07086325
-0.21342264 -0.032083258 0.0873306
0.06318484 0.2973561 -0.13263075
-0.283878 -0.13052799 0.015851084
0.28851733 -0.027107263 -0.058538735
-0.16807558 0.10381748 -0.015771717
0.18629797 0.13437068 -0.00017759134
-0.29504147 -0.042038903 0.15244032
-0.18646458 -0.022431284 0.10944702
-0.10706255 0.14411981 -0.013431438
-0.23285386 0.038725693 0.10839421
-0.13629948 0.11126898 0.03271272
-0.17274769 -0.04301681 0.07131926
0.15826917 0.21056826 -0.08879985
0.18118559 -0.010916875 0.039896406
-0.095772 0.08576948 0.018195678
0.19286758 -0.07143115 -0.026117975
0.23329638 -0.023493225 -0.05440116
0.047439717 -0.08973561 0.003778737
0.16562593 0.044575 -0.003969249
-0.08057092 -0.10804093 0.08423856
-0.06227215 0.046866197 -0.010661877
-0.048181538 -0.08415373 0.07280238
0.074482106 0.23773815 -0.07779128
-0.16054417 -0.04868566 0.093067534
0.07263434 0.28044024 -0.10415989
0.22467406 0.14540023 -0.091352135
-0.20043029 -0.04622677 0.08898316
0.19208753 -0.008063772 0.040385265
0.07256213 0.17016073 0.019315707
-0.3290982 -0.001011625 0.14679296
-0.25495222 -0.12025072 0.018404448
-0.0072275 0.13283187 0.026277531
0.043809224 -0.17055985 0.08222145
0.10523034 -0.05443509 0.047393247
0.14604926 0.031089965 -0.12961863
0.01076436 0.20528112 -0.08829236
-0.2819773 -0.0934663 0.05210873
0.07983328 0.13971017 -0.10132387
-0.20876597 0.09757987 -0.0882674
-0.002509255 0.22480929 -0.048094098
-0.26753098 0.04089836 -0.017748462
0.2600362 -0.15598767 -0.020503184
-0.3237679 0.054485127 -0.032843795
0.0868229 -0.17383142 0.043428287
-0.23318253 0.0063131927 0.077621385
0.3065444 -0.067087814 -0.035542164
-0.27782857 0.014061212 0.09896061
-0.31516844 0.03807581 0.010684525
-0.022749504 0.070273586 0.06683005
-0.07070347 0.21542095 -0.026764888
-0.00041515904 0.23645157 -0.05158685
0.06710402 0.22674279 -0.08673776
0.16072546 -0.03804807 -0.11344961
-0.16916664 0.10539657 -0.0013778658
-0.29525927 0.014017765 0.109879605
-0.12967724 0.12950553 -0.008337412
-0.049100224 -0.24014814 -0.03494382
0.0069356975 0.2553992 -0.039372332
-0.08331997 -0.20403117 -0.028409217
0.3092189 -0.018010514 -0.06921034
-0.20488225 0.006750935 0.06577503
0.2443518 0.033838727 -0.10501682
-0.08085648 0.072308086 -0.002199409
-0.01145129 0.11963109 0.0454785
0.24337523 -0.03456353 -0.053317163
0.07573731 -0.1321114 0.07179408
-0.030812295 0.13795945 -0.041122895
-0.18444711 -0.122147076 0.119217746
0.28547367 -0.10739242 -0.08071397
-0.28992444 -0.03771685 0.1292111
-0.015115437 -0.16763973 0.054717366
-0.028027587 0.19758737 -0.051989604
0.25274673 0.14257686 -0.10997674
0.22817719 0.058288977 -0.02326545
-0.3333062 -0.04472743 0.14807683
0.20323682 -0.16513875 0.01082698
0.16977066 0.20874403 -0.10876803
-0.0074942345 0.23119554 -0.054563556
0.2958862 -0.11838411 -0.031212121
0.09379941 -0.12252991 0.030124087
-0.032158684 0.17332569 -0.06729961
0.023504553 0.27646983 -0.06412975
0.23932268 -0.02002794 -0.021278568
0.26936764 0.16858098 -0.12794815
0.09451023 0.087918945 -0.16657847
-0.084904894 -0.14131972 0.067779765
0.061383374 0.117755905 -0.098526135
0.047095317 -0.2726997 -0.09596014
0.18555693 -0.13627955 0.003468236
0.20802735 0.03445237 -0.10302958
-0.3029002 0.01983264 0.1244526
-0.0538373 -0.13148937 0.062756754
-0.245823 -0.021531995 0.08175702
0.0040156962 -0.13573448 0.059671145
-0.0940924 -0.14056115 0.09816316
0.22794044 0.1047688 -0.014881775
0.29814762 0.05837224 -0.06354909
0.25047484 0.1635621 -0.12532167
0.02558112 -0.2456251 0.0145061035
0.175921 -0.00750399 0.0016241394
-0.0069238865 0.13839354 0.043200683
-0.044808153 -0.13458432 0.052871928
-0.2175815 0.0120716 0.1010013
-0.14070961 -0.1171535 0.0673747
0.09613596 0.16352884 -0.06230043
0.21616744 -0.21072274 -0.15887913
0.13219102 0.15178692 0.00242691
0.21521348 0.002713678 0.039487805
-0.08789016 0.024070213 0.03214651
0.322846 0.024797395 -0.11659851
-0.15301533 0.050945047 0.036834475
0.24691531 0.02703629 -0.062567234
0.02404539 0.16653351 0.02339689
0.19346699 0.14126715 -0.0073589184
-0.03805775 -0.038812064 0.033062823
-0.0057183304 -0.08348867 0.05073199
-0.20679888 -0.16509517 0.030518502
0.20479786 -0.20129015 -0.0915861
0.055365596 -0.1568242 0.06563692
0.22369072 -0.025248239 0.041237943
-0.3029563 -0.023652667 0.17271107
0.14520046 0.18954116 -0.11082926
-0.026801847 -0.22514549 -0.04096732
0.23941016 -0.07583497 -0.037190683
-0.08387232 0.0025341017 0.054697856
0.008051772 0.023088455 0.09404532
-0.27452394 -0.12941232 0.030992243
0.1660826 -0.21175042 -0.10322254
0.16174419 0.24730733 -0.12885238
0.30253813 -0.10157262 -0.032318823
0.03190853 0.14286193 -0.016408017
-0.3082066 -0.026652621 0.1491986
-0.29269454 -0.01586707 0.09854039
-0.10733851 -0.007518905 0.06534284
0.1449526 0.24643312 -0.094489284
-0.3162496 -0.05208885 0.12666787
-0.16734448 0.19907483 -0.04839422
0.10912049 -0.1651846 0.062068794
0.022471 0.06068577 0.09621483
0.2491954 0.14011167 -0.1028531
-0.0059566726 0.06887724 -0.03165319
0.037642226 0.1417681 0.031217834
0.21420431 0.08117402 -0.004110556
0.027928412 0.14736146 0.055268947
-0.30745092 -0.03319348 0.12745479
0.060466845 0.13217819 -0.025910974
0.06289184 -0.041733004 0.08935584
-0.24439333 -0.05160472 0.09968586
-0.20811734 0.05666142 0.0059173624
0.2767781 0.025647853 -0.08069366
-0.11536187 0.06571378 0.022997392
-0.28606516 -0.004716309 0.123596154
-0.19198304 0.05664566 0.014628367
-0.1612466 0.1158097 0.0012779679
0.20105755 -0.20558806 0.017070882
-0.23500188 0.031125972 0.07051516
0.061883207 0.12957248 -0.038904984
-0.02653501 0.08734955 0.06368295
-0.074721776 0.18813781 -0.045726866
-0.0547967 0.20921588 -0.028829277
-0.090670936 -0.09367903 0.05980887
-0.036386725 0.070655994 0.08257068
-0.04740825 -0.08398319 0.043473996
-0.009040297 0.0685948 0.029614573
0.033184167 0.007851291 0.077370755
-0.092813596 -0.11214408 0.09118666
-0.0417191 0.2525712 -0.07226546
0.3075038 0.03575313 -0.06281865
0.10143731 -0.0765899 0.046724033
-0.33937034 0.051623605 -0.0947307
-0.23114058 0.053914703 0.022713926
-0.077359386 0.08084848 0.021157539
-0.025807397 -0.26033074 -0.041372526
-0.13788678 -0.10296924 0.072857656
0.27168795 0.06361215 -0.093042
0.064593345 -0.26281682 -0.07292428
0.0458194 -0.10962208 0.07041207
0.26649144 0.15870981 -0.10141873
-0.046461295 0.058020897 -0.03459902
-0.33024076 0.06762299 -0.08125138
0.03418786 -0.16534911 0.074144304
-0.0601635 0.13177964 -0.01860847
-0.068607956 0.022995709 0.016180959
0.20944887 -0.1672969 -0.055127136
-0.08298663 -0.11969616 0.10132656
-0.031054923 -0.1377883 0.09103712
0.23632637 0.11911111 -0.07877316
0.16014326 -0.04803922 0.038616713
-0.29781717 -0.03897348 0.18258053
0.15838861 0.2667513 -0.17738505
0.13429378 0.008510655 -0.13785487
0.12693948 0.17492412 -0.020597227
0.089830756 -0.18266593 0.045097183
0.17940913 0.21424027 -0.09986731
0.14934006 0.04768198 -0.08643532
-0.048585605 -0.095589384 0.07412618
0.18927988 0.06348708 0.017128563
-0.05856194 -0.024715133 0.042596433
0.13420343 -0.1779675 0.04968195
0.21916586 -0.17001358 -0.11259024
0.1452267 -0.008087485 -0.008223793
0.061336875 0.16803612 -0.0021622006
-0.08933104 0.2140592 -0.048376366
0.1578324 0.24577783 -0.11459966
-0.15855631 -0.10142013 0.08366192
0.21295422 0.12326981 -0.08657857
0.21601245 0.025997687 -0.0831886
-0.19882461 0.06623863 -0.034908626
-0.05085793 0.033665065 0.058021985
0.061718054 0.25860855 -0.06543773
-0.030315788 -0.22361024 -0.035299305
0.23286839 0.10079697 -0.08095463
0.03294576 -0.06299231 0.0012514945
-0.05974081 -0.0012031213 0.031380303
0.052936587 -0.21701472 0.067921825
-0.018670322 -0.045191713 0.011730643
0.23061673 -0.20341262 -0.08962236
-0.009689226 0.12694715 -0.08529377
0.20761023 -0.17206521 -0.003997872
-0.17754672 0.057962332 0.00097029534
-0.113307275 -0.18862672 -0.018135706
0.22417067 0.0148964375 0.040193096
0.013485235 0.2334594 -0.048824288
-0.20687473 -0.15962452 -0.0023493122
-0.27930608 0.08958399 0.037818406
0.028861433 0.12162315 -0.04115642
0.188752 0.05601305 0.0040674787
0.28632504 -0.09858622 -0.042820044
-0.27885544 0.06148951 0.085096054
-0.16646606 -0.009526665 0.06056189
-0.20661633 0.11082729 -0.05247215
-0.28143317 -0.04555781 0.11532767
0.14575118 -0.04521168 0.029753791
0.17203806 -0.09959712 0.0048441445
0.15758455 -0.016878877 -0.07609502
0.030839534 0.24950257 -0.113469206
-0.026373718 -0.26332805 -0.0967479
0.14846092 0.14545557 -0.11357604
-0.079265416 0.21408568 -0.013447253
-0.079409316 -0.10257236 0.09025911
-0.13139759 -0.046678472 0.09641346
-0.05266691 0.08960562 0.052597906
0.19505608 -0.00035559956 0.02426722
0.24604471 0.17966095 -0.13541101
-0.08403202 -0.22369269 -0.025815805
0.27194816 0.19329628 -0.116505906
-0.13250622 -0.02711932 0.06968961
-0.08739529 0.22663808 -0.029670965
-0.3082111 -0.044625707 0.12795696
0.2262185 -0.17983289 -0.04688317
0.010775769 -0.23641476 -0.04722086
0.021287981 -0.0057366886 0.04253726
-0.122693926 0.25933662 -0.13125734
-0.14945562 0.21378471 -0.11006669
0.20253342 -0.19602107 -0.029620249
-0.20020258 -0.107467644 0.11101088
0.13864459 0.2861687 -0.14813478
0.0069830813 -0.15389746 0.05912476
-0.0064967526 0.16020241 0.04036462
0.04949043 -0.24675746 -0.08997076
0.15655674 0.20470421 -0.09931709
-0.23177895 -0.10985045 0.1125652
0.24339262 0.05831231 -0.07687549
0.12163582 -0.18810019 0.026313502
0.18444951 -0.1268526 -0.015348191
-0.17572838 0.13952637 -0.1232626
-0.10241573 -0.17361316 -0.04208832
-0.030825084 0.15899898 -0.032658223
-0.12511475 0.04342512 0.040751487
0.24431098 -0.09716025 0.0054714708
-0.14521933 -0.119428605 0.10399493
-0.19604476 -0.13831687 0.06305558
0.16296877 0.23666699 -0.089409895
-0.05056153 0.120793425 -0.08117998
0.14417455 -0.012131162 0.00237132
-0.022489266 0.022099873 0.0055596353
0.20092809 -0.22326645 -0.119043134
0.26079106 0.0033181128 -0.027410256
0.3331389 0.06965718 -0.12934
0.22563504 -0.09623118 0.013351671
-0.16025406 0.12555407 -0.0014826256
0.12843937 0.16529043 -0.092463754
-0.17315829 0.058954556 0.013781794
0.03109927 0.20975204 -0.064401
0.27112892 0.020203026 -0.055873357
0.19043271 -0.17803387 0.0033585886
0.061623517 -0.09042336 0.0486823
-0.018228866 0.1333291 0.04056053
0.16807173 0.20076624 -0.088125944
-0.3761569 -0.09900906 0.042268228
0.080580525 -0.20062667 0.021607203
0.25208193 0.16251133 -0.13820043
0.009613127 0.056088567 0.055675726
-0.025581127 0.10016961 0.040824994
0.057275876 0.15099595 0.0043903287
-0.08858346 0.15832259 0.007351037
0.09508276 -0.05118087 -0.031397417
-0.03543628 0.0806089 0.06651304
0.15884422 0.26062852 -0.15339968
-0.02283881 0.058111485 -0.044821568
0.04790259 0.26999533 -0.055197854
0.14423235 -0.013621979 -0.046882164
-0.0084370775 0.097347304 -0.08664321
-0.23763832 -0.102034956 0.08006477
0.22241275 0.06711502 -0.068833485
0.256762 -0.035838578 -0.048118565
0.22141103 0.13573878 -0.10010704
0.03759988 -0.080980524 -0.008164318
0.058023103 -0.07438475 0.021777358
0.2633635 0.0833223 -0.06968467
-0.1168916 0.044924576 0.053228717
-0.31952748 0.019437838 0.11901819
0.21422552 0.016785184 -0.0036825393
-0.24216108 -0.15815985 0.0019421242
-0.2178775 -0.06994964 0.11894503
0.13501011 -0.039206434 0.04936857
0.044146754 -0.099578 0.012829862
0.21852463 -0.12850216 0.02981382
-0.20029259 0.014878452 0.05462848
-0.08819053 0.02214511 0.020951914
0.2288489 -0.13495815 0.012234041
0.30706686 -0.022212679 -0.044098582
-0.1783571 0.11959672 0.013767439
-0.07863224 0.1455092 0.024169508
-0.20270558 -0.033242427 0.10126559
-0.35898164 -0.06156659 -0.0683492
