# .PCD v0.7 - Point Cloud Data file format
VERSION 0.7
FIELDS x y z
SIZE 4 4 4
TYPE F F F
COUNT 1 1 1
WIDTH 1000
HEIGHT 1
VIEWPOINT 0 0 0 1 0 0 0
POINTS 1000
DATA ascii
0.088196404 -0.116523996 0.066177174
-0.19775356 0.020029001 0.16739514
0.29296345 -0.049526054 -0.16869561
0.11709058 0.031538602 -0.07760262
0.14741053 -0.0075982832 -0.068280734
-0.009932072 -0.19821563 0.17355265
-0.19932978 0.14928527 0.12252104
0.28451845 -0.06857516 -0.13375512
0.1413254 -0.15708442 0.045513935
-0.10012929 0.183612 -0.03912601
0.13202788 -0.10061866 0.010362001
-0.15668634 0.28077042 -0.04077168
0.12259848 -0.09712276 0.0707202
-0.18517007 -0.011042508 0.16679665
-0.2615763 -0.06553318 0.0033003716
-0.020206833 -0.1265063 0.20017204
-0.124842495 0.009144086 0.17290364
-0.23477638 -0.009126197 -0.037904628
0.015245242 0.25861678 -0.16177045
0.22135782 -0.014353738 -0.11939793
0.06370289 0.104582615 -0.051849008
-0.06800654 0.058305956 0.111416236
0.13972376 -0.15620153 0.05875032
0.26608664 -0.081423976 -0.14074504
0.19270329 -0.11606913 -0.031567797
-0.19679087 0.23967892 -0.054081477
0.15505 -0.12973538 0.0019950755
-0.13434453 0.20327748 -0.00062816706
-0.09354491 -0.0860881 0.21090218
0.33026093 -0.05841108 -0.19150466
0.010873098 -0.28384408 -0.07892475
-0.107049316 0.18998696 -0.011344382
-0.21459176 -0.16598909 0.03712112
-0.17374656 0.23141071 0.032433745
0.052130233 -0.10544369 0.086715735
0.0367142 0.16921006 -0.11660678
0.25560898 -0.12983465 -0.06335122
-0.115053535 -0.12097649 0.0723023
-0.037758704 -0.09424935 0.14535043
-0.088511996 -0.20708658 -0.0077156727
-0.06728672 -0.04401034 0.15216853
-0.06953822 0.0086521385 0.13161235
-0.1886593 -0.20286085 0.0010935704
-0.07231735 -0.13971189 0.20750605
-0.060115863 -0.2731383 0.004469538
0.088123955 0.12089339 -0.12835981
0.028209126 -0.02788052 0.03280921
-0.19813162 0.08457446 -0.04023109
0.09787502 0.2542793 -0.22351614
0.034425985 0.03665169 0.029243052
-0.026784021 -0.15178682 0.17860472
0.10125135 0.18015128 -0.20611224
-0.27152 0.06189961 -0.08667507
0.1057324 0.07961772 -0.1249912
0.13521184 0.20285234 -0.2180136
0.19985223 -0.14990401 0.050765056
0.14253612 -0.16687067 0.06074653
0.09176015 0.064469784 -0.069187924
0.27871242 0.0043835477 -0.19369403
-0.13437371 -0.008701509 -0.04251112
-0.1218179 0.07659056 0.104143426
0.14851463 0.03394998 -0.10031649
-0.14787176 0.17540057 0.0042109992
0.089889616 -0.14288026 -0.17031506
0.067672156 0.17213807 -0.18549328
-0.25838977 0.124809876 -0.15207969
0.1502619 -0.018640049 -0.048526667
0.15473215 -0.014905837 -0.05679807
0.19373903 -0.05988705 -0.033227824
-0.10942717 -0.1958943 -0.009723688
-0.0356936 -0.065690346 0.15221868
-0.08326768 -0.11876113 -0.019895025
-0.06889475 -0.080785364 0.15949574
-0.008245629 0.10438995 -0.025792902
0.29773536 -0.018446278 -0.16283813
0.20394725 0.034730542 -0.12162768
0.29092246 -0.15749429 -0.06009146
0.019932386 0.17695291 -0.13151313
0.11518394 -0.15776339 0.074379385
0.1371802 0.021443402 -0.07061981
0.090265185 -0.026644874 -0.023121508
0.035114713 -0.21540758 0.16491877
0.021460975 0.23381047 -0.12988801
-0.008450285 -0.1326887 0.16937324
-0.08301762 -0.110736705 0.0036109316
0.23878935 -0.116950825 -0.05823657
-0.16643952 -0.11159611 0.01286015
0.22546661 -0.08673737 -0.042535096
-0.006393985 -0.071391016 0.13064279
0.11220165 -0.16230679 0.10534947
-0.08087754 0.14028552 -0.008104791
0.034564547 -0.12221347 0.15056567
-0.044876624 0.120072775 0.042177092
0.29344013 -0.07199062 -0.14531587
-0.09311266 0.1628296 -0.0073432964
-0.06671656 0.11900461 -0.0028524217
0.15937643 -0.05945586 -0.2234145
-0.17123133 0.2594679 -0.0023397065
0.19197738 0.13820753 -0.24785782
-0.11406933 0.055940837 0.12415673
-0.09237887 -0.21832426 -0.0020792056
-0.019870088 -0.14296895 -0.01481093
-0.09210387 -0.17800826 -0.01732564
-0.10308252 -0.1336552 0.20016664
-0.04335958 -0.12946352 0.017503528
-0.012402231 -0.17759213 0.1871408
-0.16664504 0.088585585 0.18133286
-0.17613621 -0.040766954 0.0011167858
-0.17156507 0.001528193 -0.009593955
0.15259473 -0.1741021 0.034170646
0.29103437 -0.072412744 -0.14678037
0.1593133 -0.20294544 0.111560404
-0.12941442 -0.22231412 0.016175447
0.18106838 0.14684133 -0.21211696
0.24605055 -0.027774123 -0.09554012
-0.03776015 0.2412237 -0.088011056
-0.05440902 -0.24197738 -0.008754044
-0.009133272 0.24190508 -0.14076807
0.04877053 -0.0005196765 0.06412319
0.056496218 0.13613418 -0.10140714
-0.19614075 -0.09116444 0.014799045
-0.21739699 0.04616092 -0.030725928
-0.21556354 0.11353978 0.12550609
-0.020941112 -0.062335685 0.10792959
0.082167804 0.17474382 -0.1195952
0.015633157 -0.06782398 0.103602394
0.072076656 0.278895 -0.2136611
0.13807894 -0.10880789 0.015723456
-0.14510424 0.1453834 0.03754029
-0.21532856 -0.1322078 0.03205955
-0.1408629 -0.21128522 0.039899733
0.026514169 0.16003038 -0.10859445
-0.06842364 -0.09715103 0.2081851
0.24823312 -0.13294092 -0.068758376
0.1834274 -0.008374335 -0.06786107
-0.030692125 -0.14775512 0.2121872
-0.1756695 0.12717998 0.08994009
0.17597982 -0.060080275 -0.052777447
-0.17831822 -0.044443578 0.19180319
0.12590851 -0.15538698 0.052625604
0.16646644 -0.1009848 -0.02653789
-0.0046406635 -0.11629638 0.18087447
-0.21178196 0.06589377 -0.031858895
0.19931984 0.047416992 -0.16556591
-0.17934026 0.14378288 -0.24985735
-0.121512845 0.13188753 -0.28713533
0.055955023 -0.20364101 0.16051519
-0.0019750926 -0.07378476 0.14737786
0.10164945 -0.13331386 0.064367294
-0.14141567 0.23475893 -0.010309248
-0.19160798 0.13529626 0.12325237
-0.15126805 -0.07666329 0.17751749
0.07903456 -0.03390982 0.020105818
-0.22363463 0.02583947 -0.06385152
-0.2265547 0.16753511 0.06810561
-0.06346475 0.061315708 0.049059406
-0.16305816 0.04419676 0.17771983
0.015520762 -0.07959909 0.09252928
-0.12652768 0.08425272 0.059607495
-0.034240033 -0.1547226 0.19491947
-0.16877179 0.012258162 0.19414409
-0.10042239 -0.064002484 0.21796902
0.05853852 -0.11406978 0.06554046
-0.13311636 0.11700112 0.120199874
-0.020292925 -0.13092746 0.14793946
0.12598433 -0.1550911 -0.2476548
-0.011098327 -0.26637805 -0.041503593
0.10844899 -0.082312725 -0.0047911685
0.12716241 0.18260574 -0.1842869
0.043085866 -0.016842488 0.04691642
0.027895566 0.24090186 -0.19321115
0.04851792 0.09550421 -0.093434006
-0.0057092225 -0.23214535 -0.032419402
0.13558334 -0.20323862 0.12217734
0.18499787 -0.14637229 0.014012913
-0.18439282 0.1918422 0.035316773
-0.14124471 -0.13957489 0.073734276
-0.08029194 -0.25858405 -0.00218032
0.11596929 0.12862483 -0.14487751
-0.1151643 0.082743905 0.07997903
0.272589 -0.026759176 -0.16514395
-0.20567586 -0.034045827 0.007393998
-0.17014658 -0.15719484 0.06386113
-0.00073610654 -0.09993586 0.019653415
0.12299526 -0.22882144 0.11780159
0.07494604 -0.2529014 -0.114426434
0.02912758 0.021164509 0.0051100403
-0.16462912 -0.1526497 0.04355059
0.017953686 -0.11545954 0.11835954
0.04944522 0.21962897 -0.17329091
0.039801724 -0.006493691 0.05727922
-0.20172489 0.11646814 -0.056554012
-0.2251261 0.03799037 0.1593667
0.25730833 -0.1339443 -0.07727753
0.2088929 -0.22080092 0.0035087494
-0.017911261 0.09854179 -0.035055503
-0.22063021 0.11694486 0.12156365
0.1911611 -0.19010384 0.08488782
0.14385152 0.11148531 -0.16327234
-0.12168475 0.10507937 0.108725265
-0.08550144 0.10546522 0.042777915
-0.2077829 0.033746876 -0.060761575
0.20625441 0.1432671 -0.2313242
-0.031139167 0.28665996 -0.15419674
0.06716062 -0.24932681 -0.14860277
0.0757449 0.17608686 -0.16007313
-0.16477583 0.035037875 0.15728024
0.050717298 -0.25379974 0.14038706
0.09981629 0.16024184 -0.18414904
0.2717365 -0.1070892 -0.10657434
-0.009385375 0.21907222 -0.122203216
0.1073873 0.2434479 -0.21787004
0.05210879 0.1330692 -0.07903204
-0.07381936 -0.20075738 -0.002578462
0.077115275 0.18363552 -0.14582367
-0.083565965 0.13495995 -0.0014840118
-0.24833362 0.059268456 -0.13322021
0.12820382 0.060810406 -0.14219585
0.029322863 0.0736342 -0.02373618
0.1866254 0.050737157 -0.119585775
-0.16082107 0.27089357 -0.0073824646
0.2518813 -0.05993491 -0.111161284
-0.16225456 -0.24172734 0.035011455
-0.13034478 0.09305042 0.0775447
0.0962069 -0.05327846 -0.022945108
-0.02424025 0.18278137 -0.07436667
-0.17392871 0.12543775 0.0639226
0.038328685 -0.17212151 0.17804134
-0.13449892 0.16557097 0.019481253
-0.30367646 0.010569842 -0.07922954
0.03875147 0.25246456 -0.1687722
-0.21258663 0.056069776 -0.0020710041
0.10800354 -0.21803729 0.13953415
0.13781229 -0.12726064 -0.019515362
-0.03549623 0.23502044 -0.1434861
-0.19680984 0.13946661 0.0897287
0.15135959 0.20721713 -0.25122046
0.20084272 -0.15041487 -0.01009705
-0.042271238 0.0074688457 0.07095029
-0.19504035 -0.11784773 -0.008523274
0.023291994 -0.07655748 0.10243392
-0.2766601 0.056949638 -0.08882755
0.1859089 -0.09219318 -0.0033934023
0.012426707 0.093507394 -0.094189726
0.28098857 -0.09822792 -0.111306794
0.23444289 0.06802483 -0.18129218
0.28758362 -0.07957563 -0.17441525
-0.15057011 -0.14745574 0.0040323427
0.011439649 0.24233815 -0.12589675
0.23892069 -0.11935917 -0.047633633
-0.01229611 -0.14757536 0.22745658
-0.114463866 0.0033745505 0.17589684
-0.030705085 0.16632508 -0.022136724
-0.1292813 0.12820451 0.08285912
0.09267227 0.20202588 -0.19859634
-0.10890677 0.123634696 0.05340005
0.22674765 0.01665162 -0.18000345
0.07302841 0.09830279 -0.11167247
-0.12781423 -0.115358986 0.19391274
-0.046841983 0.1243269 -0.0072652157
0.21033517 0.019260215 -0.13888851
-0.16094327 -0.03911092 0.18771891
-0.061228447 -0.091823444 0.20260666
0.0041683717 -0.19038562 0.1875211
0.0013807347 0.012592111 0.04626256
0.12764278 0.13350762 -0.20075306
-0.09793767 -0.14105985 0.088215224
0.09566704 -0.088277 0.050719954
-0.06787902 -0.21714708 -0.02642735
-0.046140872 -0.19814616 -0.05153449
-0.054267436 0.12981442 -0.0074841273
0.115784585 0.090351425 -0.09218749
-0.117099084 0.19514407 -0.0279042
0.20243984 0.085849315 -0.14284144
0.07997875 -0.10969213 0.09141263
0.27998993 -0.0027627363 -0.20350745
0.2137993 0.20185864 -0.26160908
0.1286954 0.006217208 -0.08841887
-0.24596648 -0.056668572 -0.058259286
0.0029053725 -0.19084896 0.19770554
0.2233346 -0.08482261 -0.051691473
-0.1034244 0.2839908 -0.07902628
0.17898653 -0.09181287 -0.04023327
-0.18025433 0.1366268 0.068127036
0.020848248 0.016881086 0.029528301
0.17439282 0.047955267 -0.11725564
0.2645116 -0.12889509 -0.079760864
-0.024068939 -0.16393432 0.16823404
0.2227451 -0.16656724 0.026703792
-0.23125392 -0.018851763 -0.051937908
0.108294174 -0.11645879 -0.16442358
0.18696928 -0.23215178 0.036997676
-0.022780057 -0.14228171 0.008968055
-0.06976882 0.26630172 -0.117464416
-0.17328882 -0.03855142 0.20119752
-0.00042270348 -0.12605357 -0.024167696
-0.0020875412 0.10886392 -0.007658996
-0.18829457 -0.060621995 -0.03309181
-0.11065848 -0.13482338 0.040915456
-0.04219158 -0.12767327 0.029342059
0.1198227 -0.051562045 0.00772662
-0.14656284 -0.07301295 0.0063760085
-0.241646 -0.008157437 -0.0632381
0.15946233 -0.11695737 0.04548135
0.0030271858 0.041787125 -0.09955237
0.06668545 -0.27826738 -0.09413154
-0.25092292 0.03350113 -0.054700386
0.07082561 -0.019404829 -0.0025176576
-0.03236885 0.018251799 0.06928396
-0.24362801 0.04376655 -0.058979396
0.26585993 -0.13819791 -0.053627834
0.21383747 0.058299836 -0.16493212
-0.2234738 0.14452778 0.12979533
0.275294 0.062303692 -0.22588542
0.098583095 -0.09406261 0.062069446
0.024330225 0.17930132 -0.08570103
-0.27845746 0.004016361 -0.06638236
0.25474787 0.025825316 -0.1698519
-0.08419636 0.085032806 0.037462294
0.16415112 -0.22647706 0.06691304
-0.17559351 -0.18649904 0.025068745
0.048363194 0.19423617 -0.15111144
-0.2563004 0.041641466 -0.06926835
0.24752684 -0.12212195 -0.031352457
0.030491535 0.031311866 0.024371706
0.13510114 0.089022934 -0.14232533
-0.15388145 -0.14424141 0.048289437
0.0025331636 0.20462888 -0.10362825
0.21558645 -0.1520837 0.044648293
-0.12927985 -0.07717629 0.20175524
0.25809994 -0.06075204 -0.093441874
-0.12803072 0.24265988 -0.030881273
0.016883755 0.3148375 -0.16803332
0.29111844 -0.086046666 -0.12393961
0.17227355 -0.13432501 0.017215554
0.12457296 -0.21774317 0.13279617
0.04366267 0.062742725 -0.03760693
0.25635743 -0.17275771 -0.017719774
0.084005706 -0.23976931 -0.12141623
0.15426305 -0.13043751 0.03134227
0.16504237 0.1959174 -0.2270034
-0.008082841 0.26902458 -0.1904371
-0.05257102 0.22445318 -0.10829811
-0.12156335 0.20997275 -0.013048499
-0.24915002 -0.087658115 -0.05052329
0.14393203 -0.21202697 0.14455608
-0.19087349 0.004687631 -0.025830526
0.15709324 -0.13797413 0.033853322
-0.15945637 0.006897462 0.18277854
0.09503673 -0.0057791155 -0.021915255
0.15328422 -0.13427356 0.037735436
-0.06259445 -0.1514252 0.0057073063
0.008729821 0.2699078 -0.17961226
0.10015786 -0.11834513 -0.25712314
-0.21576394 0.20818573 0.05689721
0.20557766 -0.16243292 -0.003783552
0.029975027 -0.13318557 0.13274178
0.0041403123 0.11081651 -0.04293461
-0.024258388 0.21408513 -0.121944174
-0.22313118 0.16870885 0.062141556
0.21867199 0.060693126 -0.20420882
0.045946743 0.20418777 -0.17146823
0.007445095 -0.1635479 0.1753863
-0.227074 0.0967459 0.096388556
-0.18075699 -0.1292296 0.012462897
0.2804194 -0.09646216 -0.11877684
-0.16756357 0.27029753 -0.011029025
-0.091384 0.06197678 0.089472674
0.2096756 -0.048870143 -0.07730754
-0.25059035 0.019012038 -0.057784412
-0.21207653 -0.01815359 0.1580954
0.09023329 0.09151547 -0.10521419
-0.16511813 -0.14937547 0.04420362
0.10373244 -0.13503791 0.060377914
-0.107972845 -0.05826117 0.19772886
0.07640913 -0.058245976 0.031420995
0.10110444 -0.021411523 -0.34501153
0.26951295 0.006744638 -0.20810287
-0.009364456 0.049922943 0.051771726
0.009445785 -0.18674771 0.17219666
0.003960239 -0.12703094 0.16345191
-0.05403529 -0.14966984 0.200497
0.18554863 -0.23419794 0.019600445
-0.14055474 -0.10869451 0.088515684
0.10495125 -0.21529767 0.14115559
0.2043557 -0.12699659 0.031780515
0.12152856 0.11111717 -0.1101311
-0.20357764 0.11126607 -0.2139519
-0.24172229 -0.064010166 -0.025602898
0.2897697 -0.05979104 -0.14437643
-0.061300326 -0.043852765 0.16062044
0.17785193 0.13119775 -0.20923047
0.030218335 -0.120343186 0.12582812
-0.062090028 -0.010529179 0.10483182
-0.21883115 0.08947042 0.15956649
-0.14707588 0.108069345 0.11904586
-0.14249055 0.13892408 0.052113727
-0.10981864 0.2734929 -0.05911276
-0.007579029 -0.15884265 0.22553515
-0.16291478 -0.16136588 0.05139963
-0.20458128 0.120454215 0.15959765
0.101298586 0.2185763 -0.1942143
-0.085338034 -0.077945024 0.24383305
0.20409994 0.011772486 -0.15763384
-0.18819022 0.009897406 -0.008646315
-0.10280776 -0.07120185 0.19188859
-0.17785071 0.054727238 0.12905663
-0.032993644 -0.15294375 0.20491332
-0.027128348 0.16333082 -0.110267475
0.019411271 0.023127176 -0.005960269
-0.15701339 -0.064346366 0.17378162
-0.15450346 -0.042172655 0.192494
-0.15964581 -0.11501834 0.01051921
0.23257586 0.10280501 -0.20984185
0.0284469 0.16947895 -0.07619815
-0.07714893 0.25499204 -0.08241302
-0.14464657 0.223843 -0.00364374
-0.1365448 0.25176838 -0.018733665
-0.027789436 -0.25748923 -0.02753825
0.19888519 0.03018571 -0.12210761
0.0026796712 -0.026911233 0.10253743
0.045448013 0.2596211 -0.20013079
-0.08935204 -0.008414126 0.13542463
-0.0073744925 -0.04859636 0.12343763
-0.18336998 0.14045492 0.08604593
0.20387661 -0.19338122 0.05161714
-0.020015763 -0.021170404 0.056062248
-0.06456459 -0.10620128 0.23069169
-0.073079206 0.2510858 -0.055791195
-0.07250947 -0.2706954 -0.010959378
-0.10548259 -0.16413885 0.06189176
0.16629563 -0.18143556 0.07414976
-0.19602062 0.005385611 0.19339329
-0.026390832 -0.17901741 0.18059477
-0.043711655 0.014461934 0.07224511
0.28125975 0.02470396 -0.17149355
0.047461048 0.0009515619 0.014903575
-0.19805902 -0.003815199 -0.05259689
-0.05357672 0.030834878 0.07976905
0.25810307 -0.16046846 -0.0051281434
-0.059934676 0.22635163 -0.06864961
-0.10413042 -0.23428062 0.030113881
0.04198843 0.11225296 -0.02993157
0.13977273 -0.11701403 0.037761346
-0.08904713 -0.094260864 0.01407106
-0.16838183 0.19394486 0.06030377
-0.14234741 0.10160631 -0.25747088
0.056439564 0.009613937 0.021187354
0.05031431 0.2538496 -0.22092298
-0.011273135 -0.14638965 0.21454082
0.12813279 0.12637578 -0.15908201
-0.08681857 0.13460705 -0.0088957185
-0.049754187 0.2589101 -0.089790955
-0.1758433 0.03224771 0.13958637
-0.07055103 -0.11165492 0.0010602447
0.04312438 0.09620965 -0.027156785
-0.19705284 0.1746185 0.0715623
-0.01298678 0.24398577 -0.12350425
0.18202405 0.07831449 -0.20440997
0.08931194 0.15194039 -0.12858894
-0.13032512 -0.05214967 0.2047277
-0.10625163 0.30769187 -0.092567936
-0.021666178 0.27938503 -0.15292965
0.05737228 0.226064 -0.19733621
0.20570023 0.0019681698 -0.0978214
0.099797025 -0.005814542 -0.026275493
-0.11070928 -0.035083868 0.1588116
0.14729626 -0.056661386 -0.0081035895
-0.21419206 0.0047399183 -0.027284738
-0.012822022 0.09090702 -0.00925521
0.19055974 -0.11684352 -0.008537074
0.14380673 -0.23575893 0.077168904
0.020755937 0.18909761 -0.12110084
0.19188133 -0.19901486 0.08416652
-0.1508851 0.1934204 0.0479363
-0.22285753 0.20233509 0.035479713
-0.0011243053 -0.11669905 0.15457089
0.17531408 -0.08219339 -0.046508215
-0.045378137 -0.20290488 -0.027535401
-0.025519952 -0.072684735 0.15057857
0.048288293 0.22645126 -0.1542326
0.081150725 0.17109253 -0.14156066
-0.126271 -0.15151821 0.025473097
0.010928173 0.2620027 -0.13645342
-0.13017029 0.02738224 0.15774816
-0.084733255 -0.22009742 -0.1993682
-0.07536144 0.091607586 0.036023412
-0.09786686 0.017562691 0.09676184
-0.23260233 0.087188326 -0.023803594
0.029553393 0.26068962 -0.14308096
-0.18664639 0.1849409 0.06609791
0.06648856 -0.14736342 0.11105156
-0.07594846 0.04050743 0.08012753
0.28516442 -0.1697522 -0.041890174
-0.13159648 0.038497474 0.11862814
-0.18671353 0.084647045 0.11984489
-0.15326992 -0.018865984 0.20342371
0.24526027 -0.1937219 -0.03166429
0.07115354 -0.2124415 0.1686998
0.18336724 -0.05253407 -0.060215678
-0.14573467 0.08960606 0.11887139
-0.15435882 0.04151794 0.1395631
0.17029418 0.1590109 -0.20209052
0.22564737 -0.027436344 -0.11409662
-0.103626855 0.1909995 -0.06896331
0.10576443 0.09657054 -0.13511471
-0.22679229 0.14908707 0.09963029
-0.039261203 0.186526 -0.07248195
0.17252463 -0.22840151 0.056244873
0.22199239 -0.066066526 -0.11718176
-0.10294103 -0.011916674 0.15405194
-0.21868385 0.11929272 -0.22318247
0.0011306871 0.18980502 -0.10379781
0.16409282 0.042386223 -0.11878026
-0.1346756 0.06613462 0.10244032
0.12258118 0.03656458 -0.09131088
-0.115579076 -0.022359964 0.13847771
0.08174034 -0.033018094 0.0039089196
0.045055594 0.2475325 -0.14159194
0.08801166 -0.046735767 0.03333834
-0.055152368 -0.024727948 0.14783636
-0.029005948 0.09375303 0.036725413
0.10106727 -0.11547358 0.06787413
0.052406527 0.1538385 -0.09799599
-0.21768828 0.23745997 0.0534464
0.1615845 -0.23083001 0.089645
-0.20656419 0.049096994 -0.028328843
-0.09935997 0.15647528 0.0091305785
0.03404225 -0.21646437 0.17670727
-0.20609052 0.11289583 0.1031126
-0.16996732 0.07148058 -0.003313
0.20409386 0.017296875 -0.13815825
0.08688989 -0.09020933 0.02155712
0.116183214 0.2500391 -0.26108858
-0.17277648 -0.002958415 0.21187158
0.31899083 -0.055667788 -0.17121202
-0.04855484 0.13177867 -0.027368417
-0.091424055 -0.019713338 0.14056927
-0.14371353 -0.12721947 0.021888705
0.23758988 0.052751116 -0.19474448
0.06091616 -0.033349413 -0.0021240553
-0.024885397 0.015978083 0.0703688
0.10677173 0.014566839 -0.026352944
-0.2057629 0.11700279 0.13749565
-0.002854594 0.19283506 -0.136694
0.055000834 0.21358518 -0.18330444
-0.15158677 -0.02128246 0.0625592
-0.21015362 -0.10586628 0.004798767
-0.042221956 -0.09163363 0.21128517
0.060828827 -0.11480534 0.11039801
0.048083767 -0.10499572 0.15861727
0.21346115 0.09096445 -0.17837724
-0.16147381 0.105202325 0.1227174
0.28824082 -0.010232802 -0.15202923
-0.05626149 0.07392211 0.0445475
-0.009096651 -0.17307277 -0.03873838
-0.14749841 0.06325421 0.14737965
0.003405897 0.24806692 -0.10683326
-0.070592664 -0.048492253 0.17989309
0.21685609 -0.19061129 0.03654054
0.0651067 0.013465888 -0.0019112105
-0.19211549 0.115900405 0.11186079
-0.12392494 0.0942269 0.05054672
-0.19145764 -0.13082908 -0.13776468
0.18239787 0.026737288 -0.09971056
0.040824547 0.1551953 -0.12988584
-0.23532055 0.19315858 0.085428715
0.14830711 -0.0064912215 -0.047893927
0.20426217 -0.039436884 -0.082615994
0.053885773 0.24953319 -0.17371164
0.14725956 -0.16367117 0.041962598
-0.11665248 -0.04092375 0.22601613
-0.18422738 0.052722376 0.18581258
0.22573636 -0.19562916 0.028339276
0.08803621 0.25262308 -0.22056416
0.23539437 -0.1455569 -0.027766986
-0.11624902 -0.05414379 0.17675442
-0.21289334 0.14629467 0.090306394
-0.23158991 0.047217697 -0.024904188
-0.09031695 0.09949959 0.09932243
-0.0023197762 0.15290265 -0.057483125
-0.03757336 -0.049057674 0.12283483
0.06254928 0.19180478 -0.16148262
0.12632819 0.13717745 -0.123458914
-0.21139212 -0.03472993 -0.036639307
-0.050488736 -0.113454886 0.1943119
0.18881972 0.18523434 -0.21175592
-0.18314841 0.0905264 0.12629682
-0.0021171214 0.32679665 -0.20022647
-0.071884945 0.11070605 0.028045606
-0.21963042 0.17221226 0.1171593
-0.010874732 -0.13790877 0.13740012
0.09586523 0.0140243 -0.064857796
0.064389594 -0.13350075 0.13464071
-0.18219437 0.22690561 -0.022217272
-0.030230723 0.15674275 -0.047905233
-0.11232377 -0.071299955 0.19937377
0.0028389287 0.12708022 -0.07001217
-0.28662536 0.0058863964 -0.08586555
-0.26566407 0.08171896 -0.13377744
0.04367596 0.22254092 -0.18501718
0.19594558 -0.03853528 -0.09863577
-0.0361207 -0.17002942 -0.05370028
-0.12534368 0.11153516 0.08510894
0.010658996 -0.12802097 0.13394475
-0.11672283 -0.14116019 0.08072384
-0.02547815 0.2715243 -0.14164491
-0.03638253 -0.080189064 0.17091344
0.03774484 -0.22639894 0.15572305
0.18054654 0.10274042 -0.17409062
0.2030411 0.1046659 -0.21436763
0.12048122 -0.12731314 0.05301802
0.10399854 0.26631698 -0.21102884
0.10035118 0.16056807 -0.18946907
-0.1411479 -0.034033835 0.03705279
0.15684703 0.12373464 -0.17841183
-0.15255128 -0.03685655 0.04403813
-0.19765724 0.17215776 0.09048149
0.013464166 0.11175041 -0.027047774
0.11963419 -0.23420273 0.12192552
-0.12117713 0.10817729 0.052496333
-0.16481231 -0.04012292 0.21825401
0.05248458 0.25107878 -0.20933181
0.21562879 -0.09707771 -0.044618413
-0.19339648 0.14928715 0.13138127
-0.03423994 0.30489522 -0.145319
-0.11938155 0.023337169 0.1347926
0.034820307 0.23878041 -0.19814177
-0.18921928 0.16749454 0.074243516
0.1764362 -0.18816526 0.094564244
-0.111595206 -0.16144225 -0.15577862
0.14635387 0.115851045 -0.19805416
0.11644613 -0.02577822 -0.0046130074
-0.095493436 -0.27250326 -0.018986104
-0.043828897 -0.061386477 0.14656007
0.23248948 -0.18888648 0.049004905
0.09375025 -0.092534706 0.101522215
0.030969182 -0.19294524 0.19731596
-0.0705726 0.14733481 -0.021796716
0.044510223 -0.14956737 -0.121872835
0.22219683 -0.13333218 -0.020604212
-0.09119739 0.09491702 0.07310451
0.19154269 -0.09688639 -0.073766045
0.15999396 -0.0053220363 -0.122990415
-0.0670675 0.019267108 0.10173427
0.14494488 -0.24268518 0.07091358
0.041551925 -0.05232636 0.05598795
-0.15790501 -0.15964805 -0.0043165004
-0.19226259 -0.16306451 -0.14644022
-0.1562797 0.20420371 0.062991045
-0.10394048 -0.253538 -0.014287435
-0.19031718 -0.025610253 -0.0056417356
0.025125412 -0.08566858 0.11277471
0.010763381 -0.19662121 0.16935429
-0.22809768 0.09608935 -0.043193556
0.16238739 0.04098405 -0.12777412
-0.046308525 0.17090033 -0.08084577
-0.062028524 0.20140132 -0.060606275
0.04201757 -0.18150283 0.21124895
-0.1931005 0.093356445 0.15981826
-0.08243289 0.2447363 -0.09490718
0.18545583 -0.21685685 0.0433021
-0.05617425 -0.13068828 0.20148154
-0.07192711 0.09820933 0.025665183
-0.07244602 0.30054736 -0.07647302
0.06132396 -0.024581226 0.006611161
-0.111472785 0.06950623 0.09594249
-0.011538828 -0.18893576 -0.07019105
-0.044926655 0.19782302 -0.10228312
-0.0842534 -0.013936705 0.12703452
0.010407939 -0.20194866 0.15998326
0.20188513 -0.00047154355 -0.13957411
0.050007757 0.19364671 -0.13398111
0.19428231 -0.058425236 -0.034390524
0.10953705 0.1928323 -0.20143153
-0.1434847 -0.03000247 0.19582443
0.2164834 0.13597576 -0.24488807
0.17040311 -0.22344239 0.083460495
0.25600424 0.0641677 -0.18569964
0.1156921 -0.25071588 0.12280608
0.0764328 -0.1207303 0.07418194
-0.15551916 -0.01653951 0.20889182
-0.23549986 0.05882328 -0.031459574
0.010540999 -0.21668209 -0.0828266
0.22758222 -0.122828044 -0.020649532
0.13399112 0.112604305 -0.15698066
-0.14645179 -0.025949938 0.16947326
-0.0534496 0.18146046 -0.014930171
-0.09456415 -0.070035726 0.18102412
0.15992153 0.12866238 -0.18965848
0.025184583 -0.19882561 0.19964358
0.09700229 -0.039030567 -0.024655825
-0.116452634 0.20739394 -0.034372743
0.02210099 0.12383541 -0.09118024
-0.20293246 0.10316317 0.1188291
0.05314411 -0.20013514 -0.081224315
0.06903926 0.050714865 -0.079483695
-0.06805992 -0.14364332 0.21491298
0.031180415 -0.17405744 0.17689914
-0.044625998 0.09267663 -0.010290487
-0.1851358 -0.1530951 0.015918463
0.13802771 0.19132735 -0.19086744
-0.13375136 0.19572921 -0.03343675
0.023244597 -0.2015761 -0.089942075
0.08378325 0.076847136 -0.04131448
-0.22719607 0.18392476 0.1208507
-0.123634964 -0.23666355 -0.002764536
0.18123093 -0.11839536 0.0037342268
0.10868359 0.060549583 -0.0754618
0.049830098 -0.064874865 0.029582143
-0.10337908 -0.17385325 0.043383356
-0.008467343 -0.034700625 0.09174548
0.06840067 -0.10661207 0.10024329
-0.15039803 -0.024690729 -0.041795243
0.059435077 0.06833139 -0.08423832
-0.20918937 0.13866816 0.13915403
-0.18170072 0.028544819 0.049234305
-0.052215885 0.062417235 0.011536578
0.05809692 -0.12622611 0.11789028
-0.0502133 0.14163162 -0.0410851
-0.17713517 0.09044405 0.1635361
0.21980585 -0.04663326 -0.10554011
0.06866826 0.1466145 -0.09062441
-0.25432786 -0.033475038 -0.020227453
-0.04365293 -0.2125686 -0.050940607
0.072344474 -0.07625034 0.07966406
-0.15928207 0.07815042 0.097484805
-0.15292993 -0.12287897 0.067338064
0.021642579 0.22901988 -0.14097928
-0.1439184 -0.04924614 0.067117915
-0.15737388 -0.19465326 0.035292387
0.020615516 0.31001106 -0.18049638
-0.078061804 0.018494818 0.10704855
0.20973657 -0.08890308 -0.045570694
-0.07422591 0.06774213 0.0657688
0.12256417 0.08774539 -0.12080682
-0.07777724 0.038485523 0.10600849
-0.27154568 -0.090736024 -0.032424137
0.14874569 0.2106357 -0.24618779
0.09497367 -0.07921919 0.015623945
-0.22431578 -0.14529261 -0.006680426
-0.15409343 0.082848094 0.116908625
0.1505163 -0.00061910425 -0.06505443
-0.070979305 0.0014506629 0.111659236
0.08258326 0.017096905 -0.038706202
0.10751488 -0.03051673 0.014174722
0.26596063 -0.12533626 -0.057488494
0.26771832 0.064411946 -0.23517445
0.17675643 -0.18844296 0.05275579
0.07235801 -0.12138029 -0.1303426
-0.23737302 0.088144414 0.15352899
0.2085979 -0.15022336 0.006773908
-0.080829546 -0.11062474 0.21914347
0.20465514 0.07032399 -0.17472327
0.2928035 0.059116796 -0.21398419
-0.05378765 0.3043789 -0.13822746
-0.10906366 -0.0053432514 0.14950916
0.07884334 0.20317632 -0.19788536
-0.060824763 0.2681864 -0.08744253
0.05608423 0.041507784 -0.0379355
-0.015104652 -0.15877733 0.17369078
0.09453759 -0.02112544 -0.0325175
-0.23837584 0.0515564 0.12818609
0.23936228 -0.15955509 -0.06316504
0.008159473 0.13601038 -0.04934203
0.17218524 0.026424756 -0.14142461
-0.084499426 -0.056006514 0.15280896
-0.068363145 -0.10088127 0.22804172
-0.12380452 -0.096727826 0.073411554
-0.07891008 0.10343915 0.061539266
-0.067317344 0.07295543 0.059270218
-0.176973 0.22321884 0.013165319
0.13990885 -0.0547303 -0.18927002
-0.17475212 0.21489255 0.052140925
0.0021507074 0.029882709 -0.094705686
-0.03162268 -0.1489734 0.21610917
0.09888441 -0.24791366 0.09211344
-0.21056302 0.10647311 -0.02807007
0.06124212 0.1451416 -0.14570136
0.1977077 -0.09152747 -0.071799494
-0.099726334 -0.09971302 0.22972563
-0.040600073 0.1837143 -0.019810066
0.015274495 0.12230718 -0.09309068
0.010154017 0.27597678 -0.21089043
-0.11740362 -0.23226634 0.023992857
-0.029346554 0.17495783 -0.042094707
-0.19953638 0.11083363 0.08758509
-0.01701415 -0.030736169 0.09814772
-0.16581233 0.020793093 0.17985252
0.20866178 -0.16329923 0.017266221
-0.030619692 -0.08070661 0.048919883
-0.2123169 -0.027505653 -0.013747574
0.14077492 -0.10794596 0.032381155
-0.06760993 0.21681882 -0.0056093126
0.21997198 -0.1952372 0.0032265277
-0.0048757563 -0.17475882 0.16604318
0.09328167 -0.1833515 0.07742257
0.23515584 0.06521976 -0.16522081
0.046644498 -0.08647657 0.049005356
0.024247492 0.023722077 0.04744759
-0.061009567 -0.08637473 0.045528624
-0.11800056 0.052191693 0.063573755
0.09813433 -0.11880981 0.044142883
0.09194713 -0.09697008 0.048390795
-0.17788419 -0.14072981 0.0037594598
0.09731805 -0.092541516 0.041939367
0.058892336 -0.080665365 0.11248096
-0.17477198 0.22198918 0.04772846
0.12278423 -0.088781364 0.0066907406
0.04651518 0.2789775 -0.18772836
0.14761889 0.07599479 -0.13132836
-0.2245505 0.048916213 -0.069402024
0.11517965 0.0051740003 -0.059850488
0.015079347 -0.1453463 0.14222518
-0.24350744 0.05572792 -0.0887181
-0.118879735 -0.04984497 0.19850093
0.21526374 0.010770248 -0.15994109
0.12536025 -0.018539652 -0.062264297
-0.17006029 -0.14390595 0.022356648
-0.029169487 -0.21152599 -0.04743003
0.06899259 0.2651751 -0.20284256
0.25094235 0.06526393 -0.18734272
-0.09195868 -0.026049843 0.15763746
-0.09837634 0.072660744 0.06872313
-0.1335842 -0.24124004 0.010385105
0.08602704 0.17261973 -0.1989522
0.028850527 -0.11183612 0.13404119
0.18220738 -0.03232262 -0.10688303
-0.035445467 0.10085004 -2.24802e-05
0.05513333 -0.09650131 0.082398094
0.02584088 0.040585306 -0.0064244727
0.18064992 -0.16986574 0.01350187
-0.08407594 -0.006892473 0.13321663
-0.20683178 0.103274666 -0.008489856
0.16841434 -0.016582275 -0.076332115
0.112369224 -0.055579677 0.03188045
0.06066527 -0.16742474 -0.06700909
-0.12937541 -0.073679745 0.06238588
-0.035535045 -0.034310173 0.12593377
-0.20427358 -0.040304933 0.031413916
-0.030248135 -0.17143701 0.21051224
-0.16766892 0.010548724 0.0005848677
0.0082740225 0.07850485 -0.027985906
-0.059536736 -0.13596345 0.17312813
-0.1750269 -0.058000453 0.014917247
-0.08355117 -0.12110114 0.20822984
-0.028552769 -0.0031724805 0.07732737
0.10529374 0.13070321 -0.13715851
-0.15275384 0.071034566 0.13526559
0.15604627 -0.0060391426 -0.059995014
-0.18872906 -0.008950452 0.21822475
-0.14200608 0.00089147035 0.16690524
-0.12948734 0.016816983 0.21291402
-0.013942984 0.0009968808 0.039500598
-0.05296829 0.14494877 0.03906199
0.06520419 -0.01224068 0.020392751
0.1659177 -0.026012419 -0.10502964
-0.078272685 0.0904132 0.07259093
0.07050337 0.13923647 -0.10637155
-0.11139366 0.09519902 0.09984479
-0.12954232 0.08442734 0.06181416
-0.0433987 0.0026292654 0.14449498
0.13572751 0.22498818 -0.25727442
-0.003098538 -0.1753124 -0.0226747
0.23993054 -0.18197949 0.0046228506
-0.20573209 0.03482002 -0.028932368
-0.19277631 0.069018915 0.13006993
-0.05760954 -0.012089884 0.12803492
0.0023535702 0.08006435 0.01967357
0.15239918 -0.07304622 -0.044962525
-0.066227295 -0.1031273 0.19215168
-0.04164469 -0.018504458 0.120168716
-0.15476944 0.083728954 0.115174405
0.07002496 0.051129453 -0.05872182
0.14576499 -0.2218093 0.11339159
0.06603606 -0.19578601 -0.09595947
-0.044955425 -0.15368484 -0.013961108
-0.1777833 0.17424634 0.04099855
0.011371346 -0.15396479 -0.040071506
-0.031254157 0.14121483 -0.00919227
-0.23875062 -0.022076467 -0.042297408
-0.039215703 -0.0077166064 0.09412121
0.2557802 0.0030052676 -0.1569058
0.006938448 -0.16324814 0.1765447
0.04850185 0.21931797 -0.15320943
0.17731188 -0.021808002 -0.08634246
-0.06116918 -0.20498851 -0.052706886
0.06705822 -0.0016434883 0.012466522
-0.1527042 0.19093767 0.026093364
0.007159672 0.11092303 -0.021281345
-0.06493735 -0.11009773 0.22923927
-0.15244463 0.26746902 -0.042332605
0.111175515 -0.06290017 -0.2269547
-0.15623626 -0.055601392 0.04767463
0.24913752 -0.108868666 -0.06537414
0.0481705 0.08658426 -0.048155867
0.13519332 -0.15866628 0.08042494
-0.009656356 0.22397341 -0.15620974
-0.024943862 -0.27082506 -0.04598252
0.14455362 -0.15143563 0.038063414
0.12196559 0.05496635 -0.0830972
-0.1390848 0.10120476 0.08969111
0.23093766 -0.21040303 -0.0006655676
0.25439253 -0.09340703 -0.08614599
-0.007764328 -0.0809639 0.131086
0.21716264 -0.025546605 -0.15131697
0.130849 -0.05843841 -0.01247535
0.020518508 -0.19019702 -0.057410106
0.057777505 -0.18910201 0.16592717
0.15303744 -0.22086786 0.09521038
-0.07046889 0.07668629 0.051213633
0.062302474 0.15763386 -0.09961379
0.1899795 -0.1599641 0.03473623
-0.15377344 -0.07044986 0.1855969
-0.2579798 -0.013744114 -0.0576446
-0.050131787 0.026501965 0.086214066
0.24574342 -0.021623595 -0.11757497
0.11764904 0.24435548 -0.21713208
0.041511945 -0.06814447 0.049352895
0.15854928 -0.1033122 -0.20031263
0.084706806 -0.22795546 0.10392631
0.007933142 -0.19852546 0.16710533
0.08876874 -0.18745503 0.1299074
-0.029826555 -0.13571544 0.18712461
0.18192197 -0.05390844 -0.040950835
-0.08353108 -0.11115971 0.18083303
-0.08327853 -0.09430925 0.22772191
-0.09679122 -0.01181334 0.18243904
-0.115163 0.015451272 0.13137901
0.19337638 -0.0043861233 -0.08569444
-0.0144701125 0.2769925 -0.15006253
-0.11927995 0.15927522 0.04607729
0.2533325 -0.19617285 0.02120916
-0.17287505 0.04095402 0.176749
0.043090515 -0.20817523 0.13286395
-0.1533103 -0.17200279 0.042442605
-0.045512863 0.0016966747 0.071078755
0.27427155 -0.074597836 -0.08804464
0.021272691 0.2147208 -0.15872312
0.15842962 -0.17771576 0.070005044
0.17349644 0.1490251 -0.23139891
-0.117486745 0.17244299 0.0380202
0.11764088 -0.100767046 -0.19910009
-0.11451205 -0.04849246 0.14807305
-0.035465874 -0.21031114 -0.036879934
-0.07551535 0.30578253 -0.1381154
-0.11658977 -0.084991574 0.21054493
-0.13991202 0.25643486 -0.040551253
0.18453115 -0.015564472 -0.10565692
0.11373873 -0.16032483 0.0800524
0.29453674 -0.040862624 -0.14994992
0.07128305 -0.037414435 0.0073087965
0.23149298 -0.064195625 -0.09573891
0.028284308 -0.064021625 0.09423541
-0.113780476 0.19014345 0.014267341
-0.24375072 0.009234461 -0.05442887
-0.19269776 0.2004045 0.081837624
0.19262981 -0.017060205 -0.096730195
0.11705974 0.20043528 -0.21358424
-0.00975357 0.21460797 -0.1081523
-0.13051558 0.20077378 -0.017463664
-0.17529665 0.02176676 0.16930206
-0.08878271 -0.04489685 0.17949949
0.09647332 -0.2121228 0.13806458
-0.111540645 -0.080560006 0.07928899
0.26093155 0.06344184 -0.2348941
-0.17423998 0.20379119 0.04433474
0.20404924 0.103869975 -0.19964595
-0.095968924 0.122981 0.07929503
-0.035780072 -0.10223221 0.008068836
0.057565495 -0.18263976 0.16081585
-0.20301972 0.073496655 -0.055944704
0.0037596954 0.1872187 -0.12644367
-0.040505342 0.014138513 0.06456226
-0.16870347 0.091429085 -0.20823291
-0.043293517 0.072461575 0.023627961
-0.06618433 0.008709226 0.07398639
-0.033882767 0.1804372 -0.04688429
0.16584694 -0.18602546 0.08867206
0.024044795 -0.18037796 0.16848572
-0.005208498 -0.22942641 -0.061492708
-0.007249188 -0.25924364 -0.036923725
-0.21707423 0.07331702 -0.07220008
0.10598169 0.024378533 -0.017753577
0.2817624 -0.12507549 -0.07056726
-0.058472104 -0.25734589 -0.0029049264
-0.017592166 -0.24041413 -0.03911686
0.048599835 0.047846776 -0.05080778
0.2573082 -0.07445961 -0.09588955
0.1220299 -0.13262126 0.07572931
0.14885947 -0.0396596 -0.03644934
-0.2745452 -0.064641155 -0.025639147
0.1151643 0.109633535 -0.15664144
-0.13478996 -0.16496703 -0.11057102
-0.20645244 0.13850133 0.14907344
0.23834407 -0.011810805 -0.15676184
-0.100913905 -0.13579662 0.22111082
-0.072017565 -0.11142486 0.2239439
-0.1511065 0.083977245 -0.21397154
-0.15816188 0.012755678 0.015070024
