# .PCD v0.7 - Point Cloud Data file format
VERSION 0.7
FIELDS x y z
SIZE 4 4 4
TYPE F F F
COUNT 1 1 1
WIDTH 1000
HEIGHT 1
VIEWPOINT 0 0 0 1 0 0 0
POINTS 1000
DATA ascii
-0.020165678 0.28633615 -0.24677639
-0.11703849 0.06169956 -0.37927377
0.1478559 0.19825366 -0.021629987
-0.12834033 -0.18176942 -0.0451128
-0.12743825 -0.21685356 0.084822655
0.1608848 0.008328473 0.097959325
-0.039131712 0.28963268 -0.19502223
0.044191375 0.058788784 0.107242525
-0.10508551 -0.0650195 -0.029033668
0.15552919 0.09425499 0.11848238
-0.08053649 0.13347957 -0.14607123
0.0055560083 0.24088171 0.0677973
-0.09250399 -0.09258937 0.21609673
-0.00846924 0.19905274 0.09163107
0.050311994 -0.20791833 -0.023370385
0.12494708 0.09873956 0.016627315
-0.09756373 -0.0124846045 0.18724737
0.16280071 -0.028466113 0.03036295
0.21184038 0.030128445 -0.037563957
0.051759202 -0.15264879 -0.0076375385
-0.11633432 -0.0050834557 -0.053332355
0.058676835 0.09351703 0.07775717
-0.08916788 0.13764505 0.21313633
-0.06874641 0.095633335 -0.02109128
0.06359653 -0.061844807 0.027162135
-0.054895125 -0.017033506 0.050656833
-0.06572699 0.22372115 -0.22462516
-0.045716766 0.050174605 0.22188687
-0.052670624 0.16325714 -0.18711647
0.22633901 -0.07045888 -0.0072888127
-0.0032288125 0.074352205 0.13841875
0.18942553 -0.11955811 -0.08770017
0.111042574 0.20555793 -0.043490272
-0.021065574 -0.033393636 0.028780703
0.13999552 -0.014735658 0.02914271
-0.16378553 -0.21348526 0.008015474
-0.1046374 -0.10166642 0.10215076
0.06501975 0.064849205 0.12492454
0.17395328 -0.1111553 -0.079490714
-0.15020019 -0.12170344 0.16786247
-0.06891825 0.28415602 -0.27675048
0.059421446 0.024419982 0.07502753
-0.11480913 0.06917953 -0.005968679
-0.05140491 0.13455652 -0.10252323
0.026566265 -0.17855018 -0.18920504
0.14971344 -0.0490223 0.07362227
0.027164208 0.087516315 0.06018674
-0.11649473 -0.22402386 0.013164926
-0.058106236 0.2212686 -0.07190445
-0.12627183 -0.042531744 0.13843215
0.090804145 -0.2346902 -0.082870744
0.14930087 0.02081956 0.14757124
0.14634472 0.104704745 0.022440163
0.029329242 -0.09877396 0.036454525
0.033423945 -0.14670973 -0.032363616
0.18509415 0.17533919 0.02314925
-0.04588468 0.2713178 0.08180043
0.21849218 -0.113222495 -0.033928763
-0.05674786 0.23563053 0.031088974
-0.096979216 0.04620096 0.22421359
-0.0054600947 -0.10107645 0.03190475
0.10674842 0.116577126 0.032630652
-0.11715532 -0.16841471 0.1291025
-0.09623043 0.057275776 0.22405596
-0.103654906 -0.058790527 0.17513093
-0.06789831 0.219447 0.12025503
-0.07242683 -0.05627148 0.16741693
-0.07640748 0.11748975 0.097527795
-0.113691665 0.03771869 0.22288671
0.2180579 0.023105705 -0.04168156
0.19545381 -0.0035837851 0.033395894
0.11410811 0.06637983 0.07770148
-0.13703376 -0.06686009 0.11683937
-0.060748413 0.25628102 0.04410165
0.029314227 0.0824302 0.08067731
0.07474103 -0.2832941 -0.049679656
0.09676773 -0.22250564 0.028344883
0.123528086 -0.21764214 -0.1364454
0.025260534 0.051137205 0.13722022
0.0029249631 0.09166125 0.13156584
0.11337771 -0.24000514 -0.107669786
-0.094190724 -0.041961517 -0.30836976
-0.09549622 0.10364424 -0.00097125967
-0.030870697 0.2690184 0.033421174
-0.033880122 0.25443444 0.09089934
-0.12700443 -0.0974244 -0.29353285
0.17142755 -0.105808705 -0.020943379
0.13589628 0.018322222 0.1378325
-0.078316115 0.18901773 0.18364096
-0.049785007 0.22235513 0.13847992
-0.06402183 0.07823492 0.12944826
0.024062086 0.05248441 0.09026991
-0.06093581 0.29240236 -0.16805458
-0.00041997727 0.28664768 -0.0026895278
-0.034763712 0.28542957 -0.28739783
0.105327494 -0.2662623 -0.16618797
-0.06734625 0.05974024 0.20694438
-0.07759864 0.062603995 -0.16826373
-0.055463523 -0.08938639 0.0007874362
-0.105311684 -0.013020713 -0.04419878
0.1341444 -0.12340362 -0.035732638
-0.09599976 0.048897516 0.21813865
-0.15073015 -0.11158193 -0.0068654073
0.04638094 0.03220974 0.12011062
-0.01271282 0.26967975 -0.19673902
-0.111007564 -0.2616733 -0.22411302
0.0117320325 0.15533318 0.023634832
0.10780691 -0.115486115 0.06647913
0.02520427 0.2929585 -0.13913155
-0.13727814 -0.008128325 -0.24819517
-0.061571267 0.25423738 0.1288258
-0.046662554 -0.037164953 0.037867237
-0.10510442 -0.1240251 0.015904944
-0.043179166 -0.07930596 0.04299691
-0.13596827 -0.27070364 -0.17992309
-0.11031664 0.042762093 -0.22188334
0.25953248 0.061321978 -0.100126505
0.10542345 -0.08761916 0.1231969
-0.14529878 -0.24448958 0.01974737
-0.034693073 0.00460238 0.1365665
0.099634565 -0.21350108 0.0597415
-0.102635585 -0.073394656 -0.15267363
0.021290965 0.19826436 -0.016262896
-0.1282656 -0.13730219 0.03364157
0.07288535 -0.11295983 0.075348526
-0.01860325 0.10005978 0.17735277
0.07920314 -0.04030587 0.13105868
-0.15286475 -0.24788558 -0.014036683
0.0075816372 0.08573267 0.0978001
0.107118264 -0.113435835 0.12691425
-0.068881445 -0.08417366 0.16498277
0.026789842 0.30395642 -0.08768478
0.004210225 0.2749211 -0.03575107
-0.11228288 -0.00016043973 -0.059358783
-0.034567982 0.16337231 0.11685461
0.0041002887 0.21526341 0.060445894
-0.1263842 -0.17508392 0.054059837
-0.016005341 0.30112165 -0.06435792
0.13295366 -0.10459297 0.02676408
-0.05912649 0.32147726 -0.07258348
-0.121601574 -0.13718916 0.1494004
0.021483755 0.26068693 -0.08215273
-0.04965832 0.2733872 -0.20590274
0.08674318 0.12498388 0.04038468
0.14690794 -0.033182085 0.10286005
0.007084632 -0.06885869 0.04061105
0.103034355 -0.17275459 -0.018074775
-0.018884 0.12614161 0.091815166
0.057733588 -0.07588016 0.06924773
0.04359878 0.033363435 0.07314446
-0.08686602 -0.014133634 0.19749008
0.03754651 0.06537781 0.10675868
0.100856595 -0.276122 -0.13832669
0.06456268 -0.00834619 0.045978405
-0.054235324 0.22852865 -0.11610715
-0.17577188 -0.18957496 -0.11904375
-0.14678967 -0.30005112 -0.052886423
0.10171944 -0.089581996 0.14515796
-0.02156645 -0.07956652 0.019879961
-0.05872454 0.2196013 -0.17443772
0.016932765 0.19031729 0.0068067797
-0.0354865 0.23887952 -0.03345747
-0.14756477 -0.10174538 0.12477608
0.016301386 0.074228995 0.08630642
-0.080633745 0.07822058 0.20154046
-0.107786626 -0.110086426 -0.25921598
-0.18121623 -0.21049014 -0.18091899
-0.057734992 0.26946318 0.06897034
-0.08814327 -0.014335387 0.20121944
0.11793222 -0.0919406 0.10777927
-0.10732137 -0.03540109 -0.36350545
-0.16026673 -0.24470346 -0.07459419
-0.09322432 0.04058156 -0.1438095
-0.05541163 0.26086727 0.059061058
0.2088814 0.010725172 -0.120376036
0.10352819 -0.045639474 0.15181714
0.20819683 0.05130164 -0.08851809
0.004764152 -0.14245307 -0.006260991
-0.010237437 0.16385244 -0.0066118822
0.13088253 -0.1546399 0.0864704
0.10609319 -0.098533355 0.07833013
-0.098908566 0.05031991 -0.21427968
0.06912424 -0.13005812 0.05185583
-0.07948908 -0.16650914 -0.21453619
-0.008349068 0.35147876 -0.07763386
0.0944165 -0.2379972 -0.065386236
0.07693181 -0.08211536 0.08062975
-0.10713817 -0.29556683 -0.18233415
-0.07184398 -0.033355758 0.20689511
-0.13206029 -0.15094626 -0.041223813
-0.06230704 0.0031011663 0.21531692
-0.124402896 -0.23600025 -0.12146969
-0.10291132 -0.0011190957 0.19578749
-0.0748011 0.15983194 0.19127984
-0.07262568 -0.088171415 0.0277889
-0.015789691 0.26283702 -0.27099383
0.119780645 -0.17350596 -0.1016811
0.19223768 -0.08211281 -0.13626409
-0.0818559 0.09196077 0.20049512
-0.108140014 -0.09866934 -0.22900157
-0.11606083 -0.019907748 -0.01977546
-0.057298683 0.079409786 0.19318798
-0.11725364 -0.17287998 -0.22154951
0.20521595 -0.11915514 -0.05849439
-0.099855855 -0.24126577 -0.22928602
0.002069005 0.07393643 0.06286804
-0.037772812 0.29766852 -0.27297127
-0.053405654 0.21018784 0.15756594
-0.09687026 -0.124962114 0.107355125
0.1484566 -0.1347515 -0.109202415
0.111131996 0.15486643 -0.032312986
-0.06733312 -0.12531446 -0.028245267
-0.0100139715 0.1470003 0.08459293
0.10240712 0.10941791 0.0019159658
0.12232935 0.24302821 -0.057975996
0.012375101 0.28574625 -0.22767787
-0.112209715 -0.003694834 0.19093582
-0.06663395 0.21416487 0.004207099
0.037356682 0.1260981 0.042614844
0.07152765 0.02112663 0.14308716
-0.033720613 -0.14172973 -0.027126556
-0.104742005 -0.0697543 0.21587977
0.1612214 0.07060493 0.07933151
-0.034225576 0.22396697 0.09943305
0.16708396 0.08703041 -0.36013505
-0.111273155 -0.016912833 0.121555634
-0.014523778 0.2497215 0.14365898
-0.08301786 0.07646339 0.18519904
-0.08215486 0.047017228 0.21780606
-0.04147457 0.31042627 0.05238916
0.15180995 -0.12158121 -0.036701985
-0.005115302 -0.08555553 -0.01558427
0.052980784 -0.12572719 0.035816018
-0.019245137 0.30301043 -0.0038567695
-0.04927757 0.1358006 0.17439589
-0.07910196 0.111355565 0.06405389
-0.08207269 0.11778674 0.13314985
0.054185815 -0.008004202 0.06885798
-0.095928036 -0.17868127 0.056890793
-0.10145606 0.040547818 -0.0023590527
0.013860562 0.296643 0.08649785
0.11392961 -0.01892703 0.10425995
-0.077456586 0.1301874 -0.27072895
-0.03434755 0.15749782 0.106682315
-0.060635038 -0.14288776 0.12578337
-0.105167426 -0.06811989 0.20909542
0.07801729 -0.21050175 -0.23935199
0.055496886 -0.26292735 -0.027119035
-0.05278177 0.20670165 0.1481967
0.0018199035 0.21227461 -0.009066413
-0.146626 -0.1371091 -0.029265549
0.16841765 0.22574854 -0.08146994
0.051574133 0.016247606 0.1305708
0.07498314 0.21226007 -0.07804115
-0.12070589 -0.0036736662 -0.06524567
-0.04901756 0.25600582 -0.059553493
0.14495857 -0.036880676 0.14515357
0.18200804 -0.112584576 -0.07240117
-0.086645 -0.14348322 0.16333763
0.008695027 0.26854333 -0.21425802
-0.15959989 -0.21537152 -0.30734742
0.011885062 0.09797706 0.089117534
-0.13072957 -0.12564738 -0.3629923
-0.002171289 0.288273 -0.026227187
0.18764754 -0.093616106 -0.031808205
0.19021387 -0.013033764 0.011969325
-0.08459128 -0.038598403 0.059400536
0.118399 0.23815167 -0.07338987
0.0090037575 0.31207332 0.059333824
-0.05566324 0.28938314 -0.084514245
-0.116714045 -0.057456013 0.21211444
-0.04761928 0.041633956 0.113472685
-0.10205518 -0.09183218 -0.22222862
0.0983884 0.091046244 0.07628801
-0.04169982 0.2620752 0.047187924
0.01862919 -0.070298746 0.055575114
-0.0018540499 0.1778926 0.07339445
-0.046318907 0.3457677 -0.11040249
0.18978289 0.07474359 -0.06044013
0.027404293 0.30559316 -0.13651969
-0.008801212 0.33288592 -0.12103936
-0.03098804 0.28756484 0.0395843
-0.006656204 -0.03012198 0.06556937
0.18818961 0.07606088 0.12115629
-0.052014332 0.09007714 0.14192842
0.008589894 0.27514428 0.096817985
0.1439797 0.062284864 0.09674801
0.10990866 -0.25855362 -0.19646978
0.08450885 0.12332518 0.011376757
-0.056880802 0.13241349 -0.06498809
-0.0068319356 0.25344828 -0.23041217
0.092409015 0.04337554 0.10165644
0.15278924 -0.050582733 0.12905796
-0.024013476 -0.039867572 0.033369716
-0.12902631 -0.01938435 0.018649258
-0.100531384 0.023232006 0.08866266
-0.048430286 0.26156035 -0.29817653
0.16515511 0.055453524 0.012620346
-0.03647889 0.07846793 0.17805032
-0.085836686 -0.19162242 -0.19288711
-0.15696672 -0.26422748 -0.10023069
0.15346943 -0.09256682 0.017678589
0.002577328 -0.16798483 -0.2381583
0.23490946 0.021324417 -0.031066814
0.000734152 0.26776522 -0.046206567
0.15951672 0.087113164 0.06620704
-0.022279147 0.10153616 0.12392622
0.14621192 0.16647188 -0.0006000809
-0.17188162 -0.2999671 -0.17764334
-0.1566867 -0.14828028 -0.35015708
0.07882086 -0.21085802 0.05536475
-0.12772277 -0.0697976 -0.06983335
0.17742279 0.051727142 0.052917935
0.0019446235 -0.05759181 0.039500218
0.10575089 -0.073896185 0.07147657
0.08083973 0.062490135 0.0808742
0.15276964 0.16066648 0.051444415
-0.089730695 0.06508872 -0.33181047
0.14598961 -0.09146445 0.0028707914
-0.070467874 -0.02966129 0.16916709
-0.0688134 -0.14337765 -0.16902138
0.21568112 -0.010766727 0.0085840775
-0.06184879 0.24379662 -0.24540304
0.0840164 0.13453485 0.03316699
0.079217836 -0.21591866 -0.009051845
-0.07235491 -0.081030905 0.21581143
-0.08598303 -0.1296831 0.03482568
0.09297269 -0.11972998 0.09772132
0.099651046 0.1895026 -0.03283262
-0.034264546 0.2646685 -0.2529077
0.19401668 -0.09830271 -0.06559757
0.2400851 -0.013676397 -0.08981693
-0.11109849 0.04873894 -0.31483135
0.03747051 -0.041506507 0.024203882
-0.06730491 0.089554675 0.17841363
-0.06196415 -0.1132928 -0.044981007
0.12602833 0.19345249 -0.0036613236
-0.11799209 -0.08383726 0.100615695
0.12167723 -0.14437324 -0.13151085
0.07960146 -0.22205025 -0.20022811
-0.10723035 0.029875811 0.13139127
0.022802673 0.1430543 0.039272558
0.13542446 0.00785908 0.1342845
0.07937115 0.07200445 0.10406885
0.19841377 0.04988428 -0.07856908
-0.11055486 -0.006939646 -0.27760595
-0.038118802 0.20503771 0.07001681
0.19185443 0.064454205 -0.06207012
-0.121018186 -0.10460617 0.11736269
-0.14692514 -0.13975713 0.18230344
0.18917274 0.12954368 -0.047364216
0.07249385 -0.06091967 0.04486085
-0.026878022 -0.17738758 -0.1895428
-0.015129337 0.23769273 0.08221066
0.17493747 0.21898599 -0.076423585
-0.13839702 -0.14800239 0.08812153
-0.100114875 -0.093141794 0.21580563
0.1430775 0.035586845 0.1013468
-0.071858965 -0.113466166 0.0941506
-0.08076988 -0.124372065 -0.006262887
0.15893167 0.11341548 -0.12514529
-0.13346234 -0.09071664 0.15921271
-0.08269506 0.088819094 0.1002914
0.038557418 -0.14379956 -0.009524838
-0.14763813 -0.12240412 -0.21622342
-0.16910967 -0.16164327 0.015071983
0.047320332 0.0031833728 0.0613335
0.22817376 0.09874964 -0.1031023
-0.12973562 -0.11523218 -0.08404353
-0.088682406 0.11140831 0.05986838
-0.09401144 0.100227594 -0.0731253
-0.010013089 0.2853696 0.05775463
0.19787045 0.05704279 -0.0146533055
-0.11184767 -0.16238101 0.16476344
0.21888176 -0.1067505 -0.18244047
-0.030671753 -0.18193197 -0.21286063
-0.09512188 -0.26246247 0.013335205
-0.11103871 -0.0855181 0.092882134
-0.06952427 0.124526314 -0.085920714
-0.11354137 0.0031600194 -0.41989368
0.013287468 0.21441765 -0.02686257
-0.14637268 -0.17924865 0.12829253
-0.08670147 0.17711908 -0.2723861
-0.10431587 -0.16167429 0.14734472
-0.07753388 -0.15193167 -0.09831531
-0.08672202 0.0476033 -0.18738055
-0.17028838 -0.2683169 -0.03499581
-0.17169467 -0.17071958 -0.34179744
-0.06442233 0.18628673 -0.34840727
-0.014338807 0.25133657 0.051309455
-0.03486809 0.15362696 0.18958998
0.117673166 -0.075168654 0.013096893
-0.08286469 0.06390437 0.17384715
0.093206964 -0.09281058 0.13989016
0.100514606 -0.18953475 -0.101799406
0.022227507 -0.13897727 -0.19657435
-0.0044241967 -0.055567104 0.025485575
-0.029632755 -0.16093719 -0.06764078
0.1144149 -0.16163072 -0.18478876
-0.14152154 -0.061732713 -0.114060864
0.22456388 -0.039075125 -0.010042454
0.048443835 -0.1700498 0.04369004
0.022959655 -0.15817642 -0.20783381
0.12282453 -0.042858485 0.11425313
-0.0007025665 0.2554183 -0.18878487
0.2085397 0.05365657 -0.11308838
-0.029643036 0.25319338 -0.13764715
-0.0806185 -0.031751566 0.21938772
-0.09882121 0.09885037 0.06818529
-0.12403974 -0.2026196 0.10328733
0.09466863 0.10902013 0.06463161
-0.061829485 0.28029838 -0.026278544
0.020856755 0.024171699 0.10844114
0.06977616 -0.21813038 -0.012755835
0.11678123 -0.084722646 0.032816928
-0.092764646 0.03890038 0.06503637
0.037904438 0.13738884 -0.049340148
-0.090625495 0.09910024 0.16213208
0.051107496 -0.09678468 0.048283223
-0.085330635 -0.116534024 0.11659921
-0.08991231 0.04782882 -0.36360973
0.18548033 0.13090031 -0.058333073
-0.08734214 0.17604159 0.14292698
-0.01943277 -0.027451482 0.018340813
0.14709452 0.076202005 0.077793755
-0.097085305 -0.1154197 0.09249148
-0.09655366 0.02060657 0.2212382
0.20383917 -0.024147362 -0.027564177
0.012877711 -0.10081444 0.005163505
-0.044298723 0.26402482 -0.25116608
0.049779113 -0.19798778 -0.03719639
-0.08531514 0.090180136 0.22615251
-0.14141512 -0.1406372 -0.23790862
0.017226879 0.32263824 -0.009063815
-0.16571312 -0.18333058 -0.2553002
0.13625109 0.02639953 0.14544678
0.17751047 0.104119 -0.06321496
-0.071706355 0.23816721 0.05875164
0.03872615 0.019928535 0.14718316
-0.082889326 -0.036998942 0.18497124
-0.024212576 0.22522439 0.12165032
-0.01894926 0.07875798 0.11878349
-0.062767826 -0.1871051 -0.16653357
0.06788196 -0.05758703 0.0472359
0.096274205 -0.14618604 0.09027446
0.13404223 -0.104825355 -0.008771958
-0.14094764 -0.27007192 -0.056446847
-0.108459726 -0.028086986 -0.30793318
-0.15925765 -0.13378382 -0.3977527
0.1524813 0.08521962 -0.06868914
-0.14208612 -0.18721111 -0.31592125
0.15699722 -0.015042662 0.03124777
0.11517351 -0.24179476 0.010827218
-0.14258932 -0.14944845 -0.017277202
0.16752861 0.18210346 -0.006082872
-0.0688543 0.15897664 -0.29678968
-0.05221853 -0.13065141 0.024509776
0.07323874 0.029813476 0.10134984
0.05899669 0.06406452 0.10755273
0.2390936 0.042505894 -0.06422693
-0.12462969 -0.16909596 0.13873278
0.14106691 -0.15947445 -0.059344206
0.13961469 0.02186606 0.09572849
0.18213387 0.112394765 -0.26166117
0.059212133 -0.020703552 0.047224987
-0.15148255 -0.07323478 0.18358952
-0.12932427 -0.031330965 0.036595304
0.07236254 -0.011799916 0.048372608
0.13319285 -0.053145353 0.12925678
0.19159184 0.047805134 -0.0130508
-0.0873019 0.07052934 0.10083736
0.02212866 0.26847973 -0.092055485
-0.12358662 -0.20311247 -0.19006656
-0.0914032 0.14166933 -0.07155397
-0.17537214 -0.25711945 -0.16332921
0.061027724 -0.0035895363 0.13755706
0.11455917 -0.21672809 -0.093752526
0.0010226453 0.004189907 0.05906784
0.09281183 0.14027588 0.055831444
-0.09567744 0.0034572834 -0.19133924
0.0028577514 -0.13652399 0.011717864
0.07114423 0.09947458 0.107596435
-0.012502594 0.040281422 0.085419424
-0.099423766 -0.087558426 0.13534209
-0.10061819 -0.16670388 0.11640456
-0.079035506 -0.14863867 0.087701276
-0.12104133 0.0041779396 -0.27676225
0.13249332 -0.09564525 0.13533013
0.05103772 -0.09838366 0.028952496
-0.15368322 -0.10530013 0.011874046
-0.0103954 0.11140231 0.11754328
0.07908847 -0.027177159 0.07445302
-0.042896744 0.043956805 0.21001613
-0.062368836 0.055003993 0.16778651
-0.047396515 -0.18466502 -0.19517475
-0.065038376 -0.10780788 0.005168631
-0.009474035 0.25844052 0.08413841
0.08190246 -0.034173995 0.1363037
0.07389702 -0.16698332 0.0043914327
-0.07706894 0.010080574 -0.4426115
0.15856826 0.10596042 0.07308315
0.1201605 -0.11778098 0.13533938
0.19778058 0.15344459 -0.05953898
-0.1329261 -0.03833216 -0.20186129
0.11670289 -0.1404811 0.101492435
-0.045090202 0.27238387 -0.30216098
-0.109638974 -0.1943096 -0.31319258
-0.08621183 -0.089202106 0.1841023
0.097033024 0.00018812131 0.0869484
0.13474727 0.032680385 0.14775795
-0.053217232 -0.026998306 0.090710595
0.035990853 -0.16048983 -0.042373605
-0.022918036 -0.06918746 0.035415884
0.16523632 0.12417847 -0.23688847
-0.0464811 -0.07499728 0.08086062
-0.08635733 -0.18346567 -0.034743488
-0.040666796 0.24010816 0.111072004
-0.06654123 0.05517272 -0.11642923
0.077716134 -0.17144553 -0.008981439
-0.016652731 0.061908897 0.14195183
0.14253762 -0.18049073 -0.101876095
-0.051210284 0.13544394 0.09272019
0.16088217 0.2095764 -0.104423344
0.14678152 -0.0075505264 0.13532993
-0.12757204 -0.19383994 -0.013293742
-0.052764323 0.1120403 0.1700264
-0.107527696 -0.049514372 0.024230476
-0.10432897 -0.07711304 -0.24668175
-0.06894917 0.0352584 0.212734
-0.06630207 -0.1411729 -0.008617899
0.24732593 0.017633464 -0.037597857
-0.16397698 -0.18894811 0.012252489
-0.11716985 -0.093126774 0.015591803
-0.11861308 -0.034589726 0.16058016
-0.07334934 0.25464466 -0.21642406
0.08196976 -0.22174 -0.20602511
0.10471481 -0.10398173 0.1427413
-0.1244188 -0.18961695 -0.019326765
-0.04237606 0.22509955 -0.1671516
-0.10338547 -0.24277389 -0.10736954
0.11959998 0.21677034 -0.03942982
0.20804483 0.02906872 -0.043473706
-0.13337296 -0.07378038 0.07724991
0.15034331 -0.048804022 0.09634945
0.19562277 0.05611511 -0.04111451
-0.16086067 -0.16010374 -0.21379432
-0.14778298 -0.107849434 -0.15808043
-0.103930295 -0.10904745 0.04824387
0.18643808 0.12028533 -0.036158174
0.101602875 -0.2123886 -0.04745145
-0.13708612 -0.16406822 0.023241464
-0.076847665 0.04097438 0.22641619
-0.026923457 0.28045174 -0.30691913
-0.08595603 -0.22847986 -0.0897719
0.14308827 0.062362477 -0.013975304
0.0167679 0.3382323 -0.086914875
0.10743102 -0.13844363 0.08353568
-0.13038327 -0.08870803 -0.041819725
0.16288549 0.042170536 0.007821021
0.04423671 0.102428876 0.082639
-0.07411776 0.017298551 0.21561131
-0.03450384 -0.15016165 -0.1808522
-0.16569586 -0.27301824 0.034947235
0.12898253 -0.16586721 -0.0055064377
-0.056802742 0.33553228 -0.14401755
0.17655642 -0.099844895 -0.021563126
-0.021909289 0.17669056 0.024796845
-0.098406434 -0.11974834 0.17856818
0.06704106 -0.18255767 0.062275145
-0.1186341 -7.99325e-05 -0.15665694
-0.0051026917 0.2296109 -0.065618366
-0.124576375 -0.019365583 -0.06590983
0.0018429138 0.04207436 0.048639577
-0.13822407 -0.2392923 -0.13637908
0.10115711 -0.16353384 0.0437716
-0.16670409 -0.13647963 -0.12120638
0.1489885 0.21939833 -0.045300208
-0.11106114 -0.17710765 0.013947426
0.07138961 -0.15642668 0.0014978198
-0.06292131 0.1504365 0.19069336
-0.14441831 -0.2607098 -0.05301171
-0.08020802 0.1394659 -0.0024788692
-0.1401994 -0.10964463 -0.41350675
-0.08738206 -0.16622745 0.12241679
-0.07015377 -0.11397092 0.17950825
-0.0853365 0.18383463 -0.022530414
-0.040916096 -0.001700614 0.1219136
-0.11309307 -0.010799898 -0.16775669
-0.10402103 -0.18409227 -0.027292538
-0.06440999 0.123902164 -0.2585492
0.21813296 -0.012500826 -0.035822835
0.1471924 -0.04925535 0.102325045
-0.11276791 -0.03991312 -0.40505576
-0.043507423 -0.119372375 -0.05532345
0.014321914 -0.15844081 -0.17323765
0.05142568 -0.0262205 0.07862473
-0.1253409 -0.2961191 -0.007204226
-0.15821105 -0.1604171 -0.22694361
-0.118197076 -0.1496138 0.15780652
-0.088079676 0.024170918 -0.17109415
-0.056983195 0.17551753 -0.19824594
0.15234633 0.2130622 -0.076790616
-0.025558868 0.244322 0.15791641
-0.040004484 -0.014953164 0.0620084
0.030081432 0.21185271 -0.08074922
-0.05720288 -0.022469006 0.13601314
-0.10045639 -0.20719787 0.0618965
-0.14721127 -0.18152435 0.07291073
0.04961348 0.09952892 0.096111454
-0.14505026 -0.2743113 0.010870703
0.06668501 -0.15215348 0.10720239
0.23877275 0.02300911 -0.045236066
0.18087085 0.09598562 -0.10530425
0.18529071 -0.13200696 -0.10004201
-0.15058574 -0.2269913 0.10545532
-0.09718495 -0.19910958 -0.3285286
-0.115503095 -0.10985445 0.19838282
0.15858434 0.11185759 -0.27688602
0.0042919586 -0.041690905 0.021872805
0.11591041 0.04191597 0.12031959
-0.047565322 0.08412802 0.16129272
-0.13669083 -0.17369436 -0.06864973
-0.082904994 -0.15045337 -0.016371561
-0.11704797 0.023875987 0.1951418
0.21801901 -0.07686448 -0.09523142
0.034279928 -0.17763774 -0.054598104
0.17395034 0.008802617 0.05921197
-0.08036934 -0.0038562939 0.21370253
0.039988536 0.06595177 0.087065965
-0.0997351 -0.027241532 0.21480219
0.19188611 0.07111796 -0.08417148
0.030164849 0.12822376 -0.0246741
0.10149974 -0.17231886 -0.10309812
0.06378565 0.024476264 0.13112608
-0.07607045 -0.05731409 0.15151729
-0.0003185128 0.13464203 0.017588943
-0.025288507 0.052059773 0.12885594
-0.037354533 0.18466686 0.0888879
0.22440208 -0.044361867 -0.16665292
0.1539394 -0.062601596 0.07800485
0.004845737 0.27225593 -0.02857464
-0.11477351 0.025100818 -0.008668118
-0.059138548 -0.0767624 0.07490487
0.031058522 -0.12186029 0.023776598
-0.070439495 0.1809277 -0.34042108
0.07085053 -0.09823627 0.051193003
0.12606132 -0.059064213 0.15570934
-0.008910103 0.31853008 0.018157715
0.12472167 -0.118680745 -0.012418254
0.161536 0.13547166 -0.038935505
0.057281464 0.10723097 0.059335526
-0.011462623 0.15799733 0.075499006
-0.12566058 -0.20637004 0.09853912
0.059287496 -0.25080928 -0.009054567
0.04584355 0.15341596 -0.028350538
-0.10095623 0.08342434 0.21542321
0.17098524 -0.0560071 0.02118945
-0.10175815 -0.20925382 0.11524946
0.01800797 -0.09788415 0.036316894
-0.14849016 -0.14827849 0.13861649
-0.037511863 0.092527844 0.18250671
-0.048924424 -0.03349168 0.23161301
0.14226218 -0.11982021 0.120102994
-0.009120235 0.25540316 0.115688145
0.028336963 0.062399387 0.14234331
-0.059724137 0.22024876 -0.3583866
-0.07637886 -0.07269635 0.10209619
0.14136392 0.047640853 0.08679751
-0.09497724 -0.059621282 0.19215004
-0.074315965 0.20204595 0.14018656
-0.053639635 0.123760685 0.11790599
-0.027638117 -0.021445883 0.05690803
-0.1486233 -0.09335803 0.11423037
-0.002074822 0.035104714 0.1263576
-0.08528081 -0.1357161 0.03627518
-0.02183508 0.1460997 0.1785734
-0.16165628 -0.21645713 -0.07697245
0.056723054 -0.17118177 -0.097924024
-0.048473697 0.20883435 -0.15608883
0.080313824 0.19284907 -0.04108251
-0.10204168 -0.098825164 0.15580152
0.17041104 -0.003978424 0.022406729
-0.13453288 -0.1279256 0.050433863
0.20095105 -0.098197766 -0.19906005
-0.06541161 0.26618135 -0.040744994
0.06540156 -0.098035425 0.04456715
0.20577976 0.15408793 -0.27306387
0.043510087 0.2128564 -0.07389008
0.013829127 -0.14806236 -0.19724062
0.0746798 -0.07260681 0.07853241
0.089040525 -0.12135661 0.10161621
-0.024201572 -0.065517515 0.053298574
-0.0060889306 0.24773327 -0.113405086
-0.056420334 0.31268582 0.028172065
0.061347153 -0.21380454 0.026910441
-0.08358963 -0.08058577 0.092579655
-0.126663 -0.073912136 0.18169409
-0.06692149 0.14072368 0.11342322
0.03735798 -0.09282846 0.062086895
0.11299086 -0.06770165 0.05778409
-0.14416616 -0.038922694 -0.3712936
0.122008845 0.011884512 0.07164539
-0.0948385 0.039308637 0.18444607
0.05655719 0.07666303 0.09024278
0.11041792 0.21712874 -0.047368053
-0.06417204 -0.00512724 0.15290561
0.020776993 0.030070763 0.041857827
0.16201717 0.08777077 0.09016431
-0.051027138 0.2695573 0.05716881
-0.0920082 -0.10040753 0.058102477
0.13438019 -0.06735323 0.1282697
0.08211897 -0.05839224 0.0651363
0.054307844 -0.19214246 -0.051897503
0.11020302 0.09173512 0.053795997
-0.17093281 -0.23023081 0.047931585
-0.04550042 0.34677216 -0.02344813
-0.13247015 -0.011890804 -0.42303658
-0.04393661 0.21448414 -0.107975245
-0.054855496 0.22699216 -0.054220464
-0.024618424 0.20224611 0.0072801174
0.09335996 -0.16991808 0.048668582
-0.12496773 -0.062885776 0.1221053
0.07242329 -0.0020363068 0.13581462
0.20655346 0.012231075 -0.045882806
-0.023836743 -0.14022464 -0.08802866
-0.13669695 -0.29181796 -0.004537884
0.11709817 -0.14121684 0.10292446
0.16335854 -0.0015583357 0.07312763
-0.045423847 -0.023249267 0.1653008
0.06743066 -0.14592835 0.05910209
-0.058420464 0.2446156 0.08539289
-0.120509736 -0.18623625 0.108577825
0.0043818387 -0.17178175 -0.24173206
-0.09659442 -0.059493575 0.22208683
0.21200866 -0.12795891 -0.11424574
-0.12094359 0.0019568952 0.024824511
0.14534105 0.07194454 0.10324488
0.18340324 0.11189432 0.03531034
0.044365987 0.045079622 0.11583471
-0.04033763 0.25963846 -0.3151797
0.14078909 -0.16730036 -0.112221636
0.09576999 -0.2592111 -0.15483451
0.11667107 -0.1100508 0.13269822
-0.0150397075 0.10249784 0.0724396
0.13113408 -0.17057599 -0.09630095
-0.10538369 0.0613533 -0.37373194
-0.10945282 -0.045051225 0.216682
0.03008886 0.11786475 -0.009396124
0.08236226 0.18104814 -0.11440421
0.12066064 0.11101976 0.03109883
0.19003305 -0.14266954 -0.07773108
0.071960114 -0.086714774 0.08064202
-0.09981871 -0.08634859 0.16936284
-0.039521337 0.04391296 0.1868005
0.12742017 -0.16558403 -0.102688186
0.08965537 -0.23145889 0.03140062
0.10125306 -0.105934314 0.057036266
0.06911894 -0.117691875 0.05357111
-0.10946851 0.057842128 -0.41723758
0.10547241 0.13876064 -0.015155319
-0.11332239 -0.15391868 0.1366804
-0.013819062 0.28949854 0.035206392
-0.06034999 -0.15437903 -0.19658646
-0.025793646 0.061749574 0.065204464
-0.07179822 0.21564165 -0.026294768
0.17863472 -0.04331712 0.03152131
0.09023288 -0.14241461 0.027852623
-0.16048376 -0.15247728 -0.044063956
0.13132247 -0.17680605 -0.0818665
0.015845237 0.066979796 0.15324402
0.06550606 0.03158744 0.054503318
0.03021311 -0.19540483 -0.10116874
-0.15697348 -0.11281311 0.04785214
0.08771394 -0.04109983 0.113529414
-0.11447411 -0.054213062 0.21276395
0.10412132 0.08515027 0.038633563
-0.06154071 0.27846444 -0.06038003
-0.08778757 0.18342844 -0.054187868
-0.12372858 0.046266478 0.22330873
-0.1388657 -0.268314 -0.19966896
0.11555656 0.097743206 0.03241952
0.0471475 -0.19591108 -0.109374546
-0.025118072 0.035164744 0.08166993
0.095333084 -0.14580603 0.02493304
-0.07343691 0.12631276 0.19331844
-0.0330922 -0.07514262 0.032273598
0.010185898 0.029271211 0.057159472
-0.052805234 0.24200083 -0.13844721
0.22900033 0.034347627 -0.15673201
-0.10039362 -0.19919218 -0.11539089
0.12905656 0.055546533 0.11279164
0.2321424 -0.032292143 -0.16132626
-0.10951488 -0.25267255 -0.051306326
0.02993949 -0.13955103 -0.028907798
-0.13774979 -0.17772195 -0.016272726
0.15774992 0.045161434 0.11785045
-0.015614354 0.23894699 0.10493295
0.07155365 -0.1254281 0.05305415
-0.09543083 0.008213693 -0.40973952
-0.09389061 -0.022721367 0.2182768
-0.10584015 0.042053238 0.079754435
0.08496021 0.026934579 0.056892868
-0.15249489 -0.14474092 0.12798677
-0.050897453 -0.17416441 -0.2157504
0.1619011 -0.15606742 -0.036705896
-0.1276497 -0.11079673 -0.03265053
-0.061335582 0.29488742 -0.2345777
-0.093896404 -0.14739686 0.072477534
-0.06555623 -0.027737282 0.08116647
-0.15834577 -0.26038346 -0.25117144
-0.11797542 0.029127488 -0.20614415
0.070278645 0.076840796 0.095598415
-0.024130626 0.27200565 -0.053591974
0.16637914 -0.039207976 0.023425749
0.07817372 0.06799358 0.11873587
-0.12515078 0.03789096 0.1267672
0.19921707 -0.039527193 -0.02943266
0.14165775 0.14473246 0.06858594
-0.015746366 -0.10247948 -0.02736757
-0.115484215 -0.05786758 0.06937038
-0.005067476 0.28982463 -0.075390816
0.22538497 -0.057788998 -0.03547946
-0.03781258 -0.16028643 -0.19964488
-0.019296383 -0.15260525 -0.015011443
-0.10537947 -0.028228244 0.20319471
-0.05524953 0.041164506 0.16202538
-0.14341988 -0.17953196 0.043720987
0.10541954 -0.109055586 0.02689174
0.17250533 -0.17400768 -0.16148035
-0.00539667 0.082478836 0.12784028
0.13163535 -0.106496006 0.0040562255
-0.0413143 0.27206966 0.07575275
0.13835065 -0.15070803 0.11016633
-0.09742201 -0.15116325 0.089607306
-0.07000864 0.06799936 -0.3048766
-0.06862775 0.1215084 -0.2458182
-0.09991382 0.064543456 -0.2738751
-0.15278421 -0.106367916 -0.23350504
-0.08699115 -0.21573922 -0.04413826
-0.012259073 -0.1422583 -0.022962501
-0.06993804 0.22154583 -0.22753885
-0.046470206 0.2590318 -0.3583108
0.25614327 0.028008804 -0.02433495
-0.088297 0.0134531045 -0.41493237
-0.060339585 -0.118264616 0.09947074
-0.008141884 0.24815908 -0.21367078
0.21696323 0.02690117 -0.09922737
-0.16296376 -0.28574547 -0.08582022
-0.089224815 0.08203203 0.17518556
-0.08679176 0.053056277 -0.16613875
-0.046421103 0.22195637 0.053663228
-0.040010482 0.20625038 0.088483766
-0.135505 -0.26793057 -0.10722666
-0.026218908 0.12470321 0.12661287
-0.10812527 -0.061193015 0.19068864
-0.10320527 -0.2705853 0.003098559
-0.088479884 0.057929296 0.21137005
0.19904938 0.11875495 -0.052801427
0.040914524 0.08234718 0.121280305
0.021223912 0.13096814 0.03304919
-0.08831601 -0.19162601 -0.07513256
-0.1040166 -0.03278184 0.097107284
-0.060545873 0.07463498 0.22026329
-0.1334494 -0.08691343 0.08675962
0.033660125 0.032707565 0.13847914
-0.13354464 -0.21308538 0.039156716
-0.07384208 -0.15648781 0.12491594
0.06585444 -0.2503282 -0.070996955
0.064865924 -0.2971495 -0.087391846
0.10338429 -0.20565552 0.05532366
0.100531854 -0.20548154 0.011929522
-0.09935007 -0.10284123 0.17522863
0.115362555 -0.04496684 0.072491124
-0.048921924 0.16601142 -0.22763686
-0.046583638 -0.06849883 0.013068007
-0.12023424 -0.09329542 -0.004230206
-0.14888152 -0.17235646 0.049702045
-0.119623154 0.050794054 0.2242963
0.032227963 -0.15958297 -0.04287718
-0.054340094 0.047552656 0.15882099
-0.14250629 -0.080803245 0.04705932
-0.06322009 0.11800858 -0.1648732
-0.013965095 -0.1015671 -0.015519911
0.11135581 -0.24699771 -0.21080749
-0.009709829 -0.07226766 0.060563087
-0.0145199485 0.28158095 0.015821343
-0.07656579 -0.13971218 0.061210684
0.009457964 0.33196223 -0.088483356
-0.029725509 0.035628162 0.07940376
-0.1144255 -0.02908398 -0.047324076
-0.061219875 0.1671195 -0.08531593
0.0015255335 0.2666435 0.03501884
-0.058959138 0.2119122 0.12436899
0.17372485 0.13422787 -0.14121462
-0.16189809 -0.28313142 -0.015986037
-0.07150447 0.04733093 -0.025299538
-0.1649564 -0.15971532 -0.011512996
0.06077459 -0.18354936 -0.12708427
-0.13031003 -0.28084034 -0.06676243
-0.05532622 0.012048027 0.23193482
-0.057884727 -0.062142078 0.07523636
0.21537364 -0.05233154 -0.030063704
0.15763071 0.10750477 0.07574198
-0.0853059 0.1152191 -0.19721366
0.010433308 0.2920033 0.012437463
-0.0851411 -0.1115099 0.1158508
-0.10000151 -0.06984979 -0.29829788
0.26210445 0.010133474 -0.059975646
-0.004720786 0.17504412 0.10345348
-0.078361094 0.18187234 0.062771976
0.15165347 -0.11121529 -0.014307149
-0.051360212 0.20230591 -0.12336863
-0.09411218 -0.10148316 -0.3380759
0.17553057 0.20328459 -0.09044401
-0.048579797 0.109391704 0.18316118
-0.044076253 -0.10517089 0.04888611
-0.15185003 -0.21410173 -0.2282131
0.04431747 0.117841296 0.07045485
-0.15585214 -0.18706976 0.10402004
-0.12832059 -0.12159884 0.15037319
0.2495509 0.010336684 -0.17139287
0.15824212 -0.07331357 -0.0055172276
0.2052734 0.16798605 0.006834912
-0.1044107 0.026654722 0.2111482
-0.05289609 0.13599381 -0.4059667
-0.087400936 -0.061417587 0.18058251
0.110102676 0.006238679 0.09796635
-0.033761207 0.06984659 0.2285231
0.12687117 0.22741486 -0.056462985
0.11344329 0.031306684 0.123657145
0.07207677 -0.13259867 -0.0007005625
0.19993073 0.14954539 -0.22970082
-0.13175504 -0.29175282 -0.19561763
-0.00773592 -0.12100837 0.002811178
0.11600337 -0.03162166 0.06167702
0.2049874 -0.088434555 -0.033869404
0.1181641 -0.01816338 0.06558088
0.13852099 -0.09608301 0.054508626
0.16690537 0.08843485 -0.12884349
0.16658022 0.09174541 0.09117617
-0.11083821 0.010659302 0.19760618
0.12357279 0.07961986 0.0925618
0.093672186 0.017619427 0.10898766
0.0853514 0.112227015 0.03089332
-0.021084135 0.19618928 0.11734751
-0.15894915 -0.12699516 0.061605304
0.090787545 -0.053185854 0.12263603
-0.11538156 -0.16485862 0.15941346
0.18227687 -0.04169519 -0.023890445
-0.08280262 -0.17096551 -0.19818291
0.1710618 -0.117571734 -0.06685317
-0.1545604 -0.15827724 -0.012917447
0.1191273 0.12250348 0.04208071
0.105955146 -0.0996051 0.13008496
-0.051991995 -0.035945747 0.2125488
0.032002844 0.08378241 0.08324963
-0.087664716 0.14873798 -0.30825573
0.14967011 0.038720015 0.046278354
0.003725757 0.04549773 0.10984141
0.12959558 -0.019057978 0.14626828
-0.048076145 0.026449077 0.04755214
-0.14998953 -0.24952295 0.041474804
-0.07419463 0.02966739 0.1073391
-0.03886679 -0.121225044 -0.06967218
0.07471776 0.06256234 0.10619392
-0.0491583 0.21252677 0.17622559
-0.027727326 0.28438276 0.039242532
-0.12690128 -0.19326805 -0.21316041
0.15882573 0.016056895 0.06981806
0.22231218 0.06830427 -0.021517897
-0.07276061 -0.08131221 0.0353358
0.13053633 0.25465447 -0.11396956
-0.1693675 -0.21319944 -0.11344295
-0.07079654 0.10441033 -0.3979487
0.12430177 -0.17245997 0.11468735
-0.08617589 0.099460386 0.17365454
-0.13127902 -0.17315729 0.12458596
-0.032037064 0.29100597 -0.052502412
0.2306986 -0.01907355 -0.034353465
-0.037727106 0.24278241 0.0031925966
-0.069901146 0.16132958 0.13119584
0.22820547 0.034906045 -0.14027031
-0.1512355 -0.16084613 0.07436987
-0.10254931 -0.21580337 0.119223244
0.12104903 -0.18023024 0.116464965
-0.14012754 -0.081346795 -0.3463704
0.20637774 -0.06647098 -0.010415218
0.10266694 0.17840782 0.023330593
-0.04358891 0.109015286 0.14508153
0.11060622 -0.13638066 -0.038369637
0.14530401 -0.06179399 0.116068006
-0.10722457 0.07045732 -0.023093466
-0.13080123 -0.27531126 0.020707047
-0.033500064 0.093179256 0.13564476
-0.10732854 -0.18635365 0.12305051
-0.0857161 -0.17762373 -0.14687979
0.009223148 0.08023849 0.09781673
-0.14897063 -0.20058303 -0.13511041
-0.12653902 -0.14303184 0.15424067
-0.09498984 0.087657936 0.050059978
