# .PCD v0.7 - Point Cloud Data file format
VERSION 0.7
FIELDS x y z
SIZE 4 4 4
TYPE F F F
COUNT 1 1 1
WIDTH 1000
HEIGHT 1
VIEWPOINT 0 0 0 1 0 0 0
POINTS 1000
DATA ascii
0.10995288 0.08264373 0.029194344
-0.109339744 -0.14712918 0.006729448
0.120566905 -0.15950479 -0.103955485
-0.16653113 -0.052606437 0.055392735
-0.11192691 0.19243324 0.18293461
-0.19753711 0.21337634 -0.05597392
-0.03998075 0.25517058 0.15958026
0.05667846 0.2047241 0.16624218
0.24464633 -0.13314682 -0.13552159
-0.0059014005 0.17829919 0.15241383
0.0602348 0.17040794 0.09762591
0.05710679 -0.2869858 -0.17588916
-0.26516017 -0.047173075 0.068891875
0.016560527 0.22404502 -0.0798907
-0.12393432 -0.13352077 -0.02284623
-0.19831678 0.14702106 0.16877212
-0.02145426 -0.13645963 -0.04311094
-0.009918047 -0.2651432 -0.14908908
-0.08728888 -0.116714045 0.019491734
0.30888513 0.13041691 0.028015587
-0.1713177 0.08092718 0.112362675
0.0098915845 -0.19010863 -0.06829335
-0.0870602 -0.30860832 -0.104515195
-0.09309673 0.1134322 0.1557176
0.29605076 -0.11368578 -0.14326501
-0.11816655 0.1718643 0.1537167
-0.27357957 0.051122542 0.14592896
-0.10156175 -0.15452112 -0.012292202
0.160079 0.09977865 0.030861277
0.15678579 0.14337951 0.04050199
-0.08535828 0.027232243 0.06606158
-0.11347739 0.20678186 -0.065116316
0.20295133 0.081532635 0.0010281393
-0.22420879 -0.093528904 -0.1746099
0.15364707 0.15673283 -0.20188105
-0.20635325 -0.17538619 0.0130036315
-0.036392312 -0.21030541 -0.08643552
0.18770495 -0.060800847 -0.07644759
-0.27518046 0.052268066 0.1605859
-0.27731046 -0.047663987 0.0986768
-0.073450625 -0.20679098 -0.07506689
0.1796497 -0.0758198 -0.07621385
0.26521754 0.17415912 0.023423286
0.10367599 -0.0069707395 -0.020875653
-0.011991193 -0.15917847 -0.06669974
-0.2025901 0.20056736 -0.02845784
0.1492313 -0.28006163 -0.1838474
0.2759012 0.0545653 -0.009487318
-0.08282014 -0.19380309 -0.07917645
0.27036572 0.16714863 0.04417753
0.123743206 0.06743909 0.011964389
0.18079022 0.111276455 0.04791282
0.21025155 0.13893576 0.030370697
0.29790038 0.008508484 -0.04682391
0.015827945 0.07784068 0.08808771
0.25031635 0.057731736 -0.033814494
-0.17025852 0.0041074515 0.08889729
0.25620687 -0.0442322 -0.07953012
0.15427083 0.072244056 0.020281771
-0.19693215 -0.23357461 -0.026232399
-0.25414643 -0.08475322 0.06220512
0.0107053295 0.110114515 0.06879964
0.11901763 0.20302376 0.091780275
-0.17762347 -0.23001544 -0.03654096
0.1276777 -0.18447912 -0.11775302
0.14292753 0.26790556 0.11614015
0.27362117 -0.018681498 -0.07719227
-0.08829101 0.021150682 0.08605657
-0.14865729 -0.21363834 -0.039296784
0.26794976 0.14325601 0.0083214175
0.08412426 0.08472257 0.06490492
0.03343175 -0.12838894 -0.0800567
0.24620192 0.2072188 0.062481996
-0.13917501 0.104814395 0.13252991
0.030537391 0.2211134 -0.0044292943
-0.20786528 0.10586793 -0.10988642
-0.06838628 -0.020625427 0.058189675
0.047336806 0.20779182 0.12331857
0.11171967 -0.26246956 -0.15165511
0.33309877 0.046145227 -0.04907072
0.14281212 0.069453634 0.05643257
0.075426094 0.26166376 0.13897277
-0.1191668 -0.02299381 0.09315778
-0.16643545 0.1514013 -0.042818792
-0.07338924 0.28675407 -0.051217556
-0.19235721 -0.27790698 -0.09670253
-0.25207514 -0.062363077 0.07618175
0.06202785 -0.20239212 -0.10859567
-0.0006294252 0.17074391 0.109635115
-0.17526051 -0.13223882 0.019501535
-0.20643148 -0.24923883 -0.046369914
-0.07874038 -0.063604966 0.01702372
-0.021675136 0.027658112 0.034782384
0.028712707 -0.06219719 -0.06456279
0.21295767 0.18533498 0.074658096
-0.15998113 -0.2636614 -0.08790801
-0.2417132 -0.13882266 0.054595962
0.0035334127 0.23575911 0.15215197
-0.09107091 -0.30992225 -0.12093286
0.23625702 -0.09178741 -0.09857666
-0.03917271 -0.2177968 -0.06613851
0.05535833 0.05786826 0.065376185
-0.0023667843 -0.03901561 0.029167423
0.0073242 -0.033597033 -0.040448677
0.08352039 -0.010184477 -0.032735128
0.17282341 0.22618912 0.07034016
-0.2636268 -0.12389097 0.04794906
0.18899018 0.032539565 -0.0053108283
-0.13407883 0.013558591 0.07295614
0.074267596 0.2451468 0.1455855
-0.060848627 -0.096141934 -0.011570091
-0.05831995 0.07708265 0.09494753
0.012549764 -0.2346679 -0.09084889
0.1292439 0.035098985 0.0064013405
-0.2564889 -0.06516724 0.08277611
-0.2407468 0.08354976 0.16024736
0.25667852 0.16450602 0.0499896
-0.13369901 -0.2830874 -0.050227985
-0.02645048 0.19395839 -0.038572405
0.21719193 -0.15974139 -0.12884335
0.08186316 0.23458405 -0.14484672
0.12362885 -0.07843395 -0.06768408
-0.25387403 0.03653537 0.13923676
0.032741476 0.010439026 0.055805966
0.07948337 0.21326308 -0.14307098
-0.115730785 -0.010964264 0.08380043
0.29460463 0.13050966 -0.0020436004
0.20409332 0.23876606 0.08589571
-0.093721114 0.30019453 -0.08035603
0.108727135 0.23341247 0.14364597
-0.26718792 -0.009132258 0.103221424
-0.12665631 -0.065956935 0.02723785
0.049725343 -0.31924042 -0.15051363
0.05187905 -0.09419268 -0.046584103
0.031897202 0.21299969 0.13398248
-0.10149086 -0.15478583 -0.017104393
-0.17331813 -0.29164955 -0.057260524
0.13233157 0.19656648 0.07173295
0.09987376 0.024544606 -0.011802089
-0.26211414 0.034195285 -0.1050509
-0.29789436 0.04185864 0.10794717
-0.042207204 0.0123313125 0.030287113
0.14649226 -0.22818811 -0.14515495
-0.29228365 0.119823225 -0.07143007
-0.28049192 -0.10054924 0.03794285
-0.08848152 0.2439105 0.17200392
0.2054064 0.07672695 -0.24969783
-0.25063655 0.1793184 -0.10268433
0.056454528 0.17725347 0.114915036
-0.26500824 -0.14513446 0.028333848
-0.29126352 0.15928315 -0.10986356
-0.020700349 -0.10758713 -0.053073384
-0.027600912 -0.295732 -0.12938392
-0.006992479 0.098599344 0.12681434
-0.061786246 0.22378962 0.14616475
-0.10734321 -0.20937656 -0.040544808
0.3267914 0.080565356 -0.03177696
0.14654647 -0.13720855 -0.10377273
0.13892636 0.20704332 0.114892244
0.03468718 -0.30339482 -0.14212123
0.2441045 -0.21443127 -0.14756945
0.061223354 -0.20979549 -0.116488725
-0.14500207 -0.07577442 0.058524124
-0.018322004 -0.21134116 -0.0773574
-0.24819541 -0.04759803 -0.15623665
-0.11335785 0.14537826 0.13087066
-0.0059281187 0.10267578 0.09098789
0.2431448 0.13596217 0.02289403
-0.22267023 -0.13430521 0.017736087
0.15746708 -0.14917345 -0.0852596
-0.28725284 0.030047493 0.143158
-0.06753726 -0.054775003 0.043371826
0.20019776 0.15916896 0.04451255
-0.073034994 -0.2953693 -0.09270351
-0.116603136 0.06923265 0.09857744
0.028729148 -0.017630536 0.0048340247
-0.2528385 -0.07774763 0.07895867
0.041901555 -0.19098856 -0.11531755
0.11289054 -0.02025491 -0.0044056657
0.04810947 0.17566213 0.102818936
-0.20278955 0.043927874 -0.083940856
-0.2564512 0.09375901 0.1461339
-0.061493013 0.28267923 -0.04179282
-0.13698338 0.12888367 0.15985362
0.1663697 0.07441372 0.000449242
-0.10632118 -0.23101717 -0.07563904
0.21311213 0.11057304 0.024330774
0.22593164 0.03325774 -0.04132157
0.12662865 -0.21031706 -0.114133246
0.30837142 -0.035682872 -0.11294339
0.112522386 -0.0063867797 -0.035167553
-0.061911993 0.16849267 0.14866856
-0.14055364 0.0073031667 0.077896155
-0.0319271 0.06057429 0.10902054
-0.13457355 -0.27296126 -0.07169504
0.19006445 0.15134202 0.036173422
0.17336641 0.049437962 0.0013900418
-0.030664397 0.08025096 0.09873142
-0.18082432 -0.10105757 0.015310996
-0.053304333 0.21714105 -0.079684354
-0.21135423 0.11263734 -0.09594578
0.14761113 0.15252914 0.080164164
0.23683403 -0.10877954 -0.12991798
-0.051675286 -0.03180426 0.035531934
-0.20576455 0.17865975 -0.052930795
-0.20582464 -0.1075223 0.021384114
0.14236876 0.1695026 0.10231188
0.0819702 0.062656425 0.033779666
-0.09448564 0.15010053 0.178974
0.06698572 0.047705628 0.0035932974
-0.2669349 -0.043444786 0.09565206
-0.088853724 -0.23927628 -0.05304544
-0.03345497 0.15100627 0.13223499
0.21964104 0.117393374 0.034137867
0.11135621 0.18513182 0.08271019
0.13303044 -0.091830224 -0.07640253
-0.09053744 -0.026026608 0.067079104
0.020877538 0.20463985 0.17856291
-0.04380574 -0.2005046 -0.07531511
0.19449094 0.07800665 -0.0014052241
0.21112086 0.14955747 0.047373418
0.1663488 0.2431493 0.09662086
-0.13340525 0.15423174 0.14605846
0.19552256 0.09735788 -0.20762321
0.27353412 -0.028309766 -0.07620324
-0.22396322 0.13913168 -0.052727513
-0.09319086 -0.10251764 0.0009787504
-0.10699543 -0.012568136 0.04825674
0.09486815 0.24026997 -0.10471223
0.13040777 0.18113123 0.11447563
0.115477405 0.22005849 -0.14957811
-0.044117462 -0.03332718 0.0031372532
-0.1218907 0.12284008 0.14871274
-0.25538284 0.037899725 0.13721722
-0.10387677 -0.19201788 -0.020472506
0.04068326 0.25697938 0.121452466
0.19034478 0.014552406 -0.013505112
-0.085934065 0.22352754 0.20118485
-0.13584238 0.25763252 -0.040511977
-0.052939486 -0.1541393 -0.06506998
0.1510033 -0.101104066 -0.10146267
-0.23684107 -0.022785123 0.09746044
-0.07085751 0.18606949 0.1702497
0.14856164 -0.005281566 -0.009713196
0.17904553 0.11651936 0.030378722
-0.19268318 -0.13550755 0.01299849
-0.22610301 -0.073933214 0.03330685
0.09877346 0.20014158 -0.17129613
0.22629043 0.0070931376 -0.029339522
-0.15421256 0.10771835 0.12388078
0.14984883 0.13960366 0.06437903
0.21565405 -0.056280274 -0.075010695
-0.20305236 -0.2765329 -0.043024257
0.17198801 -0.08820752 -0.07516071
-0.057210803 -0.12058293 -0.032458026
0.07170007 0.22048989 0.15005314
-0.2652461 -0.13068481 0.06373529
0.075607054 0.10294847 0.07578151
-0.112039186 -0.29657555 -0.11139525
-0.019121235 -0.27852646 -0.16176492
-0.15030226 0.11054807 -0.051173165
-0.109414056 -0.00087863905 0.08560087
0.16655342 -0.13780668 -0.1291724
-0.19378482 -0.15729058 0.03092995
0.0772098 0.075810835 0.038982514
-0.10486863 -0.04788294 0.010165744
0.0052178814 0.21109869 0.16398586
-0.17755243 -0.07247433 0.029650275
-0.14406443 -0.092855066 0.03489324
0.090272546 -0.19775245 -0.084785886
0.145925 -0.1457793 -0.12907133
-0.1220733 -0.15521903 -0.026085187
0.15385303 0.050781295 0.02087083
-0.2392588 -0.22723553 0.0043071746
-0.15427741 -0.19351886 -0.03042009
0.098009676 -0.29995266 -0.15861008
-0.23424105 -0.07210495 0.05187983
-0.23597911 0.009442928 0.12026922
-0.09609167 0.17084974 0.17741652
0.08587389 -0.21876095 -0.12140169
0.14997098 -0.26858225 -0.15902124
-0.16644274 0.1313543 0.1782232
-0.123395234 0.10302381 0.10794626
-0.06692618 0.22892173 -0.05861382
0.14495486 0.13283423 0.08046301
0.17703553 -0.08157908 -0.087778986
0.28372505 0.057513636 -0.04154045
0.29828137 0.07896485 -0.017335594
0.256447 0.083926216 0.003360944
-0.010124532 0.17154247 0.12642379
0.068358414 0.09974377 0.096357435
0.07450255 -0.22154601 -0.116634585
-0.12900196 0.17825557 0.15141489
0.2382001 0.06537678 0.00012301195
0.056872565 -0.13335156 -0.080084935
0.0038556342 0.2583523 0.15475194
0.2642746 0.13927609 0.009822794
-0.086202525 -0.19964719 -0.047714956
-0.060340315 -0.28493407 -0.08724045
0.08462856 0.050742943 0.024300398
0.042376522 0.19042914 0.1344348
0.084949054 -0.2735295 -0.15629795
0.038509734 0.036186207 0.058628622
-0.25418997 -0.18617475 0.0047688605
-0.21394666 -0.06334581 -0.16961989
0.32660416 -0.062327385 -0.09643207
0.02142429 0.06044594 0.0681629
-0.24050829 -0.05883798 0.102917686
-0.17553945 -0.17089021 0.014596525
0.12923098 -0.1349467 -0.09608712
0.112773456 -0.0252444 -0.021286706
0.0939282 -0.2652759 -0.13749465
0.053831283 -0.25275463 -0.12816654
-0.00793334 0.13512534 0.12950863
0.06560989 0.013016288 0.008937778
-0.19527441 -0.12913798 0.02075108
0.074642025 0.25048918 0.16508788
0.058001686 0.1669522 0.10817746
-0.21612848 -0.18865378 0.01646785
-0.19199537 0.035591345 0.11538753
0.039500892 -0.046385005 -0.05537754
-0.034577694 0.019623816 0.06182947
0.08448538 0.22497985 0.1243775
0.091191955 0.03910469 -0.014066041
-0.056514055 -0.018250596 0.060383968
0.21409178 -0.14556079 -0.13677898
-0.096605 0.24544573 0.1456678
0.10015459 0.22691703 -0.11124988
0.28363922 0.13798228 0.007229348
0.2305578 0.09917223 -0.015319692
0.14073767 0.118862234 0.056107435
-0.14700325 0.15421627 0.17412499
0.22249918 -0.07835032 -0.09517794
0.04285932 -0.16785775 -0.07026503
-0.21127088 -0.24518585 -0.021864943
0.10431994 0.20357123 0.12673502
-0.037308816 -0.26860026 -0.11233403
0.22334106 -0.028715396 -0.069484465
0.1441166 0.24216834 0.114543475
0.06387047 -0.14407891 -0.08682475
-0.21613073 -0.0764049 -0.17955633
0.02734431 -0.24156305 -0.119106196
0.031479824 0.22079597 -0.047458787
0.041657086 0.2324202 -0.085388355
0.2702416 -0.07269173 -0.08797963
-0.13549365 0.10362038 0.112434074
-0.27960858 -0.1166201 0.068123005
-0.0619286 -0.058453158 -0.0074306354
0.05245611 0.21520245 0.14462766
-0.08211856 0.058478244 0.081743404
-0.1983628 -0.07526426 0.038397767
0.14093198 0.20098685 0.08357604
0.03288652 0.1345381 0.074731514
0.007833329 -0.12116491 -0.05070987
-0.09298833 0.21672401 0.20113046
0.023437293 0.12074882 0.08876583
0.032651655 0.23386377 0.1665198
0.25359753 0.14161189 0.03814307
0.010455014 0.22932853 0.1423103
-0.07589012 -0.10991805 -0.044602364
-0.22467448 -0.10222962 0.031921305
0.120562784 0.21086816 0.12157699
-0.2808568 -0.04936896 0.10380964
0.29189885 0.045273136 -0.06299852
-0.1960829 -0.15057291 0.023295121
0.06269309 0.16329111 0.11044732
-0.066183366 0.14408582 0.15605712
0.15296859 0.114102826 0.04213329
-0.026426518 -0.29211462 -0.12150284
0.14188118 0.2262729 0.11380418
-0.20216991 -0.040644955 0.06548587
-0.243453 -0.109375946 0.057705313
0.04641405 -0.11299005 -0.0714563
0.050858743 -0.28765506 -0.17411125
-0.27527386 -0.19920392 -0.015260119
-0.21797523 -0.03444588 -0.1609262
-0.12594001 0.009739036 0.06080691
0.28287974 0.12280839 0.046198267
-0.14292395 -0.11183711 0.017245645
-0.0031431718 -0.3201618 -0.15523262
-0.039425977 -0.31433895 -0.11501358
0.04673337 0.1731312 0.11967324
-0.14538169 0.14145122 0.1823517
0.030358298 -0.20434754 -0.113569334
-0.016339889 -0.12537938 -0.04128449
-0.15093215 -0.29044583 -0.114548214
0.012427886 -0.10415444 -0.060148325
-0.17171338 -0.27689314 -0.05075246
0.1691554 0.055800647 -0.0122354785
-0.12175816 -0.12264165 -0.02633768
0.11090204 0.1210751 0.0510335
0.12092736 -0.030671194 -0.040644124
0.32207134 -0.091447085 -0.12061894
0.124295115 -0.06252032 -0.034663636
-0.23537995 0.18390699 -0.050196856
-0.2180488 -0.031674642 -0.15718457
0.11855662 -0.16014853 -0.09976341
0.116446584 0.1851746 0.07062774
-0.13406575 -0.059359185 0.025589224
0.012441979 0.24416456 -0.063504934
-0.019804455 0.09393427 0.10621306
-0.24655795 0.060563177 0.12903869
-0.11993733 -0.0025296344 0.10909631
0.21347086 -0.1949231 -0.13337554
0.25769672 0.2053161 0.04166746
-0.16356292 -0.027661657 0.07857621
0.19370237 0.1568031 -0.21349213
-0.16719171 -0.1515021 0.009470992
-0.040809225 0.17248164 0.1615934
-0.06724511 0.14066851 0.16032358
-0.114337064 -0.20587197 -0.06587242
0.27687165 -0.20935619 -0.14853282
0.2037853 0.25699246 0.04904039
-0.28730226 -0.15487863 -0.012225366
-0.044884916 -0.1750528 -0.046899557
-0.15313286 -0.066422746 0.0053422693
-0.15931769 -0.07908836 0.048019048
0.06909172 0.047001995 0.03382884
-0.022093194 -0.11598621 -0.042799525
-0.08224693 0.15020092 0.17353462
0.13413233 -0.10581389 -0.0854226
0.016789736 0.19840744 -0.07663033
0.03265188 0.14900608 0.08042567
0.2354654 0.035257965 -0.026188478
0.25828278 0.20193177 0.026095293
-0.21536995 0.11522126 0.13937715
0.07884542 -0.20154195 -0.1198193
0.12888665 0.26945418 0.14504579
-0.02484119 0.17718121 0.118395515
-0.1971582 0.006542253 -0.08584368
-0.21271461 -0.22315659 -0.037276372
-0.089943826 0.18450297 0.15941869
-0.044451773 0.16630702 0.16373028
0.31519806 -0.06770114 -0.15248157
-0.09146364 -0.12627147 -0.038951375
0.07929676 0.059465945 0.056460842
0.11997549 0.0027147173 0.019925904
0.082783364 -0.08415937 -0.02860415
0.052522037 0.24760176 0.13831353
0.19400182 -0.1663298 -0.12300995
0.004101188 -0.19303253 -0.08336827
0.06476087 -0.25175717 -0.106342055
-0.2136036 -0.24020727 -0.055947464
-0.15000148 0.019729437 0.09892952
-0.23368557 0.10585385 0.16612075
-0.0023861327 -0.28962734 -0.12838495
-0.27438036 0.0689064 -0.10628302
0.26458254 -0.09315275 -0.1338643
0.035460226 0.031669773 0.06073685
-0.17845388 -0.12125172 0.012212588
0.12431461 0.19789252 0.10536267
0.13703062 0.14390089 0.05442817
-0.16198008 -0.2505786 -0.07154389
-0.06561372 0.2043609 0.16867341
0.1880818 -0.14157419 -0.09583206
-0.032537114 0.24435101 0.15261878
-0.15415584 0.12169948 -0.07141507
0.166033 -0.09194414 -0.07876023
-0.08591494 0.094471484 0.12298526
0.123572744 -0.051310457 -0.026886685
0.015115262 0.2578818 -0.089157134
-0.22857773 0.13298278 0.13524085
0.21850681 -0.08219814 -0.08770042
-0.13571084 -0.06523022 0.04388846
0.24977696 0.008853301 -0.058665216
-0.061018422 0.18806617 -0.008013048
0.11433624 0.11038205 0.044134405
0.07317492 0.2312273 -0.1119307
-0.2740442 0.04857766 0.15474527
-0.09267431 0.14091584 0.14950158
0.01388952 0.20080867 0.1486472
0.23797658 0.10906033 0.0015643116
-0.11250044 0.15000099 -0.048414417
-0.10913446 -0.08485644 -0.0154906595
-0.019541644 0.10165971 0.08292524
-0.18168233 0.08044741 0.15486878
0.30176705 0.16396879 -0.0063945623
-0.046181057 -0.20279124 -0.06561809
0.009537764 0.013032451 0.015137905
-0.118186705 -0.031503834 0.03190155
-0.25450173 0.12537839 -0.11607169
0.23669767 0.13147031 0.044023655
-0.030610546 0.040761888 0.04934984
0.24205591 -0.22005866 -0.14131744
-0.03406609 -0.1959379 -0.042227373
0.1650634 0.14818682 0.03381023
0.0955544 -0.10370208 -0.07718808
0.09502347 -0.18968749 -0.11359977
-0.29341877 0.022397738 0.11933838
0.09758538 0.0026073281 0.0016343833
-0.15048209 -0.109389015 0.02701602
0.26347923 -0.0033360205 -0.072580874
0.23915264 0.025901152 -0.021434097
-0.21101624 -0.2296122 0.0026824716
0.015597569 -0.122661225 -0.05931708
-0.06202333 0.27988997 -0.04931857
-0.08915678 -0.1258225 -0.0024115683
-0.10734025 -0.27562752 -0.11630573
0.25949576 0.14038521 -0.005921208
-0.17077152 -0.12672384 -0.008151715
0.18155695 -0.12234852 -0.124221876
0.09133682 0.22816172 0.13108316
-0.24112564 0.0020439746 0.11476984
0.26734975 -0.14718038 -0.15928356
0.0040762145 0.055320706 0.07370511
-0.00785481 0.18581966 -0.0787731
-0.039799873 -0.003486272 0.04270651
0.31473556 0.007425764 -0.07111199
0.25775385 0.017105598 -0.070206895
0.09996183 0.057973735 0.017209478
-0.042023953 0.10109499 0.119301304
0.27374807 -0.11447028 -0.1349408
0.31599534 0.020224586 -0.076357566
-0.12821692 0.15520665 0.20020565
-0.10290069 -0.1312954 -0.017781992
0.17673896 -0.15468003 -0.14679874
-0.023239864 0.26545623 -0.068019316
-0.19021541 -0.17776391 -0.043065876
-0.16486743 0.0581291 0.100434616
-0.16200945 -0.25198528 -0.058898225
0.20889358 0.124638624 0.023042386
-0.16598733 -0.2266801 -0.021499557
-0.1942786 0.1077714 0.18513936
0.29072306 0.049187608 -0.006972358
0.20651285 -0.048239008 -0.07426933
-0.09191479 -0.10438426 -0.011758646
0.1965863 0.1021743 -0.22809957
-0.23958202 -0.18574426 0.0006005143
-0.06047232 -0.09520187 -0.028969282
0.05909988 0.011486087 0.04981927
-0.08766151 0.18407805 -0.057569623
0.16918588 -0.14174223 -0.12885599
-0.06462261 -0.3317904 -0.14097705
0.11218175 -0.14702329 -0.09346602
0.19907714 -0.23501134 -0.1822867
0.12313049 0.055796716 0.026567243
0.12311855 -0.2849363 -0.16944125
0.0354783 0.23253235 -0.10040382
0.2575539 -0.17566207 -0.1441468
0.046781093 -0.047117595 -0.022256857
-0.26945522 0.007192258 -0.11438301
0.06152931 0.16152735 0.07389483
0.20641245 -0.23920569 -0.1812739
0.001042376 -0.1066025 -0.025302697
0.03546033 -0.10439954 -0.029666455
-0.13862072 -0.0060253646 0.051662754
0.15521899 0.022239339 -0.016774355
-0.08583028 -0.13102043 -0.027896537
-0.1079244 -0.098980136 0.019230112
-0.25087142 -0.22795135 -0.049695548
0.12864469 -0.06945691 -0.0643364
0.2860919 0.11767741 0.0022067314
0.08191698 0.15857208 0.06952269
-0.24716951 0.101850115 -0.07266201
-0.114810534 0.19835727 0.15545706
0.13035442 -0.23392044 -0.124282524
0.13363442 0.22378445 0.11079699
-0.06930857 0.04554261 0.10612999
0.2121447 0.10685839 0.054897238
0.031690083 -0.14825854 -0.07477647
-0.0038120693 0.06606202 0.0707449
0.13634661 -0.2648166 -0.15566191
0.3237852 0.06003234 -0.038621914
-0.251582 -0.13479209 0.044045597
0.17115207 0.09129443 0.009120364
0.18992403 -0.22112334 -0.16257152
0.30052838 0.09598608 -0.06756404
0.26785883 0.008436317 -0.0670778
0.26941425 0.08751592 -0.00419974
0.07519202 0.22825418 0.14632593
0.12816083 -0.17721613 -0.1352405
-0.18138964 -0.07421053 0.081355706
-0.3013143 -0.061027586 0.0714886
0.27962357 0.101845644 -0.00713887
0.25577104 -0.18355355 -0.17490663
-0.07152829 -0.27396086 -0.08391994
0.035813868 0.19482885 0.12162755
-0.061697483 -0.039103653 0.007640301
-0.1782943 -0.13490106 0.028817026
0.03833624 0.24568261 0.1765141
-0.08637685 0.19879082 0.17519122
0.08497378 -0.03266625 -0.017372267
-0.26961243 -0.06453163 0.09231419
-0.09505511 -0.081431374 0.040246997
-0.12622318 0.21957898 -0.08039342
-0.23276435 0.05175993 0.122698076
0.044189554 0.046807814 0.023506807
0.11847718 0.2508745 -0.14282402
0.3332043 0.023016274 -0.049038753
-0.2761506 0.12275544 -0.08389599
-0.08449444 0.1171426 0.11131049
0.031986415 -0.133653 -0.08022487
-0.056855444 -0.09265653 -0.011418584
-0.19449769 -0.20997134 -0.030230444
0.23192175 -0.106564954 -0.08172321
0.2322169 -0.08075055 -0.11642904
0.0046130437 -0.013434662 0.047249846
-0.25725695 -0.04203248 0.08977789
0.29288235 0.13774696 -0.011833202
0.063802 0.22944745 0.13568327
0.055053886 -0.32204315 -0.16723064
-0.17956819 -0.016621832 0.09002671
0.1268717 -0.17302094 -0.08545039
0.054562807 0.00924121 0.038729172
0.21561235 -0.14328621 -0.14177471
-0.05706782 -0.07753603 -0.03823191
0.1407974 -0.06343286 -0.068054475
-0.015693184 0.09258762 -0.1676445
-0.072809294 0.1507852 0.11196986
0.25967672 -0.03411671 -0.07101712
0.11153232 0.23467238 -0.09205416
0.054181702 0.028318234 0.03014851
-0.09040757 0.037551712 0.0986259
0.0733655 0.25264984 -0.13874087
-0.043864153 0.030621313 0.08112329
-0.095569424 -0.22669373 -0.059572123
0.08362337 0.23482978 -0.1461959
0.015256366 -0.13139662 -0.073566936
-0.15085177 0.14745532 -0.03327938
-0.0013204847 0.21507506 -0.0073777162
-0.15908766 -0.2103115 -0.046988305
-0.049547493 0.29469272 -0.046947386
-0.032704536 0.20974658 -0.050454713
0.11400178 0.12042546 0.030927155
0.28162205 0.07794129 -0.008059395
-0.18588932 0.21662146 -0.035229873
0.20712718 0.22092743 0.078074135
0.0019415139 0.22825688 0.14157942
-0.10948038 -0.10049903 0.026790936
-0.1931887 0.13477956 0.18046845
-0.029930087 -0.0009370007 0.02135812
0.31710866 -0.064456336 -0.07899481
-0.13823435 0.18797101 0.15056677
-0.23013052 0.0065881363 0.11692468
-0.13109756 -0.08816115 0.025374802
-0.12990114 0.18300132 0.19841278
0.08945089 0.13583604 0.10260918
-0.24455148 -0.043207012 0.08860102
0.07170667 -0.32886472 -0.14905357
-0.20113464 -0.17925757 -0.0024183122
0.2751743 0.10408322 -0.019859135
-0.113798626 -0.17146261 -0.042730708
-0.25379556 -0.16180427 0.008868537
-0.10122556 0.17067343 0.15128346
-0.19840479 0.087942675 0.15712442
-0.071258634 0.17889494 -0.06268819
0.28042397 0.131251 0.0032359594
-0.26686645 -0.09768083 0.05808265
-0.00054440676 -0.31635237 -0.1422842
-0.25248423 -0.057964314 0.08135364
0.05989118 -0.14965996 -0.10502284
-0.18536942 -0.16503525 0.0033492348
-0.06561076 -0.29090676 -0.103872284
0.19140333 -0.18078662 -0.15113004
0.04569534 -0.3135928 -0.17059524
-0.08284753 -0.029841557 0.03479514
-0.1794264 -0.18300869 0.004960329
0.019189497 0.1782371 0.11559408
-0.15325582 -0.25156784 -0.08194301
-0.21051785 -0.029739413 -0.19444932
0.1394984 0.06257846 -0.00039403077
0.21269643 0.11838723 -0.22966902
-0.1583658 -0.07106821 0.05783174
0.005625309 0.15688142 0.110878296
-0.23627786 -0.24030925 -0.02490512
0.053907514 0.108430445 0.0971323
-0.10446394 -0.25770602 -0.074671075
-0.13886824 0.10693663 0.14199604
0.06615536 0.0839037 0.07892194
-0.09404354 0.21084172 -0.09405541
0.23881117 0.123079635 0.024342334
-0.24004947 -0.19822514 0.01301784
0.25763237 -0.040145136 -0.06846882
0.052570995 -0.08204437 -0.030964598
-0.15041123 0.13606824 -0.037051193
0.31188586 0.09332269 -0.018050458
-0.024760557 0.25929812 0.17332782
-0.16360034 0.084136635 -0.057425294
-0.069437444 0.2163375 0.15419029
0.008383354 -0.14827378 -0.029453315
0.032110967 -0.24400805 -0.102980554
-0.1659862 0.18481761 0.17224322
-0.2882331 0.024239233 0.10772307
0.25653103 -0.1764395 -0.1807349
0.00031362302 0.07444263 0.09227
-0.2906307 -0.11214146 0.07649746
0.11209229 -0.2017427 -0.13333341
-0.09454589 -0.25520238 -0.08261526
-0.22559151 -0.008666688 0.097267866
-0.023010839 0.09866861 0.097905934
0.014445767 0.2513313 0.15096961
0.17676763 0.13351476 0.036610488
0.11322864 0.12659603 0.09315064
0.18019333 0.15960293 0.052277494
0.06789958 0.11887176 0.06943247
0.032026216 -0.15469654 -0.051896397
0.07184941 -0.14803515 -0.08709127
0.020876745 -0.078793295 -0.0128446845
-0.19121179 -0.019122448 0.11252487
-0.052644998 -0.16552898 -0.0834181
-0.06944563 -0.16476688 -0.0512777
-0.05130914 0.08876826 0.08835631
0.2589425 0.14987043 0.03701444
-0.19202602 -0.025936339 0.095146395
-0.032106567 0.05782251 0.07110856
-0.18327577 0.11333729 0.16841105
-0.020767447 -0.18294235 -0.0657917
0.20227696 0.060452767 0.008345471
-0.13468784 0.087972514 -0.03636426
0.0017392044 0.08004162 0.07703699
-0.083639294 -0.09374436 -0.00036425408
-0.20676187 0.028297588 0.10965615
0.075159736 0.24452697 -0.1528162
0.10645607 -0.058684684 -0.040497776
-0.03630995 0.1426049 0.13318439
-0.030945245 0.22098787 -0.08969415
-0.10193856 -0.17467597 -0.036640253
0.08128217 -0.05858113 -0.045014605
0.040200725 -0.0060806456 -0.0010503355
0.20403056 0.010601139 -0.047549456
-0.010268525 -0.06774818 -0.032991283
-0.21091834 0.09047329 -0.0701016
0.23017362 -0.19675095 -0.19482228
0.07872675 0.24231395 -0.06160394
0.25561276 0.20234354 0.0039142533
-0.06361405 -0.29279312 -0.07779423
-0.10757172 -0.12984754 0.015016581
0.11703919 -0.23270737 -0.15380195
-0.23771787 -0.06753269 0.09278034
-0.11867191 -0.041259732 0.044570748
-0.25506175 -0.1734482 0.024799949
-0.16429925 -0.16027538 -0.0042127776
0.1452567 -0.28322625 -0.16057178
-0.120601565 0.1402597 0.15368494
0.06745401 0.16517134 0.10598944
0.20299147 -0.16420119 -0.13315848
0.19622542 0.1675644 0.080914006
-0.11160623 -0.0212864 0.07663363
0.025170067 -0.05511301 -0.04461047
0.21127903 -0.23719032 -0.15999614
0.22804825 0.1174342 0.04690947
-0.06107945 0.25140026 -0.07876642
-0.058775626 0.2272251 0.16571873
0.29462755 0.041870613 -0.06038532
-0.051444504 0.035447586 0.069767065
-0.12558049 0.18744612 0.18979226
-0.024953537 0.24576353 -0.07260867
-0.06829704 0.09881972 0.10189211
0.22838655 -0.028499613 -0.07825691
0.012648069 -0.17246972 -0.088247865
0.1278978 0.07204806 0.043922294
0.1508445 0.03026993 -0.0007675706
-0.13723293 0.041999962 0.12134759
0.01947167 -0.17125347 -0.042482402
0.20490193 -0.08358059 -0.09931322
0.034499556 -0.027263531 -0.061716452
0.24102294 0.18850663 0.04850158
-0.2650192 0.015196198 0.119311966
-0.23311044 0.024465485 0.12928878
-0.20059468 -0.22860178 0.0058143935
-0.13398731 -0.07097479 0.032128654
0.110297605 0.24572758 -0.14886642
-0.034548122 -0.19815928 -0.041630227
0.28593427 -0.020381643 -0.07852539
-0.18373212 0.15476815 0.18597545
-0.19325511 0.10551052 0.15748617
-0.18515256 0.0019687468 0.09777324
-0.24222174 -0.08548497 0.07435378
-0.24347278 0.14009416 -0.072421774
-0.13332093 0.04392449 0.11488832
0.14773679 -0.25641984 -0.16894686
0.078219414 0.22290729 0.13032678
0.014810671 -0.20655842 -0.08317642
0.17352027 -0.011139621 -0.03580485
-0.039034426 0.102257416 0.10209275
-0.024014128 0.08237475 0.10557596
0.12721942 -0.1495813 -0.10100298
-0.16474323 -0.09110774 0.010685118
0.15569308 0.115265496 0.05926221
0.1307395 -0.15503325 -0.08864748
0.30210885 -0.07265304 -0.1041853
-0.25020272 0.07320071 0.14541185
-0.019998005 0.064957365 0.050331157
0.12075468 -0.13685055 -0.0802752
0.22063842 -0.22380202 -0.17837967
0.2520656 0.12323122 0.029000107
0.27750704 0.054163836 -0.036841713
-0.26555246 0.037242748 0.1206925
-0.19242641 -0.050162468 0.067038566
-0.29081112 -0.07557427 0.07773296
-0.16134775 0.06720444 -0.0662922
-0.2674898 -0.09524476 0.036833115
0.18965587 0.1507726 0.04286309
-0.053353835 -0.19658004 -0.07850159
-0.06931396 0.24168201 -0.111314885
0.15153712 -0.043076966 -0.045979857
0.25512415 0.20151213 0.04168589
-0.0009426458 0.072729126 0.101812325
0.10384188 0.21005629 -0.12229712
-0.2595 -0.18397686 0.038067233
-0.02730047 0.036502246 0.03772381
0.14392027 -0.15357184 -0.12039252
0.015992396 -0.30646175 -0.13321462
0.20492898 0.20854461 0.08293626
0.18511337 -0.2699331 -0.14738263
0.1811682 0.16739696 0.0800929
0.20432888 -0.028530547 -0.07827396
0.09746753 0.25823748 0.100206695
0.1274279 -0.3115768 -0.17911117
0.2601289 0.030813346 -0.01358169
-0.0171748 0.174471 0.15251239
-0.06453482 -0.110847004 -0.048561767
0.22389555 -0.13189517 -0.11781664
-0.080499455 0.10294301 0.11490707
-0.27281395 0.071425974 -0.10275001
0.09122418 0.14490248 0.077429935
0.08727756 0.23905149 -0.13213912
-0.11315184 -0.30092597 -0.06987242
0.018565785 0.2352649 -0.100824855
0.29495633 -0.016471788 -0.07746023
-0.28963158 -0.12875547 0.087653
0.12640417 -0.030343475 -0.024150927
0.020393146 -0.2751738 -0.12083657
-0.26367792 -0.0604223 0.092206515
0.17784001 -0.1935623 -0.14159319
0.0043868385 0.18048988 0.11143372
-0.039938886 0.0707981 0.06239831
-0.17165713 -0.32353166 -0.10448707
-0.15869594 0.016671719 0.08366858
0.06360877 -0.2731013 -0.12909295
0.056814797 -0.18497229 -0.10142529
-0.21499507 0.067948185 -0.08239739
-0.16220698 0.18807784 0.18554917
-0.15996315 0.1439304 -0.085688114
-0.18894492 -0.20051691 -0.01960776
0.0635561 -0.08836493 -0.02336227
-0.14368151 0.20318618 0.15512371
-0.04271172 0.012498457 0.057531778
0.22291194 0.15556076 0.03906228
0.010553355 -0.0962988 -0.04952756
0.18029687 -0.048334032 -0.07107807
-0.14130983 0.17589484 -0.05714727
-0.19757476 0.17514074 0.17009354
0.1597447 -0.21198712 -0.14726254
-0.004005806 -0.30393156 -0.13624743
0.20758142 0.14311858 0.022967132
0.107011676 -0.10586112 -0.06898073
0.03790808 0.16903767 0.12855527
0.034618553 -0.23778142 -0.10667922
-0.23248932 -0.18002613 0.008382946
-0.065096505 0.23964316 -0.05976835
0.24683422 0.13793585 0.03925022
-0.24828012 0.02488584 0.14859597
-0.14472099 0.06419457 0.11829207
0.19633944 -0.1576329 -0.12227574
-0.19688055 -0.24267513 -0.04133594
0.024996277 0.0036641003 -0.015298999
-0.1477031 0.1377332 0.20776667
0.12870795 -0.13220249 -0.10071396
0.0681985 0.012411651 -0.0064469813
-0.09864793 0.01713894 0.10950246
-0.12915787 0.11574156 0.14933175
-0.07460103 0.12900473 0.14338733
0.07069975 0.26964736 -0.12810704
0.022582218 0.17167488 0.14650492
-0.16179864 -0.2506881 -0.053526536
-0.12588209 -0.16883361 0.008306872
0.003442578 0.05852868 0.04804799
-0.08069196 -0.28080264 -0.13995807
-0.30775455 0.031072967 0.12193533
-0.13448551 0.27395076 -0.060858913
-0.07270357 0.19334057 -0.0798642
0.089447625 -0.067112595 -0.062342595
-0.21042706 -0.27919018 -0.04061273
-0.11714518 -0.27487025 -0.07309249
-0.18093346 0.13497226 0.18611465
0.25608304 -0.18548279 -0.16626862
-0.17738535 0.10280422 -0.06881435
0.20990534 0.2247016 0.023940643
-0.031553403 -0.12920654 -0.030652557
0.14150897 -0.07200562 -0.069793195
-0.08312758 -0.28501183 -0.096344225
0.15341364 0.09557557 0.045466527
0.17468995 0.11789551 0.06570283
-0.19814269 0.06809552 -0.100997865
0.33803517 -0.066408716 -0.1426152
-0.19842976 0.12601164 -0.066928826
0.013871202 -0.14130773 -0.058974594
0.1626033 -0.20757464 -0.1891215
0.24184728 0.17865534 0.042431574
-0.23861839 -0.015993482 0.08445255
0.32332784 0.029979022 -0.075544745
-0.25625458 -0.026408553 0.10710428
0.12973341 -0.22350135 -0.123381354
-0.29293814 -0.18186298 -0.02014987
-0.13133024 -0.0640362 0.040854387
-0.15109941 -0.11411423 -0.0019816179
-0.09639869 0.20061627 -0.095170565
0.24434116 -0.025049655 -0.07813176
-0.09499269 -0.2270975 -0.06762395
0.09667023 -0.30202034 -0.14015156
-0.0586796 -0.2719823 -0.095170006
0.16962852 0.24005345 0.08692017
-0.0065877293 0.28322154 -0.080916874
-0.22661117 -0.05749365 0.07600988
0.08633232 -0.25654015 -0.13920063
-0.06504014 0.21510012 0.16199307
-0.21833934 -0.16931161 -0.011985735
-0.23299149 -0.023721443 -0.15688834
-0.27552435 -0.12848566 0.061374106
-0.03591516 -0.18323432 -0.050410293
-0.029583277 0.21037823 0.14172447
0.1450226 -0.27596268 -0.19041352
0.25686324 -0.030849796 -0.088871375
0.10816674 0.24032594 0.15529773
-0.013368253 0.044496167 0.054676704
-0.06537512 -0.23007825 -0.084861666
0.051381126 0.14976472 0.078235045
-0.04581517 -0.17640264 -0.028210515
0.068370305 0.20119359 0.12742895
0.016027039 -0.208912 -0.05652316
0.03483619 -0.16121644 -0.06089361
-0.08594541 -0.31873372 -0.118256606
0.21130995 0.19096564 0.08255252
-0.16991174 -0.031664144 0.10042484
0.05119997 -0.0035976386 0.014992753
0.11551555 0.11945262 0.07550202
-0.08281041 0.25905204 -0.04676263
-0.06169209 0.017676696 0.06516751
-0.036073342 0.26935965 -0.07491608
0.15378556 -0.28745514 -0.19690548
0.13644975 -0.14776313 -0.10662323
-0.04058904 0.18745786 0.15613918
0.14901648 0.01965521 -0.007460847
0.17283796 -0.07838747 -0.09608313
0.017263463 -0.021866508 -0.09505563
-0.087363765 0.0007660176 0.08985413
-0.008980708 0.23573978 0.17807256
0.16159716 0.18628782 0.07360488
-0.042603847 -0.13285218 -0.035137784
-0.18752544 0.03611807 -0.07866502
-0.13101362 -0.30035827 -0.10669204
0.32820967 0.057325307 -0.0432707
0.16073757 -0.07753305 -0.050450105
-0.1781171 0.082679234 0.17080495
-0.13570487 0.17063321 -0.037005104
-0.043364577 -0.23944184 -0.102852024
-0.17018682 -0.2671445 -0.05915811
0.18214712 0.10348272 -0.21629465
-0.1765098 0.22963996 -0.032736327
0.17150968 0.13118535 0.074918225
0.24854688 0.09524362 0.0077253063
0.026172156 0.19039764 0.1400402
-0.103424154 -0.08376814 0.0001810549
-0.0035426707 0.18400472 0.12189108
0.21475856 -0.020826979 -0.03829346
-0.16439007 -0.1242034 0.011166636
-0.018564804 -0.33531898 -0.14738727
0.09176383 -0.071154274 -0.033958536
0.051260393 -0.20840995 -0.13033365
0.021319078 0.20598613 0.17807655
-0.25610027 -0.036167745 0.11447024
-0.20257588 0.00023001256 0.112624705
0.12754007 0.25937423 -0.12498864
-0.20039366 0.07069325 0.12679827
0.16599202 0.1921708 0.116557
0.31109616 0.057482984 -0.06077939
-0.20784396 0.09550902 -0.1048026
-0.21124104 -0.1280278 0.021883003
-0.18412717 -0.2658643 -0.04060986
-0.13612705 0.0042867674 0.056807917
0.21724103 0.10104957 0.019380063
-0.016441839 0.30826393 -0.07309126
0.20900816 0.058191814 -0.0022421475
0.19804175 -0.12976418 -0.098883644
0.29778036 -0.014693727 -0.0585721
0.21138218 -0.10623087 -0.113657035
0.3335916 0.05022386 -0.06560337
-0.059290044 -0.025987666 0.038631555
-0.10223909 0.29257187 -0.03306094
-0.07071793 -0.27397826 -0.11895359
0.15480818 0.22312249 0.11974143
-0.2530328 -0.03505597 0.09222211
-0.04533367 -0.21926899 -0.07516627
-0.15099877 0.20937867 -0.06710091
-0.27169153 0.057520602 -0.13381474
-0.05868826 0.28352222 -0.053376034
-0.2288009 0.055981666 0.14484228
-0.024672667 -0.050302524 0.011605647
0.04190851 -0.061656747 -0.04987854
-0.23023847 0.0829858 0.16160557
-0.31377712 -0.0040485263 0.07280897
0.217905 -0.035751108 -0.053478837
-0.10374172 -0.24602102 -0.09657887
-0.15936974 -0.13170917 0.032171536
-0.20600365 -0.13462822 0.05559368
-0.13049395 -0.004187574 0.07457022
-0.1284298 0.110379085 0.1389102
0.041185044 -0.26007026 -0.13162738
-0.045541573 0.19570346 0.17907313
