# .PCD v0.7 - Point Cloud Data file format
VERSION 0.7
FIELDS x y z
SIZE 4 4 4
TYPE F F F
COUNT 1 1 1
WIDTH 1000
HEIGHT 1
VIEWPOINT 0 0 0 1 0 0 0
POINTS 1000
DATA ascii
-0.14243442 -0.2904763 -0.19304222
0.28924096 0.07150864 -0.11925051
-0.04499509 -0.056515984 0.13790366
0.016500968 -0.12101742 0.099634185
-0.010411084 0.13602555 0.10376459
0.26000598 0.11861547 -0.14964478
-0.12531668 0.23307928 -0.0709957
-0.2696917 -0.09837068 -0.12271495
-0.06843216 -0.15926631 0.05741218
0.062762 -0.052711222 0.12532645
0.20819804 -0.14847122 -0.21407858
0.093913086 -0.06840652 0.094819
0.22037081 0.023796787 -0.13688277
-0.14098576 0.2583425 -0.056927174
0.25195265 -0.09041107 -0.18371713
-0.067228794 -0.20022027 0.027525779
0.038323604 0.0799061 0.0803084
0.061810303 -0.2529799 -0.0071665
0.0071920985 0.23308633 -0.034329724
-0.06330665 -0.051998466 0.057102427
-0.1605693 -0.22494206 -0.17811288
-0.2709597 -0.16777703 -0.17248043
-0.16913892 -0.059249308 0.07645489
-0.033642318 -0.23745993 0.03981524
-0.1339128 0.15477304 0.14355963
0.1699923 -0.10166451 0.014516848
-0.069929026 -0.08803452 0.094897136
0.14954619 0.10546983 -0.13819328
-0.077081755 0.1925517 0.12480849
0.14044002 -0.20748854 -0.20381747
0.08446158 0.18696566 -0.08532242
-0.19429584 0.24737786 -0.07457287
-0.046147455 0.1994331 0.13567898
-0.00911093 0.23889822 -0.037427872
0.08743481 0.007885206 0.101446204
0.27229324 -0.06654766 -0.17964156
-0.27965164 0.15327923 -0.07806997
0.07608557 -0.22083682 -0.017531829
-0.097480275 -0.10443675 0.08216642
-0.22293685 -0.078858845 -0.10614114
0.041231684 -0.08357084 0.06695841
-0.09265968 -0.24113283 -0.21226211
0.19120345 -0.075601764 0.036451463
-0.07577356 -0.10374362 0.14010684
0.050006453 -0.04270429 0.15709057
0.14726086 0.065608814 0.075320765
0.14142837 -0.2535849 -0.017439188
-0.15412226 0.19755287 -0.061207104
-0.048632346 -0.28270632 0.017914046
-0.2050279 -0.18691412 0.056134295
-0.11465556 -0.20690706 0.05196163
0.23442005 -0.04076627 -0.18533194
-0.026570458 -0.21246965 -0.18029429
-0.14758837 -0.25836933 -0.2084843
0.12481568 -0.10798736 0.0621196
-0.07954619 -0.17332284 0.041825723
0.17151201 0.04435354 0.05682388
-0.14618614 -0.21738738 -0.17986013
0.21619147 0.26808807 -0.13426886
0.09659843 -0.005332476 0.17286901
0.2275786 -0.1916796 -0.21035165
-0.08696658 -0.09905718 0.08562461
0.21789657 -0.0034141787 -0.13452893
0.06693907 -0.06456742 0.12210557
0.118296996 0.17571239 -0.029939413
0.24764803 -0.10634027 -0.17522375
0.16002606 -0.23216636 -0.20845397
-0.15553771 -0.2741752 -0.2050628
0.2752214 0.07166645 -0.13280064
0.2613489 0.00991679 -0.13533142
0.12829548 -0.15736148 0.04969843
-0.06713606 0.19366516 0.04535734
0.20949535 -0.060992178 -0.15358612
-0.09669008 -0.2703314 0.017152095
0.19502515 0.12499837 -0.017694753
-0.0051721353 -0.028186448 0.1543869
-0.27730054 -0.035111282 -0.11371777
0.15813002 -0.13304758 0.0014089278
0.0042254403 -0.044635735 0.12271876
-0.0024062528 -0.13265571 0.09662038
0.1912162 0.09206971 -0.09781503
0.0619759 0.115807116 0.10553604
0.077259235 -0.147006 0.06595077
0.14233236 0.009558818 0.06229185
-0.22109361 0.12837858 -0.08302321
-0.089881614 0.10438219 0.12959935
0.07664314 0.1799284 0.09086239
-0.2723534 -0.102311164 -0.12750098
-0.019486468 -0.08750544 0.11377288
0.12532991 0.15371667 0.09113734
-0.1993825 -0.12995537 0.05906835
-0.04006291 -0.23966934 0.007292493
0.007552291 0.10391309 0.10093415
-0.12506999 0.19837865 -0.06769366
-0.050846048 0.22459823 -0.0455203
-0.013586297 0.29055813 -0.070361994
-0.015312426 -0.020373795 0.16686529
0.151761 -0.16035023 -0.17926475
-0.13608411 0.27173758 -0.029410513
-0.18322329 -0.17412356 0.02637354
-0.19287033 -0.065036625 0.10601427
-0.034178637 -0.041490722 0.15697813
-0.017695943 0.026140375 0.16024935
0.1811576 0.16031758 -0.11885817
-0.18118724 0.27640042 -0.05360432
-0.2539081 0.10365284 -0.08471782
-0.008126914 0.18080974 0.14271708
-0.025821669 -0.16874051 0.08811579
0.033337742 -0.15617687 0.12135888
0.20938793 0.028942734 0.05732556
0.093561724 0.083805 0.12172977
-0.10453335 0.3145053 -0.09128166
-0.23297775 -0.07513606 -0.12178111
0.09820387 -0.24429101 -0.20896392
-0.18671685 -0.057835724 0.071734026
-0.19486335 -0.16720091 -0.13936336
-0.3338269 0.10334947 -0.066550404
-0.26657763 -0.081355 -0.15513337
0.012407414 -0.00062575855 0.16979855
0.16802411 -0.09277206 -0.19316097
0.21144338 0.027756264 -0.117512584
-0.14957908 0.13878891 0.10475777
0.01630991 0.07982396 0.117488846
0.034746695 -0.16844162 0.08705669
-0.14999683 0.10549479 -0.08951456
-0.29277536 0.16236393 -0.07428015
-0.21330892 0.0020721063 -0.1126421
0.03612291 0.04598971 0.16036199
-0.11378383 -0.14035834 0.0768983
0.046748463 0.030550512 0.11587543
0.20076506 -0.22410668 -0.20021634
-0.19182797 -0.026152765 0.11548159
0.17856154 -0.22303589 -0.00087730365
0.17801969 -0.07594202 0.016200386
-0.14862175 -0.001578304 0.11372782
-0.20776616 0.16013569 -0.08029763
-0.14990316 -0.13718309 0.0566569
0.032895755 0.33170083 -0.0522512
-0.16223764 -0.14530578 0.028063055
-0.12585236 0.1527744 0.04829354
-0.23725402 0.008419477 -0.10974233
0.1480796 0.13912062 0.11714638
-0.058682665 0.1619212 0.11269681
-0.23535825 -0.08548455 0.06920795
-0.16331834 -0.20541237 0.0116138635
0.26337257 0.0831621 -0.14843692
0.18998228 -0.16651034 -0.0036822422
0.040246185 0.07290911 0.1485846
0.27081442 0.06348925 -0.1256351
-0.28635514 0.11507332 -0.092576265
0.24511355 -0.043754626 -0.16390154
0.02167827 -0.17357811 0.063949235
0.026941674 0.13217361 0.1351792
0.18182036 0.18142174 -0.079884425
0.004132756 -0.015976347 0.13791293
0.1711431 0.039379247 0.06319476
-0.1704828 0.05310739 0.10548006
-0.08462107 -0.07611834 0.14896624
-0.108321704 0.18252017 0.111900605
0.25821713 0.1580148 -0.1371464
-0.21982838 -0.01796903 0.08122807
-0.047843035 0.2096491 -0.022212368
-0.1893568 0.07720597 0.13416013
0.2344047 -0.11651517 -0.20503162
0.15738297 -0.20360914 -0.008405128
-0.24156088 -0.12513341 0.048425943
0.18024875 -0.16329212 0.021508293
-0.016840775 -0.08194081 0.06373546
0.2777128 -0.093388975 -0.1759647
0.20266032 -0.07174387 0.064113855
0.04244925 0.13704762 0.11094471
0.12962638 0.122066624 0.10818212
0.18209884 -0.15033336 -0.005085434
-0.032241195 -0.19284914 0.06365263
-0.18863755 -0.2681738 -0.18102725
-0.27758116 0.1189393 -0.07951259
-0.07514203 0.21927416 0.026495358
-0.11241645 0.0709029 0.099417076
0.078371674 0.15608525 0.11581875
-0.12548155 -0.14687106 0.07262413
0.004137715 0.19047739 0.13283712
0.18944106 -0.17904063 -0.22258873
0.10287968 -0.088627875 0.072146304
-0.06884555 -0.28697687 -0.26631573
0.10454597 0.058206823 0.10228006
-0.2862665 -0.16462536 -0.12976518
0.013282858 0.048474558 0.15758334
0.15517028 -0.16295251 -0.22627385
0.048340037 -0.008336231 0.1330425
-0.20621264 0.1263621 -0.09808229
0.18170455 0.047661018 0.046349835
0.17430273 0.27107373 -0.09114
-0.0337719 -0.07717433 0.08046237
0.11857262 0.14198452 0.10212387
-0.28196084 -0.09582028 -0.13433054
-0.24912067 -0.18260019 -0.18777904
0.0027881865 0.20842838 -0.0617089
0.16049694 -0.16213927 -0.19274154
-0.013754352 -0.059120238 0.05037626
-0.227473 -0.1303424 0.07752857
-0.06755336 0.013228578 0.13790444
0.05375286 0.22746168 -0.08793578
0.13971299 0.19023478 -0.119473346
0.24577643 2.3585402e-05 0.07610707
-0.14258996 -0.042162515 0.08277299
-0.08025956 -0.2302514 0.020903513
-0.17800422 0.014848741 0.103524946
-0.028982127 -0.21544835 0.012925849
0.22209711 -0.037892174 0.054843172
0.15418991 0.086847246 0.106115244
-0.1812376 0.09517369 -0.08775484
-0.091777995 0.057779852 0.105065666
0.061210845 -0.2845139 0.009013284
0.24172759 0.041197594 0.08920287
0.27517235 -0.10044724 -0.20619553
-0.1463305 -0.11912459 0.05517065
-0.15885004 -0.06585753 0.0858452
0.20096612 0.16738005 -0.09508832
-0.22490117 0.043475468 -0.11642242
-0.11512769 -0.086046 0.09557598
-0.0146148205 0.30648243 -0.04189217
0.29640254 0.0051149884 -0.2248346
-0.06972248 -0.2537623 0.004382225
0.2834672 0.13016899 -0.14249137
0.20130226 -0.010713491 0.046207596
0.12651886 0.10092331 0.08279813
-0.054248028 0.062371578 0.08141026
-0.085667625 0.30466634 -0.024202393
0.121175945 -0.050389335 0.0338926
0.10666149 0.29904523 -0.08431417
0.22661756 0.1304364 -0.11374255
0.02794218 0.113716826 0.08350641
-0.18556492 -0.1605843 -0.1582607
-0.32614654 -0.06487148 -0.12736966
0.011165964 0.10531381 0.115308695
-0.14944787 0.014372396 0.078920566
0.02327434 0.2703128 -0.08454409
-0.27722272 0.12516345 -0.078178726
-0.25704986 0.17160103 -0.063700244
0.056376062 0.15692545 0.10003419
-0.27592188 0.13468179 -0.06915316
0.09259221 -0.07551181 0.11275923
-0.047160227 -0.09022014 0.16782373
0.18725897 -0.07818627 0.042076916
-0.16479535 -0.24138147 -0.16925798
-0.13881321 0.15366335 0.12645662
-0.04047256 -0.032574154 0.104806714
-0.084537566 0.30517974 -0.05140499
0.09943095 0.10696276 0.08394564
-0.18088228 -0.14146145 0.0571085
-0.12192818 0.26617768 -0.0550449
0.15777344 0.011168376 0.051390607
-0.18698995 0.08235074 -0.062369756
-0.12012633 -0.078255706 0.093813345
0.04591566 0.17180026 0.14845364
-0.28696084 -0.043497223 -0.15125825
0.20655312 -0.016198032 0.0752124
0.03596276 -0.15498124 0.12811448
0.014079293 -0.101339445 0.14364466
-0.12645619 -0.010618428 0.10998993
-0.1526491 -0.22122411 0.0022037218
0.038340468 0.31032553 -0.04483399
-0.20837465 -0.07487694 -0.10978109
0.16821428 0.17971806 -0.07585654
-0.21355341 -0.12456889 0.05011408
0.13798916 -0.28201094 -0.24359828
-0.04526452 0.046143778 0.106532246
-0.08222606 0.08871338 0.10888029
-0.21495935 0.080462016 -0.06505408
0.19470426 -0.07757157 0.059478395
0.21723038 0.01634316 0.024913704
0.040700983 0.133255 0.10035367
0.052885793 -0.17956366 0.07629569
-0.09273537 0.3152382 -0.033835817
-0.31756523 0.042323027 -0.10249488
0.11506126 0.20532984 -0.066177644
0.2677237 -0.02714696 -0.17191572
-0.01736815 0.2983222 -0.07030502
-0.28723183 0.09668642 -0.10317638
-0.121828206 -0.2777502 -0.20644294
-0.33970287 0.018530933 -0.08489115
0.084581904 0.17710601 -0.07353899
-0.0546571 0.099463984 0.12968734
-0.035864923 -0.1981031 -0.20179729
-0.1424977 -0.19600421 -0.17911056
-0.031380832 -0.18848047 -0.00082538737
0.2127963 -0.22088143 -0.23005885
-0.19945018 -0.05369542 0.061017834
-0.17675115 0.07770982 0.10436315
-0.033750083 0.28413513 -0.039847624
0.053896982 -0.22197337 -0.011028651
-0.061462946 0.13893932 -0.047721542
-0.017960947 0.28614473 -0.07405675
-0.09872148 -0.22504346 0.05000817
0.105082236 0.042998113 0.09577338
0.06189779 0.16462882 0.118660875
0.12269663 0.014246864 0.06505776
0.13525274 -0.03129755 0.10270168
-0.029186051 0.026535867 0.16942702
0.008897476 -0.12335424 0.124830335
0.12987877 0.20838188 -0.09819869
0.05810321 0.17567278 0.113673516
0.20243324 0.088176355 0.060287103
-0.16898783 0.1072263 0.10381637
-0.15400757 0.043510895 0.08919719
0.16894703 0.15610003 -0.108928226
0.05073033 0.13968982 0.102175795
-0.30856624 0.054849353 -0.1261006
0.07698 -0.24240586 -0.22877435
-0.08895246 0.2507375 -0.054232903
-0.07376699 0.23021191 -0.032424904
-0.18528365 -0.15786035 -0.1663069
0.24125697 -0.11947711 -0.20990482
-0.11719588 -0.25110137 -0.21950926
-0.16650423 -0.19785886 -0.19143754
0.017133493 0.33214334 -0.0745882
-0.09370097 0.18221411 0.14804226
-0.021622023 0.093514815 0.08926538
-0.16305517 -0.2294361 -0.17038551
-0.07915673 0.0062213065 0.14187817
0.20528153 0.18817182 -0.107092425
0.037854403 0.1948018 -0.061872378
0.14848208 0.05352133 0.09434566
0.2827894 0.05879998 -0.12739776
0.19614439 -0.0061995764 0.051794507
0.19136609 0.028897151 0.043216806
-0.15478829 0.141002 -0.08338204
-0.12571108 0.2128927 -0.036061767
0.09397155 -0.25735357 -0.22818285
0.15628554 -0.12976837 -0.17412749
0.056684773 0.022688234 0.14993699
-0.022135857 0.25441006 -0.06534225
0.013312114 -0.19029209 0.039929826
0.15584303 -0.21314967 0.025530063
0.15757613 -0.21136685 0.024960134
0.07278886 0.017140314 0.11488796
-0.16287759 -0.028061574 0.09109469
0.09862638 0.17458834 -0.060489893
-0.07340935 -0.18723384 0.010625295
-0.2886316 -0.10355802 -0.16780107
0.14847742 -0.21247041 0.0051836916
-0.012098818 -0.092890166 0.1435372
-0.25165933 -0.036951635 0.109336816
0.10095389 0.033566166 0.14792049
0.13780068 0.045426797 0.0491879
0.16907996 -0.1998827 -0.1953441
-0.17532538 0.13008362 -0.09240889
-0.074130885 -0.22088076 0.03296689
0.00993843 0.019020464 0.18266317
-0.11728271 0.22481953 -0.04890394
0.29114166 -0.09394457 -0.20581375
-0.09324504 0.20125492 0.05713283
0.13457054 -0.15576562 0.031712446
-0.14284346 0.0042036353 0.08820261
-0.023662211 0.19432896 -0.08939501
0.08418765 -0.26882973 0.012031375
0.11366728 -0.26827198 -0.20438801
0.04352931 -0.010355267 0.04692088
0.13919568 0.037993215 0.13735339
0.09734951 -0.026694758 0.08717091
0.24513113 0.07958994 -0.13295455
0.016878158 -0.11840543 0.10847039
0.24631573 0.017367862 0.061226577
0.20241253 -0.18162584 -0.20048954
0.25449672 -0.07593536 0.040036954
0.20394312 -0.044103846 0.028600035
0.039193418 0.06449378 0.15465602
-0.26978448 0.16744408 -0.09053497
-0.28520933 -0.026937265 -0.11943904
-0.04667537 -0.3175519 -0.22278686
0.22677012 -0.036705602 0.06374185
-0.20999096 -0.063585475 0.09399247
0.13553546 0.08001706 0.056875505
0.15183048 0.19678491 -0.07866993
0.2345434 0.013577378 0.051146787
-0.0116497185 -0.27975747 0.006191836
-0.15594983 -0.23650019 -0.20976007
0.13772075 0.08348123 0.09653722
0.021461183 0.29857224 -0.064205706
-0.020486023 0.1067433 0.08971743
0.104542024 0.18088904 0.10096261
0.29403174 0.011283942 -0.14959677
-0.061614357 -0.12233617 0.12233282
0.22337618 0.19318415 -0.087266795
-0.14513794 0.086280495 0.11928781
-0.18885332 -0.10123719 -0.16779155
0.2351798 0.20243701 -0.093715236
0.19719653 0.11469914 0.088447295
-0.221323 -0.14838046 -0.13576114
0.18166696 0.23902151 -0.090293534
-0.18174537 -0.0830855 0.06870841
0.015730767 -0.1787434 0.07369855
0.1991645 0.05128058 0.059031863
0.048349947 0.16871578 0.13607103
0.10044206 0.22759162 -0.07569504
-0.08452607 -0.17363477 0.037166696
0.07163683 0.10366327 0.10641833
0.27246043 0.017166702 -0.17047389
0.3183483 0.00108094 -0.19777943
0.1908209 0.20784749 -0.085399695
0.21230738 -0.0645312 0.037277814
-0.07984559 -0.25225776 -0.18143657
0.2875443 -0.022294266 -0.17108478
-0.16447315 -0.12097688 0.075953335
-0.016252369 0.12058714 0.11689064
0.14235578 0.16411828 0.09459853
-0.18210666 -0.039017823 0.110550225
0.1327164 -0.028248278 0.03970478
-0.025327899 -0.25944617 -0.016974589
-0.18510388 0.08688037 0.115442105
-0.0038516296 0.15360206 0.09674997
-0.14227346 0.11464577 0.10564719
0.1442142 -0.023950798 0.08102799
-0.036009833 -0.24829966 -0.20126392
0.19513337 -0.09793952 0.034607187
0.08447819 0.1641141 0.14138462
-0.23153786 -0.022278659 0.102585874
0.1755147 0.016350644 -0.14287628
0.1251516 -0.21299475 0.023818662
-0.19605233 -0.035152897 0.07005469
-0.07873278 0.20324166 0.052483797
0.16589333 0.10471926 -0.1283391
-0.018143047 0.05176849 0.14218444
0.21869175 -0.070388064 -0.15881747
0.1956552 0.00525518 -0.13034174
0.13499777 -0.030259848 0.06698342
-0.08383116 0.32088593 -0.032110464
0.014733609 -0.15996167 0.11101154
-0.25910798 -0.08449868 0.086517476
-0.3055952 -0.0026351698 -0.12079018
0.07550018 0.2554804 -0.060740255
-0.21876755 -0.14441131 0.07160461
0.0203918 -0.15309003 0.10742497
0.13477406 0.14821754 0.021429207
-0.32981277 0.11888148 -0.09960548
0.0693763 -0.26641285 -0.020530693
0.038649067 -0.18799183 -0.19491829
-0.08435915 -0.2766472 0.02814801
-0.010969793 0.033192147 -0.060976416
-0.12197961 -0.2455849 0.007957021
0.017686805 -0.2044974 0.00154464
0.16092964 -0.224882 0.014710815
0.079400234 -0.22552569 -0.19785742
-0.1191775 -0.2195846 -0.19190307
-0.13640086 0.29919952 -0.064832024
-0.096719354 0.21288982 -0.04021613
-0.059989385 -0.0397246 0.17634532
0.22775465 -0.16948254 0.032788195
0.09684935 -0.031309072 0.14482762
-0.03163052 0.042748455 0.120156735
0.05091096 0.18406571 0.104592785
0.10535417 -0.24860908 0.025730409
0.06429903 -0.2811069 -0.02315191
-0.12259678 0.03421625 0.088387676
-0.24119686 -0.08264924 0.05146774
0.07622865 -0.1646599 0.051905576
0.28375024 0.07269815 -0.1686612
-0.08616323 0.11188578 0.11753233
0.014565194 -0.009215608 0.17692073
-0.085507 -0.042539656 0.13799189
0.12174211 -0.066106185 0.07665267
0.07545293 0.22921772 -0.087877564
-0.039059576 0.0014558362 0.15880406
0.06898999 0.06443953 0.1097109
-0.01667664 -0.0650511 0.069069885
-0.2086944 0.061002668 0.11260063
0.14876336 0.20143028 -0.11387972
-0.09431816 -0.073503904 0.09557275
0.0057288944 0.2894272 -0.070150316
0.16647327 -0.122297004 0.049554937
0.13460408 -0.13694005 -0.1986618
0.1052006 0.12497172 0.11462313
0.12631822 -0.196437 -0.18905869
-0.076047085 -0.14706723 0.13937809
0.12352103 -0.2104013 -0.18127373
0.15058455 -0.14568067 -0.17294821
0.18161233 0.007178701 0.05169957
-0.19574289 0.07320736 0.1128545
-0.24172407 0.16075622 -0.09429817
-0.096428685 -0.21451937 -0.15511008
0.07630044 0.19927453 0.12870118
0.12987113 -0.04260108 0.080980375
0.2247786 -0.10749867 -0.00038045476
0.056979496 0.17094798 0.13151997
-0.0074243224 -0.20846021 0.0038492342
0.18922988 0.16285804 -0.11416984
-0.23650107 0.17175697 -0.052570995
-0.23627555 -0.040491328 0.08088629
0.20384203 -0.026790865 0.07451734
-0.09215617 -0.12597114 0.12581865
0.074629374 0.07436565 0.08598947
0.18676606 0.13853076 0.015432413
-0.08703116 0.13420786 0.12832011
-0.038237404 -0.005209979 0.15920256
-0.09526141 -0.1233181 0.10786372
-0.20234826 -0.14370964 0.047846835
0.1997784 0.039942745 0.048359025
0.107375585 0.14842826 0.09070274
-0.03653844 -0.1816553 0.08218129
-0.03803123 -0.10002591 0.1344019
0.069365636 0.17017466 0.11225978
0.048646852 0.0060669784 0.15518172
0.16464302 -0.0064719315 0.04105771
-0.10282269 0.18806867 0.068732634
0.13928555 -0.04719966 0.105881765
0.13682571 0.24926645 -0.08142184
-0.009942283 0.0022971705 0.17372207
0.06728935 -0.03323229 0.14718114
0.13948837 0.105807304 0.07755471
-0.09543656 0.31989637 -0.07182606
-0.1389042 0.17176373 0.12957487
0.21132396 -0.14309873 0.026885984
-0.11787204 -0.22900154 0.04123524
0.26924813 -0.12030532 -0.18828619
-0.1945271 0.008746418 0.09930445
-0.1898128 -0.2018073 0.061417665
0.08769506 0.02340732 0.10689227
0.040272545 0.3064063 -0.043986715
0.11173942 0.15175654 0.12593901
-0.2412695 -0.011295914 -0.13299228
0.06496051 -0.100014694 0.1314527
0.09936375 0.18965818 -0.10019419
-0.12364886 0.22708702 -0.06536138
-0.028849386 -0.11056138 0.112835065
0.1282897 0.1427563 0.081231855
0.13321447 0.023041222 0.075745344
-0.15502942 0.082623765 -0.06962926
-0.027542097 0.2993619 -0.041707646
-0.014054557 -0.0017047079 0.1830207
-0.16637577 0.13233733 -0.089970745
-0.06670582 0.098376006 0.12944661
0.19430748 0.20091324 -0.09804405
0.20493042 0.041187663 0.05569991
0.21056888 0.10563313 0.101021856
0.20780896 0.076063596 0.10255967
-0.2348166 0.20550445 -0.05392244
-0.14059526 0.11802061 0.1352483
0.24187285 -0.069212034 -0.19154973
-0.091464184 0.022173826 0.14778398
0.08098763 -0.13945523 0.044225033
-0.006840417 -0.019484717 0.16194311
-0.022776855 -0.10740868 0.15935785
-0.04159405 -0.26836604 0.03062669
-0.18970713 -0.03675361 0.08300122
-0.114499845 0.005750164 0.08913412
-0.2592261 -0.1436674 -0.13953994
-0.06982991 0.11990133 0.11628396
-0.15112686 -0.26431456 -0.21364094
-0.2130197 0.13687275 -0.08526307
0.1761919 0.21139441 -0.07823319
-0.023603043 -0.069787025 0.06256666
0.17505416 0.09623997 0.10562757
0.012310701 0.24151157 -0.04087389
0.078320436 0.047132056 0.11484071
-0.27501443 0.18881631 -0.08747336
0.043313105 -0.22147013 0.006135068
-0.14833586 -0.14950925 0.05603041
-0.14112327 -0.22988488 -0.17708565
-0.19531031 -0.04917019 -0.10955785
-0.17557189 -0.21524647 -0.17531405
-0.055669777 0.31741247 -0.06587783
-0.09498145 0.11654295 0.12546654
0.12977532 0.12839948 0.108709924
0.062445145 0.027890204 0.14154069
0.10372965 -0.14801173 0.08420788
-0.24881463 -0.1492326 -0.1653145
0.07905734 -0.15538046 -0.18581891
-0.20411336 -0.051201023 0.08760335
-0.117147736 0.13271344 -0.050202783
0.19724312 0.16758527 -0.12812756
0.12327146 0.1325413 0.0825667
0.013081747 0.31303334 -0.0557522
0.2614918 0.01757495 0.04444183
-0.21945794 -0.20318423 -0.1604498
-0.26170468 0.14769416 -0.06511747
-0.012221927 -0.08020024 0.09489395
-0.06402412 -0.09941896 0.15659015
0.16453616 0.024932884 0.087929375
-0.11756643 0.13989535 0.118097134
-0.1874461 0.101163864 0.11876227
-0.35095719 0.06747073 -0.13873474
-0.043276135 -0.23305202 0.03990536
-0.22410652 0.19104373 -0.061429646
0.107570775 -0.112095565 0.043513566
0.08205314 0.113008596 0.11498618
-0.15737018 0.13629583 -0.05494536
-0.053538177 0.18025665 0.07301613
-0.10155937 0.059371762 0.11319744
-0.20742461 -0.2507394 -0.17143992
-0.066186324 0.2590118 -0.0599096
0.07436239 -0.21412255 0.016021954
0.22017406 -0.015104897 0.04300663
0.23038381 0.15271537 -0.08836653
-0.07532027 0.033453774 0.122902416
-0.014481208 0.18322325 0.11588654
-0.03664893 -0.069684125 0.15354629
-0.11588892 0.17139672 0.051843047
-0.041076418 0.086060084 0.122295365
-0.17277771 0.108425595 0.121582456
0.1264191 0.30096737 -0.083982304
0.15821129 -0.037028123 -0.13373049
-0.3065042 0.07735905 -0.08704084
-0.14908165 -0.1889493 0.048720647
-0.18590738 0.12753129 0.11282871
0.16039875 0.1257222 0.08123544
0.19732797 -0.1554133 -0.21453828
-0.161992 -0.24035954 -0.16616571
-0.044680707 -0.13027214 0.084662944
-0.1746974 -0.17731796 -0.16114266
0.13506845 -0.2800847 -0.20659108
0.2179641 -0.101865225 0.04244594
0.09754019 -0.21390522 -0.0037341628
-0.08599817 -0.23313865 -0.00045277417
0.11525487 -0.108673446 0.090959534
0.11886005 0.15277737 0.13479555
-0.24870536 -0.006792526 -0.085755885
-0.101724714 0.04549861 0.107275285
0.11194473 -0.020023838 0.119009025
0.06725104 0.20643336 -0.062107947
-0.09896535 0.15806329 0.107647955
-0.1823495 -0.19053441 -0.1817004
0.18709877 -0.1364134 -0.17977318
0.14157286 -0.23872545 -0.21575122
-0.29418713 0.00529105 -0.11951969
-0.12175586 -0.2471358 0.008536138
-0.055528633 0.08598003 0.12861228
0.04609969 -0.043852694 0.15017071
-0.040251337 -0.16865402 0.10056072
0.11392383 0.16521335 -0.025872547
-0.17150715 0.28998345 -0.08973441
-0.20030703 -0.16122541 0.036485184
0.08168294 -0.25711244 -0.0068546655
-0.312626 -0.13822205 -0.16676474
0.12833713 -0.08291858 0.055331234
-0.041583706 0.1808536 -0.010197016
-0.09810897 -0.1655881 0.055119865
0.0753299 -0.12376924 0.07783055
0.2569115 -0.034065604 0.023085197
0.011096094 0.28954402 -0.07121009
-0.14163978 -0.2721198 -0.19663076
0.25586066 -0.082606085 -0.18547055
0.25895646 -0.07299735 0.021806642
0.05475029 0.2001459 0.11853248
-0.15662882 -0.25183228 0.0034674273
-0.3467909 0.018726202 -0.121701054
0.246827 0.18761443 -0.14603613
0.12901707 0.21847367 -0.06812995
0.13428612 0.28105566 -0.0751639
0.20839374 -0.10538777 0.009306064
-0.06698534 -0.21157113 0.0032795146
0.18067734 0.12668194 0.107536905
-0.025668833 0.117743514 0.119531505
-0.0953354 -0.04492044 0.14047767
0.083840795 0.11307932 0.082622886
-0.3126359 -0.057349082 -0.11640457
0.2580407 -0.018994797 0.027223432
-0.23355213 0.047466706 0.09641685
0.23710246 -0.041082494 0.04944265
0.03273744 -0.02708306 0.17042263
0.17044006 -0.12514731 -0.1975054
0.04528701 -0.13514927 0.14325048
-0.05603736 -0.018468784 0.13944453
0.19988993 -0.07500887 0.052934676
0.061673444 -0.09271346 0.13782619
-0.11167035 -0.26432446 -0.1921124
-0.28606987 -0.07680981 -0.14559758
0.024018472 -0.1471859 0.11204929
-0.033733048 -0.13680612 0.10711985
0.055091493 0.24451923 -0.06785166
-0.027310915 -0.14402768 0.14686614
-0.13870735 0.109938666 0.09015179
-0.069609165 0.22464798 -0.04294378
-0.24866758 -0.092583396 -0.12533285
-0.13091925 0.25839517 -0.040619116
0.1932069 -0.14759378 0.008675491
0.08742768 -0.07071801 0.1319477
-0.28327012 -0.18669128 -0.16767162
0.17036377 -0.07412044 0.028330278
-0.19214003 -0.21622118 -0.19416259
-0.13882905 0.055974856 0.104889795
0.090597585 0.03347684 0.12682079
0.20276062 0.07873655 0.065211676
-0.054970834 -0.30975816 -0.26460034
0.13129918 0.25932616 -0.05154465
0.14341858 -0.2369445 -0.23348628
-0.24217065 0.14034039 -0.089349635
0.04649058 -0.083898626 0.010003369
0.21728487 0.15495797 -0.129997
0.05988339 -0.058908753 0.15817206
-0.10900117 -0.28527498 -0.2209054
-0.24626757 0.065588556 -0.09164138
-0.0308299 -0.2711717 0.014800854
0.2479198 -0.047126967 -0.15216704
-0.2003582 -0.16606975 -0.13841319
0.18452334 -0.056586258 -0.13241473
-0.06957497 0.0010716867 0.13042319
-0.04820408 0.094018385 0.12024891
0.21129203 -0.08820736 0.04862217
0.031166555 -0.1032918 0.09084992
0.17291763 0.061083738 -0.12984076
0.2504856 -0.03160808 0.024528729
-0.17856339 0.21538521 -0.047569826
0.26288724 0.16233404 -0.1349602
0.16084154 -0.19589755 -0.014955445
0.1335618 0.16638806 -0.06466919
0.27141592 0.16553418 -0.10843076
-0.17634802 0.074337825 -0.08532438
0.13126323 -0.09604139 0.081134476
0.16725992 0.2841352 -0.064930074
0.21345802 0.022358604 0.05599128
-0.06464849 0.05860462 0.1073006
-0.2364652 -0.06829019 -0.098797165
0.05547632 -0.12813608 0.10400305
-0.19429013 -0.18956943 0.057076316
0.19320692 -0.19032863 -0.18184435
-0.16800998 0.12932518 -0.053472683
-0.13518365 -0.23889592 0.007845539
0.11130983 0.23128845 -0.06139772
0.0830547 -0.14468381 0.015221127
-0.09361577 0.12763305 -0.03521672
0.21918507 0.029027563 0.06701708
0.03139942 0.14239739 0.12953931
0.16102733 0.036107074 0.053897593
-0.18360014 -0.016406255 0.06206497
-0.12326944 -0.2947432 -0.18697271
0.116645195 -0.26710764 -0.23187213
0.22304109 0.23471081 -0.114509195
-0.05848586 -0.2516973 0.018618662
0.19534108 -0.20047788 -0.19181296
0.2656805 0.10749532 -0.14992441
0.18316473 -0.10615385 -0.18555501
0.1799047 0.21788356 -0.11377158
0.102926835 -0.00900222 0.11713136
-0.26585025 -0.12987784 0.05857799
0.1640396 -0.05834345 0.042713333
0.092130385 -0.1733907 0.008752804
-0.2561064 0.017868984 -0.08675586
0.05606222 -0.041450806 0.14374265
0.112501495 -0.09932981 0.10084171
0.060680505 -0.09605823 0.14828306
0.06283193 0.12367771 0.088746265
-0.20042795 0.06393156 -0.10443126
-0.11526037 -0.11621861 0.10060484
-0.041933127 -0.19325906 0.028850153
0.068710774 0.10626728 0.11613329
-0.18094324 0.0951335 0.13551286
0.037577156 0.05154009 0.13422582
-0.152707 -0.22322167 -0.21246007
0.05862476 0.15469697 0.12782666
-0.13404211 -0.015533493 0.09630653
-0.04639152 0.078223474 0.11477953
-0.1307055 -0.120937094 0.115270756
-0.1963497 0.088637166 -0.061906155
0.16080888 -0.17714708 0.027786693
-0.2351619 -0.14877795 -0.16978627
-0.30862287 -0.017867683 -0.11911901
0.097687915 -0.009603873 0.12632047
0.013022838 0.08862918 0.09112233
0.038283046 -0.024972292 0.14813179
-0.015838291 -0.17854585 0.11990126
-0.032061342 -0.05034412 0.14905426
-0.07931751 0.30361295 -0.06671079
0.06683007 -0.11078951 0.11237554
0.111132205 -0.054887135 0.0941697
0.19645517 -0.0765287 0.063965045
0.07385779 0.23267472 -0.087227315
0.019804744 0.33327386 -0.06878317
-0.12997188 0.17520587 -0.04016717
0.097774796 0.18473743 -0.06832737
-0.22705944 0.061447125 -0.07768932
0.20132187 0.047153704 0.08610663
0.09605054 0.2337191 -0.08597811
0.049813304 0.13114278 0.084824465
0.04247063 0.25984955 -0.084768906
0.0020351473 -0.22288881 -0.205919
-0.049553826 -0.19774735 0.042608224
-0.11285006 0.08170415 0.08714299
0.18030336 -0.12904876 0.023967376
-0.068453655 0.021606874 0.14685301
0.0965178 0.17044927 0.11213743
0.062689885 0.32089442 -0.036129173
0.17431054 0.05151687 -0.15003294
0.11499708 0.07341924 0.0828971
0.068630554 0.2512453 -0.048495002
-0.034009773 -0.10771908 0.12810482
0.21960716 -0.030015279 0.046560463
-0.12716638 -0.28831914 0.0010321214
-0.05877489 0.04110352 0.101213545
-0.10798008 0.032713357 0.10529339
-0.14212525 -0.0832549 0.06645923
-0.07667908 0.035708107 0.14224601
-0.09567472 -0.20106225 -0.19849086
-0.008716815 0.17095536 0.14628015
0.04955425 0.1714928 0.13493165
0.22343896 -0.17071715 -0.1927441
0.12577611 0.10610241 0.0881282
0.08240937 -0.060281824 0.13773581
0.09118433 0.16085105 0.102751546
0.1852766 0.09299616 0.071226016
0.06356684 -0.0590282 0.14825453
0.04710882 -0.039820496 0.12553562
-0.006529418 -0.28168297 -0.013826958
-0.24972689 0.14523864 -0.07779902
-0.12684707 -0.307314 -0.2193741
0.24819769 0.058337398 -0.13175155
-0.11691302 0.016059373 0.1379852
0.1491693 -0.19182393 -0.16953127
-0.10740384 0.08438995 0.0923942
0.28467396 0.054948337 -0.14364688
-0.15523872 -0.22190097 -0.0077152974
0.064699806 -0.1278416 0.098821096
0.023851028 -0.10563929 0.12150676
0.16229199 -0.1670917 0.030985268
0.022412088 -0.0043284693 0.17725764
0.26190278 0.11533798 -0.1409969
-0.14213741 0.04750036 0.123633854
0.09903711 -0.0756975 0.14832217
0.001716602 -0.083502114 0.086865894
0.04436102 -0.057895526 0.079658896
0.15912686 -0.18890843 0.018570835
0.05174145 -0.20667276 -0.20392776
0.111101195 0.240392 -0.06191811
0.19112326 -0.2218237 -0.19486628
-0.12707515 -0.14602321 0.07368896
-0.022901488 -0.2098473 -0.19957153
-0.24144614 -0.09387394 0.0523056
-0.19788773 -0.12663935 0.087677814
-0.123578556 0.28739384 -0.06058345
0.103154786 -0.06378051 0.1358198
0.18305542 -0.15276657 -0.17211883
-0.05807364 0.09870678 0.097934105
0.2706951 -0.092490025 -0.2065182
0.06983121 0.13695177 0.123524465
0.100594535 0.07617912 0.076817214
-0.18995968 -0.13571212 0.035894725
-0.10297009 0.19928673 0.012021504
-0.13613673 -0.09222123 0.057210926
0.17420669 -0.21530834 0.017262025
0.069947064 0.17346326 -0.026744977
-0.02346404 0.10042626 0.08581819
0.09040145 0.2610729 -0.069911085
0.08655785 0.27268603 -0.050695166
-0.30416772 0.09686256 -0.06077604
-0.013316542 -0.10995927 0.11170903
-0.27819738 -0.019925967 -0.09090932
-0.0027848696 0.0068126214 0.16707966
-0.04063251 0.16533099 0.14845958
-0.2108226 0.045134347 -0.09317962
-0.25941935 0.0029137102 0.121519685
-0.15530941 -0.13310386 0.042249564
-0.26352227 -0.17285617 -0.15649274
0.12370986 0.23106004 -0.07780939
0.06615517 0.2336366 -0.06630999
0.1697382 -0.059245866 0.030292315
-0.20800772 -0.0051265075 0.08575
-0.16537927 0.067178264 0.10607276
0.019022932 -0.104256675 0.0721635
0.26520658 0.13423264 -0.114602305
0.13463418 -0.08370647 0.045844056
-0.082366325 -0.08084429 0.12012992
0.28371453 0.15182199 -0.12408704
-0.04493912 -0.062046092 0.15425713
0.16600066 -0.022845019 0.066146545
0.08877243 -0.14286326 0.09969644
-0.05192916 0.20042528 0.028217074
-0.0038475126 -0.3121728 0.024042621
-0.17852646 0.16657265 -0.0768888
0.2281024 -0.0071767974 -0.1576494
0.07017068 0.18622378 0.1131604
0.23762597 0.1583941 -0.115233324
-0.10077974 0.20353012 0.016243856
-0.3409482 0.05252946 -0.12128739
-0.01712885 0.066190444 0.14792466
0.10521376 -0.08227978 0.11952979
-0.23645969 0.16774498 -0.06330127
-0.18294115 -0.034973532 0.0962231
0.03908978 -0.26697737 -0.23581228
-0.18659468 -0.1256857 0.059467956
0.1590974 0.098122515 0.09624319
0.2805986 -0.08785899 -0.17552662
0.13360567 0.09283458 0.061923064
0.18015704 -0.121496335 0.013553006
-0.16666013 0.111540884 0.12302921
0.32748464 -0.00044534722 -0.1937188
0.093112774 -0.08151551 0.087401524
-0.27825323 -0.12466182 -0.16841301
0.27644053 -0.05411053 0.0032942963
-0.1322368 0.2456926 -0.04004915
-0.15903547 -0.028453834 0.1054543
0.25555545 0.020773439 0.07149209
0.18516393 -0.1630756 -0.006777563
0.21793501 -0.090616666 0.010703871
-0.0019769294 -0.19581363 0.0076877996
0.14913881 0.11267002 0.06789411
-0.004985392 0.07169521 0.12505491
0.18806364 0.1680415 -0.06592385
-0.06124102 -0.25235653 -0.005230611
-0.054791283 0.2218581 -0.04958029
-0.031642552 0.22723912 -0.086158745
-0.017749285 0.061999667 0.12435431
-0.03191841 -0.009862627 0.014485831
0.23635207 0.039545428 0.04763982
0.19398572 0.15613048 -0.12469851
-0.019812725 -0.111942425 0.08912165
-0.2199743 0.0018212147 0.097033754
-0.24662162 -0.12772056 -0.15054195
-0.2534478 -0.19523983 -0.14421321
0.2693503 0.14908114 -0.118969254
0.045080543 0.29191148 -0.07408188
0.072552815 0.08127118 0.09696612
-0.13221458 -0.17645398 0.02305218
-0.034520723 0.26692545 -0.08355904
0.03784181 0.21724509 -0.07956843
-0.21205823 -0.17493792 -0.16023949
0.029720686 0.022185672 -0.010804524
-0.27834412 0.09822044 -0.08871349
0.20948076 -0.16518436 -0.222056
-0.29637173 0.11004633 -0.06993666
-0.03644007 -0.1820012 0.010209866
-0.056246832 0.1459584 0.111540444
0.26741257 -0.004735402 0.057506323
0.17181253 -0.04002061 -0.13199942
-0.0714678 0.20765792 0.14386106
-0.035845205 -0.059098665 0.12307005
0.014394358 -0.051162448 0.12850502
0.120546676 0.17962074 -0.09301953
-0.15415801 -0.050153006 0.084067546
0.11849004 -0.17541967 0.002717525
-0.09201172 0.16288757 -0.054288574
-0.16470648 -0.16079043 -0.14597754
0.051768366 -0.061740823 0.13827531
-0.29457262 -0.10394266 -0.16163051
-0.15746437 -0.18838446 0.037729766
-0.18444018 -0.031524003 -0.100922264
0.09878583 0.07904685 0.09212442
-0.15184005 -0.2640203 -0.20176363
0.022402521 0.159997 0.104280144
0.053101875 0.19462198 -0.0342957
-0.2790275 0.1867261 -0.068771444
0.018683268 -0.011060762 0.17740336
0.013595146 0.33046287 -0.079754755
0.06287837 -0.028251274 0.123981304
-0.25787276 0.10953633 -0.07866052
-0.20467521 -0.017211191 0.09228072
0.07735835 0.16236606 0.10807348
-0.29165268 0.13715194 -0.07095238
0.14391828 -0.25797203 0.010421272
-0.042303253 -0.2201838 -0.2178142
0.06611989 -0.2378593 -0.0030999721
-0.06825943 -0.26271072 0.03672077
-0.08633195 0.20031169 0.033447694
0.23222585 0.054685503 0.04380761
-0.056867454 0.27510822 -0.057140637
-0.1517258 -0.1828173 0.060914848
-0.30771822 -0.11795036 -0.12453
0.1141363 -0.24601671 -0.23157339
-0.24514401 0.021260398 0.08896663
-0.15734348 0.2132284 -0.051715363
0.26394686 -0.08024782 -0.1747669
0.09281054 -0.16419351 0.021341085
-0.30003083 0.10139989 -0.0941183
-0.23324233 0.003759767 0.10377901
-0.2749292 -0.15309604 -0.14654362
-0.12250576 -0.18468526 -0.164779
0.16524194 0.061895836 0.097027585
0.29568815 0.013191948 -0.15033245
-0.10701444 -0.271183 -0.007955005
-0.24019544 -0.10522694 -0.12850055
0.017437255 -0.15041436 0.09348679
0.24401158 -0.06403113 0.05214925
-0.113548115 -0.09123347 0.10889079
0.16619742 -0.134684 0.032936543
0.14115436 0.21930678 -0.095510416
-0.068286225 0.14336956 0.14936556
-0.057399157 0.085631765 0.08672382
0.09315047 0.057767402 0.12003615
-0.29256162 0.18121968 -0.0745671
-0.18564816 -0.061048754 0.054821085
-0.25567806 0.06258448 -0.10187824
0.22740749 0.14829524 -0.10109653
-0.28879356 0.16760172 -0.084641874
0.05904585 -0.13506658 0.1351515
0.17148545 0.12853299 0.010508766
0.028500227 0.2099498 0.1360615
-0.0040369197 0.16552433 -0.03710441
-0.058992393 0.2614135 -0.0751738
-0.2092538 0.19928142 -0.052205496
0.23458225 0.24662057 -0.09913059
-0.20621671 0.23141044 -0.051332038
0.010233415 0.28834352 -0.06050885
-0.065236315 -0.2962493 0.0061787395
0.148753 0.11595768 0.063842736
-0.11825957 -0.27122238 -0.19213444
-0.06240331 0.11164485 0.13596271
0.14461227 0.04216408 -0.1199344
0.0963867 0.23517399 -0.079515986
0.03211237 -0.26133764 0.012603365
-0.020213742 0.0051361937 0.1575383
-0.13735121 0.07646137 0.12139173
-0.32955587 -0.035564587 -0.15840268
