# .PCD v0.7 - Point Cloud Data file format
VERSION 0.7
FIELDS x y z
SIZE 4 4 4
TYPE F F F
COUNT 1 1 1
WIDTH 1000
HEIGHT 1
VIEWPOINT 0 0 0 1 0 0 0
POINTS 1000
DATA ascii
-0.017431801 0.19203345 0.034948137
-0.0193135 0.03476652 0.04241654
0.04649514 -0.14840412 -0.16212179
0.19911031 0.18698548 0.103426434
0.1385939 0.034087114 0.07663638
-0.18591581 0.018351952 0.045098186
-0.052661035 0.009945813 0.12136961
0.17256385 -0.07323843 -0.29189837
-0.07368671 0.003443735 0.033279553
0.10736208 -0.032217633 -0.12724072
0.11909396 0.019571166 0.09311109
-0.033377785 0.2043509 0.069242544
0.05401745 -0.15732239 -0.24706076
-0.03897464 -0.25154918 -0.2514668
-0.080963165 -0.26407912 -0.13510452
-0.14461729 0.13056302 0.09920882
0.15179443 0.084849894 0.12962058
-0.10358186 0.10998053 0.065043814
0.11996907 -0.016888505 -0.096223176
-0.103742875 -0.2738356 -0.055558518
-0.037516534 -0.06885608 0.24617903
0.17201054 0.1561715 0.097719245
-0.13715185 0.12210592 0.12659347
-0.12019585 -0.205153 0.10153647
0.003132317 -0.09395279 -0.01000489
0.11455798 -0.02437327 -0.13740279
0.0061933924 -0.1371626 -0.047710363
-0.13383578 -0.11074491 -0.04601698
-0.047997914 0.08163761 0.07015064
-0.15574066 0.09625421 -0.02876952
-0.04534764 -0.15746824 0.03571487
0.11278645 0.11454123 -0.13871303
-0.03523466 0.054601703 0.108558714
0.0973311 -0.136226 -0.2613267
-0.017381595 0.1792284 -0.1454968
0.2065936 0.093103416 0.08290507
0.17800125 -0.08146575 -0.30873302
-0.12337516 -0.27977142 -0.054990776
0.08624636 0.116464615 -0.014208173
-0.039445832 0.037425835 0.09539883
-0.12512302 0.03833126 0.05848499
0.008405532 -0.21269584 -0.29091522
-0.041389924 -0.2457026 -0.15211152
-0.15266506 0.025455011 0.002963232
0.054237712 0.053649172 0.079617515
-0.05544755 -0.22659236 -0.015387323
0.13743377 0.007884261 -0.00945788
-0.084254265 -0.29611644 -0.09297025
-0.09718956 -0.0133207925 0.07071983
-0.07531616 0.021376774 0.071536206
0.16836563 -0.07236345 -0.30985093
-0.09574828 -0.30713046 -0.068657205
-0.009776803 0.0022622626 0.11381852
0.21820103 0.13469946 0.023687223
-0.05882184 -0.23092651 0.014164083
-0.047995698 -0.26132664 -0.16416268
-0.16449414 0.06593717 0.066355504
-0.007662952 -0.095677 0.095834285
-0.01013672 -0.009902411 0.14358772
-0.1145744 -0.2526662 0.0091482345
-0.015938917 0.11020516 0.058668148
-0.15755154 0.07839304 0.0070372988
-0.08721293 0.12340266 0.063929275
0.09448891 0.08497333 0.2118143
0.072414674 0.1133628 -0.22492078
0.21054168 -0.022708869 -0.2997821
0.07954406 -0.11034855 -0.09091689
0.18164676 0.10386683 0.07078153
-0.0046197716 -0.14236282 -0.037975267
0.23367587 0.11682735 -0.024575192
0.03129333 -0.039859682 0.07676936
0.2124923 0.16611251 0.043592505
-0.13344002 0.0876051 0.084583454
-0.014853899 -0.12752333 0.046442583
0.052958995 -0.056724638 0.075457506
0.11719078 -0.05219208 -0.19502544
0.053857833 0.077463344 0.2370666
-0.2588192 -0.07775223 -0.098387375
0.0295893 -0.111062855 -0.07270523
-0.18457246 -0.022402925 -0.037577778
0.16245596 -0.017877499 -0.27854165
0.09315176 -0.13335809 -0.34737512
0.021892842 -0.11924859 -0.06553614
0.10660135 0.13921358 0.20314483
0.011099884 -0.14520724 -0.13789706
0.03408682 -0.11163583 -0.0640871
-0.14305668 -0.2621841 -0.03512436
-0.20522045 0.045038346 0.10919667
-0.00715536 -0.2288251 -0.20054251
-0.055460446 0.15096399 0.06374313
-0.12188608 0.008662582 0.08320588
-0.060315732 0.06627217 0.05758726
0.14094579 0.085747056 0.1514395
-0.26714537 -0.054322787 -0.05802207
-0.018445617 0.25125557 0.02270993
0.19247289 -0.032874357 -0.36082178
0.09432624 0.092802666 -0.03066904
-0.03376374 -0.07895136 0.18431404
0.05287463 -0.15568192 -0.12889864
-0.17733407 -0.05436752 -0.0499338
0.15892713 0.06910131 0.007798705
0.08544017 -0.06807045 -0.08305156
0.117528774 -0.07775099 -0.22193357
0.27098042 0.15286177 -0.16177474
0.04472579 -0.12595694 -0.07444463
0.17465875 0.12532851 0.17240106
0.029388122 -0.026621778 0.160683
-0.096997514 -0.27177325 -0.14404456
-0.07286339 -0.08668975 0.13826135
-0.037991393 -0.075035535 0.2180573
-0.10244521 0.044664707 0.069707856
0.10116512 0.113780774 0.19056438
0.105189815 0.12100291 -0.0077991933
0.019353673 0.009556809 0.17677903
-0.0175501 -0.06728025 0.18863827
0.03294461 -0.10682747 -0.08763117
-0.069846995 -0.18509398 0.14181617
-0.13503249 -0.30616236 -0.06928403
0.15921684 -0.04596124 -0.24394533
0.2583726 0.14662935 -0.117053635
-0.14051539 0.13949768 -0.19892296
0.15843919 0.04111397 0.013364629
0.2902534 0.16332966 -0.13088708
-0.12774338 -0.17449044 0.13449149
0.07460087 0.0038952972 0.116180934
-0.25145093 -0.046687387 0.028355647
-0.05186421 -0.034322124 0.21509713
-0.047228772 -0.25779697 -0.1257922
-0.05588111 -0.12692711 0.109182924
-0.12159749 -0.22371888 0.07297645
0.15328413 0.0063388967 -0.11002671
0.07209369 0.20334777 -0.22789884
-0.09013987 0.030758053 0.07190307
-0.00014986887 -0.09285278 0.06763762
-0.026321238 0.2145165 -0.07657545
0.020090971 0.24247278 0.0069179856
-0.06137745 -0.30186963 -0.21783085
-0.15587477 -0.29132342 0.020988975
0.23688865 0.09248551 -0.12124746
0.10294985 -0.09446432 -0.17522708
0.23926112 0.09288611 -0.098874435
-0.11580783 0.0056883516 0.100672916
-0.09206236 -0.13657062 0.21515952
-0.15186681 -0.28145698 -0.07216246
0.23915942 0.19379589 0.024431713
0.04922102 0.0032255356 0.1626108
-0.10599201 0.17126398 0.11130622
0.056419384 0.013557645 0.22447304
-0.23309511 -0.06286455 0.035072494
0.035562985 -0.11357035 -0.07654317
-0.16701093 0.020214591 0.06067539
0.18215936 -0.0059443805 -0.22585699
0.0326271 -0.0466937 0.06257138
0.18495798 0.1864206 0.12652412
-0.070085466 0.09877136 0.060663566
-0.08804299 -0.08409623 0.20181103
0.18723457 0.18707837 0.093154795
-0.1418604 -0.02413787 0.0056061456
0.23820835 0.094648905 -0.026259217
-0.10913946 -0.19706339 0.12565552
0.18389897 -0.07613794 -0.27153552
-0.0710815 0.12926133 0.04548393
-0.1456472 -0.28749403 -0.008236454
0.21440226 0.19595814 0.065356776
0.036163926 0.17483139 -0.113167524
-0.10597419 -0.29305467 -0.106408484
0.26627615 0.16663657 -0.013491923
-0.117897905 0.1372202 0.10424094
-0.103009604 0.21895295 -0.07795868
0.032762673 -0.24304245 -0.30812854
-0.18170299 0.07198307 -0.013417112
0.18164729 0.1373921 0.13236156
-0.15947579 -0.2334353 0.07689038
0.0121229645 0.005101857 0.23140518
0.07361117 -0.17344673 -0.2681171
0.051066313 0.010900188 0.20352764
0.17875883 0.08979888 -0.0048236125
0.1557263 0.13525417 -0.015535842
0.07129866 -0.069840476 -0.12676027
-0.14543082 0.08074976 0.111286685
-0.24011326 -0.04714618 0.005598611
-0.061332762 -0.09338477 0.1267927
-0.058374114 -0.18128997 -0.09985094
-0.13552363 0.04925396 0.069737695
-0.16290414 -0.07189667 -0.055950135
-0.015336398 -0.2732741 -0.31205565
0.18384737 -0.03204267 -0.29546636
0.19878228 0.16536267 0.076206654
-0.08018493 -0.2036199 0.05108607
-0.055546377 -0.17504868 -0.0044086236
0.0051740035 -0.16952507 -0.09641023
-0.16878414 -0.29849055 -0.03841411
-0.18014264 0.12560543 -0.08888788
-0.10062172 -0.09249645 0.0006520241
0.042157456 0.03125716 0.048333433
-0.109611355 -0.021168401 0.023414267
0.21407329 0.11378244 0.0029846036
0.08231081 0.12626526 0.20448308
0.029280387 0.060894933 0.22780286
0.14876954 -0.06991049 -0.2533434
0.008198242 0.23166052 -0.13196689
0.042196464 0.05215534 0.20114791
0.005566977 0.23495466 -0.03919858
0.20889953 -0.072490476 -0.34269062
-0.045930307 0.13003252 0.027478002
-0.19231646 0.020341227 0.08977068
-0.07182051 -0.25924882 -0.18981145
0.15325114 0.023977993 -0.043905277
0.032683343 0.06205744 0.052766703
-0.20089634 0.08383289 -0.104266234
-0.13283159 -0.275946 -0.07005199
0.09256147 0.05811227 0.18561307
-0.06340371 -0.06754839 0.14935023
0.12041993 0.10565542 0.06330779
0.03984038 0.12530638 -0.051000476
0.118367985 0.10807514 0.0954012
0.037115775 -0.09399573 -0.09627586
0.11937195 -0.1145879 -0.277615
-0.21227601 0.03910391 -0.028174283
-0.07349192 -0.06347524 0.23030286
0.09367478 0.022094121 0.043432515
0.16035317 0.12758982 0.15457098
0.087003976 0.08783172 0.1959638
0.17265067 0.048159253 -0.038905222
-0.14629512 -0.2776481 0.016503511
0.06472077 0.15078607 -0.24005131
-0.11836458 0.057815403 0.03603155
0.0042869276 0.17522214 0.013809514
0.09977314 0.07244767 0.19021052
-0.09922337 -0.28038248 -0.17175843
0.11107216 0.037367437 0.10509159
0.03435689 0.030340612 0.231874
0.026690753 0.24411349 0.013439987
0.23509002 0.062384937 -0.054848228
-0.12961666 -0.27916846 0.00568556
-0.07883973 -0.31355324 -0.21587262
0.052722085 0.22199959 -0.11531526
-0.09463386 -0.06643059 0.21864322
0.1186047 0.119141415 0.1268936
-0.14668882 0.1358601 -0.17165609
-0.06245252 -0.06732471 0.11587327
-0.09599202 -0.18230638 -0.0016617074
0.19787735 0.1168256 0.040588863
-0.032321822 -0.14261721 -0.044822786
0.096598126 -0.041828193 -0.04803518
0.045456517 -0.017081931 0.14120321
0.027346255 0.06221767 0.05977185
-0.011719754 0.18289775 -0.016261803
-0.006254479 -0.17941064 -0.09522485
0.14049783 0.11533712 0.15549107
-0.2132721 0.018538157 0.02723953
0.08034755 0.14852832 -0.18200567
-0.16125281 0.021154443 0.06803314
-0.043685466 0.095548294 0.05454634
-0.07756844 -0.021891292 0.07773564
0.11823087 -0.008000972 -0.064728945
0.1628562 -0.078316435 -0.24349837
0.019108988 -0.04120827 0.13049461
-0.2005801 -0.034853976 -0.0011718516
-0.109088376 0.20895642 -0.1528078
0.17511645 0.13414256 0.04911604
-0.10325644 -0.047989454 0.0031579
-0.102656916 0.04623347 0.06773168
0.047742438 0.071775995 0.22241104
0.19171864 0.1397091 0.111560725
-0.09725394 0.17441936 -0.10119606
0.31572837 0.16538627 -0.12463907
-0.09724661 -0.31992716 -0.20248386
0.08635447 0.052752692 0.19883217
0.17898086 -0.005282414 -0.072460875
-0.07656002 -0.14854978 0.17022425
0.14937866 0.050246794 0.08168198
-0.07311022 -0.0650162 0.006375086
-0.17530952 0.06371897 0.012414301
0.020998394 0.030517977 0.21446228
-0.058916423 -0.07494638 0.20421687
0.058005773 -0.17576037 -0.28984794
0.00806501 0.09404383 -0.00048156985
-0.25066254 -0.0850465 -0.10481622
-0.16510314 -0.21694955 0.103181615
0.23684196 0.16439977 0.015037726
0.14027081 0.08481764 0.10625993
-0.083218925 -0.25816086 -0.2483457
-0.070116036 0.20233127 0.07915457
-0.019294165 -0.17615889 -0.13382302
0.11310738 0.02875885 0.08841761
-0.20944507 0.0036117907 0.06221713
-0.0974225 -0.21498264 0.102048665
0.160871 0.15008394 0.16016601
-0.055734035 -0.09546539 0.17743853
0.10485075 0.112889424 -0.23142643
0.009879825 -0.1897097 -0.14351365
0.09456557 -0.09945829 -0.1913792
-0.10525185 -0.1893557 -0.019849928
-0.15476148 0.12534961 0.114265665
-0.08185019 0.15374155 0.07679558
-0.045879334 -0.12669219 0.11045061
-0.06670971 -0.0026111733 0.10249797
0.1584993 0.04013406 -0.039957337
-0.13397643 0.1350624 0.111829355
0.08408472 0.035756297 0.18508324
-0.023843987 0.1444331 0.048644308
0.1635402 -0.028351722 -0.12218909
0.110113524 0.090221755 0.18716015
-0.0211183 -0.1121949 0.06593422
-0.09656505 -0.1837902 0.11553297
-0.0050259302 0.11330978 0.031530708
0.020548515 0.069721885 0.23190613
-0.11398235 -0.2204311 0.06540928
0.00879939 -0.101693854 -0.037542794
0.007436988 -0.0774676 -0.02084458
-0.09555739 0.13215208 0.062159613
-0.060764283 -0.1910774 -0.1749415
-0.07488334 0.19809796 0.09152544
-0.08126959 -0.24667244 0.019531019
-0.10815274 0.15898497 0.09385921
0.02593858 -0.10403394 -0.030966548
-0.0028554683 -0.015751492 0.18522452
0.06656715 0.014617388 0.17444949
-0.20760405 -0.050478287 -0.0018142011
-0.18074615 0.056590125 0.11633016
0.26710826 0.11352144 -0.053701177
0.020296924 0.017955678 0.22101861
-0.044110887 -0.059564516 0.19584115
0.07066858 0.046191595 0.22144817
-0.14484037 -0.23707795 -0.0104041025
0.1060872 0.018062111 0.04568816
-0.12312498 0.056463223 0.06888449
0.051563285 -0.034401767 -0.10483577
-0.04875483 0.03843217 0.0799962
0.27716312 0.14241147 -0.09733523
0.082082056 0.18697062 -0.22796912
-0.024475928 -0.21863455 -0.108541824
0.018791204 0.24121624 0.0038804598
-0.01164653 0.14789575 0.007516236
0.22064058 0.05048272 -0.16125788
-0.1401522 0.052001577 0.020415405
0.04907903 0.23712263 -0.06547291
0.15432625 0.10996539 0.17468783
-0.045996014 0.0017465444 0.05391661
0.07126968 0.010702169 0.13611771
0.013579037 -0.026685951 0.18511285
-0.07186105 -0.025685988 0.090525694
-0.023072734 -0.0033407938 0.04424217
-0.15430042 -0.002075982 -0.009033619
0.24960746 0.19296996 0.026283022
-0.037299253 -0.1480383 0.024651293
-0.055564065 -0.2418648 -0.013071447
-0.20145921 0.06744273 0.11146991
-0.0067506116 0.21093303 -0.029084504
-0.20146611 0.07301687 0.03925418
-0.018527176 0.094192944 0.03594067
-0.22815613 -0.01360527 0.02413372
-0.13788928 0.061727986 0.11058462
0.18981269 0.015301245 -0.16205697
-0.047511626 0.09474243 0.049104195
0.17167097 0.109733574 0.0007933158
0.21932903 0.066364095 -0.1544324
0.104248874 -0.036119252 -0.034053862
0.17602894 0.11720601 -0.14538188
-0.09950192 -0.11125388 0.16719408
-0.18702534 0.08274885 0.091789395
-0.2641261 -0.045355577 -0.010407252
0.24681814 0.11556053 -0.0034032748
-0.13992158 -0.31669992 -0.072101645
0.10141134 0.12501034 0.1853606
0.01516789 0.047467377 0.059123944
-0.17453103 0.08962542 0.08080226
0.20593742 -0.009659932 -0.23555861
-0.0106595345 -0.098238096 0.15980774
-0.16171676 0.08606817 0.11335865
0.16825363 0.023410127 -0.1123854
0.094625294 0.052561097 0.051209375
-0.11985226 0.19090614 -0.062419906
0.15094328 0.16634257 0.06854517
-0.046714798 -0.1735814 -0.04794482
-0.04100824 0.058940303 0.0554395
-0.15075576 -0.2530099 0.04541845
0.2025214 0.13148431 -0.070850305
0.06618317 0.0312737 0.20331405
0.12673941 -0.12402838 -0.32597643
0.017737834 0.007915824 0.10642307
0.23396905 0.065712176 -0.19522372
-0.18376455 0.14554213 -0.07283241
-0.101470776 -0.26446253 -0.062410593
0.15267463 -0.115636416 -0.34647316
-0.10779093 -0.12526813 -0.013945222
0.042162567 -0.032612395 0.22916514
0.1593301 0.027125051 -0.026036086
-0.17736633 0.057304893 0.10906152
0.06744443 0.18926522 -0.18179615
-0.061399136 0.18118969 0.10238228
-0.09825239 -0.267454 -0.06134661
0.04609237 0.13267563 -0.23844095
0.21911524 0.0034818759 -0.25712585
0.0038315563 -0.12009861 -0.044529498
-0.11688386 0.17246033 0.080848925
-0.089482486 -0.3237795 -0.17066142
-0.102710344 0.12631412 0.032166425
0.17646672 -0.09189274 -0.3303127
-0.01588776 0.0066352747 0.16377231
0.14392173 0.12146665 0.1803184
0.050142564 -0.18241923 -0.19284469
0.01591186 0.25648612 0.03360542
-0.15587291 0.029335031 0.021050887
0.13225049 -0.015008759 -0.0798264
0.18488353 -0.05545287 -0.28705212
0.2236006 -0.023582485 -0.30173862
0.19274627 0.12122556 0.14837153
-0.022430267 -0.05390583 0.19292492
-0.1615178 0.0191103 0.07267593
0.095783345 -0.0718309 -0.1971269
-0.030872302 -0.17111972 -0.024560863
0.19170205 0.024160622 -0.09439134
0.21353793 0.009085801 -0.24586225
0.041952763 -0.24256548 -0.29110056
0.1659998 0.10347263 0.11929474
-0.033199355 0.18019164 -0.014833885
-0.08599428 -0.14117971 0.15643421
0.18123183 0.12676455 0.12997279
-0.05343981 0.022896908 0.11119461
-0.15765248 0.12760307 -0.019076219
-0.12084862 -0.17371638 0.16259857
-0.10841728 0.10157086 0.07933837
-0.16065903 0.11903927 0.12806898
-0.100079365 -0.15156505 -0.000525631
-0.27440494 -0.06343359 -0.054283444
-0.09684861 -0.29243484 -0.12915917
0.0035192627 -0.154967 -0.11976367
-0.13381347 -0.253049 0.08851277
0.062066384 0.13987255 -0.25484255
-0.030444117 0.17276704 0.06437352
-0.22983217 -0.08501951 0.007380021
-0.0052732537 -0.087905325 0.088511914
-0.24428019 -0.07793965 -0.038680915
0.0009499852 -0.21462296 -0.20442763
-0.038701214 -0.009269955 0.039589606
-0.12847982 0.024998602 0.09392011
0.22850727 -0.0046857377 -0.24412121
0.01489319 0.2905327 -0.054955114
-0.006213684 0.19723587 0.06058605
0.15393862 0.0071194633 -0.08151506
0.22100386 -0.00018259119 -0.3086971
0.05457414 0.1064936 0.1923038
-0.011114286 0.23100443 0.024233384
-0.044719107 -0.21291664 -0.017075544
-0.096649215 0.057970908 0.039810147
0.12841216 -0.087677754 -0.18597195
0.0014946489 -0.172382 -0.0659869
-0.14120643 0.09786762 0.13053069
0.048283998 -0.010877985 0.22850019
0.2531535 0.10022055 -0.15666315
0.019867724 -0.14431082 -0.075544044
0.21145877 0.105461776 0.041379217
0.0280403 0.13560393 0.0059768753
-0.23235093 -0.01107961 0.049719587
-0.031193933 0.015572971 0.17204705
-0.13269728 0.1392767 -0.03220486
0.12088819 -0.1290191 -0.2708643
-0.2227775 0.0013236807 0.040021323
-0.1777191 0.12006927 -0.116784364
0.010092861 0.06527538 0.22545929
0.24444824 0.048193056 -0.2378453
0.011048502 -0.16447973 -0.0444711
-0.17967191 0.12955135 -0.06392681
0.10437363 0.06843964 0.23046789
0.23490165 0.18540132 0.07489555
-0.17277093 -0.07651217 -0.11302504
0.04489703 -0.0894641 -0.08433532
-0.054837637 -0.15225033 0.10009201
0.26204917 0.08849507 -0.2728005
0.1344984 0.08639024 0.10212367
0.0014345443 -0.1504802 0.011298791
0.24647783 0.12916082 -0.15007237
0.037708554 0.06545906 0.23071647
0.17239282 0.08702653 0.07041695
-0.018209582 -0.13249227 -0.0394418
-0.05024534 -0.28357852 -0.18502486
-0.11782094 -0.20444773 0.12991822
0.15994614 0.059465047 -0.20691165
-0.1731766 -0.05870368 -0.1291706
-0.2673962 -0.07084257 -0.0657705
0.061323248 0.21746702 -0.11979122
0.019088687 -0.162937 -0.09203621
0.1711613 -0.005740696 -0.087769054
0.012405921 0.0025159398 0.21273246
-0.078463 -0.06391453 0.13511497
0.10339563 0.25251108 -0.12808083
-0.06073215 -0.25376907 -0.123293236
-0.0042373077 0.026728285 0.23485124
0.0063740616 0.2553775 0.023273766
-0.16286087 -0.18437085 0.1424511
-0.050465543 0.13607875 0.065097876
0.17775062 -0.042261403 -0.27146542
-0.059742 -0.082195565 0.1666377
0.15579061 -0.074202985 -0.31474015
0.11316317 -0.17335632 -0.29752663
0.12258627 -0.051639177 -0.15861063
-0.055914477 -0.20728631 -0.069440514
-0.18419202 -0.026138633 -0.067100525
0.037175547 0.02858739 0.21225952
-0.13702182 0.115024514 -0.22260526
-0.22798659 0.017612675 0.09217981
0.14375934 0.00035666028 -0.120318286
0.25356022 0.123863086 -0.073921815
-0.19327942 0.056644376 0.09194967
0.08412061 0.060995653 0.20072265
0.17203808 0.09207514 0.0837311
0.232387 0.0034255786 -0.21741797
-0.02279553 0.097340725 0.01632608
0.2247085 0.17344423 -0.038997523
0.10734568 0.0075661736 -0.04583534
-0.08091393 -0.055139776 0.03256849
-0.010751837 -0.22050175 -0.20074147
0.057944 0.25237605 -0.019300995
0.0057923426 0.03128601 0.09131004
0.18356287 0.037533954 -0.075159624
-0.09603381 -0.06238404 0.22458196
0.23510465 0.16260374 0.1038916
0.27098638 0.17140622 -0.09306205
-0.08033563 -0.022420952 0.076365575
0.116339415 0.106371276 0.20691724
0.16341083 0.18490979 0.12534967
-0.1537537 0.12163883 -0.02601597
0.24636605 0.14704861 -0.006149789
-0.070370115 -0.22391762 -0.08087889
-0.11890869 -0.141196 0.13572034
-0.08736126 -0.10418123 0.18930191
-0.11216464 -0.29308802 -0.06863815
-0.14161557 -0.20322295 0.13046345
0.059325602 0.069123365 0.067604914
-0.03692382 0.14662276 0.018808996
-0.120343566 0.067818895 0.05407321
0.009202265 -0.07244375 0.11135422
0.06179291 0.07639216 0.17056032
0.10756591 0.11106506 0.18815313
0.1131217 0.13736153 0.1707167
-0.001053841 -0.16286907 0.009159684
-0.07216039 0.069090575 0.10209254
0.2789696 0.15998614 -0.1102081
0.13587573 0.03492431 -0.072108544
-0.16528812 -0.20766135 0.08897519
-0.016285619 0.15183002 0.017365668
-0.042775575 0.19840947 0.031613823
0.041476693 0.03207768 0.06513022
0.089837745 0.25413823 -0.06260736
0.22912371 0.07877967 -0.24747892
-0.14451547 0.14083806 0.10868939
0.019517269 -0.0005063478 0.25664115
0.18965167 -0.08489273 -0.33174175
0.021571996 -0.14585613 -0.08540248
-0.13229522 -0.24775387 0.043684166
-0.025065433 0.17877124 0.04286618
0.26125073 0.106327586 -0.14325583
0.113378696 0.1635186 0.16737844
-0.13198513 0.13002703 -0.20006189
-0.026464175 0.0024109418 0.23402339
-0.021287175 -0.08903025 0.074936256
0.08289319 0.011962621 0.09870625
-0.14673917 -0.009002959 0.014969375
-0.06601951 0.003475649 0.11640348
-0.12846121 0.15839376 -0.0449509
-0.013706928 -0.04485563 0.21070533
-0.015625916 -0.06191904 0.21235172
-0.20933875 -0.028338714 0.04148727
0.010807029 0.23280416 0.0374639
-0.16662464 6.330773e-05 -0.11284331
-0.056069482 -0.059975192 0.1790383
0.16289407 0.03853575 -0.13611405
0.040643502 -0.1034346 0.016173417
-0.19535421 0.001203344 0.047456283
-0.076936126 0.14862156 0.035644405
-0.12671317 0.12556142 0.08564419
-0.053360905 0.093655236 0.072441265
-0.1566458 0.112926655 0.11187117
-0.17799877 -0.03411948 -0.025505297
0.014203807 -0.09324189 0.019556182
-0.04223417 -0.116155066 0.18840402
0.14878087 0.11815114 0.16158941
0.2450001 0.080829985 -0.139213
-0.14933294 -0.19385628 0.12165745
-0.18800035 -0.02818992 0.015161505
-0.06398164 -0.17519052 0.11970824
0.22391482 0.094791934 -0.15553293
-0.052348323 0.15916428 0.053891614
0.08623125 -0.12632893 -0.3098484
0.22827417 0.17609195 0.038691074
-0.058159214 -0.14788535 0.17990051
-0.092452615 0.14179935 0.113422714
-0.13037631 0.16508268 -0.0625736
0.043079987 0.0961629 0.18801281
0.020601291 -0.11112348 -0.06574598
0.13264507 0.010240569 -0.068417735
0.01599789 -0.13609819 -0.0114201605
0.16494758 0.07231557 0.07073045
0.11701035 0.02549683 -0.013643218
-0.113633305 0.107630424 0.000588101
-0.005480002 -0.090407856 0.12861183
0.002786203 0.017410045 0.22262713
-0.029969731 -0.20344625 -0.037205365
0.029029354 0.043948792 0.21218623
0.15276222 0.13564661 -0.03602319
-0.13492577 0.07779933 0.08653384
0.09118549 0.12545109 0.11653626
-0.22221345 -0.067994006 -0.0005962996
-0.144471 -0.18222 0.102995664
0.04248831 -0.18723689 -0.2287389
-0.19341686 -0.059127044 -0.054482117
-0.071411945 -0.15133071 0.03724014
-0.07542288 -0.26052243 -0.10297348
-0.06415034 0.17772497 0.0988325
-0.05565075 0.17350133 0.05185153
-0.027039677 -0.093082204 0.22964834
0.19274901 0.1325441 0.14476092
-0.2112461 0.05240705 -0.07924194
0.04733314 0.051566955 0.17199683
-0.13584523 -0.3060818 -0.08678435
0.17768157 0.0966707 0.049813915
0.076943934 0.25806814 -0.10475643
-0.012249304 -0.25211903 -0.2228558
-0.16198201 0.065 0.09420482
-0.075967476 -0.038881026 0.2224061
0.09381807 -0.109954804 -0.11007944
0.0068324404 -0.04328108 0.21245837
-0.1473097 -0.24694623 0.0051990617
-0.10619488 0.059325393 0.06374746
-0.07899597 -0.12548986 0.116589725
-0.034456454 0.1782206 0.006510934
-0.023413671 -0.16836813 -0.1020451
0.033869945 -0.04297612 0.121051215
0.12672415 -0.034413975 -0.08518503
0.04898485 0.18131773 -0.2584119
-0.11741964 -0.20121495 0.091901764
-0.03996605 0.17785165 0.03398791
-0.115600444 -0.10638591 0.16403969
0.05530856 -0.11386742 -0.1543211
0.08254666 -0.14757101 -0.315317
-0.2559902 -0.049989488 0.006994026
-0.023743458 -0.033200234 0.12545428
-0.096076235 -0.13665621 0.19054991
0.08217053 0.12890156 -0.21477284
-0.17572813 0.039150093 0.09318714
-0.13218005 0.00031676295 0.04370937
-0.22721249 0.00865369 0.03671376
-0.06493736 0.14397548 -0.03477458
-0.027908776 -0.2458711 -0.19851704
0.023602625 -0.05608658 0.11026602
-0.08320628 0.09757043 0.042702083
-0.21913686 -0.107483484 -0.11688588
-0.11197659 0.00071035797 0.08456563
0.14262633 -0.03134796 -0.11745243
0.1937916 -0.07598658 -0.29010502
0.25885394 0.15397345 -0.09221032
0.20668785 0.11526485 -0.0638372
0.052412473 0.028244698 0.17430718
-0.07549675 -0.16205433 0.17808808
-0.09507398 -0.08417441 0.03636746
-0.034431424 -0.07373733 0.25772554
0.027429553 0.2592863 -0.043804906
0.2284042 0.15642434 -0.082432516
-0.05786509 -0.23810118 -0.054323748
-0.19166888 0.026307665 -0.061596364
-0.10180139 0.1601346 -0.005471636
-0.047604386 -0.11015025 0.21979412
-0.07465659 -0.03833063 0.23082611
-0.2022743 -0.009070245 0.06879596
-0.12452656 -0.24252161 0.0024014963
-0.13558164 -0.21337056 0.09311651
0.057285465 -0.008904425 0.1032233
-0.11918288 -0.20563464 0.10639965
0.11768335 -0.0135502545 0.051032517
0.119733036 -0.053280097 -0.1237591
-0.109916784 0.16771695 -0.018054746
-0.086795054 0.052209694 0.08852089
-0.16170253 -0.029173877 -0.00074660423
0.14392579 0.15064634 0.016034193
-0.083457746 -0.18972653 0.047943957
-0.04660884 -0.2648157 -0.2143362
0.015213603 -0.000118623284 0.20831797
-0.13113908 0.15210322 -0.010997206
0.16640025 -0.07453446 -0.32666364
0.10466274 0.064354844 0.15381049
-0.17279759 -0.26928928 0.053007036
-0.16227391 -0.04191763 -0.022113286
-0.08010054 0.09151074 0.0700309
0.13233873 0.15302049 0.09893124
-0.109496795 -0.23554827 -0.010940968
0.207723 0.0695557 -0.017578032
-0.01283842 -0.18997277 -0.031589247
-0.04520131 -0.20226848 -0.09077564
-0.043709695 -0.010039069 0.064320326
0.04377813 0.19198225 -0.016693758
-0.07864725 0.049077507 0.074565284
-0.070247896 0.14598562 0.06385521
0.018424695 -0.15831889 -0.15006177
-0.11510679 -0.13080412 0.15333728
-0.11074184 -0.13811922 0.0791991
0.20990108 0.014481182 -0.30819973
-0.0935124 0.1396032 0.041964848
0.07983726 0.17052154 -0.17064293
-0.1783563 0.10175103 0.08413456
-0.033299904 -0.26967904 -0.2775931
0.19266917 0.12608135 0.057591755
-0.04635273 -0.25564244 -0.17382632
-0.014009106 0.18035057 0.03748854
-0.21153069 -0.06366421 -0.08484845
0.19407684 0.106735304 0.0029973893
0.108640514 0.07196663 0.18338045
-0.13784859 -0.25750935 0.07371048
-0.14353506 0.08187161 0.13340761
-0.15450269 0.15435484 -0.024294036
0.1943329 0.053159136 -0.07685858
0.041316506 0.03922251 0.19599189
0.14658852 -0.07581611 -0.34545058
-0.21774176 0.037009876 -0.12072344
-0.029388241 -0.19386669 -0.07517388
-0.15860175 0.007152368 0.051508237
-0.17578933 0.06779376 -0.03664036
0.04548547 0.1564536 -0.09205518
-0.100086056 0.144549 0.004051223
0.08381447 0.12088805 -0.24653812
0.25422323 0.08891451 -0.2063529
-0.2524257 -0.026844686 0.06564223
-0.09865468 -0.19332717 0.13216999
-0.15908986 0.032852884 0.115206435
-0.2548452 -0.029790659 -0.09212866
-0.092543006 0.0851726 0.04480103
-0.051132035 0.15100813 0.05271628
-0.061683245 0.2107663 0.09928538
0.042326767 -0.020328632 0.16819094
-0.011013888 -0.028464824 0.17726587
0.14430833 0.024234923 0.059457302
0.18659766 0.16801244 0.13790329
0.24992129 0.16809921 0.012584563
-0.016000971 0.21070954 0.05255681
-0.07372243 0.20735574 0.06483052
0.14108339 0.017019713 -0.011688944
0.23095544 -0.04765538 -0.2830777
0.0856703 -0.029903913 0.098926015
-0.02014504 0.01656464 0.1828715
-0.02439528 -0.26954967 -0.24745597
-0.16652569 0.1225075 -0.059819803
0.2210845 0.104295574 0.06404026
0.20775394 -0.077883944 -0.35617775
0.07831897 0.09319297 0.066612594
-0.21578428 -0.0023781662 -0.047116015
-0.13990648 -0.23545662 0.09022956
0.09270496 -0.1259833 -0.23689607
-0.05518995 -0.0035842874 0.20761378
0.1277458 0.00815753 -0.03778419
-0.015628949 0.0035608578 0.10698996
0.06655136 -0.106079444 -0.089807436
-0.07292253 0.1169524 0.01896958
-0.00681029 0.012447411 0.21130681
0.22851203 0.08484291 -0.12140621
-0.1798703 0.031222807 -0.039112568
-0.078276634 -0.053112578 0.14271708
-0.09154911 -0.26669216 -0.1357438
-0.093397975 0.029604267 0.08470244
0.085491434 0.037533328 0.08851856
-0.22662143 -0.04875082 0.0046051363
0.05207824 0.22172917 -0.11589202
0.011043094 -0.11686272 -0.036215097
0.080417275 -0.05309229 -0.11568303
0.11949016 0.12865515 0.162242
-0.1294809 -0.22535273 0.10387379
0.22267951 0.11385112 -0.12524219
-0.17717749 -0.050275438 -0.03508947
-0.08653004 0.14628482 0.09461834
0.1860474 0.08281606 0.0014011975
-0.08294737 0.058729254 0.039885297
-0.005368 -0.15196052 -0.08209299
0.10720595 -0.017392157 -0.15226085
0.14530247 0.0174445 0.021110414
-0.113174774 0.11819266 0.039887838
-0.05952432 0.015744632 0.07048216
0.2268413 0.10204608 -0.018072117
-0.06147777 0.18535487 0.07232884
-0.12862822 -0.1965644 0.12918262
0.15174015 0.040357098 -0.06066333
0.0482463 0.15741363 -0.24264525
0.2694064 0.13400003 -0.12536593
0.1217352 -0.08066574 -0.123387806
0.08032878 -0.11972323 -0.21120302
-0.02517297 0.07924008 0.036878306
0.12347346 0.11832709 -0.26351824
-0.1738572 0.13254102 -0.061843473
-0.08271606 -0.0858234 0.02166778
0.03168525 -0.071249045 -0.0025686722
0.070334665 -0.16745727 -0.35713705
0.035090867 0.23122075 -0.03535021
0.14005066 0.10330612 0.16210401
-0.1211274 -0.03204013 -0.0012702896
0.116340734 0.030692166 0.08427009
0.06384907 0.18005633 -0.13929817
-0.15633455 -0.22434899 0.1078219
0.060983337 0.23795092 -0.12889099
-0.027323144 -0.013545408 0.2027975
0.14741473 0.09340779 0.11895396
0.072532736 0.24522352 -0.10243175
-0.049457036 0.08220197 0.047596406
-0.120934054 0.09198967 -0.012275405
0.037935935 0.055744126 0.07096142
0.08714178 0.010752508 0.13220447
-0.06663859 -0.16527748 -0.09413169
-0.08806003 -0.09482963 0.21331117
-0.101264976 -0.20350116 0.16236581
-0.068201475 -0.2915691 -0.13246477
-0.19405013 0.048644885 -0.0977094
-0.016951531 -0.22082926 -0.23540513
-0.096806355 -0.23953441 0.0013937068
0.13003448 -0.054877885 -0.12814538
0.18049158 0.026289677 -0.16062213
0.14180748 -0.0651695 -0.25432846
0.015873233 -0.20839597 -0.26298073
0.03762981 0.04329392 0.21724501
0.014935153 -0.20403323 -0.2298774
0.055226035 0.14358976 -0.22602081
0.25720343 0.17782012 -0.0039272085
-0.045795772 -0.03320885 0.21147965
0.24147159 0.19999051 0.04642312
-0.021439083 -0.24009342 -0.2066974
-0.17503761 -0.08683636 -0.2748375
0.15471415 -0.027594844 -0.17101897
-0.1341874 -0.18726973 0.14811137
0.033198368 0.18590727 -0.057406805
-0.20001253 0.044863965 0.108250335
-0.1406409 0.075629264 0.12856854
-0.1906416 0.099523194 -0.05857415
-0.06017905 0.19871646 -0.056196846
0.10496195 0.09156006 0.18977611
-0.022989696 -0.091240145 0.06698101
-0.027620833 0.19763091 0.0017712081
0.05740001 0.14147799 -0.046032842
0.24593703 0.18377064 -0.09569852
-0.041804846 -0.27962944 -0.26187012
0.14926578 0.073000796 0.06894753
-0.0016401333 -0.006000499 0.21062756
-0.1415569 0.13244158 0.12798975
-0.08946481 0.1499235 -0.017268848
-0.20324345 0.0035068293 0.019275941
0.0041038417 0.02213023 0.24002069
-0.053490933 -0.2248058 -0.13107498
0.058341786 0.13431925 -0.23856494
-0.24895784 -0.10248955 -0.0047223275
-0.027627494 -0.18621626 -0.07805452
-0.13682158 0.036445048 0.05250375
0.20334344 -0.022017514 -0.3103253
-0.22241248 -0.0933974 -0.13473925
0.0811606 0.00689126 0.16122223
-0.072769865 0.04691941 0.0962238
-0.053889863 0.19144922 0.07575531
-0.17167974 0.02073592 0.052713152
-0.039507728 -0.034641095 0.13285671
0.088687874 0.062926106 0.17261511
0.07864759 -0.12653542 -0.19451107
-0.22795333 -0.01661445 -0.042150058
0.06793083 -0.13910042 -0.20161685
0.19183935 0.02890733 -0.10820656
-0.042564068 -0.25768194 -0.23418418
0.024507033 0.16081126 0.011624654
0.023702063 -0.01580779 0.14550595
-0.10029771 -0.19191115 0.14452717
-0.19569093 0.059452597 0.10763849
-0.0857757 -0.30757335 -0.14091836
0.018022738 -0.10331563 -0.072479
0.24155974 0.1734188 0.015259098
-0.17689694 0.04918109 -0.011434123
-0.10648826 -0.16600944 0.15816726
0.13222522 0.093926154 0.19342856
-0.025925694 0.14608474 0.03791773
0.07826624 0.15743823 -0.058805514
-0.117817976 -0.27909622 -0.06771676
0.22615677 0.1104226 -0.0065562995
-0.0024999478 0.23875389 0.013245997
-0.03962169 -0.16757594 0.029760115
-0.15221407 -0.24601221 -0.020073052
-0.09176056 -0.07496382 -0.009536176
-0.050213702 -0.038158715 0.23395263
0.038464144 0.25729322 -0.02048319
-0.11481295 0.11262565 0.09916691
0.24430469 0.06373019 -0.20242782
0.2034762 -0.028818803 -0.30141696
-0.12619805 0.10864681 0.0038633202
-0.12497767 0.15559697 0.08658578
0.057309233 0.05611443 0.22260043
-0.054039903 -0.025536023 0.22998525
-0.17343135 0.12968694 0.08997858
-0.16963589 0.08050883 0.09023398
0.15115628 0.11489228 0.12879092
0.039457522 0.1958415 -0.05141165
-0.017739959 0.12399655 0.024220012
-0.008779312 0.05203818 0.1424445
-0.26052722 -0.04336851 0.026331283
-0.063301705 -0.13923952 -0.030573314
0.06252672 0.15798976 -0.05347986
0.22560269 -0.013089112 -0.28239405
-0.05960208 -0.21668144 -0.08688748
0.2617393 0.11027901 -0.18788426
-0.0486872 -0.21414156 -0.17095898
0.20939444 0.12565878 0.040201474
-0.018930854 0.18490799 0.011976059
-0.15412381 0.024580134 0.06959104
-0.1145821 0.06432145 0.028476246
-0.11093637 0.13071 0.09980431
0.09353294 0.06924074 0.113975525
-0.060696583 -0.020866731 0.10029621
-0.10813906 -0.1174936 0.17675963
0.12957038 0.0032087362 -0.1198895
-0.16623938 -0.038941965 -0.04473592
0.0093128905 0.18850096 0.0053575044
-0.17459178 0.11214068 0.10834081
0.09417272 0.060028467 0.118893534
0.25787076 0.08790962 -0.27787486
-0.17871845 -0.28148732 -0.03601888
0.07911885 -0.15007879 -0.34196165
-0.041949734 0.061240803 0.09749956
-0.037052702 -0.27952898 -0.23478849
0.0588856 -0.014040549 -0.124013305
0.048676707 0.014728318 0.19490011
-0.07754461 -0.03467297 0.11618623
-0.2371419 -0.021298964 0.038262326
0.1335963 0.007575108 -0.029274978
0.14658764 0.09490096 0.16012935
-0.00480579 -0.10393977 0.1558365
0.10560529 -0.003058232 0.028031232
-0.13883409 -0.28050822 -0.030863855
-0.1440177 0.05113099 0.044854496
0.15825193 0.11488784 0.11115776
0.04542703 -0.054893885 -0.0018492265
-0.0044557336 0.009386754 0.17986763
-0.1098437 0.17049544 0.10743791
0.0390029 0.028660547 0.19661148
-0.062230874 0.21624959 0.07577959
0.059007924 0.19255511 -0.11361756
0.17216869 0.1051162 0.039755467
0.047848698 -0.035794776 0.0065425024
0.054919716 0.046982437 0.19207898
-0.049195077 -0.16294335 0.05389995
-0.12824506 0.09795675 0.07715546
0.040117126 0.01648176 0.24632531
-0.16175425 -0.26693884 -0.07837666
-0.2282771 0.004041328 0.03897369
-0.00069873064 0.036961664 0.20824812
0.22373296 0.0033904568 -0.29133773
0.06474348 0.1310875 -0.22291024
0.075389616 -0.037285864 0.017422188
0.29665565 0.115717605 -0.19044769
0.03179827 -0.17704043 -0.13623689
0.2268939 0.18095195 0.096802175
0.027774507 0.09118839 0.15841928
0.27993065 0.17930031 -0.03402461
-0.12194346 0.10602343 0.12176601
-0.19283514 0.04862303 -0.099622495
0.23834743 0.026726132 -0.28275353
-0.2112718 0.052380815 -0.08541335
-0.16691087 0.06310817 0.035329975
-0.07005705 -0.089686476 0.19207738
-0.14033774 -0.31761345 -0.12513484
-0.013693869 -0.020032723 0.10851428
0.034778927 -0.21709847 -0.2891082
-0.16781585 -0.007048838 -0.18547563
0.19975081 -0.051720377 -0.29494873
-0.16388385 0.11041583 -0.024428196
-0.17572795 0.11280905 -0.11014065
0.098038636 -0.07388755 -0.15853323
-0.006339893 0.045175005 0.14112398
0.26304042 0.08894446 -0.1382813
0.087406665 -0.07002036 -0.11524699
-0.14416417 -0.19138779 0.1696072
0.080471136 0.1448918 -0.052610673
0.24073103 0.018493455 -0.28842327
0.098465346 0.14364432 0.19122753
-0.20241755 0.042280424 0.119296744
-0.114623904 -0.142676 0.14736104
0.06886665 0.13949011 -0.009646044
0.09660233 0.14188406 -0.22400928
-0.06710375 0.19193812 0.014258947
0.19627677 0.08989377 0.09107169
0.09179291 -0.107515745 -0.2574103
-0.09698736 -0.13237314 0.17880405
0.003885715 0.13834415 0.012772069
0.03590014 0.1263712 -0.0041048005
-0.03113869 -0.14925526 0.033306006
-0.002286802 0.047503248 0.091748334
-0.15065634 0.08216983 0.08386133
-0.1566884 -0.2444543 0.047221467
0.036022373 -0.021748865 0.17655928
0.09775076 -0.057412647 -0.13813464
-0.04566268 0.13803321 0.062215578
0.0015127279 0.0384676 0.24945237
0.07913825 0.10524467 0.010927541
0.052014645 -0.06319092 0.013801203
0.078221194 0.1649321 -0.16686349
-0.16987842 -0.033050153 -0.17804612
0.16451897 0.1441324 0.09170532
0.087735884 0.0115883555 0.009379942
-0.16331446 -0.016437082 -0.0037217631
-0.120721534 -0.1781101 0.13328305
-0.046528365 -0.1946721 -0.001503942
