# .PCD v0.7 - Point Cloud Data file format
VERSION 0.7
FIELDS x y z
SIZE 4 4 4
TYPE F F F
COUNT 1 1 1
WIDTH 1000
HEIGHT 1
VIEWPOINT 0 0 0 1 0 0 0
POINTS 1000
DATA ascii
-0.05864787 0.09067773 -0.07577944
-0.26360056 0.19657053 -0.14669588
-0.102042794 0.24018404 -0.22169402
-0.030069526 -0.006482723 0.09099238
0.08450576 0.010617155 0.02612925
0.1681209 0.037477598 0.063158765
0.20010169 0.20326427 -0.15178533
-0.21719776 -0.045183204 0.124099575
-0.00051818823 0.16760612 -0.15402126
0.16229776 -0.13147755 -0.08311008
-0.00034786054 0.228986 -0.18668918
0.16591692 -0.20845222 -0.0483731
-0.060372073 0.26013705 -0.2223674
0.09656232 0.046415932 0.039745815
0.18157487 0.25312114 -0.19833714
-0.14127932 0.25153673 -0.19288628
-0.06690203 0.08365523 -0.0645707
0.0689867 0.11992961 -0.08506324
0.005806754 -0.16745937 0.20826982
0.05007581 -0.04698683 0.11826713
0.024500312 -0.11318417 0.19875798
0.15502122 0.12242714 -0.02739431
0.023737451 -0.12599394 0.24632403
0.027054837 -0.15652606 0.21028255
0.12310969 0.115609884 -0.038831852
0.25619656 0.17759871 -0.12819758
-0.21697819 -0.08501585 0.17593096
0.12426854 -0.027093686 0.08589045
0.03425214 0.09871501 -0.032764267
-0.12507863 -0.15701127 0.1800727
0.16314262 0.15646464 -0.13088672
0.21600346 0.03173321 0.054720026
-0.20497137 -0.22077146 -0.06270034
-0.25830352 0.21469301 -0.19551629
0.15437558 -0.016943684 -0.032765817
-0.1942062 0.13307874 -0.09999174
-0.12738691 -0.28023547 0.010249959
0.24447517 0.010283102 0.057658363
-0.2294608 -0.11361749 -0.069249615
0.010999562 -0.0019901043 -0.09804954
-0.03314898 0.111717165 -0.048096538
0.08287897 0.07172813 -0.025265364
0.12413671 -0.10881997 0.22759104
0.23318635 -0.034868356 0.12924229
0.22629738 -0.01976662 0.13548058
0.24010502 0.10352182 -0.035080384
-0.14234886 -0.084043115 0.13894613
0.19623429 0.1003401 -0.055580042
-0.1387799 0.1893388 -0.11597831
0.090607285 0.21331927 -0.15659651
-0.18113841 0.090800725 -0.030338945
-0.018074058 -0.23145157 0.05554191
-0.0058217826 -0.27280927 0.025922036
-0.029716253 -0.0022008764 0.064870246
0.21768127 -0.18484321 -0.0906123
0.10121348 -0.15488444 0.18139395
-0.11418016 0.24330907 -0.22201432
0.08371508 -0.043705862 0.10261287
-0.2521943 0.23815224 -0.17963132
-0.1842792 0.09556823 -0.020221276
0.022162486 -0.14567542 0.046149276
0.20200005 0.23569117 -0.14777559
-0.03526163 0.13479152 -0.08547131
0.1722989 -0.088779315 0.16483697
0.17443746 0.21423309 -0.16193716
-0.0016455943 -0.2503443 0.01412539
-0.04078686 -0.11811288 0.21757416
-0.18133163 0.04682708 0.018099915
-0.11946473 0.16995354 -0.13764608
-0.0109412335 0.033222552 0.06569913
-0.12249723 -0.14022782 0.23114313
0.07707132 0.053987134 -0.0164
0.031351384 -0.21599665 -0.12131849
0.13785857 0.12804857 -0.07676053
0.16628887 -0.09421302 0.15806364
-0.057991363 0.26890025 -0.24295467
0.26990464 0.025509913 0.045174226
-0.14256804 -0.17813483 0.18857898
-0.20139462 0.10475338 -0.07829423
-0.13309173 -0.08629829 0.13041644
-0.089432545 -0.09759041 0.19101064
0.13218354 -0.048845846 0.13932803
-0.038525 0.22449343 -0.1768851
-0.08735247 -0.20340168 0.013342194
0.12507774 -0.11791272 -0.049955264
0.077816695 -0.14923781 0.1909537
0.19512385 0.024313219 0.029230384
0.2124041 0.23378707 -0.1474261
0.05888244 -0.27163234 0.032483693
0.16373076 0.017199118 0.066034175
0.19665658 0.060191654 0.02597437
0.16317737 0.00044541754 0.049577367
0.068094715 -0.057015758 0.12828842
-0.0125886155 0.041154597 0.033903964
-0.015384616 -0.04253194 0.104350716
0.32171357 0.07470968 0.0018041433
0.09747904 0.07310756 -0.016668925
0.30025372 0.08337289 -0.014133662
-0.08067874 0.041701224 0.0068295384
-0.16349554 -0.1414293 0.18166451
-0.124286644 0.08153182 -0.06977379
0.15297018 0.12130438 -0.08301116
0.117311694 -0.042742047 0.02493955
-0.20209567 -0.009950208 0.027140424
0.23918514 -0.09545428 -0.14527157
0.08124782 -0.14124355 0.21324287
-0.28652796 -0.043291204 0.068243295
0.117399625 -0.14137155 -0.023421645
0.23692487 -0.15439485 -0.11043528
-0.2991639 -0.00124011 0.029234767
0.1890251 -0.18811631 -0.022530675
0.13418017 0.24604467 -0.19873975
0.10612453 0.08193308 -0.07002431
-0.14152043 -0.21455288 -0.044347472
-0.043254472 -0.18123564 0.19949265
0.183063 -0.18401673 -0.055537827
-0.30859596 0.11190661 -0.12689409
-0.0481366 0.15792537 -0.1148115
-0.083526835 -0.09515773 0.17007875
0.052218437 -0.08798806 0.17700699
0.169245 0.24424766 -0.1918955
-0.20358491 -0.013896941 0.068428814
-0.20110092 0.20379117 -0.21821964
-0.19933331 0.0026056608 0.032110576
-0.27000663 0.07825928 -0.053950675
0.2863057 0.006818714 0.047642954
-0.036989145 0.12819105 -0.06290214
-0.04821626 0.018228572 0.066754274
0.13538243 -0.19298817 -0.038308855
-0.14851554 0.23780875 -0.21790914
-0.06864187 0.053468905 -0.030093739
-0.08623876 -0.22306128 -0.0129682915
0.08474215 -0.10999958 0.19247837
0.0013254867 -0.049319692 0.15860143
-0.055352382 0.14533067 -0.09258408
-0.20558684 -0.1849822 -0.08381888
0.210727 -0.0898843 0.13577902
0.14397192 0.033843093 -0.20118712
0.030712314 -0.09997855 0.15562652
0.21074426 0.018608544 0.04766012
-0.13528877 -0.13038613 0.20161243
0.21409877 -0.054283995 0.17807388
-0.031258993 -0.10127849 0.13985366
0.05815781 0.1472324 -0.06943258
-0.023074895 -0.1319576 0.22201517
0.04703763 0.20519331 -0.1405069
0.12819694 0.038926292 0.0039062048
0.07548913 -0.07194168 0.029826295
-0.07622818 0.13956326 -0.102971345
0.19331259 0.055129603 0.00859906
0.035906784 -0.021572027 0.12303873
0.07569758 -0.19592513 -0.027976435
-0.10112276 -0.2545627 -0.050780915
0.06783522 -0.12296979 0.23911059
-0.29745042 0.13764897 -0.1422794
-0.090859 -0.071694426 0.14884485
0.23909676 -0.06163015 0.13789375
0.13768367 0.1445474 -0.106694475
-0.26445377 -0.030738883 0.10587263
-0.24011989 -0.02911101 0.09198266
-0.15340619 -0.036808282 0.09569769
0.18438375 -0.037340805 0.101773314
0.12957893 -0.05736355 0.09967548
0.005703485 -0.048336502 0.10917616
0.24017942 0.04092319 0.024194255
-0.15474285 -0.019544065 0.058079273
0.07059133 -0.25861266 0.027939284
-0.124855526 0.1499658 -0.14910346
0.0805214 0.080874465 -0.035344187
0.19958325 0.12676302 -0.07596586
-0.12685318 -0.16227989 0.16852283
0.2917759 0.14753377 -0.05760271
-0.052258942 0.01937363 0.03061472
-0.13648893 0.11000909 -0.0702079
-0.24719708 0.07825498 -0.07392156
-0.09116923 0.12453946 -0.07193837
-0.17008914 0.098461114 -0.09403566
0.116489865 0.030161174 0.03417143
-0.08750786 0.023545494 0.033462226
0.19821507 -0.16676216 -0.0899465
0.3127742 0.0077679 0.02397405
0.22130282 -0.06826876 -0.16574909
-0.09062447 0.05903318 -0.044011552
-0.0351483 -0.12124921 0.23948652
0.09812361 0.13518885 -0.0669683
0.21764828 0.241924 -0.14753684
-0.08561368 -0.2848678 0.0014893942
-0.21484432 0.18465197 -0.12166546
-0.10010658 -0.15673544 0.2174648
-0.08037115 0.0013390137 0.08173856
-0.16380396 -0.13232748 0.16923052
-0.018692857 0.28438276 -0.26819465
-0.09722213 -0.2956353 0.026148634
0.07050353 0.053283818 0.0066406243
0.15654917 0.10798694 -0.051599707
0.08540191 0.049866382 -0.0022704625
0.07022556 0.20062833 -0.12980366
0.30519548 0.016556012 0.011056503
0.073496625 0.07137446 0.001756094
-0.054796264 -0.12684402 0.2024619
0.04361661 -0.18754187 0.017431943
-0.17058362 0.19336101 -0.14108026
0.2767641 0.16462812 -0.078773
-0.2307924 0.094808474 -0.05901346
0.1294065 -0.1428664 -0.027162464
0.17590605 0.13816115 -0.07882314
0.12134181 0.12115992 -0.08141332
0.0027294867 0.15440953 -0.11604671
0.19242342 -0.11977391 -0.0789577
0.095462576 -0.19641483 -0.21116188
-0.035936665 0.11253428 -0.0670917
-0.24179392 0.13005354 -0.11055646
-0.08071159 0.115227565 -0.06695377
-0.27206907 0.048318777 -0.052088358
-0.010584775 0.27104193 -0.24686994
-0.0666362 -0.049073115 0.12809762
0.039091557 0.097389825 -0.07417966
0.19294208 -0.039886743 0.122517996
-0.045951985 0.0418615 0.027144248
0.2035008 0.121211976 -0.052535053
0.24187505 0.012251293 0.07788328
0.1078304 -0.078793876 -0.052329525
-0.1998779 -0.08706971 0.17050773
0.037453447 -0.076381214 0.18277282
-0.23684104 -0.05561728 -0.05926972
-0.014724257 -0.2891941 -0.0020303403
-0.11090397 -0.027749797 0.04921418
-0.049965527 -0.01729067 0.08748915
0.13399641 -0.10919365 0.18929474
0.07717082 -0.14931993 0.18939815
-0.054385252 -0.097618245 0.21124247
-0.2578049 -0.15163891 -0.16367528
0.18126333 0.0050828285 0.062173642
0.29527545 -0.006937655 0.013125022
-0.17957728 -0.11674161 -0.012070548
-0.07558979 -0.2651993 -0.011051557
0.040879242 -0.032252643 0.10327382
0.22073731 -0.047818683 -0.1703386
-0.005780249 -0.19387521 -0.019317288
0.30001026 -0.009185267 0.10705564
0.15585908 0.12708625 -0.075935446
-0.15474463 -0.10645226 0.18359768
0.011531091 0.092267595 -0.0692132
-0.13014755 -0.11702034 0.1868254
0.18508522 -0.17075656 -0.09621598
0.09584652 -0.22946526 -0.048748974
-0.02972523 -0.18025677 0.10848905
0.12727551 0.14342539 -0.12648688
-0.29349515 -0.081289046 0.088412695
-0.039460152 -0.0078072282 0.08026394
-0.1359555 0.28360325 -0.24872361
-0.27245113 0.08978138 -0.03185131
0.028446501 0.025031693 0.049862918
-0.06482894 -0.24931929 0.042229403
-0.22883183 0.030264225 0.018051902
0.066052765 0.1112159 -0.02337422
0.115980975 0.048685793 0.025631221
-0.13150859 -0.023271652 0.086953
0.095835425 0.22746937 -0.15764622
0.18996504 0.26181906 -0.21664114
-0.20792982 -0.07440861 0.11698521
-0.22606876 -0.12949626 -0.11255057
-0.13610154 0.21698628 -0.190482
0.18789363 0.11982603 -0.08280443
0.08164909 -0.18481599 -0.18858124
0.07391436 -0.094630055 0.16192317
-0.08954364 0.13918068 -0.06366617
-0.22931787 0.1648404 -0.17346928
0.108821124 -0.092448786 0.15352067
0.05420234 -0.10341757 0.08836358
0.1650313 0.17554037 -0.14045794
0.027358986 0.06932953 -0.060596853
0.09773897 -0.07644187 -0.0037922298
0.11755742 -0.244471 0.023071235
-0.007458613 -0.13092786 0.23746115
0.028561201 0.015389381 0.05667672
-0.11304978 -0.1470831 0.21920902
0.052465845 -0.086401775 0.040378645
-0.25475544 -0.070537224 0.14468534
-0.03938443 0.117218144 -0.09781773
0.23963211 0.11749284 -0.06286898
0.16026272 -0.195467 -0.014981934
0.22678538 0.13833821 -0.06455987
0.19048275 0.1407074 -0.065190196
-0.28649393 0.017783023 0.026084539
-0.006475286 -0.18886586 0.09557982
-0.09405334 0.021769233 0.03615055
0.12982008 -0.2186984 0.0064619654
0.12504527 0.09808607 -0.054756325
-0.07323687 -0.21966535 0.05884685
-0.117737114 -0.12579167 0.09142593
-0.042818908 -0.03599738 0.10091284
-0.30257016 0.020862797 0.016385633
-0.19581996 -0.004975655 0.055601425
0.20929515 -0.053826887 0.114493616
0.28095686 0.05731258 0.05836297
-0.17459168 -0.11102589 -0.005570976
0.22736388 0.06797752 0.00864784
-0.09634863 -0.018564984 0.087620795
-0.22536002 0.019319413 0.012147536
-0.08624572 -0.033536512 0.12915143
0.08835737 -0.22492576 -0.098635584
0.22092329 -0.004062277 0.09572053
-0.0746743 0.24588054 -0.21157137
0.19575961 0.13264364 -0.093419276
-0.0007585058 0.12592436 -0.102114566
0.26525313 0.15793292 -0.1265055
-0.05015488 0.2818595 -0.24469991
0.021409497 0.21434239 -0.135373
0.18107247 0.07040702 0.00038181272
0.09593749 -0.1606575 0.19840528
0.18409416 0.15704277 -0.12708728
0.01825522 -0.06444155 0.13854507
0.07819954 -0.25743973 0.025473205
-0.03746632 0.20265839 -0.17095017
0.094169565 -0.20192522 -0.052150674
0.0062954137 -0.15209821 0.21274482
-0.2458178 -0.0065142894 0.034484286
-0.045848966 0.1843855 -0.12357647
0.053693946 0.12208918 -0.063554026
-0.14514278 -0.17114733 0.0042023975
0.041748304 -0.2640276 0.047177035
-0.27832976 0.05162012 -0.050588995
-0.25507185 -0.0024797095 0.03414588
0.051410295 0.22860217 -0.15774931
-0.026517032 0.19340257 -0.13287933
0.08956325 -0.16086237 0.2367749
-0.17909087 -0.25411546 -0.048018113
-0.19068941 -0.021707656 0.041602775
0.26640782 0.22581132 -0.16578582
0.21444173 -0.0036100165 0.0930732
-0.064859234 -0.09771658 0.15386131
-0.066384494 -0.11877764 0.1954771
0.02571424 -0.044737544 0.111009054
0.19701725 -0.15968458 -0.07382126
-0.14555435 -0.0071480884 0.07514384
0.18721648 0.02975406 0.044168238
0.08948205 0.20688939 -0.16193709
0.014622539 0.04172153 0.017910313
0.0045655365 0.21192835 -0.1477358
-0.25416982 0.03248247 -0.023703445
-0.1383867 -0.20057662 0.21612903
0.02837696 -0.26091537 -0.17427585
0.16229637 0.1934443 -0.11873353
-0.0002894652 0.21424444 -0.14762625
0.15674748 -0.23243052 -0.0033440671
-0.26030898 -0.09147347 0.10780399
0.16102907 -0.05666738 0.13880903
0.23083538 -0.021904044 0.09647114
-0.16924867 -0.0018583876 0.07112497
-0.14596358 -0.1544281 0.19256306
0.26174167 0.072787456 0.03812732
0.11621358 -0.15559617 0.22866078
0.13141023 0.18230298 -0.1668114
-0.17414063 0.21935432 -0.19343293
-0.01157739 0.009774946 0.06341074
-0.23617758 -0.084843755 0.1333887
-0.028189413 0.16495667 -0.08357159
-0.010731038 0.0415915 0.012934331
0.044685196 0.2889221 -0.22774
-0.12516485 0.25178543 -0.21690506
0.113030754 0.06371688 -0.020708503
-0.18039033 -0.10287939 0.16542014
-0.2320265 -0.09301138 0.16762725
-0.13295653 -0.003592213 0.016772551
0.22556508 -0.1586951 -0.09026964
-0.017490024 -0.2486578 -0.15752946
0.0060708486 -0.12729473 0.23336233
-0.15217172 -0.08719852 0.14426251
0.1329929 -0.1613475 -0.020592464
0.19710404 0.017618187 -0.25910494
-0.15760614 0.2066081 -0.1479479
-0.10529812 -0.2553872 -0.01463635
-0.17779133 0.098742455 -0.07323091
0.17248444 0.20480028 -0.13721688
-0.18315329 0.15367435 -0.10014199
-0.09082344 -0.011721745 0.038952667
-0.18538672 0.17988022 -0.16424742
-0.14693213 0.22435474 -0.21591613
0.0271837 0.023202118 0.051565576
0.10422932 0.09316758 -0.045477223
-0.1427096 -0.1257797 0.20899709
0.2233431 0.085114464 -0.0015019596
-0.15765402 -0.06287778 0.091510214
-0.1062692 -0.29313108 0.0016378375
0.26073408 0.10636734 0.0017997111
0.07485225 0.03464694 0.040393077
-0.31312546 0.07381846 -0.011248941
-0.25072712 -0.068581715 0.11833833
-0.10842327 -0.05695919 0.17101194
-0.19251058 0.17692375 -0.16901508
-0.25212672 0.22209874 -0.1841302
0.12608507 -0.078006975 0.16363695
0.14420374 0.19997832 -0.11900326
0.13316959 0.17199649 -0.104341656
0.13429652 -0.2104703 0.017208721
0.2704713 -0.07272358 0.094957046
0.09808025 -0.1968483 -0.04055166
-0.08966694 0.1700732 -0.13232763
0.26965433 0.10102254 -0.022285812
0.097741716 -0.07499028 0.016026875
0.16447534 -0.07610481 -0.11108154
-0.34624815 -0.017467227 0.021035803
-0.039026592 -0.27803993 0.0019114919
-0.15821898 -0.1540215 0.20838016
0.056798358 -0.05357685 0.17369635
-0.07413768 -0.12525265 0.16244726
0.02686557 -0.14149511 0.021895947
-0.0003438528 -0.23422638 -0.13630942
0.16245404 -0.002463605 0.056999575
-0.15427056 -0.15849331 -0.016635971
-0.013504067 -0.2584229 0.03172423
0.16567552 -0.24287157 -0.014251752
-0.10685534 -0.1317349 0.22756274
-0.13017532 -0.17566252 0.032356527
0.24360065 -0.062313065 0.12109415
0.15994115 0.0014576686 0.0904468
0.113568224 0.063510485 0.00065377064
0.28614154 -0.05715005 0.10353313
0.006756698 -0.03617593 0.10764177
-0.16630848 0.09473738 -0.043241818
0.03004107 -0.167557 0.03821938
-0.15112649 -0.023783296 0.0747763
0.16712554 0.16452344 -0.14822693
0.23477592 -0.0457078 0.13388212
-0.12525551 -0.11400774 0.0038115308
0.13531016 0.057339218 0.038255308
-0.12862015 0.018627798 -0.0030589763
0.12403304 0.0021096917 0.08105032
0.06891589 0.06442549 -0.011278301
0.113482684 -0.0032605533 0.11343697
0.030077076 -0.10290518 0.1913925
0.24194871 -0.009303628 0.1221241
0.2122592 -0.0038835153 0.083737835
0.1405601 0.034680154 0.07036154
-0.19342712 -0.24037299 -0.018410444
-0.28372982 0.082198165 -0.053365402
-0.08488721 -0.18976597 0.19735776
-0.2551392 -0.06703344 -0.0519761
-0.050788235 0.21208268 -0.18690948
-0.104672745 0.17567284 -0.12463394
-0.24219003 -0.017728157 0.049707636
-0.2662375 0.08524074 -0.076979354
0.16261037 -0.053432528 -0.1479598
-0.27310854 -0.045713738 0.08036117
0.14529608 0.04747028 0.049466122
-0.11451296 0.14146733 -0.10298239
-0.056354064 0.045889635 -0.04000462
0.14086902 0.06035259 -0.014229164
-0.21967438 0.18779276 -0.17523149
0.061028343 -0.1117719 0.019171618
0.05821659 0.050611768 0.03732307
0.14651303 0.006671981 0.06246811
0.053573728 -0.26403907 0.031876322
0.25829402 0.030033298 0.052477393
0.0707351 -0.09209236 0.19017075
0.18867615 0.00626182 0.062242743
0.007024023 -0.25207332 0.05282576
-0.07455519 0.075848915 -0.010372907
0.115184166 0.1365176 -0.07585847
-0.034093168 -0.043657344 0.09854958
0.030841367 -0.061585136 0.14408794
-0.28401807 -0.056766443 0.10602509
-0.025627732 -0.030838173 0.07173992
-0.20665471 0.22934386 -0.2091346
-0.19106194 -0.098009534 0.12584604
0.097476825 -0.14414588 0.19499306
0.09545913 -0.055828072 0.16475014
-0.12425292 -0.03233877 0.10651759
-0.3165926 0.07721709 -0.06441931
0.11136019 -0.18148538 -0.04619377
0.19409564 -0.18611254 -0.035952017
0.19071777 0.04563555 0.017405882
-0.00040682513 0.09214135 -0.06825326
0.032981463 0.19593878 -0.15759297
0.031674344 -0.19142774 0.020928921
0.18361062 0.18671672 -0.12911539
0.1636354 -0.05381452 0.15779778
0.120018415 -0.12888616 -0.039040636
-0.050145037 0.21900374 -0.16116776
0.25738528 -0.16787307 -0.10533599
-0.156813 0.068361275 -0.01928569
-0.22360086 -0.09932358 0.20943545
-0.11033946 -0.12814042 0.21690197
-0.2385959 -0.06174516 -0.020184143
0.094159275 0.08240733 0.013786642
-0.06645437 0.03948292 0.026949989
-0.020100523 0.2556107 -0.2104091
-0.049976084 0.073590554 -0.026669767
-0.19804814 -0.18545465 -0.07743773
-0.16005269 -0.0070393747 0.052134424
-0.033502985 0.2081488 -0.14136505
-0.17125267 0.12690312 -0.09512283
0.14948392 0.019127093 0.07687626
0.01742735 0.032862026 -0.11628587
0.13067862 -0.06357423 -0.0143494075
-0.020374162 -0.2643004 0.02402182
0.10991902 -0.19297285 -0.042858392
0.059840333 0.21182308 -0.1775098
-0.27025586 0.082750216 -0.07605924
-0.082154274 0.031150877 -0.011452264
-0.21822649 -0.02347385 0.0762906
0.099085785 -0.14106591 0.21406938
-0.21055149 0.054182094 -0.01241654
-0.12954158 0.05261186 -0.016351528
-0.107374094 0.14857844 -0.10427369
-0.08973689 -0.06791815 0.1385089
-0.008602515 -0.006522438 0.029000508
0.09649919 0.10517822 -0.015867842
-0.040437214 0.005774729 0.0068011107
-0.11384841 -0.002135697 0.03039343
0.16032046 0.20824245 -0.17957808
-0.23761196 -0.09438371 0.1438122
-0.14259434 -0.13479109 0.20185764
-0.25731748 0.18217732 -0.16533345
-0.07438136 0.1893905 -0.16234276
0.11870411 -0.20240931 -0.011350299
-0.012183706 -0.010861849 0.07333303
0.1595227 -0.07417038 0.1652521
0.1921792 -0.06957506 0.17529893
-0.16697246 0.08271429 -0.054292582
0.23136473 0.06093912 -0.011654583
0.25512737 -0.107174136 0.10744468
-0.105067424 0.20696129 -0.16635975
0.0075151445 0.0014816144 0.019782579
0.044227783 -0.18414249 -0.017452482
0.1594686 0.023005733 0.036123335
0.18202214 -0.0029685623 0.051481456
0.29559854 0.08639273 0.017894667
-0.29551503 0.11291742 -0.09634683
0.1800484 -0.019898696 0.10650409
-0.19763827 -0.0014320879 0.03659048
0.27651477 0.161759 -0.093830734
-0.32314828 0.10763623 -0.08408713
0.09533733 -0.2360007 -0.18311153
-0.05342882 -0.009881182 0.110477924
-0.058682535 -0.20815547 0.049288783
0.12774336 -0.18736434 -0.051009245
0.038111873 -0.22771643 -0.000571412
-0.102259316 -0.11741443 0.19592401
0.13727033 -0.06656699 0.15563685
-0.03343391 -0.014251906 0.060746316
-0.26786542 -0.011812416 0.04321082
0.17463927 -0.11187905 -0.11681916
-0.07867036 0.27172148 -0.22879077
-0.1732013 0.1503846 -0.11398866
-0.10749182 -0.25757807 -0.00023802317
-0.04223561 -0.2830306 0.019337675
-0.16593699 0.07383821 -0.08079601
0.012421636 -0.108456515 0.18781658
0.25145912 -0.06455324 -0.19976772
-0.10070199 0.089289136 -0.048187558
0.13788238 -0.057210077 0.14566505
-0.2159911 0.0465353 -0.012270252
-0.14193551 -0.112363756 -0.04649077
-0.034189064 -0.22519642 0.08255473
-0.1578027 0.12111533 -0.06184888
-0.23655783 -0.121321455 0.16761532
-0.24986134 -0.057282634 0.099107005
-0.30100232 -0.030184103 0.115899675
-0.18226962 0.098823465 -0.09130297
-0.13026407 -0.18420424 0.003718377
-0.04708118 0.110273995 -0.060146444
-0.16858976 0.046570994 0.036357995
-0.2667923 -0.031022867 0.03028346
-0.018031882 0.13585971 -0.10975989
0.24885485 -0.023015426 0.09315223
0.16172436 -0.09607434 -0.07668914
0.04662402 -0.06669235 0.10266984
0.021937702 0.19831274 -0.1784
-0.16731265 -0.058156636 0.13161895
0.16676442 -0.04574683 0.13505842
0.025984038 0.26220497 -0.20428678
-0.27994037 -0.09820896 0.15077935
0.2513154 -0.10870883 -0.15089299
0.19226708 -0.094868 -0.16294126
-0.11163736 0.08858157 -0.055860203
-0.19942816 0.20735231 -0.19596112
0.02956919 0.14670457 -0.091489166
-0.28955674 0.04933151 -0.010855187
-0.04068038 0.27429712 -0.23072335
0.2802983 0.077628925 -0.045637943
-0.023115642 0.08769006 -0.07450262
0.13418373 0.03437526 -0.18006624
0.27229646 0.14788853 -0.08824917
0.0102321645 0.20529233 -0.14723487
0.18071029 -0.21634203 -0.038183056
-0.055378817 0.0453158 -0.05355532
-0.19863653 0.13109235 -0.11749381
-0.05328988 0.098389536 -0.044577748
-0.17605907 -0.12494608 -0.001989516
-0.3322635 0.1442266 -0.12163592
0.18989865 -0.031387784 0.14491886
0.11377314 -0.039773516 0.12220798
-0.32324916 0.113861054 -0.059890628
0.10120229 -0.025750276 0.11258506
0.20020558 0.11539387 -0.01773825
0.14332733 0.021412851 0.07342239
-0.13071243 0.025652913 0.02643573
0.2743943 0.0013623848 0.09876911
0.097582646 0.05864416 -0.0029613154
-0.28669396 0.13057587 -0.10064092
-0.06957558 -0.117651336 0.07515768
-0.06861064 -0.14856747 0.10231414
0.14589064 0.26577234 -0.19389367
-0.29881644 0.08435393 -0.018195778
0.20413648 0.16145916 -0.106980175
0.08869519 0.2695573 -0.2023683
0.2597145 0.060515568 -0.029674001
0.08064365 -0.23427027 -0.025262285
-0.037793748 -0.14411315 0.21534625
-0.28588122 -0.033487197 0.07421047
-0.07501318 0.025065389 -0.03535432
-0.24459036 -0.13061044 0.13422818
-0.047663525 -0.02988846 0.08910792
0.021027902 -0.17581466 0.19819307
0.26681602 0.037003692 0.04196127
0.061306268 0.12471073 -0.07240569
-0.1350214 0.14045322 -0.11179239
-0.19820699 -0.09587804 -0.029466461
-0.025133718 0.1660783 -0.12693134
-0.36621457 0.100191854 -0.058939256
-0.06496506 0.22269359 -0.22201174
0.034734476 0.21918899 -0.16906606
0.10342912 -0.06079223 0.14613146
-0.09034423 -0.10182604 0.19730015
-0.22689657 -0.14345847 -0.1353412
-0.07451433 0.23268455 -0.22208528
-0.20508403 0.030692603 0.028777432
-0.014218768 -0.25954944 0.024203679
0.0054687033 -0.1884 0.20998956
-0.028039673 -0.15649387 0.2236471
-0.18228886 0.07734903 -0.0004134228
-0.12807746 0.15566126 -0.13373835
-0.18142962 -0.07764419 0.15792383
-0.08120256 0.023470463 0.027747331
0.18481916 0.19842021 -0.16388924
0.110123046 -0.15450577 0.18815884
0.1888255 -0.22428294 -0.03104431
-0.12588434 -0.09051477 0.1391463
-0.052820247 0.062860645 -0.022348218
-0.111820914 0.12633693 -0.06928922
0.023660403 -0.13285193 0.008912117
-0.14777434 -0.105921015 0.17069931
-0.17739987 -0.035951488 0.08964121
-0.21879725 -0.053346217 0.13682221
0.067605436 -0.158373 0.20431896
0.2105467 -0.05018746 -0.18516114
0.07400879 -0.09515928 0.005262029
0.23075816 -0.14973734 -0.08946489
-0.27418116 -0.0119030485 0.049460445
0.100171424 -0.056190908 0.031928435
-0.25881582 0.091195 -0.07008361
-0.23112768 -0.05565716 0.12565951
-0.15175219 -0.09235136 0.18446618
-0.33961305 0.12647042 -0.06971499
-0.075386666 0.25879353 -0.21916299
-0.26013184 -0.16990288 -0.114368744
-0.29121715 0.18273059 -0.1544624
-0.23133925 0.10471645 -0.03474125
-0.31588212 0.08342191 -0.06481772
-0.2181113 -0.1885295 -0.10436391
-0.013737134 -0.0745645 0.14898565
-0.21283123 -0.12679298 0.16664173
0.119635835 0.04683546 0.0063765817
0.068479516 -0.07440818 0.14808366
-0.12192566 -0.124465585 0.21902677
-0.024278691 -0.16692834 0.19225939
-0.19267847 0.18689421 -0.1863202
0.22590728 -0.015042621 0.09787126
0.06910847 0.23798634 -0.20229094
0.06705583 0.19375312 -0.17052394
0.15109985 -0.0008419281 0.06941187
0.1456554 0.2676724 -0.19505309
-0.06819588 0.017091837 0.025284313
0.22538643 0.05459334 -0.008354632
-0.13487433 0.07103327 -0.03376225
-0.06708775 0.17331128 -0.111267574
0.09729182 -0.08509435 0.1476019
0.16288285 -0.22278385 -0.009317755
-0.03976129 -0.08747025 0.17502332
-0.23904316 0.23019832 -0.18239486
0.19069524 0.07447721 0.0066146534
0.12280412 -0.050967935 -0.06508746
-0.07433354 -0.15402232 0.23110408
0.2127264 -0.08810624 0.15791401
0.21710691 0.13415708 -0.07830673
0.10295128 -0.12515953 -0.0046193004
-0.22638793 0.07673675 -0.036454923
0.17634942 0.075851746 -0.0072734808
-0.18427758 0.1418014 -0.13458958
0.14182995 0.21713638 -0.17195168
0.05850665 0.027482128 0.055376425
-0.046044406 0.24951598 -0.24290936
-0.09623922 -0.2762488 -0.0076348227
-0.33702692 0.10162468 -0.09553346
-0.27919143 -0.009853306 0.046957396
0.05546475 -0.031590436 0.08986528
-0.22132358 -0.09034433 0.15300193
0.08481659 0.17117958 -0.14755324
-0.023984218 -0.18902583 0.11724431
-0.010564238 0.21497694 -0.21584216
-0.25200036 -0.16137049 -0.10081309
-0.11820798 -0.0039017214 0.053910233
0.09149884 -0.104623176 -0.019068765
-0.041692004 0.13700868 -0.10148683
0.06121277 -0.09993365 0.1953758
0.19382016 -0.1570097 -0.072665386
-0.0054569575 0.16258791 -0.13520186
-0.22463992 0.009584608 0.07944075
0.04445433 -0.17978531 0.0059631187
-0.31228188 0.029570917 0.010679167
0.20967901 0.10433821 -0.043709308
0.09711681 -0.07687632 -0.0037693812
-0.009537166 0.25025496 -0.228737
0.042328514 -0.13302542 0.20302442
0.22706088 -0.026528824 0.0749967
-0.19084913 -0.071764484 0.1060855
0.1590318 0.14376436 -0.082195945
0.010552663 -0.0026962538 0.025669271
0.099996105 0.14856352 -0.10081089
-0.07602872 -0.13049656 0.20234585
0.059825324 0.15024619 -0.07823332
0.23709583 -0.10052583 0.18958682
0.3247893 0.0011106577 0.07732207
0.06344408 0.25360906 -0.22474506
-0.17589213 -0.18679889 -0.06550767
-0.09479727 0.120493434 -0.07596986
-0.17432931 0.10502526 -0.040121965
-0.2793877 -0.0069201975 0.021033654
-0.2012574 -0.11399462 -0.008539147
-0.043941543 -0.101901494 0.1696851
0.11366611 -0.10183164 0.20717753
0.11051014 0.2347725 -0.23390034
-0.26901343 0.058073457 -0.0103389155
0.08564435 0.17010637 -0.11980339
0.20595047 0.18554199 -0.09624793
0.24725509 0.022582721 0.051146086
-0.34054798 0.061924607 -0.01356729
-0.1125775 -0.22117046 -0.06433444
-0.17793106 0.13910748 -0.09982904
0.0516966 -0.13036132 0.032494154
0.1950632 -0.032903623 0.122946806
0.19045591 -0.04352067 0.10123359
-0.1659389 0.22377683 -0.22681533
-0.091855615 -0.17713763 0.20652694
0.09553643 0.036021363 0.035838112
-0.07166522 0.08895305 -0.044728387
0.059930574 -0.12211561 0.192839
0.06677566 -0.22378977 -0.20324707
-0.15130173 0.08323264 -0.06525516
0.048523962 0.24760345 -0.22170515
-0.11695337 -0.0541009 0.11924886
-0.23038533 0.13969755 -0.06821908
0.10161734 -0.25123093 -0.017181223
-0.28222278 -0.024084462 0.050076574
0.1431248 -0.05795422 0.1604154
-0.27301753 -0.07214965 0.12091891
0.1635488 -0.18202971 -0.048217423
0.0002761161 -0.03731868 0.082102165
-0.27316058 -0.07355016 0.116385154
0.09517243 -0.17121641 0.22366446
-0.00859263 -0.20714512 0.22018923
0.081209324 -0.26716825 0.04908934
0.0015250033 0.21411233 -0.16249427
0.25420693 0.06422569 0.019180382
0.017631061 -0.10457952 0.21036212
0.14535172 -0.25655943 -0.0046842867
-0.078388914 -0.015332947 0.069075525
-0.06466717 0.24311866 -0.22525267
-0.19711107 0.20467488 -0.17612177
0.19720677 -0.16170767 -0.080657005
0.18111162 0.019159881 0.030580277
0.24657461 -0.079960905 -0.18112555
-0.016904976 -0.049305417 0.11884744
-0.2510026 0.20131706 -0.16085342
-0.06672651 0.21327884 -0.13866857
0.2364973 0.05212754 0.029776057
-0.07864447 -0.1424557 0.20382561
-0.2640793 -0.061812665 0.12105719
-0.11007905 -0.21750398 0.00813412
-0.044049844 0.25391006 -0.20984694
0.21842492 -0.014095935 0.12418103
0.1592159 0.029431948 0.053919766
-0.026514808 0.057404734 -0.071503
0.30390376 0.1070103 -0.015291228
-0.021517873 -0.20243864 0.047437157
0.15624447 -0.06750766 0.1559355
-0.106546305 -0.014298265 0.04626956
-0.16378841 -0.024656663 0.03890979
0.07981001 -0.029668806 0.10871781
-0.006043227 0.1417191 -0.08502957
0.23049352 0.034836758 0.056611087
0.09459071 -0.15324977 0.22250357
-0.19625422 0.09295273 -0.03334643
-0.012955519 0.16133374 -0.14567834
-0.20247245 0.12638976 -0.11193362
0.08001424 -0.23274797 -0.04228246
-0.0046682847 0.10785139 -0.07864857
0.13967459 -0.05396351 0.15146504
0.09848916 -0.07413981 0.17604886
-0.24163577 -0.06698906 0.09837795
-0.0056795664 -0.07562547 0.15660566
-0.18383297 0.23771194 -0.17176709
-0.1407041 -0.25504515 -0.02961881
0.25479802 -0.06450843 0.121780835
-0.15846008 -0.08374651 0.1256521
0.09383636 -0.067477874 0.17364016
0.09256343 -0.08924391 0.15299042
-0.20131959 0.1805239 -0.12117748
-0.22034106 0.103003 -0.048099477
0.3080578 0.043620624 0.029083315
-0.24865952 0.11745345 -0.08295488
-0.06913804 -0.069507815 0.14855905
0.016604917 0.11872578 -0.0375085
0.134386 -0.19356053 0.001146899
-0.14116481 0.23520613 -0.2326022
0.1463556 0.24018529 -0.20373763
0.14362353 -0.1115691 -0.06645554
-0.025203072 -0.1442652 0.24861592
0.05181116 0.16014226 -0.08327186
-0.10944209 -0.15404308 0.0257258
-0.24610323 -0.16741242 -0.102834426
0.26204532 0.18993787 -0.09531297
-0.12835692 -0.19604181 0.17139189
0.2855809 0.072908 0.012498396
-0.12691578 0.22724058 -0.18899943
-0.23761317 -0.0284625 0.054165088
-0.13661866 0.27572265 -0.22615147
-0.20725931 0.21025695 -0.20777954
-0.106870875 0.07883071 -0.038337614
0.24033047 -0.03262295 0.14677563
-0.14005315 0.12083066 -0.1158047
-0.00024379414 -0.21203656 -0.0016000828
0.15917695 0.011411816 0.0910315
0.1490532 0.04401257 -0.16797706
0.28232515 0.12227095 -0.05367063
0.2371234 0.070814185 -0.0016203325
-0.18345422 -0.096163064 0.17545336
0.048816413 -0.2229454 0.00690014
0.04848485 -0.17252211 0.21334003
0.12917905 -0.018717673 -0.046061214
-0.30064526 0.044337407 0.007000426
0.2126266 -0.030168207 -0.20049524
0.26578617 0.036809642 0.037440788
0.060810342 -0.026457984 0.07872352
0.18801567 -0.124352425 -0.115932785
0.2230451 -0.010931708 0.10693358
0.23233452 -0.0010105529 0.086201526
0.2373734 0.053338077 0.008875726
-0.07027743 0.1279967 -0.09011753
0.1073025 0.07767883 0.0027376118
-0.34836188 0.0154965725 0.029399203
-0.15921812 -0.08066664 0.17030118
-0.1313413 0.022846768 0.064081594
-0.24567261 -0.09061854 -0.070291325
0.24618518 0.07903494 -0.023090106
0.01777812 -0.13463919 0.00096544594
0.012457994 0.110729255 -0.06878204
0.14223695 0.03444159 0.077724814
0.22244558 0.1503625 -0.0882011
-0.09810853 0.15991113 -0.15533935
-0.10705904 -0.14238061 0.117601715
-0.27566722 0.12625049 -0.10563985
-0.11002082 -0.033662383 0.06692276
-0.14191228 0.253931 -0.2601965
0.12653293 0.13880847 -0.10048158
0.20976157 0.07430232 0.013210282
0.058555286 0.21630369 -0.17710729
0.18667977 0.058965847 0.008774665
-0.33744723 0.058122717 0.0009082365
0.015262401 0.23751433 -0.21304373
-0.20691654 -0.18972339 -0.08260487
0.099608585 0.057749506 0.0066866246
-0.043180067 -0.08310487 0.16408937
-0.27380916 -0.025104 0.08006463
0.04365813 0.123241186 -0.08920616
-0.2971898 0.116873235 -0.13117053
0.0909764 -0.0657831 0.027519397
-0.20944263 0.12935592 -0.11064403
0.020090979 0.06624305 -0.048281524
0.17597497 -0.024641572 0.08567189
0.013692549 0.24604169 -0.18781766
0.013349684 -0.27736 0.037978113
-0.27924702 -0.113620184 0.098328196
0.23325528 0.05916234 0.054847687
0.11257826 -0.07323653 0.13442343
-0.22583409 0.14899723 -0.111205935
0.15375431 -0.15676592 0.1865299
0.2149463 0.19483313 -0.13433723
0.23734389 -0.07456367 0.1313301
0.12525086 -0.10054876 -0.031506967
-0.15727814 -0.086114995 0.169412
-0.019888446 -0.0075518596 0.07067678
0.11231957 0.057125878 0.027147993
-0.10476576 0.07304945 -0.036312763
0.2175084 -0.06346446 -0.18375899
0.13709319 -0.09028759 0.14638475
0.14972292 0.08327822 -0.018560214
0.2088355 -0.10252812 0.12083324
0.08670386 -0.19264545 -0.033868834
-0.097264335 -0.1448568 0.06920181
-0.277388 0.12016656 -0.08366868
0.16213748 -0.115719 -0.062602155
0.050650254 -0.17926927 0.0059460704
-0.09386835 0.09507753 -0.022074938
0.1299071 -0.24752636 -0.025616856
-0.017407702 0.0085679805 0.055973507
0.24439353 0.14681652 -0.08349256
0.11512114 -0.14548723 0.18465734
-0.060354535 0.01009492 -0.0155297145
0.0950173 -0.13833627 -0.01709016
0.1920858 -0.09838288 -0.08751994
0.30496705 0.05669271 0.061502546
0.16693594 -0.07188557 -0.07279756
0.06504593 -0.04866472 0.16121201
0.040694207 0.25312102 -0.23932143
0.20455252 -0.085826054 -0.16440757
0.23719141 -0.10449519 0.115252346
0.1522513 -0.033587907 0.16333793
0.04543176 0.18179028 -0.13490897
0.03306032 0.23670638 -0.17613314
0.041062884 0.09617606 -0.038653463
0.31993127 0.09390615 -0.040505603
-0.14379 0.009002612 0.08587015
0.15602115 0.106844746 -0.057682537
-0.094945766 -0.17491086 0.19318809
0.16670245 -0.15008588 -0.071003646
-0.08613819 -0.02276708 0.06913584
0.04701157 -0.11063412 0.20071612
0.20967452 -0.17976376 -0.082253575
-0.082023926 0.117828235 -0.06453449
0.123593695 -0.10404942 0.22071505
0.08018239 -0.047739923 0.0836727
-0.118620075 0.09274768 -0.032575436
-0.28332672 0.006913544 0.020214505
0.13340935 0.18651491 -0.12591387
-0.08150179 -0.19988583 0.21977878
-0.13644114 0.058569103 -0.02809804
0.061103597 0.26466253 -0.25775874
-0.024832752 0.12565598 -0.09831536
-0.00109084 -0.24740447 -0.1590579
0.032191176 0.0059032296 0.072636224
0.23796116 0.10077648 -0.06625867
0.04166879 0.0044409647 0.03330861
0.19078402 0.1686692 -0.10759822
0.20793779 -0.18827073 -0.07236244
0.20917436 -0.025158452 -0.22720139
0.102688745 0.047492113 0.00036125278
0.00676622 -0.18662956 0.22303325
0.17842619 -0.13763891 -0.0877844
0.09647616 -0.16676767 -0.031297103
0.18126737 -0.1864393 -0.017041238
0.053223122 -0.12975709 0.21427281
0.14892428 -0.031614628 0.11278197
0.17897645 -0.13006288 0.1657692
0.05275798 0.2680878 -0.23842198
-0.11595342 -0.11477986 0.18642282
0.008555186 -0.25714415 0.018290354
-0.28478184 0.107393235 -0.08387815
0.08787179 0.13951017 -0.10225599
0.09412479 0.24532026 -0.20514719
-0.018415792 -0.116519645 0.16900979
-0.0580652 0.034778643 -0.07508388
0.00926765 0.23202132 -0.2152046
0.03226302 0.14758053 -0.12101303
0.1342316 0.230312 -0.1850909
-0.25396633 -0.1206381 0.1382343
0.22424541 0.11807451 -0.044783454
-0.2994862 0.11960403 -0.10871336
-0.108175464 0.084296525 -0.027663814
-0.087239504 0.22721568 -0.16873446
-0.09409303 -0.13527666 0.21917436
-0.10711254 -0.29631883 0.008583471
-0.00475389 0.10085766 -0.06982629
-0.060456008 0.2127836 -0.15048656
-0.25162017 0.074405424 -0.06913817
-0.28186694 0.017508578 -0.022058109
0.13481745 -0.07918893 -0.060820337
-0.124582745 -0.11052293 0.1369047
0.15084857 0.03391317 0.031339843
-0.24756587 0.21278194 -0.21285996
0.1478186 -0.05100156 0.17187864
0.034154978 -0.092674926 0.20071429
-0.16940728 -0.2692165 -0.012198895
0.067269824 0.096423835 -0.06502981
0.20028672 -0.22525546 -0.022675004
-0.24947913 0.14019354 -0.104982845
0.07217365 -0.020079417 0.061608203
-0.18620174 0.050418194 -0.009334199
-0.21611907 -0.029284002 0.12544821
-0.039661914 -0.24233031 0.042798877
0.105512515 -0.10412961 0.18394734
-0.24278447 0.038676474 0.038504764
-0.062666364 0.040845226 0.022458209
0.102259636 -0.07757351 0.1552795
0.09647082 -0.06707489 -0.005691914
-0.1431639 0.039565112 -0.00028890898
0.32869226 0.10660285 -0.103341155
-0.08653542 -0.032436755 0.06813318
