# .PCD v0.7 - Point Cloud Data file format
VERSION 0.7
FIELDS x y z
SIZE 4 4 4
TYPE F F F
COUNT 1 1 1
WIDTH 1000
HEIGHT 1
VIEWPOINT 0 0 0 1 0 0 0
POINTS 1000
DATA ascii
-0.18417163 0.0534389 0.013695796
-0.07562429 0.12154251 0.018776352
-0.07806031 0.05058271 3.3007698e-06
-0.08082548 -0.027939655 -0.22443661
0.08048074 -0.08058357 0.17644057
-0.076656796 0.00021151583 -0.0034471145
-0.211135 0.053712714 0.104932025
-0.046606384 -0.122137435 -0.011758776
0.23323016 -0.15030926 -0.12879051
-0.026406052 -0.07175678 0.06740934
0.037466727 0.14568548 -0.0788677
-0.03247319 0.013318662 -0.28002068
-0.1617588 -0.08600978 -0.20881458
-0.13239995 -0.035432734 0.0064300573
-0.25047496 -0.107127964 -0.13560577
0.07960876 0.04455948 0.04432305
0.016627392 -0.10529764 0.13531086
0.016098514 -0.24191338 0.05476826
-0.0351196 0.2284425 0.04460363
0.0690658 -0.06740928 0.17078102
0.035988197 0.1557446 -0.055743292
-0.29759103 0.031339332 0.035316024
-0.18329382 -0.0060030427 -0.018819556
-0.1959296 -0.11111655 -0.1587755
-0.30129966 -0.035565134 0.0014611444
-0.15862282 -0.06663029 -0.27944288
-0.065624766 -0.03887066 -0.35808852
-0.16146585 -0.016639352 -0.13666832
-0.027802523 0.039522987 0.0017404056
0.13951457 -0.09669401 0.08143481
0.079390295 0.24836713 -0.062856354
-0.12985364 0.02331381 0.01356111
-0.2546131 0.044041682 0.0755253
-0.090071484 0.07047607 0.00744284
-0.08163914 0.07082354 -0.09557147
-0.0042074774 -0.19185099 0.123590484
-0.23423243 0.03539105 0.039125465
-0.18447022 -0.03158103 -0.039953418
0.0002514998 -0.17471823 0.1292099
0.04942582 0.0710601 -0.0082231
-0.046299722 -0.00020060541 0.032264147
0.1583775 -0.13870005 -0.026421828
0.07213586 0.2660033 -0.09426442
-0.0004426041 0.0005140847 0.022454364
-0.116249196 0.017357182 -0.015146026
-0.2025442 0.0030705766 0.024115691
0.11464108 0.004312774 0.07123904
0.0043116175 -0.15168227 0.10855865
0.257679 -0.06881431 -0.075125955
0.015602102 0.22214592 -0.020736614
0.15846112 -0.21927004 -0.14992113
0.032130126 0.1524381 -0.24373388
-0.070583165 0.029046468 0.0045474144
0.063467935 -0.043769404 0.12221405
-0.15767096 0.016127905 -0.03589919
-0.20067975 0.021572305 0.009371195
-0.111240774 0.053208534 0.027443783
0.2511149 0.02120289 0.010316576
-0.016402539 -0.069205634 0.055446718
0.033393867 0.059487313 0.027299171
0.114275195 -0.17594343 -0.024753032
-0.061935138 0.12904741 0.036089998
0.10429001 -0.11874878 0.13016482
-0.056873504 -0.10558663 0.04309953
0.2511181 -0.09565062 -0.059847515
0.236793 -0.020506738 0.056554023
0.011262486 0.13212591 -0.007869714
0.02787842 0.15817232 -0.023420926
-0.016912213 -0.23862843 0.10160649
-0.070566416 0.1337398 0.004387876
0.19063792 -0.17741254 -0.09979827
-0.0020506254 -0.13953198 0.16635281
0.1225914 0.21280102 -0.15419239
0.041755833 -0.049436845 0.13601916
-0.11973587 0.03112873 -0.1732679
-0.11126797 0.13444754 0.053806856
0.124874264 -0.03219167 0.110453345
0.0630477 -0.11051203 0.1633507
-0.06396455 -0.041338816 0.029380294
0.113345936 -0.13117237 0.06321741
-0.2218996 -0.11229152 -0.12261646
0.016800005 0.1388234 -0.006545636
0.20645118 -0.122138664 -0.011280437
-0.028160604 -0.02964485 -0.3480752
-0.06672171 0.10357125 0.03628062
0.10209023 -0.22695623 -0.015069084
-0.084575094 0.009571716 0.026888382
0.15368943 -0.14852442 -0.0072759413
0.03284002 0.1440472 -0.067465946
0.28909042 -0.028759662 -0.01634829
-0.028874598 0.06984384 0.0052934284
-0.1152046 -0.068030685 -0.070027985
0.10195147 -0.13701417 0.1253592
0.15761769 -0.026978472 0.16179788
-0.23368241 0.03260569 0.07816384
0.04367107 0.051533133 0.0056874156
-0.07936737 -0.010691148 0.026167741
0.15598983 -0.07006828 0.0958662
0.024225175 0.2518634 -0.053271446
0.06765764 0.09430464 -0.34184092
-0.23479238 0.104071125 0.08797164
-0.24909543 -0.09773222 -0.06958589
0.02841526 -0.2747489 0.0062749116
-0.2482597 -0.0799271 -0.066294834
0.1650033 -0.22442013 -0.11808721
0.23472714 0.005740651 0.08887518
0.028374206 0.17634432 -0.19943263
-0.021860635 -0.10126305 0.07794641
-0.17859508 0.072488055 -0.005320293
0.06393009 -0.21336216 0.0046914504
0.0714772 -0.21751077 0.0007098573
-0.08517741 -0.08108218 -0.01019601
-0.12777278 0.0721184 0.041004267
0.19412531 0.015499269 0.14416659
-0.07754959 0.23695324 0.045167238
-0.28602675 0.011230509 0.0685218
0.06605798 0.12402079 -0.112165645
0.004202351 0.27232525 0.038606104
0.15074849 -0.048940197 0.12122262
0.17581211 -0.08332288 0.055163313
0.2049766 -0.10287397 -0.07630449
0.019929493 -0.11536644 0.084046304
-0.029649103 0.21974246 0.07525145
0.034072638 0.19496267 -0.029548444
-0.0898234 0.12588285 0.036179252
0.12533075 -0.011778948 0.13173254
-0.110998824 0.16753532 0.014130801
-0.08164042 0.08220627 0.049724743
-0.068728834 -0.058769166 0.025099155
0.0074200607 0.14968303 -0.012565797
-0.06883955 0.07307072 -0.13448374
0.13889861 0.20381685 -0.18231358
0.050411638 0.24273174 -0.017886769
0.12744394 0.095817365 -0.12878582
-0.022485541 0.12598696 0.045283057
0.17921175 -0.17876713 -0.07670265
0.0422247 0.02800783 0.068232395
0.07842019 0.0933549 -0.08271137
0.15305606 -0.09105073 0.058057025
-0.046659447 0.150707 -0.0068350723
-0.0024595654 -0.084150076 0.048806716
0.012996461 -0.1756092 0.081477046
-0.050650507 0.16810563 0.06099762
-0.24655007 -0.05587009 -0.10210245
-0.24737807 0.06168928 0.066057585
-0.016120315 -0.044863086 0.06865613
0.013646303 0.034968954 -0.3941575
0.09990838 0.041274786 0.021704996
-0.13983567 0.18104461 0.086347416
-0.02161824 0.09968853 0.0036238164
0.09528506 -0.14354533 0.07768695
-0.029505089 0.2557737 0.059806403
0.11983166 -0.029197391 0.13393454
-0.009432329 -0.041040026 0.058051914
-0.0806404 0.19520459 0.04813911
-0.08010511 -0.049755506 -0.15310647
0.071749285 0.22534963 -0.045462567
-0.095024526 0.16447966 0.10172845
0.040110085 0.27932516 0.020172361
0.16129625 -0.040048853 0.1545173
-0.08474238 0.060870167 0.02161232
-0.059201542 -0.08030025 0.04005761
-0.021306457 0.086128004 0.044339743
0.22298555 -0.08281177 -0.04809197
-0.053604305 0.20554465 0.09398318
-0.23570228 -0.10263426 -0.103536956
-0.22640997 -0.046180476 -0.050957225
0.022917818 -0.13881819 0.08872709
0.020489417 0.033994447 0.023146436
0.18675718 -0.10172289 0.008749371
-0.1927527 0.015862092 0.0048503266
-0.030891547 -0.20904803 0.115717284
0.19129749 -0.050093528 0.10876363
-0.057974476 0.23204985 0.07032265
-0.09428287 -0.112699576 -0.018526904
0.042724907 0.2311815 -0.02771303
-0.13037777 -0.07101484 -0.11730392
0.07181492 0.25992566 -0.052270327
-0.15155351 0.11494089 0.018558988
-0.10217431 -0.05110442 -0.006801896
-0.17292413 -0.018856198 -0.045791145
-0.09290224 0.15967846 0.035569727
-0.2536364 -0.014978902 -0.036919158
-0.069320455 0.13634706 0.014541044
-0.033033766 0.2291024 0.08500029
0.028187044 0.0645789 0.031537425
0.07913604 0.112800136 -0.28911722
0.023137068 0.11753991 -0.21124406
0.26835567 -0.023004804 9.117148e-05
0.0059225536 -0.26917884 0.05806444
0.19413392 0.035227235 0.10782861
0.03779428 -0.17976992 0.07003135
0.19892532 -0.03131212 0.027389565
0.07757001 0.28927124 -0.062593184
0.22462656 -0.03733145 0.0013681493
-0.25736624 0.031304516 0.070173964
0.015102403 -0.15395899 0.10463364
-0.15781671 0.09247985 -0.005335573
0.216877 -0.18543333 -0.17584872
-0.021761404 -0.15032972 0.03233258
0.15211548 -0.085462235 0.083938815
0.09032859 -0.19701783 -0.064687416
0.14817359 0.029571312 0.072671354
-0.03165738 -0.11652582 0.05257207
-0.21876737 0.1131241 0.10534885
0.006006016 -0.28459114 0.025920805
0.08082343 0.19304715 -0.16721338
0.2237379 -0.051988453 0.0032396934
0.2620009 -0.007393246 0.018075816
-0.026128909 0.14860328 0.005017744
0.09464395 0.010301018 0.08366397
0.029793276 -0.067081206 0.02576564
0.06224656 -0.24930932 -0.1100832
-0.03597204 0.23039806 0.06486176
-0.28904673 -0.071380235 -0.008445502
-0.06749913 0.16580322 0.053438064
0.23004873 -0.03553229 0.004803027
0.019166762 0.07352547 0.021324767
-0.00936962 0.1553303 0.008048965
0.07370467 -0.09683863 0.19847892
-0.09866406 -0.025252918 -0.23411402
-0.08357036 0.18807939 0.027329948
-0.1840872 0.116098434 0.103395194
0.01596247 0.17606948 -0.04905953
-0.008543056 0.24674022 0.04811193
-0.10161121 0.24218468 0.09926167
-0.020350968 0.1878072 0.044269394
0.0090487115 0.05720628 0.024541676
-0.08140297 0.10666527 0.025721176
0.007834901 0.063648924 0.019983802
-0.23613115 0.0195807 0.08863803
-0.049993075 -0.09917529 0.023762533
0.2912511 0.030369256 -0.0029994557
0.042165354 -0.24741721 0.026920114
0.1746467 -0.1710424 -0.11350173
-0.17381701 0.09958525 0.133278
-0.1424851 0.09068468 0.096550204
-0.04470418 -0.11709931 0.037959184
-0.016593633 0.020291923 0.07825975
0.073837936 0.15046477 -0.19584185
0.13303229 -0.15255786 -0.039947875
-0.09272038 0.08394831 0.019744273
0.114401326 0.059771508 -0.07258392
0.13022633 -0.12414311 0.064707905
0.1652185 -0.24354081 -0.13953526
0.11766651 -0.10349318 0.15752678
-0.30372727 -0.069065616 -0.021713061
-0.2040602 -0.03719833 -0.018366534
-0.22990291 -0.078927815 -0.2078918
-0.119753845 0.08757896 0.018006321
0.15689886 0.26222226 -0.15308256
0.052385457 0.31191152 -0.0029254374
0.03660464 -0.23399453 0.010866258
0.056610327 -0.20122951 0.037092447
0.00224053 0.032543574 0.026551394
-0.058900613 0.119484454 0.0085723465
0.037526686 0.22125807 -0.059465207
0.15252177 -0.091729194 0.06091747
-0.14403498 -0.08401666 -0.30911472
-0.13018307 -0.090455346 -0.24015802
0.16337848 -0.19954681 -0.15557423
0.077994406 0.11269124 -0.16847683
0.009005902 0.15201856 -0.11752724
0.043717306 -0.22407253 -0.028726315
-0.096936844 0.0008357819 0.038125455
-0.08009919 -0.076166876 0.02487616
0.06779614 0.16161567 -0.07925122
0.047196 -0.29264316 -0.08061174
0.10088513 0.25049528 -0.09098553
0.07725509 0.2219443 -0.14076212
-0.1094569 -0.08238342 -0.15325142
0.0499453 0.24770182 -0.05281315
0.05557559 0.21683167 -0.07092899
0.19444121 0.015661888 0.11964961
0.010452224 -0.011206936 0.038029324
-0.061959393 0.10885283 0.044271186
0.0073782955 -0.04495084 0.044593006
0.07544566 0.06937981 -0.00354085
0.053322177 0.21899448 -0.023906918
-0.2155547 -0.08991418 -0.16431125
0.012136629 -0.21050644 0.12180891
0.069029264 0.29139176 -0.04644992
-0.07656227 -0.057620082 0.058738645
0.09355128 -0.036171827 0.120572664
-0.07436415 -0.11209294 0.03594474
0.062755585 0.296474 -0.04772459
-0.004703482 0.17883193 -0.007171984
-0.04300808 -0.07480845 0.02742513
-0.069386795 0.08540677 0.020202752
0.095641665 0.006386222 0.13706055
0.025364354 0.24856184 0.027257789
0.016331695 0.03416306 0.061552417
-0.01353905 -0.24941367 0.052731562
0.12967987 -0.0038434004 0.022709468
0.04388404 -0.064762674 0.07814746
-0.09263478 -0.048308223 0.009765103
-0.018404549 -0.0310223 0.015163872
0.05097657 -0.053684898 0.10680685
-0.043519452 0.071875654 0.015991239
-0.107329175 0.05987864 0.027283905
-0.025044195 0.19303274 -0.032221574
0.028017731 -0.087589554 0.17749885
0.039948214 0.0011537556 0.07544437
0.08385989 0.07526346 -0.3192481
-0.022916168 -0.09195157 0.08682961
0.18430935 -0.04326529 0.09356514
0.040530156 -0.27865875 -0.05692631
-0.1402442 0.09977846 0.053268634
0.2094215 -0.15045549 -0.10510005
0.12178278 0.1913073 -0.18245555
-0.07723208 0.14261168 0.093471214
-0.20845881 0.07700502 0.0934253
-0.13400733 -0.023895176 0.01595117
0.20309612 -0.0738967 -0.038524464
0.021816736 0.11344313 -0.27484074
-0.28791556 0.015056353 0.042321615
0.2671965 -0.02500567 -0.05211403
-0.11577167 0.08758198 0.01964231
-0.19468434 0.103117496 0.054852244
-0.04412778 0.03311491 0.024859546
0.18092808 -0.0018046772 0.14762887
-0.12541844 0.14290488 0.08786946
-0.13210624 0.069331706 -3.4860124e-05
-0.19598073 0.07677133 0.11639264
0.006179635 -0.07013121 0.11145531
-0.0051264353 0.088115856 0.01831526
-0.24033633 -0.0022641087 -0.0139496885
0.13617708 0.21051185 -0.18606837
-0.0070822686 -0.13008103 0.15653585
0.1152416 -0.14690213 -0.009028647
-0.09287126 -0.0799714 0.019492809
-0.11791139 0.08812815 0.02892617
0.030124106 -0.111052126 0.15834253
-0.009594507 -0.03350072 0.027117314
-0.14253575 0.15020502 0.10952144
-0.2030256 0.037836082 0.07913357
-0.009853252 -0.10973709 0.08142008
-0.06659901 -0.041690554 0.05006506
-0.102858655 -0.056597333 0.008535055
0.12401546 0.09942477 -0.05582283
-0.0874414 0.20254686 0.077149585
0.12703663 -0.1677732 -0.007643824
0.047225878 -0.24650887 -0.029709063
-0.10471759 -0.068254665 -0.15852553
-0.27155748 -0.02814046 0.061957262
0.07187573 -0.12370615 0.18037103
-0.2762178 -0.09045527 -0.030126223
-0.0076499223 -0.16416663 0.0143950675
0.22796161 -0.039744567 0.02105725
0.14494205 0.24337305 -0.16134085
-0.2750758 -0.051080965 -0.059584275
-0.13484496 0.06813613 0.07979913
0.123095416 -0.025876015 0.19585171
-0.03308918 -0.26863357 0.054960348
0.15491097 -0.19767573 -0.12610948
0.023913393 0.11698635 -0.043465722
0.06469856 -0.013898565 0.1306857
0.21675931 0.016409596 0.018231241
-0.038655072 -0.054485686 0.046959944
-0.15413688 0.12819733 0.093945146
-0.022384264 0.14969349 0.01814602
0.019629547 -0.035970297 0.04158073
-0.030552479 -0.05039295 0.04160489
-0.0058177086 -0.21950148 -0.061416574
0.23851739 -0.15124598 -0.13474853
0.09915121 -0.22190067 -0.081193775
0.08209199 -0.17164047 0.06690455
-0.036738522 0.0343677 -0.21551947
-0.111660264 0.019758906 -0.00076145784
-0.04506251 -0.05139326 0.07827646
0.014436878 -0.28128347 0.012580973
0.098350376 -0.14629301 0.0868176
0.015820801 -0.16205484 0.12131318
0.025265193 -0.13494878 0.19521832
0.10065456 -0.07252767 0.17616844
-0.0038711426 0.0059837047 0.05535378
-0.16188031 -0.13082442 -0.2646732
0.062046424 0.23442371 -0.03672597
-0.14748825 -0.049966834 -0.024805617
-0.14869773 0.15645638 0.114018664
0.040185794 0.07785722 -0.06504217
0.2280271 -0.13011278 -0.066749334
-0.0017598325 -0.193455 0.10202893
-0.21813303 0.07105056 0.12437273
0.014044081 0.007318136 0.07004355
0.19556253 0.043289408 -0.058434602
0.232406 -0.10372651 -0.11452079
0.0774476 -0.08803952 0.20322646
0.00073996297 -0.26325485 0.07488243
0.075785734 0.1955286 -0.14332846
0.096661344 -0.22798282 -0.033399314
0.042874575 0.04018425 0.042918794
-0.09014009 0.12867722 0.0069419206
0.063401274 -0.26582026 -0.060169514
-0.035218917 -0.18262935 0.107466534
0.23178667 -0.047866054 -0.011572584
0.060713667 -0.14940126 0.12748204
0.06629196 -0.16764417 0.102750376
0.070162 0.11749328 -0.07951456
-0.2239255 -0.019169264 -0.10341283
-0.1511711 -0.08332255 -0.121379286
0.00074072584 -0.21876337 0.020143026
0.24129662 -0.06753575 -0.045719855
0.07648814 -0.05648604 0.16728202
0.051823735 -0.12099315 0.14797327
0.032928936 0.034891155 0.069337815
-0.026054144 -0.11341386 0.0149628315
0.0013296012 -0.025615063 0.048259035
-0.040021803 0.15969716 -0.022808086
0.037702255 0.008683455 0.08059246
0.21353021 -0.11208957 0.013420129
-0.23716687 0.043436497 -0.025612928
0.013109864 -0.15362617 0.19226979
0.0987015 -0.03294349 -0.0033472346
-0.2504563 0.0047246334 0.016709
-0.025570143 -0.15746656 0.06727049
-0.027429061 -0.26690143 0.034764323
0.13773613 0.16514082 -0.2543806
0.11258594 -0.04862182 0.12002521
-0.22140725 -0.12019864 -0.123441316
0.080604956 -0.2694883 -0.07658247
-0.015182192 -0.18171899 0.13582693
0.06258426 0.08073674 -0.019000601
0.15596993 -0.21443276 -0.1119492
0.0035809793 -0.045609068 0.049884543
0.18651186 -0.036723595 0.105186425
0.033624597 0.05217377 0.07692721
0.062349323 0.2740034 -0.004595145
0.080878034 -0.0254169 0.10386283
0.031375922 0.23464704 -0.047547214
0.17320476 -0.103883296 0.032899316
0.057013407 -0.002766587 0.034844756
0.043819953 -0.17025512 0.13830079
-0.082159586 -0.015426564 0.01340544
-0.1541203 0.10578224 0.117515974
0.08523759 0.20229352 -0.2568976
0.026209014 0.08967448 -0.3237241
0.040529627 0.1255673 -0.25020787
0.24238889 -0.051993363 0.0041826423
0.014909079 0.16045724 -0.01334347
0.027883017 0.23758648 -0.008594147
-0.098786436 -0.068756446 -0.011656218
-0.06763993 -0.055513684 0.05030209
0.15580769 -0.18067966 -0.08736334
-0.041431267 0.061971225 -0.21736644
-0.08575718 0.06226523 -0.023182588
-0.039354984 0.093490645 0.024135478
0.20986165 -0.20033108 -0.16497439
-0.009380644 0.080057435 -0.025895156
0.117020965 -0.14296421 0.09406152
-0.24890584 -0.08967447 -0.16664669
-0.12270348 0.14660558 0.11749724
0.10805961 -0.012535541 0.16904445
0.10725799 0.0034961763 0.01605407
0.062017016 -0.067505054 0.2005301
0.066480845 0.17428155 -0.19841948
-0.18995196 -0.01792377 -0.096765384
0.16900995 -0.20947956 -0.15846953
0.013574624 -0.14978161 0.15282378
-0.30014864 -0.029093197 -0.015370218
0.0071101976 0.017428366 0.061655294
0.12802808 0.21993148 -0.1625997
-0.22845653 -0.016297763 -0.01573339
-0.16521837 0.1504628 0.13154817
0.1196054 -0.18640779 -0.041634466
-0.044397295 0.15901466 0.036126073
0.1734946 0.0031796708 0.044257015
0.20552832 -0.07130017 -0.010224457
-0.025516847 0.24997877 0.071688995
0.10414996 -0.16178232 0.09278672
-0.19539021 -0.072264455 -0.1050831
0.026886797 0.14838487 -0.15174015
-0.013473857 0.065246604 -0.008727438
0.18303251 -0.14449456 -0.11306742
0.019575987 0.020868711 0.026968993
0.06838339 0.0671976 0.017673902
-0.2544877 -0.090923674 -0.09695142
0.15147293 -0.042428024 0.18689801
0.030539254 0.20132779 -0.048143595
0.0842404 -0.0028169465 0.003064836
0.12708096 0.025936982 0.08868182
-0.015633255 -0.15641072 0.19043536
-0.041568853 0.06083465 0.0018216573
-0.15115656 0.10665037 0.057388034
-0.027631633 0.06070895 -0.017890727
-0.08900683 -0.06493971 0.036521573
0.05879779 -0.28045866 -0.075377904
0.22566868 -0.06139784 0.028134596
0.034838066 -0.22009355 0.07487686
0.09178383 -0.09393813 0.2086717
-0.1955737 -0.12154733 -0.2535434
-0.105332874 -0.058253847 -0.12833351
-0.19232905 0.10555375 0.10201458
0.18038845 -0.07637608 0.030991687
0.061557412 0.26985696 -0.038661093
0.06116727 -0.02196337 0.11763736
0.07792876 0.16887504 -0.28990212
0.24357256 -0.08805195 -0.025481515
-0.0060790316 -0.18281846 0.11695019
0.13672937 -0.1966102 -0.071237184
0.08054741 0.25057948 -0.15266874
0.22771849 0.019742064 0.12287523
-0.29325166 0.0026826067 0.03781986
0.07977509 0.20197943 -0.109646276
0.08497266 -0.16181214 0.07483648
0.10916508 -0.073205106 0.14866015
0.02030879 -0.18909849 0.10125588
0.13744245 -0.04809825 0.14599977
-0.030739505 0.058201168 -0.02954333
-0.1688101 -0.08222867 -0.14202365
-0.06205351 0.23999664 0.078216866
0.05193997 0.23297106 -0.07747778
0.04303267 0.21452084 -0.058337998
-0.09615187 0.22792976 0.11483895
0.06251399 0.0017537778 0.034812137
0.24631363 -0.1184997 -0.12738724
-0.14879769 0.09892729 0.04718059
-0.06386387 -0.003853803 0.016755437
0.07928438 0.093904525 -0.09994339
0.118815824 -0.19155076 -0.07036374
0.0065781884 -0.1878071 0.12772548
-0.037838377 0.05247421 0.0724056
-0.17152117 0.16068392 0.12188926
0.04392886 -0.23022622 0.041470986
0.1350742 0.21423195 -0.21477267
0.08392245 0.21739276 -0.13873444
0.2238141 0.022764789 0.07648216
0.033508066 -0.00846017 0.072690815
-0.1707213 -0.0066202087 -0.037739206
0.013193378 0.1293717 0.0067372904
-0.033902016 0.18238899 0.0014100333
0.014537282 0.19940667 -0.16236034
0.08121983 -0.092860475 0.17429845
0.00429152 -0.2978983 -0.06949331
0.065171964 0.016130222 0.045438755
0.0422353 -0.1475469 0.18841195
0.20999809 -0.18142985 -0.18135168
-0.18553397 -0.09485047 -0.23553751
-0.15829158 -0.07932973 -0.23413633
-0.24146146 -0.018627262 -0.0060644606
0.021952994 0.033543915 0.027711762
-0.052160542 0.10734763 0.0015208558
-0.070628695 0.14999512 0.024348749
-0.2636846 -0.039651375 0.0053823753
0.16066748 -0.20019732 -0.07637357
-0.05945475 0.035666034 0.024824547
0.1330167 0.047345273 -0.097789556
0.061198425 0.2716847 -0.0468756
-0.0014278614 -0.19249873 0.1473914
0.080790006 0.18132977 -0.1828295
-0.1614484 -0.09443987 -0.2702218
0.017595215 -0.2635472 0.0039303363
-0.096620664 -0.09825376 -0.34882534
0.09702737 0.015214049 0.096277766
-0.06905966 0.15889311 -0.017766783
0.18553989 -0.0029164958 -0.023555586
-0.18564181 0.039171513 0.003849106
0.018395983 -0.19132574 0.10001573
-0.2728797 -0.071516074 -0.026198477
-0.036051523 -0.039212845 0.07030695
-0.25679603 -0.054354884 -0.09725704
0.14682966 -0.13161886 -0.02746916
-0.10410049 0.04361279 0.02553398
-0.020458812 -0.13154766 0.05474136
0.0946531 0.27489603 -0.10843652
-0.23768453 -0.016057147 -0.03482153
0.15942968 -0.0016423606 0.079798065
-0.07548234 0.17904565 0.04001946
0.12703905 0.21635392 -0.21474962
0.20636539 -0.10712842 -0.038526744
0.06597858 0.25506574 -0.029207438
-0.11211364 0.006478663 -0.002721791
-0.16892862 0.14122157 0.15023696
0.06849002 0.104265876 -0.114612065
-0.0976554 0.15558665 0.0033403276
0.24502341 -0.034948025 0.011958316
0.11632363 -0.048282195 0.17882209
-0.17987154 0.15641996 0.1217297
-0.17580014 0.068246156 0.0056975614
-0.008596659 0.056391697 0.02157246
0.039624132 -0.039233383 0.03142104
-0.22987384 -0.08867834 -0.057250585
0.15990509 0.034860484 -0.11218112
0.14226483 -0.090934984 0.11119844
0.043174714 0.2199981 -0.048164118
-0.1924764 0.05621808 0.038006302
0.04835429 -0.2340158 -0.0028903487
-0.11669531 0.045618962 -0.009189804
0.042373743 -0.12730715 0.1809028
0.042625267 -0.19553077 0.09883169
0.08679147 0.054646533 -0.05402506
-0.17353053 0.15787745 0.0911435
-0.15203907 0.038677927 -0.02092179
0.102931105 -0.14537908 0.034818064
0.011942449 0.17957415 0.0064271474
0.17881277 -0.120500796 -0.077857584
-0.06376735 0.1988187 0.085907206
-0.15105896 -0.048623428 -0.11897917
0.07403968 -0.15113947 0.12978001
-0.22352245 0.026569027 0.030418167
0.08818588 0.1740366 -0.17697486
-0.1988614 0.019659476 0.009475358
0.0611643 -0.11524106 0.13896091
0.17873378 -0.11300581 -0.04595498
-0.21441746 0.005838731 0.002999487
0.059683286 -0.11117286 0.15291888
-0.0028293063 -0.113361664 0.16985175
0.024011975 0.15857117 -0.08534384
0.0022830865 0.0264376 -0.009834459
0.23983864 -0.10439588 -0.12285644
0.07581452 -0.13051149 0.15186547
0.10099215 0.20521548 -0.11777956
-0.02482083 0.20420165 -0.008637356
-0.15319283 -0.0389326 -0.08397903
0.15117902 -0.037180003 0.10974651
0.13221674 -0.019424634 0.15223667
-0.23429495 0.03514687 0.08361506
0.05496417 -0.12756969 0.16812383
-0.11691246 0.21430065 0.1286955
-0.07083257 0.19278726 0.06903377
0.10387113 0.08423368 -0.057530344
-0.04276407 -0.032405548 -0.31411088
-0.07396072 0.17959917 0.06609307
-0.288756 0.00091014017 0.052766006
0.015043288 -0.17758793 0.15381478
-0.004607745 -0.29013145 -0.024519654
0.10175316 -0.2353005 -0.061929666
0.049557846 -0.2807468 -0.09596379
-0.0369257 -0.16234605 0.05201776
0.07267729 -0.2449392 -0.04943386
0.2983893 -0.05892535 -0.035050318
-0.18979564 -3.9908396e-06 -0.04470261
0.018063394 0.28877816 0.006075956
0.2014107 0.038297053 0.004035944
0.07300163 0.010279765 0.009505021
-0.14874656 -0.07773728 -0.27527094
-0.040070336 -0.065468304 -0.2371885
0.12500432 0.21946539 -0.19728418
0.0987631 0.2752439 -0.07232975
-0.08371072 0.1033931 0.020444302
-0.3030259 -0.053349663 -0.11244484
0.020102927 0.16969092 -0.07033024
-0.15343116 0.026885917 0.005012792
0.06262987 0.09320061 0.004285917
0.19043438 -0.040367994 0.1379709
0.10504053 0.19433813 -0.19549437
0.07353008 -0.0219736 0.120473646
0.03326335 -0.15349534 0.14558372
-0.22488262 0.02881958 0.02996074
-0.06148881 -0.011147768 0.022454767
0.09843561 0.26998824 -0.1298179
0.0499871 -0.16677 0.15940858
-0.041517094 0.13347007 0.04516366
-0.16043514 -0.080256626 -0.15955326
0.1872389 -0.1842906 -0.075356446
0.0994572 -0.24371447 -0.13612397
0.2701255 -0.044894 -0.051094532
-0.28540474 -0.07812831 -0.055375043
-0.111260355 0.10354856 0.035041016
0.065704666 -0.11389034 0.20694833
0.12010003 -0.018251028 0.1328115
0.19217663 -0.0038552862 0.1264854
0.07555055 0.06735643 0.014094964
-0.005274611 0.032044355 0.05587081
0.033012293 -0.2507258 0.05565328
0.057798896 0.10771398 -0.17841397
-0.0003596864 -0.010093201 0.07016407
-0.08365122 -0.09295565 -0.027867757
-0.26177615 -0.019609304 -0.00019271312
0.17878284 -0.014249082 0.05116702
-0.02282698 -0.1292277 0.08964169
0.01875693 -0.034758884 0.06544422
0.070094556 0.09935618 -0.1417707
-0.17879748 0.10877457 0.083968855
0.103095554 0.1066537 -0.08857505
-0.14183946 -0.05961998 -0.03570152
0.0800516 0.27595705 -0.09013779
-0.12907952 -0.03226495 -0.0900967
0.009178483 -0.040436704 0.067872696
0.2878103 -0.06674552 -0.07381994
0.046832345 -0.18089533 0.091129534
0.28155878 -0.10876767 -0.11731965
0.0007133692 0.058361553 0.07231978
-0.249047 0.050535504 0.071475655
-0.13663295 -0.07805169 -0.16141365
0.18903463 -0.15728956 -0.11272185
0.037725974 0.13485648 -0.05792244
-0.006858547 -0.031642858 0.06835569
0.16997002 -0.0054785684 0.130467
0.030308763 -0.19329233 0.07900416
0.10603935 -0.10620796 -0.035260137
-0.23088618 -0.07664797 -0.08390665
0.0009493212 0.12542154 -0.0039822394
0.15074115 -0.16427518 -0.07817882
0.00421081 -0.14704461 0.19842982
0.046111967 0.1130134 -0.3397322
-0.023568733 -0.1272904 0.03856406
-0.023161344 -0.18023138 0.1483999
-0.14672141 0.071546465 0.03209562
0.1120166 -0.021965424 0.12818246
-0.1358743 -0.073454335 -0.034253556
0.0875292 0.14195085 -0.07388404
-0.12351678 -0.039365467 -0.24758428
0.048527375 -0.24025753 -0.0029123493
-0.044697262 0.12907147 0.02102318
-0.14489476 0.12695467 0.0351859
-0.19337979 -0.022746863 -0.095890306
0.113639995 0.02347527 0.0876451
-0.23380522 -0.052435342 -0.07513527
0.13137734 -0.118177995 0.12008838
0.09327121 0.029532766 0.029314332
-0.12767707 -0.08888314 -0.16013803
0.05560705 0.08166711 -0.00037588633
-0.05531753 0.06804616 -0.0303751
-0.038003318 -0.15778182 -0.015063018
-0.05071289 0.07995748 0.028168745
-0.048812065 -0.14942843 0.016845657
-0.24155194 -0.0029654645 -0.038736567
-0.007066468 -0.17167036 0.16711988
-0.29510993 -0.09821636 -0.05035688
0.007265228 -0.014034218 0.07479117
0.20912613 -0.13899443 -0.118999444
-0.1719092 0.012710204 -0.05887128
0.025036298 0.161887 -0.052382037
0.054308932 0.07563144 0.03755036
0.12783815 0.069471635 -0.029786678
-0.105396405 -0.023967477 0.023929339
-0.034816697 0.01734171 -0.01791381
-0.094350904 -0.08663466 -0.30009523
-0.01671609 -0.18156955 0.10777354
0.21172212 0.009534634 0.12016077
-2.3572295e-05 0.07494385 0.005350473
-0.2200996 0.033126164 0.058860254
-0.25849563 -0.124360956 -0.11912046
0.23021118 -0.008966589 0.060287464
0.20159136 -0.05364855 0.07950403
-0.059030045 0.030200837 0.02446055
0.15508865 -0.0035080197 0.091927595
-0.13038872 -0.07760766 -0.13031231
0.27973613 -0.022498233 -0.057918258
0.065250225 0.18149872 -0.21460284
-0.07113506 0.23829004 0.08578759
0.020804739 -0.18062702 0.15244293
-0.09976293 0.17579865 0.039950736
-0.043113876 -0.11691676 0.056723762
0.036831584 0.26153657 0.012036065
0.09080276 0.20014882 -0.12382096
0.12118513 -0.105396084 0.10961169
-0.00037862067 0.048612807 0.011697598
0.23247147 -0.006067445 0.10468173
-0.20456694 -0.011935249 -0.04354224
0.0048431517 -0.102608785 0.09173364
-0.10608029 0.07717554 0.028273461
-0.17200279 -0.036915157 -0.11309556
0.07530745 -0.13501845 0.17844266
0.016895466 -0.20189987 0.078286946
-0.08680011 0.08869395 -0.0047929725
-0.17380679 -0.05302128 -0.171715
-0.1232537 0.113132834 0.06340371
0.07325699 0.047313143 0.032746933
0.040256254 0.26257342 -0.0017669799
-0.13721155 0.20869334 0.10130509
-0.25991607 0.055506155 0.08656625
-0.0062121167 -0.002646004 0.016970022
-0.115263425 -0.044061538 -0.25552344
0.19889288 -0.06146694 -0.013723888
0.08953203 -0.23089659 -0.06419828
0.07242855 0.031212632 0.07248356
0.034961957 0.0032603657 0.06994319
0.084339276 -0.114066616 0.13406456
0.14575404 -0.0003535879 0.16034229
-0.28302506 -0.12761556 -0.17003253
-0.026487602 -0.008136129 0.01970548
-0.23059665 -0.10659 -0.23817813
-0.27836162 -0.09108584 -0.06477496
-0.1569684 0.10803263 0.052674685
-0.08186462 0.22404288 0.1036297
-0.27544636 -0.013615175 0.0046718596
0.1285822 -0.1836541 -0.06271495
0.1341911 -0.034081563 0.16297683
0.17766938 -0.12303803 0.028939959
0.09462601 -0.23784663 -0.08561469
-0.1460354 0.15056412 0.11900873
-0.02333991 0.034499012 -0.022144007
-0.007836546 0.025513235 0.0678326
0.2978956 -0.017283445 -0.025532022
-0.03558784 -5.490761e-05 0.020302955
0.079243094 0.287202 -0.009238316
0.068666674 -0.10114439 0.18824422
0.06771066 -0.06453571 0.11737702
-0.09515086 0.076965205 -0.082720004
0.084205195 -0.2119664 -0.057220344
0.091458715 0.20444304 -0.18732473
-0.13878718 0.14904997 0.12780106
-0.119224936 -0.030774452 -0.0045263483
-0.12222677 0.1497683 0.1279283
-0.222634 0.015553178 0.028724335
0.10822398 0.27121994 -0.04237192
0.15882225 -0.15511349 -0.13024344
0.24323237 -0.050187845 0.04822146
-0.121761285 0.14009036 0.039478865
0.003436206 -0.15446742 0.03627597
0.2507583 -0.0023912524 0.10764615
-0.12845649 0.12952606 0.08602842
-0.06005245 0.28340715 0.074871354
-0.09109406 0.07647931 0.02774772
0.025854604 0.16545519 -0.04434206
0.009308141 -0.18165341 0.14025997
-0.1702755 0.13183984 0.054221492
0.077014536 0.08834744 -0.04237128
0.07093103 -0.065607235 0.17065471
0.03801486 -0.084724486 0.105266966
0.18823512 0.019370226 -0.057574302
0.07505787 0.0573374 0.0067432495
0.061939724 0.2319391 -0.12452852
0.03932113 0.15481772 -0.08865943
0.048950713 -0.12830615 0.18508297
-0.1564328 0.007967114 -0.0057986616
0.07295418 0.029999487 0.058152806
-0.1058374 0.032363296 -0.17800559
-0.03685829 -0.23085837 0.09049535
0.21707289 -0.00926249 0.047854304
-0.02094998 -0.12337973 0.096457206
0.2672202 -0.023119198 0.03432555
-0.07869129 -0.07197666 0.030903881
0.15114258 -0.014611278 0.08963924
0.089858785 0.16420157 -0.21529792
-0.022130614 0.1855103 0.022754125
-0.13427281 -0.07870542 -0.042650197
-0.09117609 0.16263431 -0.006802839
0.2777508 -0.044262752 -0.047357168
-0.045354553 -0.051481448 -0.34786728
0.034703165 0.1979442 -0.057320584
-0.2523239 -0.1121034 -0.16243657
0.21710198 -0.021754555 0.022717277
0.026598897 -0.22830148 -0.019596398
0.049321134 0.052822046 0.04308338
0.083525 -0.24430194 -0.13755274
0.013711757 0.26606867 0.046184257
-0.053827647 0.07235758 0.043750595
0.13722487 0.022143945 0.04416992
-0.08306792 0.015257016 0.013998138
-0.27439702 -0.05563616 -0.014376642
0.09277899 0.07360351 -0.058414828
-0.18902422 -0.09250797 -0.24046937
-0.12654698 0.07887784 0.018799482
0.19167267 -0.120452255 -0.04171376
-0.10861896 -0.042357907 0.020194547
-0.2857157 0.01328848 0.04888165
0.061909888 0.28507474 -0.028707558
-0.018721104 0.109281406 0.01716461
-0.28211048 -0.03998064 -0.060178354
-0.020825708 -0.021553747 0.056459386
0.068246335 0.14450487 -0.16691747
0.24922508 -0.060344763 0.019862752
-0.099597335 0.0122310305 0.02660911
0.17859131 -0.047015525 0.01589308
0.0044552516 0.22611333 -0.035648614
0.02176571 -0.1301047 0.100527994
-0.17302337 -0.008789605 -0.016370086
-0.050091986 0.029327102 -0.30456725
-0.14913465 -0.07241015 -0.14987771
-0.1727746 -0.06770981 -0.18116097
-0.26037154 -0.049350396 -0.051163927
-0.029411573 0.20092362 0.090335354
-0.14759044 0.11427484 0.025441926
-0.03514283 0.23258962 0.06755458
0.20103401 -0.0010326203 0.12804192
-0.26263514 -0.053891383 -0.025442356
-0.011590499 -0.27271587 0.0024550383
-0.12294366 0.11992762 0.05506248
-0.13056272 -0.053676076 -0.12631688
-0.16045848 0.120926075 0.10665367
-0.05128645 -0.24685405 0.09250511
0.12363066 0.08275155 -0.08597816
0.07136157 0.19354537 -0.1702846
0.15883726 -0.018278213 0.09246713
0.053788617 0.015171693 0.044901684
-0.08931166 -0.002850882 0.012062563
0.07718899 -0.12811053 0.1513807
-0.13188201 0.13378718 0.039785363
-0.06776845 0.008955577 -0.012758785
0.07314032 -0.14228381 0.15206225
-0.25992474 -0.010751549 0.022403248
-0.0961812 0.042890485 0.013473161
0.046669852 -0.08789649 0.1979418
0.07675988 0.05647962 0.028980799
0.009216721 -0.1272167 0.08363529
0.07404571 0.055157267 -0.04928442
0.19302532 0.0290902 0.14914273
-0.016926412 -0.09607353 0.054905217
0.010571617 -0.17867923 0.06085404
-0.097838454 0.0013778853 -0.27397275
-0.24085893 -0.15103841 -0.2240011
-0.097859256 -0.044045363 0.024191573
-9.552862e-05 0.25751165 0.07893506
-0.027610378 0.14298166 0.009606371
0.0016683142 0.23965727 0.027039
0.055607695 -0.2085353 0.05557648
0.021154584 -0.17410816 0.09356494
-0.13844918 0.1680789 0.12858073
0.04579429 -0.26065025 -0.035154924
0.028709386 0.25181404 0.027718844
-0.0057027014 0.2253897 -0.002037377
-0.22932275 -0.031694707 -0.12075681
0.11414602 0.21909525 -0.17398468
-0.080327325 0.24266045 0.06217828
0.04880011 -0.016194135 0.060196158
0.06882847 -0.24589483 -0.11611441
0.00084411394 0.18723315 -0.009572756
0.17567156 -0.10613938 -0.020070104
0.28504306 -0.040567543 -0.066784896
-0.019337455 -0.25414443 -0.0055162837
0.14896356 0.015985174 -0.032462995
0.19680539 0.0028702642 0.09759738
0.12210026 -0.024728723 0.042693075
-0.11905757 -0.051518332 0.021067454
0.06662761 -0.075853206 0.06391282
-0.010410982 -0.088156514 0.04818731
-0.275799 -0.043445315 -0.013230996
-0.116038345 -0.06650876 -0.3349598
0.065411635 0.046436895 -0.350084
0.050242867 -0.27285767 -0.049325567
-0.07432255 0.082125604 0.005815411
0.13430592 0.24318893 -0.17680413
0.048925463 -0.18156153 0.113723576
0.034787048 0.07113771 -0.015711214
-0.19402786 0.1727933 0.12417775
-0.16465127 -0.030050179 -0.052602418
-0.13785324 -0.04741621 -0.08917779
-0.29763964 -0.008903979 0.005698492
-0.26572454 -0.09917607 -0.13821046
-0.048091274 0.005764478 0.036399953
0.27046528 -0.007527846 0.04848346
-0.06367775 0.19859257 0.0827015
0.011408963 -0.19991222 0.15314664
-0.1787826 0.12604547 0.09337859
-0.025176497 -0.1474587 0.060579322
0.24194205 -0.16629429 -0.15317816
0.231733 -0.080185875 -0.017196637
0.16125244 -0.23204319 -0.15089282
-0.026619665 0.11464749 0.02370996
-0.10603785 -0.034111418 0.006290507
-0.020131659 -0.26572222 0.06925171
0.032233376 0.18438405 -0.16140488
0.013501 0.14185205 -0.01563749
-0.2335205 0.10030927 0.08349426
0.07925896 0.076750055 -0.04674004
0.08283725 0.17487805 -0.19061653
0.09863034 -0.20790267 -0.030184444
-0.012285252 -0.2187154 0.07002429
0.12308769 -0.107388034 0.10849084
-0.058400147 -0.044718035 0.04582616
-0.08309558 0.045005128 -0.009697657
0.26742893 -0.096776724 -0.08378557
0.17894556 -0.12473091 -0.053230062
0.17992854 -0.04010662 0.09827872
0.03711805 -0.028402243 0.059779182
-0.095354155 -0.037554063 -0.0072821123
0.07041574 0.05892791 -0.30420023
-0.15587926 -0.103459395 -0.2453883
0.16466983 -0.07275017 0.026911544
-0.1834642 -0.06775904 -0.14612706
0.119788386 -0.009700246 0.123376384
-0.14750841 0.024717702 0.013302813
-0.0578579 -0.06536966 0.04635075
0.04955092 0.22392908 -0.07132899
0.10433178 -0.016319415 0.18218514
-0.08513743 0.2245711 0.057591982
0.0714134 -0.043288875 0.17559405
0.06140881 0.10068732 -0.0027269172
0.17580502 -0.03841732 0.109140836
-0.023243442 0.121809416 0.035050046
0.036561366 -0.056112673 0.11965332
0.035460338 -0.0474038 0.029807154
-0.23179926 -0.10654436 -0.16628312
0.23467384 0.032517605 0.052873228
-0.1330334 0.001792892 0.015440124
-0.07822604 0.21022664 0.09990796
-0.12763181 0.19456214 0.11141087
0.05167668 -0.26480582 0.013175954
-0.0003649882 -0.26757443 -0.006688664
0.25542375 -0.07180512 -0.0430452
-0.04758623 -0.18301785 0.13126281
0.037199773 -0.17687103 0.12160102
0.012821637 -0.26729244 0.00971106
0.19476388 -0.067038134 0.036966536
0.1015535 0.2731289 -0.08977966
-0.2556141 0.038051423 0.08772887
0.079088636 -0.14140944 0.1051557
-0.118986316 -0.026901094 -0.033903908
0.022739867 -0.085820265 0.08442429
-0.12223203 0.022246487 0.004287513
0.09001663 0.14233129 -0.22323772
0.2877976 -0.00026038088 0.05097636
0.2255306 -0.05579691 0.026958458
-0.014470709 0.16139579 -0.025322426
0.07058995 -0.0738302 0.17722061
0.07609243 0.27151492 -0.03943057
0.15356806 -0.07255956 0.09248787
