# .PCD v0.7 - Point Cloud Data file format
VERSION 0.7
FIELDS x y z
SIZE 4 4 4
TYPE F F F
COUNT 1 1 1
WIDTH 1000
HEIGHT 1
VIEWPOINT 0 0 0 1 0 0 0
POINTS 1000
DATA ascii
-0.040938187 -0.1646922 0.15998621
0.2825762 -0.013350125 -0.013254277
0.15208562 0.0963832 -0.10661557
0.09827676 0.11876153 -0.020486876
0.06914727 0.26674265 -0.09144021
0.16188447 -0.06538335 0.17917857
-0.16713186 -0.24138659 -0.031167356
-0.07112864 0.18821423 -0.09942712
-0.20094322 0.1166741 0.10599449
-0.082876764 0.12151228 0.056956675
0.116283484 0.14716119 -0.055819847
-0.034098554 -0.059670184 0.011862988
-0.008287571 -0.15092345 0.17018597
-0.05205769 -0.18872295 0.1690199
0.013868856 -0.1886105 0.018135501
-0.018289361 0.13858674 0.07472629
-0.15686548 0.092315994 0.03812136
0.1446301 -0.08523009 -0.044166956
0.004719253 0.21879868 0.032853242
-0.015669962 0.07107608 0.031593118
0.004248201 0.17997192 0.03901974
0.055117365 -0.14350657 0.19334987
0.044755653 -0.16131403 0.17933597
0.03955532 0.16296971 -0.0061299894
0.05783169 -0.12226788 -0.09901733
-0.108011946 0.18715197 0.13875942
-0.010789899 -0.19204406 -0.21572891
0.05182648 0.22625238 -0.025273558
0.0068495846 0.22673048 0.026831344
0.17888667 -0.07679688 0.085574225
0.029805435 -0.15580279 -0.25140285
-0.16808033 -0.2572463 -0.13518354
-0.17484088 0.14184007 -0.014697929
0.10622156 -0.12523833 -0.28522366
0.08686276 0.25181112 -0.030992024
-0.07683358 -0.24472113 -0.049223386
-0.0831695 0.20749126 0.14090219
0.0062916093 0.19278504 0.022939933
0.042831838 -0.1488218 0.14649847
-0.012069265 0.22772814 0.043859527
0.12892075 -0.10937764 -0.15896153
-0.0106317 0.031320997 0.036075808
0.19592024 -0.071620114 -0.04172435
0.2207858 -0.031709 0.13254154
-0.11112607 0.18715549 0.111028984
0.11266325 0.12543781 -0.064307936
-0.1350033 -0.008524506 0.00490668
-0.28090206 0.096011914 -0.091581814
-0.049796574 -0.09535816 0.05640375
-0.16245347 0.1456459 0.12154945
0.21976799 -0.04797562 -0.2761659
-0.112122014 -0.2625576 -0.11716099
-0.011772456 -0.07545723 0.07538215
0.14975084 -0.09039847 -0.14717947
0.03588113 -0.0050927694 0.057250854
-0.24308328 0.09142321 -0.1562788
-0.09504599 0.12514971 0.087394916
-0.1071488 0.17003237 0.058168676
-0.11792847 0.18786295 0.11539009
-0.08367683 -0.14776513 -0.19189142
0.13849317 -0.031418715 0.054875445
-0.070249796 0.19177134 -0.27452397
0.22316535 -0.05784039 -0.073685706
-0.13549477 0.19110824 0.0040386957
0.14674893 -0.072843306 -0.19249414
-0.15875097 0.035476048 -0.012531709
0.024966884 -0.1667157 -0.3291431
-0.12332365 0.0581083 -0.004681251
-0.10072917 -0.1196998 -0.012100961
0.05145049 0.055524025 0.06357094
0.22022536 0.0037003735 0.08709615
0.048751894 -0.14826833 0.023414157
0.0025827647 0.15019634 0.049191363
0.07122625 -0.08132156 0.16424891
0.007596523 0.19990808 0.086394124
0.10650756 0.06634297 0.0060052495
-0.18393679 -0.2525874 -0.116425686
0.12858422 -0.092685156 0.03567254
0.08410988 0.26349512 0.008915158
-0.016440906 -0.13997361 0.20295501
-0.13613881 -0.09421598 -0.044798106
-0.036856215 -0.19348362 0.16970758
0.11666085 -0.100213945 0.22367907
-0.0271039 -0.059433155 0.023401031
-0.17256416 0.13502386 0.13675004
-0.02853775 0.09147961 0.04184187
-0.0026271818 -0.036952693 0.0008163715
-0.2221294 0.04210713 -0.03408791
0.0047730585 0.12860088 0.060177986
0.2729272 -0.017889265 -0.16200574
-0.053814583 0.113840945 0.009962927
-0.038270246 0.22048378 -0.23754717
0.07473505 -0.14259997 -0.24838553
-0.12250854 0.04794612 0.0029923073
0.15366946 -0.04935192 0.022074347
-0.03758006 -0.07242635 0.013534264
-0.07977129 0.21474984 -0.12378187
-0.0975927 0.13066913 0.0685115
0.07255172 -0.119976565 -0.23138915
0.12800272 -0.017593319 0.039820448
-0.18266708 0.046831656 0.0037220155
0.29495296 0.027655102 0.03987241
-0.14809568 0.14482899 -0.030970005
0.12311864 -0.02861152 0.051553458
-0.04955724 0.22221772 -0.19885865
0.08735235 -0.14124322 -0.22478965
0.017415546 0.04423801 0.027546102
-0.12996054 0.16827396 0.051850714
-0.08231363 -0.18525167 -0.049300525
-0.016741395 -0.069988474 -0.01015811
0.029043693 -0.17015032 -0.24072696
0.07144106 -0.02917793 0.06364142
0.03108867 -0.13355744 0.19284496
0.056143116 -0.11205008 0.18744609
0.02997635 0.062426034 0.041168857
-0.10008135 0.033772722 0.0061537838
-0.14996731 0.18488832 0.09790634
0.091905124 -0.13804764 -0.2544782
-0.05941886 0.21266457 0.11666303
0.0033588398 0.25901377 0.02083083
-0.033648696 0.044427622 0.030622592
-0.10087121 -0.18391982 -0.027357409
-0.054718267 -0.18427028 0.19434851
0.098708116 -0.07104196 0.17628847
-0.10871526 0.09996714 0.042244855
-0.24542327 0.051770482 -0.093890965
-0.015835535 -0.19998743 0.08871583
-0.09325746 -0.25285786 -0.21894024
0.088427804 0.16242197 -0.06650967
-0.039038528 -0.18509276 -0.12180213
0.30800092 -0.00041220099 -0.1409053
0.081082255 -0.14429131 -0.2179534
-0.07801831 0.15375058 0.09443339
-0.051390674 -0.005423214 0.024513884
-0.046387095 -0.036986258 0.06104095
0.25824237 -0.011457084 -0.2533246
-0.0539837 -0.08164752 0.060011294
-0.14985414 -0.24290392 -0.08753637
0.12553185 -0.09907281 0.07839508
0.017425755 -0.14980644 0.16256592
0.19027585 -0.0583959 -0.021097323
0.29532874 -0.023118172 -0.17709664
-0.07359535 0.058453724 -0.016754854
-0.1829611 0.029249176 -0.0020937244
0.04475986 -0.11464657 0.060647484
-0.07063102 0.20552337 0.14906369
0.10461694 -0.0851737 -0.03381696
0.025712367 -0.16232379 -0.058260288
-0.013544907 -0.17684351 -0.31195712
-0.038297396 -0.1426563 0.08446322
0.08714026 0.018631652 0.056048874
0.012801807 -0.12129814 0.08137657
0.1467823 -0.03089323 0.024856763
-0.16287427 0.15230519 -0.22929917
0.09605967 -0.08652743 0.19900389
-0.08481351 0.10765029 0.054591037
-0.09927548 0.15342188 0.08163615
-0.010773806 0.014413727 0.040578853
-0.23126897 0.12767391 -0.008314937
0.27465004 0.016964244 0.03289102
0.01934327 -0.14723532 -0.16453113
0.17819512 0.041894972 -0.092590034
-0.026325462 -0.024899926 0.06266395
-0.18327999 0.063638456 0.07236449
0.02901464 0.2535729 -0.07043382
0.0922861 -0.0065724393 0.07019986
0.12709013 -0.08261391 0.13073681
0.06106938 0.16335592 -0.014191
0.18201502 -0.054210678 -0.21737848
0.04905794 0.25673842 -0.16873066
-0.058413055 0.036071923 0.06176039
0.061743278 0.1021424 -0.027581194
-0.09252177 -0.16389216 -0.046403896
-0.09077631 -0.045966532 0.023042403
-0.010118834 0.08700442 -0.00854276
-0.03626325 -0.17933929 -0.31502786
0.07180826 -0.1251043 -0.26163894
0.016847678 0.13982773 -0.026862005
-0.010068881 0.07427195 0.06005326
-0.032897744 -0.16244358 0.059575252
-0.00054676563 0.169788 0.03326977
0.037173063 -0.13482645 0.16810468
-0.19690228 0.16549581 -0.063005395
-0.1566794 0.106976666 0.05340374
-0.10349452 -0.24786517 -0.0003556387
-0.0340462 0.02512055 0.049275346
0.010153137 -0.18228109 0.20223305
0.24586777 -0.030023241 -0.07728933
-0.07050134 -0.15052566 0.07328569
-0.046577945 0.18195647 0.06005504
-0.13376813 -0.01029716 -0.011682795
0.2814749 0.041942004 -0.095308974
0.07736245 -0.13973609 -0.21815518
0.083554335 0.1746308 -0.053939853
-0.058157757 0.028116828 -0.0032336407
0.13310069 -0.07525687 0.1965029
-0.103747725 0.06862249 0.026019309
0.1404624 -0.088863164 -0.041103613
0.041188758 0.25543487 -0.13247547
-0.26231053 0.07356904 -0.15618904
0.05477688 0.08395055 -0.027468758
-0.011357294 -0.008944412 0.046118606
0.12669934 -0.11762784 -0.3046468
-0.21011588 0.09737557 0.06649679
-0.07815934 -0.1882618 0.08004182
0.26984617 -0.038762495 -0.14841093
0.20732796 -0.05208615 0.10524824
0.08576139 -0.13102326 0.2033966
0.033542417 -0.13022177 -0.21941191
-0.2194573 0.10626931 0.039077263
-0.21375374 0.07548828 0.07619042
-0.06214405 0.11870829 0.06893858
-0.0015550047 0.059282735 0.026933273
0.02027931 0.09430472 0.023456078
0.018230904 0.23087649 0.07482571
-0.23632863 0.09851846 -0.22384752
0.123287246 -0.09792268 0.19404113
-0.18476433 -0.23955429 -0.07896763
-0.03314507 0.017232016 0.060533877
-0.056241564 -0.19146803 0.088356815
0.07202689 -0.028355392 0.013287667
0.0725902 -0.10680772 -0.19805087
-0.21767671 0.12410281 -0.19538371
0.25843728 -0.038414642 -0.20607631
0.16814037 -0.0778071 0.013127187
-0.030824602 -0.05167087 -0.0052022813
-0.1912287 0.11746329 0.10801881
0.03242957 -0.050736893 0.083373725
0.1619412 -0.102263026 -0.014666976
-0.20156303 0.15139665 -0.13755868
-0.055018265 0.20438609 0.122823805
-0.06684611 0.051977545 0.040203895
0.1386558 -0.10960749 0.17765813
0.20349681 -0.07580433 0.0911226
-0.09498042 0.0713645 5.0273975e-05
-0.070380315 0.21286263 0.06647456
0.20426606 -0.0017910778 -0.040522844
-0.0902747 -0.080307335 -0.01255775
-0.27796224 0.046387438 -0.06992594
-0.022659954 0.16804725 0.07345245
-0.11384988 -0.2209543 -0.06810803
0.03775885 0.28883976 -0.12592256
-0.08656684 -0.23800285 -0.14289902
-0.011569864 0.18112332 0.0803646
-0.050565675 -0.16774385 0.06645323
0.11837709 -0.04637549 0.077254675
0.049317107 -0.113796294 -0.2568571
0.102576785 0.051646966 -0.027036767
0.093985654 -0.10951027 0.17789327
-0.04850352 0.13532612 0.06648348
-0.15966183 0.042653713 0.0048304903
-0.109789096 -0.24804519 -0.13016696
-0.0871351 -0.095426805 -0.051502377
-0.04885158 0.13577916 0.010631829
-0.22999008 0.101454146 -0.16729268
-0.013354378 0.026796082 0.06924749
0.039577674 -0.064285934 0.045610104
0.06573424 0.29839563 -0.11428435
-0.027311234 -0.18565524 -0.12295506
0.22878703 -0.042906538 -0.31137392
0.23630507 -0.0487846 0.16801934
-0.13765459 -0.06216074 -0.043897435
-0.032119367 -0.1869145 0.107120305
-0.0034194323 -0.16444929 0.13578376
0.16773565 -0.08681454 -0.04947675
-0.1867625 0.11979355 0.010925332
-0.112032816 -0.047313258 -0.03592825
0.27819142 -0.0044193193 -0.13848448
0.17341343 -0.060385566 -0.18901905
0.13186581 -0.09938113 0.19913475
-0.1274376 -0.20912053 -0.16158669
-0.14792675 0.03240382 -0.0013935643
0.03431515 -0.1726202 -0.36319938
0.12668152 -0.10989106 0.16375189
-0.15508051 0.11477126 0.1306096
0.32049182 0.013292794 -0.17095718
0.09840701 -0.08085467 0.1905979
-0.24071555 0.11209236 0.04895515
0.0899513 0.032364096 0.021163754
0.069256164 0.25625485 -0.13443854
-0.09989387 -0.007531986 -0.014728663
-0.08560791 -0.20615412 -0.02688096
-0.0069023333 0.07990743 0.048675198
-0.20893133 0.038056318 -0.04443233
-0.09212409 0.108797915 0.05394913
-0.19185206 0.07157817 -0.00094546017
0.033950888 -0.058745805 -0.0034491478
-0.0021229591 0.1061493 0.003077137
-0.043281104 0.023754764 0.07704846
0.075593695 0.23438738 -0.012158253
0.16387981 0.038672667 -0.06846469
0.14014234 0.03767475 0.018281182
-0.10367572 -0.21790363 0.098419674
-0.18927965 0.06588359 -0.025196673
0.33673808 0.040335752 0.009018788
0.083208 0.154401 -0.045141973
0.068292215 -0.14418586 0.15005507
-0.23969388 0.073228754 0.0127258655
-0.052858666 0.2502905 -0.016833553
0.07241602 -0.1407435 -0.14736973
-0.0037826665 -0.17480026 -0.22992541
0.07866323 -0.06511947 0.108979315
-0.08144042 -0.21004246 0.039853107
0.09752274 -0.07515626 0.2347219
-0.08827735 -0.23552176 0.10356228
-0.03233167 0.048597503 0.041207932
0.0175339 0.08317018 0.0050354595
-0.124311596 0.05667315 0.041652642
-0.127053 0.05640691 0.03381939
0.03300474 -0.15368648 -0.046192095
0.27815893 -0.014737924 0.03319559
-0.011032773 -0.19249348 -0.038161907
-0.19563296 0.15620013 0.025533015
-0.050162062 -0.120935924 0.05336634
0.23723873 -0.02156603 0.148134
0.08577905 -0.038753077 0.07310293
0.038550634 0.03272882 0.04440729
0.2400074 0.0029635094 -0.16089697
-0.07351667 -0.1704307 -0.008293014
0.19321463 -0.03468076 0.11203816
-0.26223296 0.11984182 -0.07459432
-0.059112508 0.09407816 0.02297375
0.17438094 -0.053058166 0.14794846
-0.0887632 -0.21802792 -0.10973549
0.12175649 -0.09006128 0.17867853
-0.12237819 -0.23450701 -0.0146421045
-0.07769863 -0.16427171 -0.0014492911
0.14835383 -0.019706277 0.064908095
-0.18400729 0.1601118 0.09411074
0.10193948 -0.035047777 0.022133568
-0.09649107 -0.27474678 -0.08500512
0.13867703 0.027138196 0.009092129
0.27971843 -0.02606834 -0.14729887
0.08932281 0.20529917 -0.09262033
0.12528527 -0.07065532 0.20267205
-0.0944401 0.102395006 0.0749729
-0.16552271 -0.27541026 -0.045504645
-0.046341237 -0.17471887 0.16535892
-0.17741744 0.1313704 0.10192963
-0.1287846 -0.04382364 -0.0066543403
-0.17261477 0.1417978 0.07990932
0.13479076 0.066875815 -0.09284767
-0.03830661 0.2271475 0.06896083
-0.2485291 0.056366574 -0.14783733
-0.18393914 0.12647676 -0.21112826
0.24016246 -0.006796556 -0.004416608
-0.012955345 0.20843667 0.111369394
0.30184785 -0.017980222 -0.13164815
0.09046215 0.12806109 -0.011758591
-0.014997377 -0.21147472 -0.24704054
0.14852272 0.0063103647 0.046977147
-0.0120835835 0.22862534 -0.04126792
-0.20465904 0.12920839 0.11332794
-0.22335412 0.09674485 -0.03796066
0.28265747 -0.039634544 -0.076387934
-0.08389817 0.0014395093 -0.0055015134
-0.09893703 -0.0063735144 -0.0018395211
0.32531264 0.0045282156 -0.006656672
0.2651294 0.012263582 0.08429941
-0.02481492 -0.086892955 -0.002258033
-0.21067779 0.056070507 -0.022022678
-0.1632523 0.075199015 0.03732191
-0.033040598 -0.20960148 -0.25796512
0.017594175 -0.14463532 -0.0037005038
-0.040076315 -0.058917318 -0.013562975
-0.2365911 0.0718547 -0.007468774
0.30925563 0.02821077 -0.045501623
-0.06898435 0.030723851 0.01057298
-0.055139143 -0.20517279 -0.10855222
-0.21509838 0.13563979 0.062984034
0.16119227 -0.021742819 0.030833606
-0.13385054 0.12359286 0.12545843
0.06848938 -0.12772614 -0.018861666
0.041723326 0.09422282 -0.00646131
0.3376089 -0.017775197 -0.12806383
-0.18696459 0.09947254 -0.11834879
-0.10590143 0.032017954 0.012526595
0.15501079 -0.083594486 -0.25369743
-0.13690542 -0.09313894 -0.050041497
-0.12219283 0.07487328 0.03686084
-0.055580866 -0.18079282 0.17925908
-0.20039894 0.13122927 0.07461477
-0.11928209 0.02909869 0.022776
0.051893983 -0.13594706 0.16698417
0.107770465 -0.12394792 -0.16845417
-0.043415044 -0.11047319 0.08032833
0.14016224 0.05751043 -0.07176208
0.08076203 -0.15167674 -0.27566093
-0.09565442 -0.19816625 0.14365332
-0.11501046 -0.1224489 -0.052562986
0.01240247 0.06539474 0.06350891
0.1089266 -0.086383626 0.18196376
0.07624625 0.14769286 -0.038306363
0.0018358054 -0.082099274 0.08354858
0.05893689 0.19633679 -0.004591539
-0.013294722 -0.18144785 -0.22862844
0.09616909 -0.06917428 0.05549985
0.06497929 -0.10537728 0.19441693
0.07001548 -0.022762978 0.023876578
-0.100177296 0.11866744 0.058995064
-0.25071803 0.11621624 -0.08144553
-0.18235959 0.14336379 -0.18321075
-0.06515793 -0.090365335 0.012255312
0.0107491985 0.034305688 0.056939308
-0.02864007 -0.053647753 0.022949204
0.054718826 0.21883436 -0.11481209
-0.028584657 -0.20801595 -0.12155149
-0.04584015 0.23067537 0.11241627
-0.02180604 -0.1824712 -0.10526082
-0.117340796 0.115809575 0.064728424
0.18973126 -0.000132434 0.0615891
-0.06463159 0.13321996 0.0673696
0.06832852 -0.010307734 -0.01116811
-0.13809499 -0.20140655 0.10529677
0.018144803 0.28091252 0.072760805
-0.13155931 -0.22581913 0.055011902
-0.043279294 -0.051128868 0.027952557
0.16793482 -0.048828077 0.110229746
-0.10147202 -0.23536542 -0.20627421
0.018578175 0.17567126 -0.010178863
0.055307996 -0.13969997 -0.37341386
-0.02679693 0.25049365 0.0030589574
0.09425696 0.00021683137 -0.009272916
-0.0485076 -0.086671546 0.035693858
-0.11974831 -0.21760213 -0.045237597
0.027959077 0.048604716 0.052754525
-0.02710662 0.034051307 0.044084817
-0.030985266 -0.16068181 0.03343587
-0.033044614 0.15321052 0.04379906
0.030582525 0.109492905 0.045319553
-0.24517941 0.09382439 -0.12319059
-0.0070895143 -0.01272848 0.03720954
-0.13785417 0.05123326 -0.011132945
-0.06614404 0.21806182 -0.02246442
0.032539915 0.08075417 0.03919045
0.057502955 0.048695598 0.014272072
-0.011697507 0.025259666 0.032679576
0.15305077 -0.03655982 0.0673403
-0.14638695 0.02332681 -0.0022209294
-0.0130728 0.13434082 0.033967376
0.29928872 -0.0073863496 -0.08510007
-0.10710739 0.07830613 0.083011456
0.17054448 -0.05398944 0.1682032
0.05876481 -0.018318985 0.03115345
0.05266999 0.06338647 0.04630453
0.058693632 -0.15963982 0.110494785
0.06339703 -0.11090564 -0.21365511
-0.05227723 -0.16164619 -0.015169391
0.15753725 -0.07340342 -0.09112366
-0.13005687 0.16551688 0.12287698
-0.077418 -0.05422841 -0.011956742
0.03431467 0.25120452 0.044928268
0.05422361 0.028346302 0.041302502
0.11588124 -0.095275156 -0.10026219
-0.011535713 0.2506671 -0.11088212
0.06605763 0.15950738 -0.04729711
0.02424045 -0.114738405 0.08205316
-0.12683697 0.105253786 0.06779566
-0.0117446035 0.009135155 0.076650865
-0.031239765 0.20626362 0.12193086
-0.20822786 0.07306152 -0.0328544
-0.13143943 -0.013314882 -0.003865004
-0.052603196 -0.18594591 0.14716342
-0.10875582 -0.12364851 -0.05747792
0.17528398 -0.06254773 -0.026436593
-0.11431147 -0.22229578 -0.1760597
-0.004713163 0.024448333 0.06261482
0.27051678 0.011286311 0.08856712
-0.034448523 0.21993275 0.10825909
-0.08781069 -0.026092436 0.018577693
0.30511916 0.042720404 0.014660341
0.009890072 -0.0008683999 0.063840404
-0.028785134 0.23407713 -0.08791603
-0.068030104 -0.2273214 -0.16743124
-0.114551336 -0.26202422 -0.030523835
0.072855845 0.2874753 -0.13497555
0.20169835 -0.029943885 0.059553366
-0.10551471 0.015327788 -0.0062680785
0.2565128 -0.041479576 -0.2146762
0.1175438 -0.0225236 0.08380925
-0.07198105 -0.23047917 -0.098511055
0.21313615 -0.05459956 -0.21962182
-0.08923894 -0.2056564 0.07180481
-0.13664643 0.039899785 0.02311287
0.13319182 -0.10057377 -0.108467855
-0.066603065 0.24147113 0.048865553
-0.113454275 -0.14053935 -0.06465419
0.18077041 -0.075844616 -0.17602117
-0.02759532 -0.12751561 0.04724968
0.27331713 -0.002168057 0.046414655
0.04823652 0.22187476 -0.05710863
-0.17202026 0.051860422 -0.0077923923
0.07095665 -0.038034406 0.08539593
0.018926455 -0.17852001 -0.20873585
0.05028184 0.16551235 -0.031147033
-0.1141731 0.19496647 0.09331983
-0.044146027 0.21295704 0.1124936
-0.059941046 -0.17174779 -0.28785947
-0.089708544 -0.24840704 -0.11001861
0.05842146 0.186079 -0.116100274
0.3101085 -0.024104085 -0.0058594896
-0.045911085 -0.08174141 0.022408906
0.07199208 -0.04065562 0.034031793
0.05787374 -0.12473295 -0.26966968
-0.10838745 -0.20912364 0.11107823
0.0455258 0.02051876 0.05515682
-0.26683366 0.07548719 0.034631398
-0.11910919 0.1890233 -0.2916136
0.119606644 0.15007623 -0.08447569
0.038910788 0.15085067 0.03479404
0.036894865 0.03585211 0.07233231
-0.060000602 0.18981494 0.12679087
-0.097362615 -0.19661458 -0.05474183
-0.081244625 -0.057098165 0.023943234
0.0955993 -0.07306827 0.12938942
0.005573296 0.19911295 0.056387506
0.016842041 0.16368942 0.02813633
0.15197125 -0.08936679 -0.13188788
-0.09710752 0.22660567 0.01410379
0.15889442 -0.022250231 0.07526489
0.26989058 0.026702635 -0.057956733
0.124087185 -0.09524861 -0.295297
-0.09811544 -0.20107813 -0.1865341
0.07541429 0.19262306 0.0060894503
0.038914625 -0.14240682 0.12920302
0.18990815 -0.02604532 0.11540012
-0.10029558 -0.22031663 -0.19221163
-0.011857343 0.24623048 0.11421568
0.08364028 -0.0041644885 0.005454962
-0.074643575 -0.1761333 -0.16581483
-0.012001912 -0.17010489 0.16824812
-0.15248618 -0.05265871 -0.08393414
0.053008888 0.19324848 -0.0265364
0.00040945513 0.2024404 0.034373242
0.23432754 0.01227515 -0.0978283
0.023956189 0.017902339 0.06378837
-0.14244199 0.13839863 0.12158903
0.22373608 -0.021873135 0.15988587
0.29330388 -0.027531931 -0.13230245
0.24484332 -0.03665481 0.14358507
-0.053210594 -0.2072316 -0.25247392
-0.19279861 0.10485439 0.09716111
0.18791947 -0.07721733 -0.18234248
0.07579707 -0.06401712 0.23605993
0.0813886 -0.11346951 0.01868017
0.012430715 0.19282237 0.017455626
-0.01715712 -0.07809783 0.0440547
0.10243609 0.04403359 -0.027070956
-0.07495248 -0.060299598 0.025244258
-0.08453261 0.20919466 0.15041585
-0.07608269 -0.16315292 0.1671447
0.25459382 -0.010634815 -0.20485641
0.15529136 -0.09198235 0.18243654
-0.05399389 -0.017767245 -0.0054534
0.16214666 -0.067917004 0.16743055
0.06826713 0.2379364 0.021507738
-0.1595169 -0.27906778 0.0038498866
-0.0844384 0.17554325 0.13107145
-0.25870085 0.090151854 -0.07430143
0.09307637 0.13161857 0.008248915
-0.13291754 0.16957316 0.15016548
-0.18037261 -0.26370126 -0.11919144
-0.14179058 -0.23790441 -0.01303742
0.21643293 -0.031666435 0.15732159
0.23068696 -0.01854564 -0.19432826
0.070096426 0.045651432 0.057277735
-0.04567414 -0.18278144 -0.19433258
-0.10153853 0.15561396 0.1184737
-0.1375328 0.041763455 0.006688422
0.0032687013 0.20769273 0.060226105
-0.1119668 0.17915292 0.110367626
0.040313143 0.23296858 0.014361402
0.04127048 0.215271 -0.00013358676
-0.060993873 -0.22347316 0.024922958
0.08845553 0.2653359 -0.07083439
-0.113085195 0.14741112 0.14479023
0.044008784 -0.16570129 0.035684466
0.17966568 -0.017869389 0.14216675
0.1718617 0.017918158 -0.033754196
0.19818868 -0.033360522 0.12652963
-0.1736341 0.14370613 0.08836438
0.015799655 -0.07217326 0.084960096
0.0387354 0.08640208 -0.0124851335
0.17330052 0.017017245 -0.027489735
0.041990697 0.2167939 0.03159665
-0.24202481 0.11553636 -0.07907389
-0.12097352 -0.2363512 -0.030062858
0.11427035 -0.06081123 0.18839565
-0.11517475 0.07239079 -0.00078877655
0.071735755 -0.04217376 0.049932744
0.020738686 0.25993267 -0.17230408
-0.043543156 0.060501922 0.03661354
-0.07815818 0.20203476 -0.19531065
0.053534355 0.21961892 -0.044265416
0.120753706 -0.10232059 0.1418982
-0.098152295 -0.22509015 0.041375488
-0.22625193 0.05497839 -0.06551134
0.10164715 -0.0526676 0.102830745
0.08321635 -0.11772323 0.044708386
0.00067223184 0.06379071 0.06061926
0.15001316 0.032516755 -0.05693168
-0.058992725 -0.13567573 0.012977921
-0.11518272 -0.2485056 0.07473985
0.0033777647 -0.1715217 0.015886236
0.080300644 -0.027733967 0.049320888
-0.01386857 0.11974359 0.03864379
0.058254104 0.009643442 0.03866214
0.03460388 0.036223836 0.03869328
-0.11385647 -0.2533811 -0.17344177
-0.11733803 0.14456572 0.05128102
-0.09562809 -0.02717749 -0.01892307
-0.28267276 0.109754406 0.0112328855
-0.00096409465 -0.063878946 -0.003527619
0.0661256 -0.09864597 -0.01179469
-0.14434044 -0.02820362 -0.02434479
0.10897183 0.07270808 0.008184238
-0.05199005 -0.1648809 0.137318
-0.09311212 -0.21911494 -0.03500333
0.29811472 0.0035708358 0.09203852
0.09521208 -0.10026204 -0.077896126
-0.15524873 0.08671947 0.069447175
0.017403182 -0.066389956 0.050026447
-0.039747775 0.12080667 0.050028883
-0.026313346 0.22275503 0.11098827
-0.1422008 0.053096913 0.059827983
0.10973109 -0.06274327 0.19724874
-0.19051458 0.11328928 0.075721405
0.0027154763 0.008219612 0.07533132
-0.1301456 -0.0799983 0.0018928084
-0.2162498 0.0943018 0.0057802154
-0.026567185 -0.13682614 0.1260137
0.17873856 -0.036351837 0.12742338
-0.06423151 -0.23948447 -0.2863171
-0.17355168 0.14515828 -0.1011395
-0.10307195 0.09095524 0.032847185
-0.20998481 0.12241736 -0.16501299
-0.055974126 -0.20029387 -0.13039315
-0.047086574 0.23069361 -0.028166784
-0.06780783 -0.16555284 -0.017042153
0.023253724 -0.15210846 -0.12962359
-0.1632485 0.06041214 -0.013847631
-0.11864535 0.06367876 0.036726184
0.011337768 -0.1558636 -0.17877296
-0.07290209 -0.23592661 -0.083543144
-0.10715882 -0.22318174 0.06526267
-0.035571158 0.1590369 0.07575861
-0.13623133 0.12178116 0.10626512
-0.0815276 -0.17902629 -0.013838451
-0.1551434 -0.0038572184 0.001215516
0.058577143 -0.078839295 0.12934212
-0.062095318 -0.21364045 0.09973389
0.1899185 -0.041339915 0.17459626
0.27293867 0.00042870647 0.102234215
0.027885333 0.245626 -0.20475508
-0.0009275517 -0.05608158 0.012425073
0.11011479 -0.021805549 0.028869452
0.27429152 -0.031740047 0.06772993
0.025230996 0.23939733 -0.083722085
0.1427144 0.07730028 -0.0699918
-0.13514699 0.17848834 0.00057077466
-0.24822411 0.056290243 -0.148052
0.2320418 -0.044478156 0.12830366
0.08350497 0.06323433 -0.018580897
-0.24385758 0.0911007 0.06845867
0.21548206 -0.041000493 0.14740619
0.1714884 -0.024605481 -0.06082871
0.058708344 0.03149564 0.029152915
0.048114214 0.28699332 -0.10631312
-0.13603362 0.036180172 0.014366225
-0.25782716 0.07309561 0.045938116
0.30730355 0.0049456893 -0.059387036
-0.1145166 0.009123126 0.004316722
-0.08935186 -0.05245574 0.011609174
-0.13503659 -0.20703574 -0.06605589
-0.22824591 0.06672833 0.061246745
-0.046074662 0.033655632 0.060253285
-0.12712494 0.03936589 -0.00095788547
0.24572591 -0.0010469967 -0.044924732
-0.17458664 0.06697465 -0.037525564
-0.13187473 0.11604227 0.05504723
0.09806624 -0.1277367 -0.17633583
-0.096832454 0.06184572 0.0061802748
-0.15167987 0.023265507 -0.0018819893
0.29252756 0.007357295 -0.11363374
-0.07542406 0.2327951 0.09412684
-0.04685637 0.13818364 0.05703626
-0.16033043 0.17581378 -0.22966146
0.20581697 -0.01221567 0.15525684
0.20484996 -0.06402329 -0.28903192
0.13529499 -0.059239656 0.16878921
-0.123686045 -0.20224303 0.056714695
-0.11663201 -0.06915878 -0.04231522
-0.017747315 0.09748256 0.02545746
-0.21602455 0.14574592 -0.09240365
-0.16015989 0.15212724 0.0057465476
0.052402742 -0.13089879 0.2025098
0.19042496 -0.052812666 0.04475404
0.092896126 -0.14383832 0.0068485574
-0.018492816 -0.21677682 -0.26178753
-0.14453095 -0.06655306 -0.07919522
0.21229199 -0.06442506 0.0060753655
-0.051802795 -0.1720822 -0.13509192
-0.05498543 -0.21185455 -0.23322654
-0.0070963716 -0.1679744 0.047626685
-0.0870804 0.0062951157 0.002052881
-0.05212216 -0.21863918 -0.06052264
0.017986346 0.21955279 -0.1957754
0.109323986 -0.06731084 0.17237245
-0.13354868 0.023680871 -0.020821726
-0.2087814 0.11312194 -0.15377635
0.19348446 -0.035733566 0.1444824
-0.19682059 0.08850319 0.092482835
0.1691124 0.012710353 -0.060121763
-0.2826461 0.103597105 -0.03539296
0.06133572 -0.061783403 0.0051050833
0.040161543 0.21953507 0.07007061
0.2750986 -0.005718909 -0.09502285
-0.026007826 -0.0031683822 0.045355264
0.033850513 0.10264511 0.065377176
-0.12824632 0.085763365 -0.015482839
0.098456904 -0.10058468 -0.013638806
0.028503956 0.028951203 0.048052143
-0.099222474 0.09292414 0.042370867
-0.0037603974 -0.15271308 -0.051526397
-0.14218307 0.036009498 -0.016086552
0.16328935 -0.092541896 -0.19751054
0.01628999 0.25908256 -0.027686596
-0.0011437843 0.22889577 0.0919557
0.02640274 0.20093045 0.0030078846
-0.009148949 -0.041307617 0.012014223
0.2590202 0.025014808 0.006105974
-0.07604357 0.006292862 0.027417159
-0.009430778 -0.15021874 -0.15707204
0.021338744 0.21331526 0.11636081
0.03448916 0.019792847 0.028586494
0.08066693 -0.10473158 0.23653907
-0.04937175 -0.20154113 -0.22811183
-0.20245486 0.07142617 0.04945046
0.09360611 -0.11765825 -0.22257085
0.14331122 -0.086971164 0.10448446
-0.093824945 -0.11850509 -0.021432405
-0.03315076 -0.16839637 0.12602593
-0.07536599 0.17685577 0.026752021
-0.20575687 0.1324527 0.108613044
0.0353611 0.0674062 0.035224367
-0.031119851 -0.17405282 0.020555388
0.03280821 0.08206671 0.022462102
0.06859452 -0.12342964 -0.21687378
-0.15754741 0.17713624 0.0967341
-0.19376202 0.108589716 -0.23657277
0.14551045 0.034234352 -0.03415577
-0.1746121 -0.26602083 -0.105221316
-0.041723367 -0.21105188 -0.064494185
-0.0111547215 0.17196319 0.02999367
0.0018376143 0.22926442 0.108197786
-0.078532144 -0.027199907 0.029374005
-0.09954889 -0.091535866 5.8985945e-05
0.12597816 0.09744967 -0.023922578
0.012642772 -0.10881203 0.07600141
0.22012801 -0.03436002 0.17627959
-0.071891084 0.14126979 0.089521416
-0.06693966 0.18418746 0.061920628
-0.07640746 0.14476377 0.112455234
0.046897996 0.24852306 0.046636425
0.011237693 -0.12524618 0.11035571
0.18656714 -0.037819814 -0.18703902
-0.1149734 -0.19590376 0.019492732
-0.10190345 0.17357756 0.13071871
0.13091497 -0.10320799 -0.0022873718
0.004401293 -0.052367527 0.06819288
-0.052214075 -0.048084937 0.02120109
0.028301213 -0.1531102 0.13269816
-0.08749588 -0.22570758 -0.08549199
0.22783908 -0.05192348 -0.09312409
0.0055935034 0.009461072 0.055175625
0.0107226735 0.025406446 0.041255455
0.08378757 0.21251927 -0.06412522
0.32059228 0.034071766 -0.007585521
-0.041056443 0.10613738 0.0009321663
0.15744367 -0.11399325 -0.27111444
-0.060613792 -0.012895751 0.0032110056
0.14237495 0.08134638 -0.03083438
-0.22983195 0.108366564 -0.14403844
-0.089241385 -0.0430044 -0.015405976
-0.080289364 -0.19749324 0.11758027
-0.14643902 0.15869804 -0.15669425
-0.19435246 0.052158076 -0.025560781
0.027196951 0.002183833 0.070598245
0.14442565 -0.01193139 0.05301013
-0.009311876 -0.016541086 0.057895463
-0.080843054 -0.19929773 0.107521325
-0.021673072 -0.21532604 0.15494432
-0.039004855 -0.14884521 0.17763723
-0.020829538 0.17576052 0.070066586
-0.09508075 0.13688987 0.0861206
-0.024783252 -0.18554503 0.19255525
0.08942392 -0.07297799 0.1857945
0.19858317 -0.026731486 0.07873506
-0.01971189 -0.047727313 0.005027116
-0.00078949233 -0.05347379 0.008980471
-0.2215317 0.03943256 -0.036140807
-0.05021083 -0.017965771 0.03414679
-0.104453094 -0.18331112 -0.2722039
-0.12233457 -0.24150865 0.014120943
-0.06735862 -0.20342952 -0.011295797
-0.1505292 -0.02064699 -0.061419807
-0.0077610523 0.10004588 0.024225185
0.040016446 -0.12276766 0.031465642
-0.058063377 0.04957823 -0.0049513797
-0.08257942 -0.12188583 0.030654272
0.15454237 -0.104591936 0.17522565
0.2017852 -0.035936344 0.116370894
0.065541685 0.067704275 -0.00900757
-0.17222601 0.14892943 -0.04439968
0.10339047 -0.08042031 0.17331831
-0.14199796 0.19304688 -0.00011499968
-0.10622054 0.15391897 -0.26228064
-0.086718045 -0.18789136 -0.24925484
0.09531233 0.06069739 -0.01070391
-0.23068798 0.091880515 0.018688044
0.08155273 0.13948353 -0.038630437
-0.124722704 -0.2738096 -0.08165432
0.05220409 -0.069213405 0.079235554
0.06622234 -0.016306205 0.093393914
0.15260595 0.051343273 -0.018979646
-0.17242259 -0.26827452 -0.04778671
0.14591621 -0.06772466 0.10770305
-0.051482953 0.2168209 0.1002528
-0.115026854 -0.06973718 -0.026770096
0.14548829 -0.08556194 -0.29956964
-0.048049502 0.22547174 0.14766765
0.0016641797 0.11869745 -0.025596451
0.048317224 -0.009837422 0.015591097
0.15201592 -0.04979361 0.025432933
0.1677181 -0.05707008 0.12885813
-0.030029764 0.20630395 0.02701741
0.06511677 -0.12575378 -0.25909913
-0.072359666 -0.22149847 -0.123572126
-0.09989961 -0.2678228 -0.10771351
-0.17173551 0.16349919 0.12199691
0.09640008 -0.07043063 0.20167436
0.1666787 -0.09168058 0.18118823
0.13047071 -0.075205706 -0.2095625
-0.07266964 -0.2281315 0.06422075
0.08777899 0.11415802 -0.0719869
-0.08176797 -0.24967626 0.069534406
-0.07990725 -0.23806365 -0.074182644
-0.025308391 0.11879616 0.087042995
0.08062353 -0.06767068 0.110790335
0.22908367 -0.040121246 0.0049575726
0.10955501 -0.09334825 0.20191254
0.22177528 -0.05417708 -0.15679888
0.017799962 0.17388472 0.025542995
-0.19448957 0.15269864 0.0012228497
-0.0014449331 -0.17248446 -0.13701053
-0.056443106 -0.18667056 0.17932856
-0.18878703 0.08114875 -0.005032989
-0.11654853 0.046138052 0.002320081
-0.013537086 -0.043267876 0.012607022
-0.15558071 -0.0072143083 -0.0358307
-0.19662595 0.077878535 -0.22339581
-0.08010445 -0.2308699 0.1364167
-0.07302996 0.14348985 0.061098695
-0.17973518 0.040653147 0.01553429
-0.09935754 -0.0422834 0.0018135069
0.08713454 -0.11282828 -0.22588575
0.06901264 -0.13014367 -0.19404006
-0.19900827 0.14815195 0.040524032
-0.07514055 0.17120732 0.12155059
-0.013574405 0.2494217 -0.04169997
-0.011200634 0.024938023 0.027343478
0.06298949 -0.070846856 0.055176586
0.06277558 0.20964244 -0.095989674
0.22500558 -0.032618266 0.025024718
-0.24855563 0.07139712 0.03730903
-0.16399093 0.16396913 -0.24829522
-0.10647133 -0.23172066 -0.029517787
-0.010284424 0.18988757 0.03317775
0.26321587 -0.044089742 -0.2189923
-0.122776836 -0.075946875 -0.010395616
-0.010021516 -0.014895622 0.07807615
-0.034672648 0.068870194 0.040790554
-0.02058158 0.22351818 0.077311754
0.040589955 -0.10000861 0.18667394
-0.11055491 0.16954145 0.079376355
0.32486638 0.005504254 -0.16976148
0.05211243 -0.12799321 0.16306603
-0.24855092 0.0821483 -0.0941893
0.059789013 -0.13301608 0.05818479
0.070010945 0.2255305 -0.074815236
-0.20865996 0.102197446 0.052266054
-0.018469699 -0.13553345 0.20123878
-0.048524372 -0.17580841 -0.19739626
-0.055508643 -0.117690094 -0.004414979
0.06111683 -0.14664182 0.008858271
-0.2389288 0.111575216 -0.13644071
-0.079322524 -0.18060406 0.14921468
0.1592898 -0.05743769 -0.16575839
-0.039414294 -0.1484295 0.15999249
0.15961201 0.013677878 -0.0900484
0.22269325 0.0075774826 0.15473518
-0.113631405 -0.018028403 0.023713915
0.02933253 0.16713539 0.012233224
-0.06874246 -0.083787665 0.059307728
0.2795993 0.0133874165 0.0315209
0.20033887 -0.01502891 -0.064451486
0.17479394 -0.03194614 0.18479998
0.01845515 -0.10617304 0.15043065
-0.09572183 -0.23434381 0.044386458
0.047912233 0.06557904 0.0629331
0.32258457 0.034227423 -0.09516637
0.20362738 -0.026872506 0.030520942
0.07534919 0.015126336 0.011070375
-0.11356781 0.030525973 -0.008774663
-0.24612147 0.090340845 -0.12674849
0.25763124 -0.01085583 0.051046345
0.011216798 0.21039091 0.024095507
0.20130545 -0.07451714 -0.052341178
0.015459619 0.20221597 0.11108141
-0.16453636 0.053949192 0.061902195
-0.12874864 -0.20348911 0.0637714
-0.06302393 -0.22326043 -0.13832676
0.07516803 0.05815302 0.01356456
-0.061694566 0.20370178 -0.04561782
-0.0687818 0.095553726 0.02931791
0.038322724 0.27800867 -0.11041283
0.19628477 -0.04892039 -0.2682859
-0.17225726 0.0050678044 -0.031193068
-0.17279841 0.14390904 0.019804627
-0.1353018 -0.21816462 0.037987944
0.16292547 0.0907803 -0.11033757
0.0058984407 0.16252434 0.052212536
-0.04429043 0.047459476 0.035911746
0.1776886 -0.023914345 0.053326137
-0.09792553 -0.09893181 -0.0074207536
-0.2325848 0.08187018 0.042733997
-0.04390976 0.15383714 0.038858503
0.3015692 -0.020966252 -0.17271468
0.027525889 -0.13882844 0.06040843
0.07554303 -0.025926974 0.068624735
-0.09215717 -0.09246955 -0.012657592
0.12962766 0.03297075 -0.02156728
-0.07902835 -0.2066698 0.14520271
0.29764387 -0.018555224 -0.18281737
-0.17285308 0.07658358 -0.03356528
-0.09701889 0.20707597 0.13384262
-0.22914411 0.06223182 -0.038343944
0.18123412 -0.042135242 0.20389946
0.110812254 -0.09800323 -0.15169692
0.026995666 -0.08963117 0.06768692
-0.12620065 -0.2104701 0.011160211
0.017476322 -0.13948537 -0.05363715
-0.20053983 0.12480227 0.11826457
0.053598873 0.019367086 0.05157909
0.04803227 0.21395242 -0.044447634
-0.021546902 -0.08414872 0.059717134
0.17050098 -0.07083619 -0.23904209
-0.0055493 -0.13186094 0.17656471
0.14170419 -0.056816142 -0.12773037
-0.19438775 0.15853886 0.11107188
-0.08012858 0.21056576 0.15196472
0.1735316 -0.013499209 0.029075205
-0.025047813 -0.1403593 0.11136609
0.111795045 -0.0758248 0.112093374
-0.026861053 0.22675699 0.11426739
0.047468666 -0.160331 0.15471649
0.00086177344 -0.20084012 -0.31250077
-0.01779423 0.21141419 0.10418121
-0.052775886 -0.0026107603 0.057380006
0.01854636 0.08596422 0.025910553
0.0234068 0.043536276 0.055711687
0.18532152 -0.028932676 0.07594932
-0.08779553 -0.1117194 0.012219929
-0.10693947 0.13662687 0.051713802
0.012871193 0.09476163 0.038972482
0.14086664 0.056353703 -0.04778843
0.099090405 -0.06741653 0.09751587
-0.21053535 0.15939784 0.04250949
-0.19264355 0.02108229 -0.039630108
0.12857056 -0.07581 0.13912876
-0.103624664 0.1697604 0.027960105
0.030918427 -0.04214228 0.013833804
-0.0008284437 -0.15221538 0.20492138
0.24649616 -0.02168012 -0.0711062
-0.11859268 0.066700436 -0.005335628
-0.12341163 0.14458218 0.1304195
0.274804 -0.0067568994 -0.01622142
0.06164186 0.15851435 0.0055906433
0.03921587 -0.13388422 0.14772362
-0.065869346 -0.1920664 0.16926111
-0.05594073 -0.22947575 -0.1948632
0.14946544 0.023547878 0.04345092
0.06696152 0.052444056 0.05181616
0.028011777 0.1825298 0.023601351
0.012056425 0.1852939 0.05600153
0.04585108 0.2857313 -0.15721466
0.09716205 -0.0975508 -0.21870257
-0.0006254722 0.24535328 -0.12647773
0.2717799 0.0031158752 0.062267605
-0.21636872 0.10126555 0.08518202
