# .PCD v0.7 - Point Cloud Data file format
VERSION 0.7
FIELDS x y z
SIZE 4 4 4
TYPE F F F
COUNT 1 1 1
WIDTH 1000
HEIGHT 1
VIEWPOINT 0 0 0 1 0 0 0
POINTS 1000
DATA ascii
-0.13685508 0.17864597 -0.051831868
-0.17446434 0.21528082 -0.05578966
-0.24229382 0.043020763 -0.06782488
-0.21191256 -0.045626063 -0.078448236
0.20753875 -0.052523736 0.077826545
-0.02273018 -0.24097626 -0.010680554
-0.03476466 -0.20613284 -0.045656685
0.10570487 -0.20728682 0.025061106
0.09968888 0.18116963 0.055068832
0.21390586 0.033147175 0.0639901
0.13656926 0.26552767 0.072252095
0.024862567 0.26691374 0.007753243
-0.2564266 0.080775134 -0.0694436
0.12619 0.020857034 0.039868224
0.09090178 0.12136011 0.014715097
0.057256814 0.12978342 0.029519944
0.14506789 0.23500513 0.08548977
-0.04569422 -0.3026221 -0.00898944
0.055107433 0.13435523 -0.15881185
-0.044265807 0.25881493 0.009455672
0.11900493 -0.02465649 0.04090202
-0.03433444 0.20289305 -0.028409768
0.21096475 0.1618813 0.11233971
-0.087504536 0.17858613 -0.051074937
0.1308845 -0.069485076 0.036201946
0.048795152 0.2652307 0.024130082
-0.041409433 -0.23610932 -0.038699124
-0.08561071 -0.034356106 -0.023283664
-0.15414348 0.069181874 -0.04517869
-0.005340758 -0.39634565 -0.017672768
-0.21598768 0.2292124 -0.027259195
0.19142807 0.11176788 0.057817116
-0.12594354 -0.048532885 -0.060526635
-0.14932989 -0.10568821 -0.06754984
-0.17194179 0.029016789 -0.059295252
-0.026819961 -0.18644473 -0.033184458
-0.08981772 -0.19610319 -0.041527808
-0.027676139 -0.24118568 0.016496258
0.15972 0.27438658 0.13035944
-0.24028148 -0.026025616 -0.10186735
-0.12219066 0.24198727 -0.026819473
0.039578736 -0.20746984 0.014627351
-0.06242571 0.1066046 -0.018601138
-0.0928875 0.28524438 -0.017448852
0.10374023 -0.23921199 0.054758083
0.13063718 0.0050463825 0.034624532
-0.20303802 0.11428153 -0.08310938
-0.12410044 0.20775005 -0.04971363
-0.24314874 -0.004347376 -0.080294155
0.10490163 0.23372418 0.016998509
0.04413431 -0.15221724 0.041178547
-0.0021553892 0.10529812 -0.1192122
-0.040557977 -0.0374397 -0.0025249326
-0.09858553 0.09444291 -0.0054202536
-0.011802015 0.30081373 0.021235846
-0.19558422 0.13712864 -0.06429333
-0.18795623 -0.052362766 -0.06947711
0.281246 0.062878154 0.1338369
0.19755973 0.051702242 0.09890146
0.20887762 -0.11402445 0.07221218
-0.13622461 0.14761889 -0.04419117
-0.26758403 0.09800071 -0.0648266
-0.13215503 -0.015788665 -0.017364483
-0.16369039 0.24318992 -0.06389929
0.06676393 -0.0005970567 0.046961408
-0.05472384 0.01704279 -0.100906
-0.0764982 0.03730452 -0.074701265
0.10670017 0.29582775 0.04586028
-0.1494268 0.24210644 -0.059915997
-0.13288237 0.05738793 -0.060885612
-0.17367089 -0.17661709 -0.021436872
0.17789237 -0.059503127 0.050248113
0.25754005 0.0744172 0.110024944
0.07997339 0.18858835 0.049469966
-0.13330172 0.27682218 -0.040068876
-0.11950514 -0.14242415 -0.053084664
0.13534175 -0.06275609 0.047192246
-0.22700116 -0.09951178 -0.026099233
0.05149523 -0.22828057 0.0343912
-0.098276325 0.15486966 -0.009563141
-0.1784353 -0.21553728 -0.04629339
-0.09537988 -0.1485243 -0.04483623
-0.0984932 0.13732798 -0.032722794
0.015730783 -0.36305997 -0.044186916
-0.23043784 -0.03671567 -0.08943463
0.25384825 -0.108364165 0.10340716
0.047788493 0.21933141 0.045599397
0.10191214 -0.23453285 0.080638416
-0.17584103 -0.15351328 -0.036711797
0.022554645 -0.22435462 -0.012875071
0.16736685 -0.072731465 0.04014862
-0.06994458 0.14386676 -0.039017666
0.23786311 -0.034133427 0.09857271
0.035583194 -0.09428444 -0.010559753
0.12893571 0.2634915 0.05743157
-0.15313637 -0.083431445 -0.05692759
0.23767175 0.10890469 0.10773898
-0.15495981 0.18314373 -0.05371274
-0.05363579 -0.20835571 -0.0057933787
-0.25302303 0.08536723 -0.111735955
0.17784941 0.12562059 0.040931653
0.08273629 0.30900437 0.056255434
-0.18453233 -0.07158067 -0.09504581
-0.18434525 0.07956746 -0.04054762
0.18145277 0.21000835 0.08154462
-0.2708747 0.006065402 -0.046383973
-0.22298913 -0.10190329 -0.070637904
-0.040431876 0.042288028 -0.084936425
0.09462406 0.12941378 0.046704147
-0.1348276 -0.13825786 -0.07346186
-0.0639616 0.10976786 -0.008518373
0.0968488 -0.29614678 -0.005987161
-0.12555271 -0.047792383 -0.038526263
-0.074497156 0.17197704 -0.028792419
-0.012140461 -0.34794328 0.0053201565
-0.0806363 0.011907104 -0.0022111135
0.075713225 -0.014636436 0.045434613
-0.024552127 0.23576553 0.006497542
-0.033718765 0.16296498 0.014577392
-0.0044575515 0.0948113 -0.19039048
-0.10748961 0.0055479845 -0.029247386
-0.2729123 -0.061544158 -0.08545532
-0.058121733 -0.06555564 -0.03248773
0.19339754 0.16586362 0.07965909
0.117493 0.21988915 0.0704177
-0.09943877 -0.0299092 -0.060812846
-0.084467754 0.18150356 -0.04883758
0.08565618 -0.14725904 0.01650201
-0.026532065 -0.37620044 -0.04523015
0.0751698 -0.08855863 0.0053063305
-0.18941014 -0.036041502 -0.037854448
0.25034532 0.0029348019 0.10620864
0.26348904 0.005853511 0.12743154
0.04918843 -0.34582272 -0.02733249
0.012235613 0.31321138 -0.004386264
0.2539759 0.07433941 0.106900156
0.07874738 -0.23271064 0.04891209
0.057424765 -0.059767783 -0.0067870514
-0.018393893 -0.35309088 -0.022388235
-0.04416865 -0.23988263 0.0025043734
0.15549357 -0.1536266 0.08112799
-0.016038468 -0.009490106 -0.12465533
-0.20865303 0.15206619 -0.043321952
0.25961044 0.07721329 0.10708346
-0.13859029 -0.09369477 -0.042494554
0.0909593 -0.21875311 0.050074097
0.01660618 -0.064988986 -0.00026838787
-0.05740677 0.11005948 0.0076755276
0.06549001 0.31533122 0.08039354
0.12378792 0.09256963 0.053619865
0.25835997 0.028910171 0.105335005
0.30208844 0.0022515284 0.06273245
0.13044383 -0.06910494 0.029669676
0.17690931 -0.053702112 0.05321145
-0.036027275 -0.038834807 -0.072702475
-0.04902424 -0.40042055 -0.054318268
-0.14708026 -0.21294676 -0.044357933
-0.09386418 0.11701473 -0.036232986
-0.24481106 0.20623438 -0.04656969
0.048227053 -0.33588824 -0.04686825
0.16670693 0.022055412 0.08271072
-0.05740757 0.058041103 -0.15623468
-0.12961778 0.20784767 -0.041371662
0.027141904 0.14448276 -0.11503378
-0.01601771 0.15383127 -0.0034730756
0.16449653 0.21410003 0.06561234
0.09768698 0.12723586 0.03564438
0.002903485 0.3243264 0.03809439
0.1777334 0.07165956 0.068586856
-0.11962453 0.10781575 -0.013292334
0.13233517 -0.1705264 0.068942755
0.1296191 -0.14699738 0.04252902
0.14454749 0.21218498 0.05152247
0.0922704 -0.085979 0.043850195
-0.057715584 -0.15699627 -0.05169164
-0.069471695 -0.3508116 -0.053448305
-0.13337034 -0.20271273 -0.014380185
0.0038590662 0.25399983 -0.004601403
0.06835879 -0.3288486 -0.034299217
0.10541871 0.20505068 0.050288647
0.19002706 -0.06415072 0.073711626
0.08223821 0.30085224 0.06425311
-0.07435711 -0.33290017 -0.023906043
-0.028457778 -0.32919833 0.01714739
0.2334101 0.16514924 0.089503594
-0.15113914 -0.14575374 -0.080969006
0.030401994 -0.18946287 0.008133777
-0.106900476 0.27670676 -0.025761917
0.077131994 0.14322081 0.035900243
-0.02791739 -0.28836048 -0.012854693
-0.08206697 -0.3012932 -0.02338435
-0.042379744 0.32579425 -0.03222169
-0.16280976 -0.054047838 -0.061150122
0.26735595 0.102433085 0.11385984
0.06610086 -0.04023029 -0.07345531
-0.18266687 -0.13210554 -0.04243722
-0.04524165 -0.30134225 0.010538439
0.00044574996 0.25365847 -0.016943015
0.13207859 -0.0011785206 0.053129073
-0.097298026 -0.14123254 -0.049814425
0.09709486 -0.009711359 0.035044383
-0.08163064 0.13169192 -0.040106982
0.20573866 0.17452787 0.05146136
-0.14362037 0.032553278 -0.050936326
-0.122421145 -0.00827129 -0.06183839
0.2375991 0.115904436 0.097721085
0.015958464 -0.23914614 0.014099287
-0.20605485 0.20207098 -0.062285997
0.087351136 0.26529217 0.06706649
-0.18362303 0.09559418 -0.032901965
-0.05492402 -0.07297564 0.0035176203
-0.084045865 -0.36814022 -0.01961887
-0.063397124 -0.3509923 -0.028355563
-0.17688246 0.20368454 -0.04037288
-0.16683605 0.07494167 -0.043475997
0.2565848 0.068237305 0.1441064
-0.27317268 -0.027438708 -0.07789348
0.14393966 0.27767465 0.06941839
-0.27318344 0.093722895 -0.06241042
-0.237445 0.029688116 -0.0648922
0.15404177 -0.081389114 0.07470043
0.20323859 -0.13169532 0.117407545
-0.029421786 0.029141756 -0.15010016
-0.03228937 -0.32300237 -0.018910967
0.262366 0.015606276 0.08240759
0.24141507 0.0065332665 0.0751302
-0.2290981 0.041274693 -0.09148687
0.19711086 -0.07322974 0.05378336
0.017758435 -0.23836245 0.036886718
0.04212632 0.22342283 0.008021922
-0.001143837 -0.11258207 -0.018088205
0.20765851 0.16644917 0.12477534
-0.17850818 -0.17475832 -0.0728867
0.059348155 -0.06172912 -0.16686986
-0.25303474 0.06135663 -0.03467414
-0.14727692 0.20461491 -0.033146452
0.21384512 -0.021450352 0.09358722
-0.084023066 -0.22166292 -0.055977996
0.10156881 -0.038577277 0.04488956
0.03486775 0.29339224 0.0363292
0.0060720355 -0.20274766 0.0148424385
-0.040858675 0.05997663 -0.10187441
0.26004037 -0.00952615 0.09270412
-0.20361507 -0.13346428 -0.076463416
-0.1473021 -0.0946991 -0.06364079
0.0673718 -0.2169143 0.004671236
0.21457861 0.17727242 0.110283636
-0.08476953 0.03619295 -0.037394736
-0.050804444 0.041186385 -0.0643263
0.115764104 -0.12866092 0.024928614
-0.21293513 -0.055001818 -0.05620391
0.16198035 0.2669612 0.11904564
0.27170262 0.13646641 0.112519
0.10746059 -0.06882422 0.035922054
-0.16422608 -0.054452714 -0.06739759
-0.082401425 -0.36337107 -0.044068813
-0.09821242 0.18632361 -0.02490911
0.15226872 -0.084476426 0.05650248
0.19515522 -0.19442624 0.069390565
-0.15549208 0.17381342 -0.064775184
0.11373077 -0.11213391 0.0269919
0.0077901687 0.22475193 0.02009827
-0.06535738 -0.38866907 -0.04236626
-0.046905927 -0.29854366 -0.019990595
-0.11140868 0.21244712 -0.016913272
0.014185824 -0.31944025 0.023452237
0.07861263 0.04025599 0.016813071
0.08616954 -0.050508797 0.005529006
0.13488084 -0.20900878 0.07069655
0.07194776 -0.1746045 0.024283746
-0.24063249 0.22170773 -0.028809384
0.22883047 0.1703172 0.108510666
-0.017118484 0.15793253 -0.004454325
-0.2363263 -0.10517121 -0.09220281
-0.2097521 -0.06555858 -0.08511227
0.024078563 0.30601388 0.0022430732
0.23639002 0.0936712 0.08261928
0.17622241 -0.00028574976 0.0777529
-0.065102324 -0.08377 -0.024912309
0.08283905 -0.10370242 0.026553404
-0.18806948 -0.093796164 -0.058767237
-0.19487554 0.2091356 -0.09869437
0.16557637 0.030619362 0.047440317
-0.03563959 -0.29087028 0.0021644847
-0.10310322 -0.0037567979 -0.05909482
0.26454258 0.04039064 0.08001013
-0.21692732 0.09210989 -0.08245593
-0.062079806 0.23839255 -0.0400722
-0.2533533 0.09034868 -0.092480525
-0.16801195 -0.15090126 -0.052740313
0.17249826 0.115322344 0.064877965
0.21756916 -0.17855555 0.09067552
-0.15673508 0.08299667 -0.053535026
0.18275096 -0.05673509 0.05187269
0.21994303 0.12798679 0.08631205
0.23667249 -0.049104627 0.094833046
-0.1525545 0.24171285 -0.058579873
-0.013983577 -0.32850632 0.015057082
-0.23332253 0.012491072 -0.10427187
0.17462334 0.28184113 0.1297652
-0.032741513 -0.08496494 0.0026609907
-0.17539755 -0.071301736 -0.07489085
-0.109779455 0.01903212 -0.056760978
0.043764263 0.26198906 0.04946023
0.036661886 -0.2983455 0.0025496904
-0.16578558 0.17857835 -0.059311427
-0.1624355 0.08098251 -0.049527284
0.022654695 0.17539997 0.029578693
-0.0027149755 -0.013779224 -0.13225299
-0.11310157 -0.055748884 -0.0087269405
0.19210762 0.2253774 0.091511756
0.05414169 0.31294045 0.0066137104
-0.11015315 -0.1375204 -0.026462188
0.04279856 -0.30382296 -0.015815347
-0.061450243 0.29020303 0.048039634
-0.07338415 0.22581817 -0.02887015
-0.23234087 0.015537491 -0.09748506
-0.032523196 0.20320685 -0.008462014
-0.13841537 0.2279204 -0.06338583
0.105372556 -0.18585402 0.036237538
0.18015651 -0.15348011 0.07278686
0.25848266 0.05614074 0.09729649
0.118303545 -0.15039887 0.009834174
0.07999594 0.13155875 0.021925438
0.10738131 -0.24604952 0.0074107368
0.08622153 -0.13090095 0.038841665
-0.07352249 0.2612638 -0.02924237
0.22728597 0.055722464 0.100320786
0.24340585 -0.11890723 0.088257916
-0.0014606233 -0.29640046 -0.011040876
0.22522695 0.042053334 0.112330005
0.18592066 0.03704455 0.07387125
-0.17593575 -0.10230822 -0.06361568
-0.09362421 -0.4291716 -0.055720687
0.003871022 0.17082262 0.009900872
0.0508473 -0.311937 -0.0049932953
0.01970512 -0.2943475 0.006148751
0.11613125 0.17512442 0.061987046
-0.1713928 0.17128682 -0.03369897
-0.18634515 0.1304806 -0.05993606
0.10843683 -0.2377277 -0.038410053
0.102281556 -0.13408032 0.0539459
-0.24823888 -0.12623502 -0.05493922
0.053642083 0.19174138 0.023843864
-0.036046613 -0.24145123 0.025087805
-0.0059258793 0.16489512 -0.010530376
-0.1910553 -0.04057368 -0.09547767
0.17314057 0.028304009 0.056253795
-0.12722899 0.269733 -0.052539892
-0.16801286 -0.105959706 -0.03375855
0.26561823 0.007129522 0.14567502
0.2327249 0.23155406 0.07184219
-0.2729703 -0.019805938 -0.042359162
0.15007812 0.08681873 0.055632915
-0.02082731 -0.09538776 -0.0021024721
-0.08994948 0.26219693 -0.027155556
0.0876669 -0.27992147 -0.012974357
-0.08410904 0.100313894 -0.049223207
-0.2455723 -0.06662993 -0.069666274
-0.0014755487 -0.031344052 -0.16440529
-0.17253467 0.24932101 -0.02914216
-0.089993484 0.054731235 -0.06121834
0.19257186 0.27373067 0.12176456
0.21427672 0.22227202 0.07609279
0.07584157 0.28190228 0.010237765
-0.013011927 -0.13031226 -0.014537333
0.18206054 0.0076401657 0.07795691
0.040630314 -0.3035314 0.023059694
-0.031994555 0.24734747 -0.009114163
-0.19933255 0.19866592 -0.039216164
-0.06554393 -0.17511365 -0.033595383
0.06190553 -0.04302332 0.023578273
0.17717177 -0.11922608 0.04323346
0.023372546 -0.22886863 0.0508321
-0.25685924 -0.04094238 -0.10441968
-0.12157275 0.06272262 -0.05473223
-0.07658246 -0.084018365 -0.051159803
0.17472784 0.21425727 0.07765199
-0.05587406 0.290269 -0.01946575
0.160967 0.046552677 0.053520504
-0.15362465 0.28807566 -0.025636975
0.16000095 -0.08030709 0.086637825
0.023643618 -0.105419666 -0.011374631
-0.22445647 -0.07999762 -0.080734365
0.2345929 -0.04421357 0.08226197
0.033092275 -0.09974276 0.021839816
-0.28796792 0.06408774 -0.075817645
0.12878951 0.24897827 0.065741345
-0.05493412 -0.1743771 -0.0032669199
-0.04529645 -0.10357825 -0.012750076
0.10693178 0.14798087 0.059006777
0.17529568 -0.09708904 0.058551803
0.07783645 -0.31248617 -0.0419666
0.028380444 -0.08904027 0.018048896
0.0035479742 -0.37171006 -0.0012271247
0.016414007 0.32457897 0.032898303
-0.19894743 0.208451 -0.061569028
-0.119645596 -0.10537086 -0.04432387
0.040374734 -0.093652755 0.019283999
-0.14231347 0.2921648 -0.011933104
-0.03996169 -0.33212587 -0.0014744311
0.0070024794 -0.06375036 0.012839524
-0.23306537 0.15489924 -0.10500757
-0.08035532 -0.127357 -0.01987372
-0.16049676 -0.10704366 -0.05373939
-0.02848754 -0.15130672 0.015147503
0.046942458 0.30075374 0.03476943
-0.20955385 0.03876182 -0.089638375
-0.104267664 0.0862502 -0.05105484
0.15047526 0.095326535 0.07422809
0.10341669 -0.1746693 0.040445115
-0.2127025 -0.03869684 -0.048733983
-0.17466784 0.065040514 -0.04669127
-0.113405116 0.17069936 -0.047999293
-0.11695872 0.19819133 -0.03288029
0.2680355 -0.075611964 0.12764029
0.042901065 0.14412652 0.012146792
0.12968278 -0.16102736 0.062399138
0.104379594 -0.0085013565 0.029185813
0.027194947 -0.18779838 -0.0062681744
-0.028661987 -0.11271252 -0.032988396
0.0060405997 0.25794685 0.023007603
-0.16771393 0.19440138 -0.058210205
-0.157832 0.0867257 -0.061508678
-0.10936803 -0.11883119 -0.026163407
0.11649485 0.2665452 0.022607656
-0.2130293 0.16573349 -0.09480025
0.27160347 0.0996197 0.10694352
0.24168111 0.09685994 0.11379377
0.09597526 0.07250167 0.016616104
-0.120503366 0.1993222 -0.03658717
-0.16911776 -0.0850694 -0.07304568
0.0060377824 0.2096372 -0.015753994
0.13852225 -0.10366108 0.04830221
-0.007520804 -0.086685926 -0.022716194
0.28169173 0.02544356 0.121963084
-0.1402975 0.07069856 -0.039070703
-0.16435322 0.055762753 -0.054942742
0.26427737 -0.05132829 0.072937995
0.02301842 -0.2101883 4.1752322e-05
-0.00118687 0.18216392 0.013729892
-0.09701344 -0.07347665 -0.02669075
0.19572216 0.20884931 0.12503223
0.05037457 0.27979586 0.03884857
0.19994624 0.2797485 0.052919015
0.07294095 -0.030849 0.042607266
-0.1654001 0.1594397 -0.044003166
0.058262896 -0.23936665 0.06428395
-0.116501056 -0.38194925 -0.079334565
0.2019901 0.093268834 0.042873144
0.0840843 0.09136211 0.053454626
0.13626875 -0.07155898 0.05277385
0.014370826 -0.06758334 -0.041008342
-0.02629111 -0.36906782 0.021173462
-0.0011139546 -0.1719879 0.002883459
-0.046625506 -0.3519515 -0.034811057
0.12540397 0.13897274 0.042841423
-0.031344216 -0.32065856 0.00819278
0.10414377 0.08097947 0.030943977
0.011572904 -0.30189487 -0.0143011445
-0.15159035 -0.09811094 -0.0625786
0.00034454302 -0.25872898 0.018221846
0.133151 0.0936171 0.05126064
0.194164 0.11248337 0.07027748
0.05552473 0.14083971 -0.028362606
-0.08106628 0.23057711 -0.031387225
-0.048468683 -0.1812818 -0.003586005
0.21230388 0.009514481 0.103103384
0.0886299 0.3086734 0.004444838
0.004368816 -0.3216362 -0.006789173
-0.1603428 0.229522 -0.026124293
-0.10193464 0.30366483 0.0090418495
0.09099402 -0.051812652 0.027729556
0.16566555 0.19753315 0.048691552
0.0050210687 -0.36150572 -0.026600359
-0.026665103 0.29919857 0.008108106
0.11772346 0.18141775 0.039728574
0.19945492 -0.13006185 0.08440997
-0.056866646 0.2927333 0.010284628
-0.07936188 0.16814362 -0.022749538
0.042706024 0.13042033 -0.105991304
-0.19192453 -0.05904419 -0.060274363
-0.044166163 -0.29219258 -0.045634985
-0.09476004 -0.017436227 -0.023638973
0.12258853 0.11946287 0.042376928
-0.025419408 -0.2426746 -0.005597323
-0.29414877 0.012314975 -0.050041847
0.010205325 -0.12514289 0.014061731
0.13170934 0.28052253 0.08403312
-0.042911816 -0.34752688 -0.02985536
0.13091514 0.19971924 0.0773093
0.07443722 0.1317266 0.03385426
-0.14787036 -0.15846649 -0.027089091
0.09267959 -0.09278417 0.023197876
-0.18097456 -0.20866306 -0.027384957
0.18751843 -0.0478449 0.07227603
-0.09555819 0.056405935 -0.054669652
-0.060858622 -0.18717235 -0.019578299
-0.054550957 -0.035530668 -0.0075444174
0.22588642 0.1280988 0.073953226
0.096043386 0.24479821 0.035857774
0.037611682 -0.07809767 0.004873154
0.109824285 -0.1480845 0.04872002
0.16576442 0.22367777 0.10762633
-0.041118838 0.1111368 -0.0037587308
-0.102312475 0.0037588875 -0.05494319
-0.18117878 -0.1495415 -0.06027126
-0.01562507 -0.44120505 -0.0323654
-0.05681912 -0.3949008 -0.047751002
0.17456186 0.10145666 0.06308629
0.019068511 -0.3138304 0.020035934
-0.10918143 0.15827382 -0.031017354
0.19969106 -0.18100111 0.110690005
-0.034911416 -0.26955518 0.016968837
-0.061123595 0.16946329 -0.026972707
-0.19967997 0.25200832 -0.041833937
0.019721624 0.2263374 0.014626148
-0.2086112 -0.098548345 -0.070328295
-0.15429042 0.10441507 -0.059847426
0.21870312 0.1674066 0.10057797
-0.13115758 -0.14869496 -0.03770109
0.018534891 -0.019146021 -0.17335932
-0.03489648 -0.2839159 0.01817869
-0.22377093 0.12585692 -0.08074397
0.15374821 0.20406562 0.04060638
0.07504233 -0.15588725 0.01874335
-0.13197656 -0.103312746 -0.040433295
0.096869655 -0.27119723 -0.035676643
-0.14966144 0.27608746 -0.05738918
0.077954024 -0.02983828 0.017423147
-0.03440465 0.26305318 -0.012730656
0.1441962 -0.15024969 0.11562872
-0.25803116 0.10691089 -0.072331525
-0.03094535 0.15661462 -0.017186977
-0.15015924 -0.070302345 -0.04831084
0.07390934 -0.04859277 -0.097678386
-0.07995366 -0.39628246 -0.05969635
0.052914407 0.11464385 0.04828537
0.10105939 0.19398575 0.0480213
0.044070296 -0.29826298 0.019276932
-0.009957311 0.2969622 0.014706102
0.20879577 0.25921744 0.08437147
0.09950988 0.13559905 0.049233865
0.110672444 -0.098556295 0.01934181
0.11123301 -0.111739084 0.04806831
-0.15490362 0.026665194 -0.063566834
0.1920039 0.085271776 0.053133704
-0.22362566 0.25310326 -0.04814494
-0.13882153 -0.18494605 -0.031073065
0.12245774 0.1432961 0.057501987
0.208015 0.19769971 0.1328778
0.14598824 0.093428746 0.06416881
0.24969146 0.11064833 0.0963247
0.06058342 -0.036182594 0.007988096
-0.011555879 0.17056197 0.0004895122
0.22490685 0.055801827 0.10669854
-0.15147884 0.2188033 -0.048816353
0.25081587 -0.064487144 0.07851925
-0.17599267 0.090428695 -0.087481685
0.19505489 0.16962163 0.04422164
-0.14084557 0.20295389 -0.02370329
0.08398362 -0.022784052 0.021518596
0.16232876 0.2603771 0.12881908
0.17287882 0.21446787 0.07203656
-0.07711437 -0.33628994 -0.023581034
-0.23838966 0.20058794 -0.059279207
0.23648556 0.07548035 0.08644842
-0.085480936 -0.14573874 -0.029047037
0.1962104 -0.13445763 0.10405752
-0.018171193 0.10548997 -0.15025006
0.041070517 -0.23450747 0.054018985
-0.09523555 -0.04577402 -0.030798106
-0.11265944 0.14313316 -0.016509216
-0.062248815 -0.14151028 -0.01882794
-0.12739077 0.2994207 -0.010508596
0.2538878 0.082083955 0.094286546
0.13399394 -0.2154728 0.04537916
0.17760293 -0.16344808 0.10929067
-0.18195646 -0.17757873 -0.071066536
0.12481116 -0.17179704 0.037833467
0.23492397 -0.10989671 0.11898533
-0.070374124 0.1489004 -0.024309043
-0.19650117 -0.17611003 -0.06513301
0.11566322 -0.15158881 0.05468827
-0.22399403 0.09084945 -0.09853385
0.039215337 0.20748484 0.02689775
-0.17268123 -0.13576874 -0.052275185
-0.016555863 -0.035189778 0.0050625964
0.14059247 0.011369996 0.045684237
0.15779117 0.105857536 0.06528011
-0.16275421 0.10863528 -0.08280602
-0.26952153 0.062302917 -0.07261272
-0.109033 -0.04791686 -0.062550165
0.023888243 0.2530004 7.6261204e-06
0.05228022 -0.052473843 -0.17108004
0.07051323 0.16547346 0.040212464
-0.20540938 0.09865138 -0.08810007
-0.10548316 0.09949655 -0.022483923
-0.075087905 -0.21957271 -0.042870387
0.23789749 0.19308333 0.092489175
-0.0025860306 0.29651022 0.0177453
-0.2614662 0.17000087 -0.06683312
-0.19029754 0.23943329 -0.065930255
-0.08266185 0.2428158 -0.0017546345
-0.26350102 0.20329474 -0.06331949
-0.20643294 -0.10361214 -0.0581283
0.11234468 0.2525352 0.070153415
-0.03184424 -0.17505696 -0.016939726
0.019892368 -0.36477232 -0.045449328
-0.11887853 0.018865911 -0.05735778
-0.09740495 0.032151952 -0.06689229
-0.047550634 0.088555045 -0.08831135
0.0098357545 0.32008693 -0.006005135
-0.2419146 -0.009715016 -0.09105959
0.0073490175 -0.075055726 0.017890576
0.22519962 -0.12030475 0.09650128
0.15423584 0.30444285 0.09798884
0.094053864 0.14897656 0.037568368
-0.101090774 -0.22729714 0.00071290974
-0.1547611 0.026650632 -0.031615306
0.19475344 0.042519465 0.086904675
-0.08720119 0.13130553 -0.017801011
0.07655799 -0.019519897 0.039927166
0.18697116 0.17381538 0.05127877
-0.0053212685 0.06590145 -0.18244714
0.014123937 -0.36517724 -0.025361398
0.2684784 -0.0409596 0.13612911
0.10228965 -0.27954265 -0.04824791
-0.24473745 -0.037434928 -0.0962896
-0.07828434 0.27285752 -0.032046277
0.23938946 -0.030249296 0.06390647
-0.2390533 0.25288498 -0.06343145
-0.20133823 0.014116405 -0.06878572
-0.13201508 0.16393712 -0.06371273
0.029062431 -0.30694246 0.027003651
0.07829492 0.085462056 0.013236563
0.1841785 -0.11085181 0.041769616
0.122629225 0.15986559 0.037793998
-0.0591663 -0.08374364 0.0029554516
-0.01346183 0.099479385 -0.112477146
0.0210946 0.18725327 0.041012842
0.21409252 0.12951227 0.08776934
0.1267847 0.15434922 0.07420569
-0.19436051 -0.048144408 -0.06677911
-0.017590957 -0.20962241 -0.017880829
-0.20497501 0.14953324 -0.051482316
-0.21099909 -0.1185293 -0.041794315
-0.048915684 -0.0017083754 -0.02449816
0.07900525 -0.24404188 0.02250856
-0.13566206 -0.10245433 -0.060414143
-0.13196683 0.00040400284 -0.037779238
-0.03163566 -0.4086611 -0.037714317
-0.06809751 -0.16145176 -0.0249826
-0.09494666 -0.16712475 -0.022307266
-0.21129067 -0.093171455 -0.071716465
0.11545397 -0.20331657 0.01510057
-0.011339746 -0.009819702 -0.10278
-0.023105135 0.2807729 0.015320545
-0.09195044 0.08922841 -0.050926927
-0.11401889 -0.14545962 -0.050482564
0.25275108 -0.035758484 0.13019855
0.25522402 0.016755683 0.10867285
0.08030602 0.036996998 0.02344613
0.24029288 -0.017989974 0.101455115
-0.024656294 -0.27503023 0.008071105
-0.12693319 0.060835056 -0.03400624
-0.044309765 -0.42918345 -0.0590232
-0.015543846 -0.3379602 -0.0063263224
-0.07885762 -0.1857873 -0.018543325
-0.15836601 -0.20166495 -0.0153764365
0.19393602 -0.112116694 0.122162424
0.058330722 -0.21540783 0.056657195
0.0096652955 -0.16238171 -0.0050554993
0.16083522 0.11122908 0.053773925
0.2018902 0.17927533 0.04984687
0.25771528 0.16920367 0.06045701
-0.09784501 0.16697502 -0.03920491
-0.23656747 0.07442529 -0.08848926
0.16406831 0.29503495 0.09817434
-0.04293557 -0.14376675 -0.014340329
0.048308697 0.26895782 0.03697595
-0.15911993 -0.06627872 -0.086767085
0.15977405 0.08035106 0.05141214
0.08735917 0.17948018 0.05881473
-0.13711219 0.04645841 -0.05173558
-0.014238399 -0.3169212 -0.0050329715
-0.12888315 0.10629961 -0.0292798
-0.19977072 -0.0057805968 -0.053998835
0.042269208 -0.18726386 0.012573539
-0.17701142 -0.08244646 -0.037482016
-0.03635421 0.2554534 0.013466194
-0.03177999 -0.09368734 -0.0324984
0.24933262 0.14850464 0.08994926
0.062775575 -0.35143033 -0.033164434
-0.19432732 0.03612595 -0.0368006
0.14329556 -0.12423883 0.038450234
0.1399176 0.01577883 0.032511666
0.20857395 0.032918718 0.06643363
0.12737194 -0.023011083 0.035168424
0.090178326 -0.21816811 0.058520373
0.11653859 -0.12340247 0.040363725
-0.21613277 0.22987582 -0.027219968
0.02633327 0.15213427 0.029361287
-0.26648906 0.09570891 -0.07410106
0.12049026 0.15147868 0.035419993
0.25310013 0.18233632 0.1252476
-0.043576133 -0.37843952 -0.039329562
-0.009904569 0.1459951 -0.026693368
-0.0861054 -0.19780311 -0.056363393
0.22215398 0.054468937 0.060461532
0.049437195 -0.350248 -0.05126931
-0.17497712 0.0454831 -0.082425095
-0.02789236 -0.14551122 -0.0134166945
-0.18648039 -0.14799428 -0.049951173
0.114525795 -0.27908167 -0.06352375
-0.11172287 0.29092252 -0.008289344
-0.13987604 -0.20429976 -0.090914935
0.12801576 0.004943385 -0.047839835
-0.08421684 -0.17739977 -0.019394757
-0.004987874 -0.2621712 0.012432636
0.09327488 0.19501656 0.054990184
-0.13507228 -0.1662716 -0.04254611
0.114244945 -0.11940725 0.05109085
0.18802565 0.2263104 0.12763701
-0.24847488 0.001831347 -0.08262652
-0.14232774 0.07586805 -0.032932926
-0.17222808 0.0059017064 -0.041080344
0.010148732 -0.15140094 0.022207743
-0.0993386 0.14841318 -0.0177844
0.20787092 0.07090445 0.050278593
0.12098018 -0.11178661 0.037150227
-0.08165556 0.02292764 -0.049121097
-0.013510311 0.218789 -0.007310951
-0.17245331 -0.21314518 -0.065275766
-0.026627377 -0.40770912 -0.084476925
-0.1223449 -0.029055301 -0.0326798
0.0794557 -0.15835354 0.001204013
0.20476037 -0.13141981 0.090336815
-0.119529724 0.20450708 -0.056618493
0.040335856 0.29425997 0.03417679
0.14927404 -0.1041904 0.042404477
-0.17203067 0.085074574 -0.06890297
-0.03719476 0.15490763 -0.007548845
0.21438202 -0.0044304808 0.092709884
-0.26959535 0.073880866 -0.07733392
0.143429 -0.08230372 0.045541197
0.16494153 0.007662118 0.04538437
0.11961392 -0.014277916 0.04615432
-0.054161794 -0.424535 -0.036300145
0.20014751 -0.036703493 0.08638329
0.13119675 0.02245223 0.048979502
-0.20119181 0.048706636 -0.071684375
-0.04700978 -0.19145367 -0.008646679
-0.06542469 0.1259613 -0.022818558
0.0840035 -0.28508952 -0.034079034
-0.20391414 0.016659822 -0.08365112
-0.15495813 0.10540962 -0.05070511
-0.116684765 -0.2034449 -0.06473862
0.011610526 0.19281933 0.00061018247
-0.08078649 -0.06940472 -0.039730925
-0.1541921 -0.05839162 -0.07745714
0.0017161816 -0.2378744 -0.00012087775
0.04041473 0.29116946 0.0069116773
0.26830402 0.07443004 0.07849422
-0.050631426 0.04087404 -0.10040541
0.21039966 0.13282748 0.09765861
0.1872346 0.22716098 0.08777657
0.18479021 -0.16934998 0.054417554
0.24610756 0.1005419 0.14608397
-0.051113885 -0.07697905 -0.040820956
-0.16998187 0.014711416 -0.06675842
0.23613729 0.0114074135 0.08314147
0.08655704 0.27984318 0.066512786
-0.013765868 0.18131208 0.024510875
0.08141039 -0.11400383 0.04498959
0.19188912 0.020183217 0.06969298
-0.16136406 -0.21663105 0.00034487233
-0.0132373655 -0.20273535 -0.041860975
0.047177035 -0.2788305 -0.0072676167
0.18103684 0.07252563 0.050814692
-0.17908691 -0.1598536 -0.03756359
0.15379989 -0.1192043 0.063679464
0.23231961 0.14130005 0.11690323
-0.2222142 0.014333047 -0.09853751
-0.20117173 0.021306688 -0.06629135
-0.17413947 -0.12334815 -0.037906177
0.057236657 0.109047115 0.027698293
0.2614293 -0.054979824 0.07533109
-0.14068778 0.28511122 -0.023098566
-0.12714666 0.0006299445 -0.024253108
0.12057324 -0.004276015 0.021668168
0.23484516 -0.098151974 0.112125084
0.10477385 0.037809692 0.07075939
0.26910156 -0.010910846 0.09832877
-0.25440407 0.09032153 -0.07356511
0.17118667 -0.10783961 0.073253155
-0.033250388 0.0863446 -0.08478494
-0.04138447 -0.07171035 -0.028792962
0.024467861 -0.20023674 0.03087295
0.15400688 -0.020834863 0.033083715
0.16600439 0.13289359 0.092437774
0.016350102 -0.04490453 -0.041996207
-0.18993354 -0.10234312 -0.06855032
-0.29128668 0.047992826 -0.08225041
-0.039615244 -0.102809936 0.013143778
0.11960308 0.059111066 0.053212974
-0.06052628 0.007191023 -0.027583761
0.09271241 0.13882464 0.06686222
-0.18343271 0.13890299 -0.048472106
-0.008208979 -0.13302194 0.01481315
-0.22587155 0.18918844 -0.05247851
0.11131549 0.04577967 0.019062616
0.2133918 0.109610185 0.066118754
0.10007857 -0.20282592 0.029896714
-0.2033823 0.1164853 -0.08696813
0.22766913 0.117672026 0.10166576
0.032306712 -0.14615987 0.012998861
-0.0747375 -0.35773996 -0.046356976
-0.20318267 0.18392144 -0.07822059
-0.21200062 -0.09756516 -0.08499731
-0.06931271 0.21240185 -0.015473115
-0.22325844 -0.084752075 -0.06781442
0.16818565 0.17388594 0.07702303
0.19292028 0.23355259 0.09104194
-0.00987206 -0.316843 -0.0075787744
0.06463845 0.14188553 0.04294026
-0.22288501 -0.035845876 -0.091650784
0.12290493 -0.10866934 0.034953885
0.24108776 -0.08776083 0.05658511
-0.062020645 0.24494177 -0.03923598
-0.094314106 0.14966887 -0.0072072656
-0.025172884 -0.06956402 -0.031212006
-0.077943 -0.3105458 -0.0011367536
-0.080227874 -0.00991431 -0.013628674
0.2469144 -0.13405642 0.09335471
-0.19428223 0.20234683 -0.05774287
-0.12585722 0.07565887 -0.036484826
-0.14931759 0.23131095 -0.058787867
-0.19718377 -0.23350012 -0.056262065
-0.04844425 -0.22634979 -0.018345399
-0.16880299 0.14697264 -0.033705402
-0.12735486 0.032890845 -0.024957502
0.16616902 -0.14612725 0.083789356
-0.18471885 -0.18952027 -0.03736482
-0.13516572 0.040161647 -0.054178502
-0.21639521 0.093475826 -0.09309514
0.16750938 -0.019751977 0.07652526
-0.15147823 0.26367652 -0.06392851
-0.12416443 0.095632695 -0.06393958
0.120620966 0.09431287 0.058822934
0.11172134 0.1549677 0.049030993
0.21345878 0.10154654 0.088854305
-0.2522626 0.2268762 -0.048487432
-0.07679881 -0.08046716 -0.005701753
0.1421169 -0.118494034 0.01777571
0.053534355 -0.34255296 -0.069445215
-0.1394217 -0.13708323 -0.03216917
-0.06438972 -0.3665148 -0.054161556
-0.2366668 0.07146473 -0.08218496
-0.2025409 0.07111802 -0.06901741
0.093709275 -0.23838827 0.048495233
-0.2016198 0.267777 -0.06842529
0.2458385 -0.08670515 0.11618105
0.23697056 -0.022107383 0.123728864
-0.23127647 0.1526975 -0.099764846
-0.12594958 -0.07584592 -0.03285364
0.012844456 -0.17689061 0.011980046
0.028732998 -0.36546218 -0.028024659
0.1091396 -0.23651147 -0.018972695
0.02967437 0.33390465 0.024554089
-0.13498777 -0.03670597 -0.023296554
-0.21115617 0.18238439 -0.07161517
0.18040715 0.2519947 0.12280574
-0.08462191 -0.018198354 -0.03817894
-0.17697397 0.024134325 -0.057720736
-0.17116952 0.001500623 -0.061579227
0.15917711 -0.13789521 0.028868439
0.2016258 -0.019754678 0.095464766
-0.01165046 0.12961107 -0.030929344
0.18464118 -0.12125563 0.06026309
-0.16068599 0.19366027 -0.06772207
-0.10244972 0.042464737 -0.060199246
-0.10875147 0.083076924 -0.00981865
0.16449441 0.26963416 0.081236854
0.11425606 -0.014205311 0.04228186
0.08145044 -0.0797308 0.05287968
-0.27292967 0.15803997 -0.026325777
0.10983944 -0.14500093 0.028740987
0.11402893 -0.18100928 0.033350125
-0.028263018 -0.3584271 -0.0077554774
0.12526171 -0.01259182 -0.09750691
-0.19991179 0.22717153 -0.057027332
0.097532086 0.20169584 0.020383945
0.08199444 0.25401846 0.046001397
-0.01336569 -0.3266757 -0.01752749
-0.1178251 0.05782514 -0.02506046
-0.04380991 -0.2140177 -0.006241033
0.025253132 0.25431675 0.023450214
-0.08056226 -0.15315199 -0.016778057
0.14750454 0.024582667 0.07434644
0.21003897 0.22360274 0.08523898
-0.057170153 0.04935702 -0.06974765
0.002411813 -0.053519197 -0.0019857301
0.17245013 -0.05173839 0.053132728
0.20382746 0.12277487 0.06388362
-0.018100655 0.25736755 -0.008719382
0.22403906 -0.14128196 0.08306985
-0.000975871 0.13787302 -0.09847382
-0.014381343 -0.11728682 0.0072696125
0.1135235 -0.1272412 0.039697986
-0.06751519 0.29409522 0.020164277
0.12651838 0.3051604 0.046848536
0.03509627 -0.2274617 0.010409337
-0.063688494 0.21709326 0.003233769
0.15422489 0.078442484 0.07270968
0.13091037 0.18302144 0.060073636
-0.22681817 0.14825985 -0.0636493
-0.05391473 -0.061771203 -0.0074988618
0.045265775 -0.12673286 -0.015739884
0.19766103 -0.05421252 0.05739468
0.2501277 0.11679324 0.096820705
-0.121605374 -0.018499983 -0.04248821
-0.013853971 -0.07841175 0.013018379
-0.22824728 0.18531117 -0.022005143
0.11517098 0.120026425 0.03935707
-0.25548992 -0.032974087 -0.035229158
-0.2233941 0.23785259 -0.028260777
-0.023111138 0.1876353 -0.027635235
-0.06749435 -0.33779013 -0.04720081
0.18189983 -0.16065368 0.043852463
0.12944767 -0.2671678 -0.007069556
0.21247545 0.111892276 0.08410707
-0.0038284776 0.16480264 -0.019405106
0.020023122 -0.14565542 0.0119178295
-0.26643163 -0.064677835 -0.060576707
0.10185136 0.28147802 0.09744279
-0.05971156 -0.0618554 -0.01932594
-0.22190663 0.05887358 -0.06078075
-0.111106604 -0.3924944 -0.060404047
0.16503282 -0.20136426 0.06948853
0.06457877 -0.06278002 0.032306094
0.084009126 -0.11564954 0.026894158
-0.042770132 0.09719055 -0.1597356
-0.14257255 -0.180084 -0.050615545
0.27081177 -0.057486996 0.12683028
0.20269296 0.1457201 0.07505025
-0.08874411 -0.14447138 -0.020238826
0.14995822 0.077766046 0.06876856
-0.16581638 0.13968635 -0.07976864
-0.019608255 -0.3249448 0.004658903
-0.108031295 -0.1427421 -0.01885193
-0.048382 0.09165461 -0.035794728
-0.024776554 -0.40500975 -0.0476464
-0.027338875 0.24394843 -0.009277885
-0.27064288 -0.0061659627 -0.07858518
-0.017360847 0.16922463 0.0014543366
-0.005614062 -0.22503647 0.049652684
0.20423795 0.19576515 0.071670696
-0.043677013 0.1721522 0.009548028
-0.030998401 0.20745671 -0.031056775
-0.1630982 -0.14503692 -0.03915681
0.08695585 -0.15787688 0.023503587
0.21202889 0.22339581 0.048311464
0.1682484 -0.0081397295 0.06901884
0.14980473 0.15126067 0.04078455
-0.03797924 -0.17652485 0.0019048484
0.09164196 -0.21574655 0.034906697
-0.015219492 -0.13961112 -0.01589009
0.20220526 -0.1455525 0.093735255
0.19749756 -0.09493602 0.06245668
-0.044887073 -0.21914469 -0.004192475
-0.064909786 0.12335881 -0.008694298
-0.22194935 -0.14875811 -0.0406417
-0.1978879 -0.038209908 -0.07453748
0.04747032 -0.16295786 0.03248135
0.111307725 -0.27692312 0.006648628
-0.20283192 0.040438335 -0.08574048
0.12608841 -0.19519886 0.017834086
-0.1351047 0.14065172 -0.050048303
0.12984608 -0.12661749 0.052323118
0.24253611 -0.008568986 0.08027567
-0.09598372 -0.0783148 -0.013593467
0.05350233 -0.016905041 0.014830339
-0.10459647 0.03439139 -0.018665627
0.18216002 -0.12121447 0.086282566
0.20781744 -0.10156836 0.09056317
-0.0046276036 0.19286352 -0.010331557
-0.08751523 0.06546931 -0.05354177
-0.22919096 0.03475989 -0.09480216
0.16482763 0.053502873 0.05144566
0.24240759 0.17629847 0.08730212
0.13460454 -0.017943144 0.025933934
-0.1598038 -0.18456271 -0.084428385
-0.025625266 -0.2245046 -0.012974586
-0.25992897 0.1346704 -0.05119985
0.056600727 -0.05345708 -0.16114366
-0.28147694 0.11877233 -0.043127578
0.26355824 -0.10442864 0.0881474
-0.06767457 -0.37676457 -0.01964832
-0.0038256 0.113102764 -0.16976796
