# .PCD v0.7 - Point Cloud Data file format
VERSION 0.7
FIELDS x y z
SIZE 4 4 4
TYPE F F F
COUNT 1 1 1
WIDTH 1000
HEIGHT 1
VIEWPOINT 0 0 0 1 0 0 0
POINTS 1000
DATA ascii
-0.18937734 0.07680912 0.12992026
-0.20556843 -0.09970555 -0.099253744
-0.069156505 0.08198494 -0.0178608
-0.0670739 0.050968014 0.009228666
-0.13329294 -0.056356195 0.1424941
0.18219768 -0.1892362 -0.08416243
-0.14656846 -0.12560979 0.16855037
-0.013571706 0.13796173 -0.10108654
0.24341263 -0.112800874 0.08479918
-0.11298022 -0.05969663 0.12120917
-0.13135621 -0.023125364 0.08988346
0.22486721 -0.13356411 0.057966568
0.02470038 0.28140047 0.010325791
0.19691393 -0.023855789 0.042840365
0.22550815 -0.18394452 -0.011828239
-0.20722544 -0.08665372 0.005534203
-0.1606046 -0.011024445 0.099457525
0.12874983 -0.08311255 -0.34658667
0.14708322 0.13415578 0.08565176
-0.22660384 -0.0751095 -0.19170006
0.18702894 -0.03652442 0.115797855
0.016620765 0.22972366 -0.25214994
-0.2086985 0.09985788 0.004799987
0.0012566647 0.27658576 -0.122810945
-0.0386232 -0.16372304 -0.079470925
-0.17233111 -0.14407061 0.06433419
-0.13238178 -0.25831053 -0.11422584
0.25716248 -0.1815014 -0.07050351
0.020056184 0.16315725 -0.22459641
-0.15650758 -0.23509033 -0.014711388
-0.10634826 -0.21429445 0.10642147
0.22542992 0.016089225 0.076056495
-0.10621891 0.09084172 -0.010767848
-0.20131275 0.10074882 0.0032336114
0.15278332 0.09569767 0.14113303
-0.12308738 -0.12164666 0.11656443
0.069487676 -0.0953358 -0.09401957
0.16065103 0.09492616 0.14606854
0.13373595 0.09526029 0.033846553
0.09782731 -0.009168108 0.06610168
-0.17854288 0.048357323 -0.08618856
0.115503035 -0.08114822 0.013522542
-0.010652477 0.0040916316 0.08376517
0.18599923 -0.09403987 -0.194394
-0.22503462 -0.092608355 -0.14345454
0.042498905 0.17385207 -0.008940154
0.00013948388 -0.028930519 0.057022717
0.046460655 0.0798493 -0.004561552
-0.13319601 -0.011341589 0.12510088
-0.13018128 -0.1070746 0.19857983
0.022443071 -0.11142623 -0.017838113
0.051441826 0.29223853 -0.058184378
0.19393949 -0.055039458 0.04039494
-0.11896308 -0.008651265 0.11851686
-0.065342866 0.0029969297 0.07167941
-0.07171272 0.032736983 0.06388846
0.06479485 -0.044509973 0.028036026
-0.2296892 -0.036607448 -0.007923213
0.09683932 0.016088992 0.051150583
0.13374463 0.10279079 0.030545924
0.1471838 0.12674245 0.12085651
-0.0012178039 0.008993966 0.09877175
-0.16642362 0.06780155 0.033719074
-0.22060263 -0.21350291 -0.18410002
-0.1322154 -0.00025782533 0.16239846
-0.22377886 0.053961683 0.11251632
0.14330304 0.02969146 0.08737716
-0.13440284 -0.065468654 0.19497058
-0.07975697 -0.19617893 0.04448467
-0.13303787 -0.09332569 0.10727677
-0.05116511 0.13437252 -0.013745656
0.15278244 -0.12653075 -0.2641483
0.22624382 0.027124282 0.16046351
0.115537666 -0.0031345077 0.040211912
-0.24649027 -0.012722457 -0.17366336
0.041228604 0.25102764 0.025425127
0.23970868 -0.1911361 -0.08819053
0.11490784 -0.12730509 -0.0640163
0.15307061 0.04040006 0.08575838
0.11451873 0.143912 0.13225713
-0.21546322 -0.15325473 -0.06790522
0.08936997 -0.07836208 -0.35629487
-0.24077065 -0.07328432 -0.20092869
0.16232818 -0.009843799 -0.06748225
0.18321082 -0.1490865 -0.08905599
0.1105893 -0.023943141 -0.40273458
-0.016868588 0.26584923 -0.17043515
0.010903024 0.1470111 -0.07092594
-0.09402131 -0.23294523 0.054905977
0.22010334 -0.043882303 0.102435306
0.24596147 -0.074081786 0.09216837
0.14639553 0.03335137 0.11343558
0.18119691 -0.16631126 -0.22979233
0.14608443 -0.16701896 -0.13097866
-0.082399204 0.05793974 0.059312858
0.03942554 -0.022597775 0.07642437
0.18419552 -0.14830513 -0.22498398
0.22192137 -0.19886164 -0.08278012
0.04514213 0.050316148 0.01798525
-0.260561 0.0064740125 -0.06256486
-0.10621708 -0.17032634 0.1653312
0.15770686 0.047567114 0.048632335
-0.26850468 0.028464902 0.026001612
0.02459066 0.27472624 0.023610746
0.10052458 0.04365366 -0.27138236
0.1306334 0.21643563 0.11586769
0.19621022 0.09546424 0.14187302
-0.08651176 -0.15409704 0.055702955
0.031395175 -0.0006886485 0.08435297
0.046334017 -0.043721847 -0.36711347
0.14451426 0.2060092 0.11787411
-0.07242132 -0.122559585 0.08877366
0.07339995 0.23753707 -0.08061683
-0.20562537 0.08207827 0.13356747
0.17771183 -0.17720711 -0.12665033
-0.11093651 -0.08008371 0.09609152
0.13990067 -0.057496812 -0.26344952
-0.11571505 0.013865552 0.09329122
0.020165546 -0.085473046 -0.026084095
-0.02793037 -0.0065945387 0.075916484
-0.01964839 -0.14825809 -0.041515764
0.20443587 -0.06639908 0.017667843
0.24177073 -0.1568646 -0.011761851
0.1076482 -0.119479984 -0.06258408
0.16277747 0.21717839 0.14635606
0.16341795 -0.15747939 -0.16274127
-0.18067975 0.0802977 0.036825407
-0.29067096 0.10597254 -0.063227564
0.19863781 -0.22595473 -0.17521916
0.08446009 0.011048192 0.07411506
0.12162616 0.07954192 0.03829917
-0.20296386 -0.103759155 0.0047643613
-0.24649486 -0.039113935 -0.16821736
0.15309723 -0.07985364 -0.17880943
0.023678036 0.20340481 -0.20439525
0.028883751 0.13408211 -0.016393432
-0.27148828 0.05053252 -0.16362141
-0.16442786 -0.1385652 0.1414097
-0.24377449 0.12688036 0.028740417
-0.23603334 -0.03986607 -0.14417614
0.027588831 0.26074752 -0.006345059
-0.15954348 -0.22393894 -0.05309419
0.12002217 0.09903979 0.057620052
0.067122154 0.015801167 0.051674727
0.17695151 -0.14613877 -0.13274042
-0.2268059 0.11069065 0.08008723
0.12105301 -0.0145053845 0.0277564
0.013374629 -0.077570155 0.055305883
0.08164088 0.041273132 0.07484624
0.05821802 0.14254063 0.045187704
0.17570733 -0.06888751 0.0011174106
0.08025922 -0.030089295 0.02662233
-0.070237316 -0.041920498 0.11730763
0.018530963 0.0022015146 0.09696343
0.16717272 0.13417682 0.1594184
-0.025762644 -0.14332874 -0.14839181
0.18780906 0.033071823 0.13389176
-0.16464269 -0.26185426 -0.17056507
0.00024348262 0.2638897 -0.19656508
0.19682242 -0.15146407 -0.12474079
-0.15200603 0.04153427 0.0007797293
-0.1979857 -0.07043256 0.02937671
0.16527931 0.060401358 0.14105278
0.13860281 0.15173 0.13920707
-0.08073476 -0.26829445 0.10244188
0.042354703 -0.081838585 0.048580583
0.12317931 -0.0024370681 0.06774861
0.1725249 -0.19001226 -0.13338219
-0.037971143 -0.10216974 0.08647501
-0.16165464 -0.2406648 -0.010314713
0.072336316 -0.0013292935 0.06834808
0.17286694 -0.03824702 0.042323485
0.2106507 0.017572526 0.11982579
0.049641687 0.25912833 0.006457133
-0.16392218 -0.27706712 -0.04981872
-0.1388058 0.015237526 0.18887827
0.03684106 0.11779219 0.04760722
-0.20380056 -0.14888962 -0.13607635
0.24871226 -0.17301616 -0.052662637
-0.26516286 -0.05094017 -0.096685655
0.19832806 -0.17488703 0.00036021828
-0.08125688 -0.18089962 0.09781963
-0.14030042 -0.13396978 0.09280723
0.09492023 0.27504948 -0.008088738
-0.02712458 0.058724772 0.013236733
0.10597819 0.24448293 0.10279069
-0.04086113 0.27227774 -0.26497462
0.042501368 0.08104373 -0.31776512
0.06867038 0.27517977 0.0023873094
-0.05348412 0.003803936 0.09503181
0.131393 -0.009688118 -0.15554108
0.109133184 -0.079332285 -0.36271456
0.23725434 -0.22331958 -0.07211499
0.12035628 0.19666363 0.130782
0.16793983 -0.070796795 0.013736459
0.1940813 -0.031265005 0.1222732
0.24653335 -0.08069943 0.1187269
-0.031006793 0.0931153 -0.069587834
0.18526927 -0.13118856 -0.13120405
-0.10525781 -0.164157 0.07236332
0.039581273 0.22408321 -0.041938506
-0.25922954 0.11980633 0.031902775
-0.033613406 0.010552281 0.07509224
0.002873706 0.18716297 -0.24153417
0.03909305 0.30877885 -0.0984987
-0.26470393 0.11626636 0.015557309
0.024310116 0.0023582308 0.05406362
0.22277085 -0.14721799 -0.07074319
0.21725886 -0.08830855 0.021312267
-0.2351113 -0.048792884 -0.05139435
-0.09407635 -0.11949731 0.06739915
0.10989107 0.040292684 -0.16717684
0.17491202 0.14708002 0.15220213
0.20192212 -0.03444404 0.1283724
-0.15403934 0.051643394 -0.009640292
-0.2458844 0.037087783 0.022414425
-0.19405906 -0.21385576 -0.09178589
-0.030490723 0.11443325 -0.037918042
-0.26395988 0.053562682 -0.010069763
0.20143597 -0.06269059 0.1349815
0.064642 0.23697986 -0.017442571
-0.09581065 0.07325915 -0.121410355
-0.14058387 -0.036649626 0.1692793
0.12780993 -0.1319513 -0.31448048
-0.12058402 0.029593809 -0.008836769
0.1617687 -0.08700791 -0.23035102
0.068677865 0.30059946 0.037110083
-0.10117014 -0.18187864 0.10497988
-0.16775028 -0.07517654 0.16907252
0.012233927 -0.078396246 -0.012115028
0.10721403 0.18149054 0.122655205
0.14650944 -0.05178366 -0.16682228
-0.07082348 -0.06906214 0.11698152
-0.081248984 -0.259992 0.09477648
0.09946252 -0.06397228 -0.25061548
0.002995611 0.20219676 -0.30586004
0.19716579 0.067248665 0.14164524
-0.12619618 -0.1776496 0.13521512
-0.1488543 -0.30146682 -0.06903913
0.11500066 0.19759876 0.069628745
0.020950565 -0.12842104 -0.07222181
-0.110222474 -0.21603492 0.1624518
0.1779924 -0.16657265 -0.11148998
-0.20017554 -0.18481465 -0.059323043
0.027772302 0.24859098 -0.12396451
-0.20865677 0.11512542 -0.026216345
-0.024255846 -0.10103037 -0.039970815
0.092033446 0.13734442 0.009445148
-0.1982434 -0.10062427 -0.10290705
0.013844996 0.03986587 0.061049547
0.14079265 0.07801031 0.038417872
-0.0476405 -0.09196751 -0.049865082
-0.21667711 -0.0063882535 0.13098179
-0.163545 -0.0850578 0.16919972
-0.020181859 -0.017874267 0.08446732
0.08697953 -0.11384462 -0.23918498
-0.066832885 -0.027382277 0.109476775
0.10759591 0.18344902 0.12894125
-0.21448211 -0.14679141 -0.17891578
-0.11776317 0.02351693 0.0974731
0.018743588 0.18321171 -0.20186238
0.0701525 -0.0064147753 0.06611697
0.212223 -0.11588678 0.012825231
0.014067072 0.17107284 -0.21658044
0.15403487 -0.012607702 0.07343084
-0.1384459 -0.08062648 0.14795671
0.2388593 -0.1716798 0.028772388
0.18717608 0.08894267 0.16902393
0.14482312 -0.04848413 -0.00041499257
0.11634543 0.100029714 0.03593494
-0.22464886 0.09401289 0.11082041
-0.019195538 -0.012273662 0.060002428
-0.023102196 -0.09041528 0.06498798
-0.13948062 0.064285494 0.010858537
-0.25814912 0.06975972 0.021081427
-0.053116057 -0.16006728 0.03574402
0.16590405 -0.11946539 -0.12454072
0.25107044 -0.19316508 -0.06275757
0.115130484 -0.10210141 -0.069078766
0.17892462 0.038378 0.10228243
-0.009326677 0.08138968 -0.044557404
0.07333333 -0.09553755 -0.23407993
-0.031834394 -0.018649202 0.09580945
-0.22830184 0.018169578 0.006653655
-0.17350973 -0.113776445 0.07257508
0.034522142 0.28541473 -0.13334872
0.12525035 0.13852341 0.09345702
0.014093512 0.29396534 -0.22665605
0.17636602 0.03663268 0.109376445
0.06558757 0.055519637 0.038292237
0.010435734 0.26372015 -0.1899381
-0.18660228 -0.18879817 -0.16762519
0.030683309 0.24559234 -0.20211995
-0.14827386 -0.12851161 0.09986243
0.046474762 0.016470214 0.09111771
0.126979 0.015289435 0.07197316
0.06879598 0.17753452 0.060397606
0.01889284 0.21134046 -0.21935758
-0.04820747 0.04254789 0.07547783
0.20658202 0.05632689 0.15326393
0.045142397 -0.06467918 -0.028919978
0.22081666 -0.079655364 0.08002282
-0.16210973 0.036408596 -0.02898958
-0.06558623 0.006011137 0.10336154
0.09309293 -0.08078352 -0.017198486
-0.04546935 -0.0905002 0.088782616
0.043047257 -0.068389304 -0.05226159
0.03721295 0.21668597 -0.1462683
0.049820084 -0.10103286 -0.037575178
0.060345005 0.115844995 0.039393153
0.21757679 0.06057493 0.122508936
-0.26654482 -0.021695206 -0.20611477
-0.12136718 -0.1449886 0.16210769
-0.24276957 -0.00068110076 0.04460473
0.12884866 0.1052516 0.11115189
-0.07022402 -0.006821636 0.09351914
-0.09454197 -0.10491049 0.16192736
0.06866614 0.26290938 -0.049448147
-0.22643423 -0.04562821 -0.010446469
0.09836208 0.24484585 0.03208316
0.02296457 0.17452164 -0.23385629
0.012383559 0.025816374 0.07306686
-0.117060244 -0.12116748 0.1237999
0.19948709 -0.22070704 -0.2075379
-0.13604513 -0.23516747 0.0882959
-0.18538398 0.043034937 0.0958887
0.012772652 0.19793789 -0.17083971
-0.10860802 -0.1370947 0.1669223
-0.00064502016 0.030412272 0.067166455
0.0945145 -0.05512927 -0.37467057
-0.20607843 -0.19646488 -0.20107476
0.0593679 -0.15018356 -0.06385614
-0.08791917 -0.089362025 -0.04863024
0.1893597 -0.21684626 -0.16469626
0.08866554 0.06869498 -0.21034965
-0.0050795213 0.13810098 -0.053849954
-0.010158098 -0.042832226 0.054486934
0.18592109 -0.1934505 -0.18747541
-0.21573968 -0.05427755 -0.054809257
0.25492758 -0.050579753 0.10583343
-0.07471476 -0.20192131 -0.047289703
-0.085602075 -0.07191019 0.11808831
0.14096081 -0.090077266 -0.07623249
0.0048757745 0.32030845 -0.062153842
0.16755937 -0.16495064 -0.2261944
-0.17465849 -0.0110198585 0.17152889
0.12049845 -0.028022854 0.044628873
0.17321417 -0.117970854 -0.2028308
-0.07893019 -0.06652594 0.07900151
0.07341088 0.01993154 -0.36849934
0.086613774 0.19840251 0.017621238
0.09286291 0.08481194 0.044893034
-0.057773918 -0.08473823 0.081260376
0.069908276 0.0030443512 0.08195356
0.08504459 0.027117277 0.06959824
0.062348895 0.014317917 0.06464727
-0.123838805 0.112280615 -0.002339009
0.17081638 0.05869653 0.18244259
0.10951971 0.14310761 -0.063239135
0.2539132 -0.09332076 0.052552395
0.03256027 0.26881018 -0.1355499
0.1463561 -0.041518882 -0.25741985
0.1761644 -0.060257737 0.0081766965
0.111096814 -0.11719626 -0.092912436
0.14345045 -0.082685344 -0.18944934
0.15902656 -0.07653099 -0.24465917
0.05286154 0.096840136 -0.27133083
-0.16680111 0.046352204 0.14012897
-0.15351929 -0.03333974 0.12386089
0.012840748 0.18621719 -0.062429585
0.00012238293 0.21862443 -0.26397976
0.025796846 0.11051965 -0.31965542
-0.025548177 -0.10771306 -0.013537619
-0.28663588 0.084124416 0.013083495
0.04657702 0.2543322 -0.08163041
0.039591506 -0.087738425 -0.046681516
0.069643885 -0.054904882 -0.40039095
0.053209282 -0.050886523 -0.061650615
-0.18591201 -0.053102735 0.15469831
-0.17770794 -0.07778262 0.11239435
-0.028320042 0.01473414 0.078178264
0.05623905 0.07964421 0.0744762
-0.11335357 0.021840608 0.09448201
-0.044976115 -0.045399815 0.071685195
-0.09035763 -0.049213015 0.091566935
0.083386645 0.20086558 -0.22190687
0.22274688 -0.062439263 0.095426686
0.09584606 0.24119878 0.0038459536
-0.13334411 -0.0111936815 0.108977415
0.05038435 0.0548213 0.03360862
-0.31255138 0.0566782 -0.12483861
-0.18488394 0.057546265 0.17279911
-0.11896178 -0.17345673 0.13546427
0.113925815 0.090040945 -0.028128862
0.19103849 -0.1998135 -0.19807892
0.17400636 -0.10996316 -0.25899932
0.040807854 -0.022535555 0.06089935
0.13987589 0.082990274 0.10384108
0.16335468 0.02896208 0.13297051
-0.124793775 -0.20603518 0.0383286
-0.092834875 -0.023038495 0.11917738
0.16636485 -0.087779686 -0.26077884
-0.17756295 -0.037453253 0.18098156
-0.18217926 -0.18420088 -0.032019414
-0.0683139 -0.12511474 0.05206166
-0.1437939 -0.12611714 0.06573013
0.14825007 0.014487777 0.122800104
-0.0017852846 0.21582945 -0.08910009
0.17487894 -0.03616309 -0.059057765
0.028344369 -0.11254803 -0.04365427
-0.19398066 -0.15760837 -0.17178397
-0.024730913 -0.06335103 0.08175298
0.05726627 -0.13749716 -0.0015591694
-0.08001962 -0.11612169 -0.08490895
-0.11159543 -0.24665959 0.091541275
0.02580132 -0.09533182 -0.026936244
-0.23160352 0.047533203 0.018811563
0.098604925 0.22682346 0.04554496
-0.10844942 0.09108533 -0.08217122
0.17533027 -0.1457853 -0.31779414
0.059220932 -0.12721619 -0.041165605
0.029525312 -0.12390947 -0.048331477
-0.26839423 0.10717033 0.060483534
0.048040222 0.2369938 -0.08825771
0.09926993 -0.054731682 -0.020620707
0.10423108 0.16672373 -0.050544206
-0.13266124 -0.021607215 0.14446403
0.18476208 0.060212053 0.1730042
-0.006798659 0.26077873 -0.18046069
0.20645 -0.13113655 0.11062262
-0.1849213 -0.039350327 0.13405955
0.15084052 -0.16469586 -0.23721886
-0.15001635 -0.19312689 0.07039935
-0.28246424 0.10912329 0.024871066
-0.060321093 0.065297306 -0.01595064
-0.28684622 0.13606048 0.010851537
0.018629152 0.21267642 -0.1030413
-0.081484705 -0.049029123 0.10852663
-0.14055163 -0.17963842 0.09763733
0.12026638 0.024760418 0.075525224
0.15020682 -0.06878976 -0.15170483
0.034865648 0.210765 -0.19714655
-0.059267644 -0.086172156 0.100374
-0.16936511 -0.26990736 -0.115312696
-0.11803571 -0.18610024 0.06765347
0.23970838 -0.104470044 0.06936735
0.03820651 -0.03847362 0.081296824
0.0015722439 -0.049783852 0.07876698
0.15712428 0.19211504 0.15526508
0.037372172 -0.13274176 -0.08300596
-0.26169834 0.044887774 -0.0028256532
0.22908393 -0.21280631 -0.055028535
0.009588346 -0.09921844 0.021499667
0.020671174 -0.12252405 -0.029726563
0.090755776 0.23008567 0.097138256
0.21132794 -0.12908909 -0.17431566
-0.14438409 -0.21808587 0.034982666
0.16526906 0.09678626 0.123737544
0.06410589 0.27578485 -0.00528955
-0.16453655 0.07076894 0.0462693
0.090835586 0.01348736 -0.30956036
0.017138751 0.14695968 -0.09672739
0.031618774 0.025854995 0.09217402
-0.08008404 -0.13776761 0.07269906
-0.22495615 0.002610844 0.06757716
-0.13435322 -0.26344177 -0.05146389
-0.12808418 -0.18748407 0.1484029
0.033748798 0.31003764 0.032108285
-0.08158774 -0.1491159 0.05675375
0.11310989 -0.0048500057 0.047412585
-0.18256566 -0.06994615 -0.04056021
0.095076695 0.17928527 0.10493455
0.012475599 -0.13439736 -0.03773482
0.19244108 -0.1497253 -0.09372728
-0.07457574 -0.18331781 0.09948204
-0.23727317 0.04343164 0.12528756
-0.25480396 0.11841243 0.08191915
0.06971782 -0.07649297 -0.08387511
-0.2221681 0.099366896 -0.030457271
-0.06704796 0.00097336405 0.06456547
0.19418316 0.052872356 0.14604796
0.0976978 0.24079873 0.10090843
0.14983153 0.03487501 0.11286103
0.12075144 0.08599096 0.0911208
-0.17850778 -0.0665788 0.08484284
0.21493147 -0.059429668 0.09265828
-0.1456359 -0.13488466 0.1455528
-0.15655075 -0.23674193 -0.07652161
8.945604e-05 0.3156843 -0.04073017
-0.060836684 -0.090729974 0.09689267
0.23848012 -0.090420365 0.10800265
0.08601706 0.2474289 0.07107951
0.010197878 0.13943568 -0.047753066
-0.050781783 -0.06113996 0.123808436
0.2534163 -0.14551355 0.013752812
-0.23174447 -0.037119616 -0.07174858
-0.10117038 0.033265144 0.06858097
-0.08470574 0.07960692 0.028520118
-0.057577446 -0.08906724 0.08490575
-0.24711186 0.057725962 -0.051026274
-0.24498394 0.053645585 0.012457198
0.08409581 0.056758996 -0.30053332
0.20670876 0.025883794 0.07949149
0.028965993 -0.010629265 0.07453653
-0.23080418 -0.064221874 -0.12663203
0.21113539 -0.15402357 0.046709564
-0.25020087 0.06464503 0.05284204
0.063668594 0.22384767 -0.021045718
-0.25916013 0.06289668 0.040272515
-0.18538153 -0.1502199 -0.044325266
-0.017084446 0.025184654 0.053828213
0.16107666 -0.11057581 -0.055752598
0.108953215 0.11824414 0.056790173
0.1678881 0.031194892 0.08849645
-0.0154708745 0.08005202 -0.028298046
0.08576712 0.029353434 0.032558408
0.015488862 0.11548048 -0.09904031
0.17330116 0.1297208 0.14660011
0.119809076 -0.10386292 0.009964593
0.06155941 0.1581229 0.036586262
0.20926805 0.06381453 0.17300399
0.2612473 -0.14473413 0.06498799
0.22198911 0.014584629 0.13517113
0.007304928 -0.08048491 0.062698595
-0.22774449 0.041100323 0.08640064
0.14973615 0.15493399 0.13937126
-0.17519228 -0.015645431 0.16161154
0.09470089 0.034189243 0.057148464
0.1608112 0.15766755 0.13077933
-0.115130775 -0.1658584 0.17526843
-0.052706808 -0.12574127 0.03909679
0.16737095 0.041713297 0.0702482
0.17153598 0.00084214803 0.13468629
0.18234025 -0.13405895 -0.21039714
-0.13195781 -0.12739016 0.1018179
-0.31053358 0.04156937 -0.14590557
-0.049692478 -0.040551532 0.1011274
-0.0955808 -0.120342515 0.0971741
-0.081049934 -0.034276552 0.08855913
0.13440803 0.058814444 0.07687347
-0.02082165 -0.13865945 -0.032230634
0.07367094 -0.051318437 0.034748662
0.24409172 -0.15379405 0.021581367
-0.29160333 0.08462802 -0.11348376
0.16921005 0.0033398808 0.041601643
-0.08209453 0.06781507 0.020295843
-0.010175772 -0.10364291 0.072479494
0.18897994 -0.19090673 -0.116642565
0.14721665 0.1419123 0.18927282
0.05147884 -0.049231865 -0.15817226
-0.015275642 -0.14549334 -0.042801347
-0.28366104 0.10087942 -0.09184634
-0.12979978 -0.21837968 0.07235157
-0.16236766 -0.13308756 0.12426154
-0.19252104 -0.12954946 -0.10493573
-0.0016639514 0.17689894 -0.23720033
0.11374617 -0.017171033 -0.2908719
0.080801174 0.035737783 0.06492726
-0.15907796 -0.19356939 -0.050309747
0.10462019 -0.068750754 0.0137040485
0.25665826 -0.081443034 0.10851764
-0.24784113 0.03143014 -0.07035057
0.1570696 -0.13671705 -0.2082845
0.12491227 0.21287929 0.10011417
0.25236565 -0.05404275 0.14343813
-0.08428361 0.04548301 0.038884513
0.023895703 0.18587625 -0.29025736
0.13530405 0.092142306 0.007871937
0.11549673 0.1054294 0.02092639
0.19628987 -0.010693981 0.0940146
0.10565009 0.16306667 0.095903434
0.22306548 -0.0654656 0.042234022
0.09026483 0.09309383 0.028679412
0.21547504 0.0011365952 0.059086993
-0.13148199 -0.15364847 0.16266124
0.20507856 -0.19466096 -0.07428562
0.043804374 -0.013057809 0.046136275
-0.08650828 -0.114733 0.16029072
0.2813982 -0.18454604 0.021659417
0.15747835 0.17796521 0.14002588
-0.2298074 -0.021128476 -0.011690947
-0.2657193 -0.12851271 -0.21541888
-0.23165664 0.00450183 -0.017181942
-0.118556336 0.08573047 0.03644087
0.10010366 0.18649423 -0.0090668965
-0.11332983 -0.25305432 -0.03239919
-0.014413102 0.3019021 -0.15899651
0.030762682 -0.06428153 0.03867996
0.21172422 -0.15622455 -0.16473171
0.09232409 -0.02668446 0.049069572
0.062892936 0.06744624 -0.26860124
0.14771493 0.024712456 0.12725161
0.16243276 0.17842086 0.14228433
0.036060326 0.01052044 0.0487829
0.05088446 0.162944 -0.28375375
-0.15124053 -0.24761382 -0.07753212
0.11495582 -0.073776074 0.006657081
0.067822985 0.096598625 0.022962159
-0.017441684 -0.013687647 0.07194754
0.06674649 0.03235207 0.0584316
-0.052041925 0.026896182 0.061194506
-0.08268608 -0.1337846 0.095917106
0.0824245 0.29667705 0.0016132263
-0.27333415 0.09762565 -0.13369155
-0.25266206 -0.09343658 -0.19535695
0.053747203 0.20035855 -0.093176275
0.0073307958 -0.04317085 0.078444995
0.105017394 0.15735024 0.063913755
-0.11095448 -0.037574984 0.120087676
0.07294846 0.004992586 -0.2863127
0.032519314 0.16522898 0.0056130304
-0.13504478 -0.09702043 0.1685259
-0.12538643 -0.014521802 0.11721937
-0.21474738 0.056254193 0.13293646
0.24877343 -0.10078029 -0.04356672
0.019433359 0.112948194 -0.10697569
-0.22580753 0.059255704 0.06525166
-0.12763974 -0.08329023 0.19011782
-0.16385423 -0.08419023 0.20504768
-0.1316483 -0.21564116 0.12808631
-0.064744376 0.028581545 0.10292325
0.16219978 -0.16757932 -0.27169234
-0.2662902 0.0956349 0.0686367
-0.00075471116 0.28811407 -0.06678357
-0.22082068 0.022724047 0.13600717
0.20973569 -0.13887899 0.05011608
0.10667859 0.26643652 0.11165732
-0.12589154 -0.025590291 0.17247741
-0.023231132 0.23299661 -0.24851169
-0.12419227 -0.16008726 0.16816211
-0.15811433 -0.1482595 -0.0050579244
0.09061435 0.3151973 0.01527441
0.07832172 0.08458181 0.0527284
0.060466584 0.1656388 -0.22397958
-0.18451925 -0.08351384 0.06636125
-0.06723298 -0.04826722 0.101639405
0.1917086 -0.07550354 0.02954896
0.14083698 0.117770635 0.13286112
0.06321745 -0.06008432 -0.1214088
-0.158016 -0.12983327 0.056619328
-0.05685467 0.09133038 0.013120532
-0.09607031 -0.22424223 0.12583849
0.010371009 0.24865699 -0.058714896
0.022238232 0.190336 -0.28225186
-0.15789992 0.093008876 0.022828279
0.12364149 0.16890416 0.13922425
-0.015233118 -0.03693665 0.09545481
0.21572849 -0.13877566 -0.08893776
-0.20358485 0.06703987 0.10433508
-0.16480921 -0.1121337 0.05698015
0.004885145 0.29609764 -0.12602074
-0.2911591 0.14150707 -0.061464358
0.21456428 -0.058415994 0.083925925
-0.22336319 -0.09810728 -0.17599285
0.02214611 0.17593548 -0.0026371784
-0.009802151 0.23838964 -0.23999405
0.23742974 -0.10256614 0.068369254
0.079022594 0.14153828 -0.18495394
-0.13233617 -0.25251165 -0.1037516
0.19228403 -0.011484908 0.039350647
-0.035640106 -0.022374578 0.08366175
-0.1434795 -0.20166473 -0.016391879
0.0727689 0.28496468 0.047770698
-0.15231857 -0.06527559 0.1787435
-0.16427664 -0.10169207 0.14151213
0.16844922 -0.079164565 -0.2674343
0.09618694 0.17363015 0.06155293
-0.09710256 -0.16679631 0.12605217
0.018010877 0.11615648 -0.033284973
0.028311582 0.033417176 0.044931896
0.018119775 0.15281588 -0.102645725
-0.0013644398 0.0037676173 0.05145194
-0.14276405 0.05263321 0.03687146
0.07155029 -0.08379214 -0.14513937
-0.27663285 0.07193658 -0.073139496
-0.008028173 0.088083334 0.028889123
0.021338696 0.014920538 0.05190236
0.042431887 -0.035912078 0.045892164
0.030400034 0.27988565 -0.100366525
-0.27807823 0.09534654 -0.07882846
0.023058 0.17368908 -0.25551364
0.0554278 0.30882353 -0.08202584
0.04243578 0.10076379 -0.3236835
-0.25997344 0.040338233 -0.16555066
0.13234474 0.0014753083 -0.11729519
-0.06693186 -0.11348285 0.030183904
-0.14213344 0.08536646 -0.10992848
0.0007144346 0.27519995 -0.25987175
0.14720698 -0.118839964 -0.261909
-0.12389184 -0.23746938 0.07519983
0.15104754 0.13315526 0.12538289
-0.053534087 -0.12934873 -0.04271593
0.005168885 0.010974659 0.097010136
-0.110069744 -0.09570091 0.07114625
0.14296187 -0.03625479 0.012941523
0.14361612 0.19725291 0.12193798
0.10932117 0.036775816 -0.29968512
-0.26117456 0.1147863 -0.0143097965
0.12644283 0.22101581 0.08265137
-0.15002406 -0.018264106 0.11770092
-0.10708578 -0.28524762 0.006346947
0.203264 0.10874702 0.16561902
0.09152992 0.16803363 -0.023476005
0.21079402 -0.18952678 -0.05594522
0.029988546 0.21767025 -0.17371537
0.037404623 -0.00981147 0.09254002
-0.15409751 -0.14585757 0.029392354
0.14216457 -0.063785404 0.038774997
-0.10975505 -0.001605694 0.11417856
-0.06297625 -0.017235784 0.1042421
0.1206112 -0.01663546 -0.27356014
-0.0011139353 -0.12933475 0.006815908
0.14812866 0.042427428 0.06460291
0.12017817 -0.13581996 -0.09927173
0.12740777 0.2135847 0.10864351
-0.060562674 0.0054541025 0.07843643
0.114621855 -0.008245926 -0.36739606
-0.25654396 -0.10384743 -0.23511483
-0.044987198 -0.062173273 0.099194735
0.0482183 0.000622123 0.07752923
0.112584405 0.0010786568 -0.18414994
0.09096955 0.2854098 -0.01905266
0.09199088 -0.0041596256 0.036618043
0.03928635 0.09132659 0.053706873
0.21897745 -0.03937604 0.15960044
0.005647673 -0.072718695 0.07325852
-0.1744227 -0.2621619 -0.060490582
-0.14420907 -0.07657478 0.17838123
-0.19327135 0.08410416 0.11691247
0.23359574 -0.018286936 0.13421229
0.2345198 -0.15610401 -0.0033662268
-0.08848317 -0.054330423 0.118790254
0.036238406 0.055838022 -0.36820608
0.242134 -0.048904967 0.12268535
0.22570121 -0.20080045 -0.12775838
0.13846615 0.16071905 0.15382728
-0.10031376 -0.027873037 0.0836378
0.14838839 -0.07061871 -0.009539599
-0.18872792 -0.09517165 0.0628602
-0.21214466 0.1027063 0.1294847
-0.17581517 0.0021101153 0.15744522
-0.18765071 -0.03334234 0.077736415
-0.13341624 -0.18079045 0.0059913467
0.040767085 0.052181773 -0.36147773
0.15569513 -0.04729966 -0.015533271
0.15470365 0.034369804 0.108099
0.20047866 -0.12366826 -0.06844275
0.09254845 -0.03193022 -0.13149516
-0.26020285 0.06113975 0.05594402
0.023706503 0.25459012 -0.27312547
-0.13697648 -0.0778727 -0.030635733
-0.20617394 0.0765197 0.12175431
-0.199503 -0.055379223 0.14037131
-0.1687924 0.057293944 -0.061296087
0.06360537 0.1144095 0.026320588
0.08540046 0.02285925 0.04370137
0.18009065 -0.0508061 -0.005186905
-0.10964223 -0.068433456 0.13304323
0.09811162 0.23414414 0.0223424
0.16761549 0.0025018228 0.07887067
-0.22141881 0.08122291 0.10450424
-0.06289015 0.04178209 -0.011855747
0.03527642 0.10335779 -0.07219799
0.10630476 0.104568735 -0.066073425
-0.21461137 0.009419839 0.10455649
-0.14248876 0.0062315166 0.019396102
0.13636172 0.17233808 0.14594468
-0.10868097 -0.21088895 0.06614803
0.15829796 -0.10239711 -0.25728726
-0.25943133 -0.108693965 -0.19945367
0.04526184 0.29579538 0.020777555
0.24673875 -0.09029078 0.08504774
0.08971004 0.23727535 0.07193267
0.13494809 0.15984954 0.111572124
0.07896182 -0.072792836 -0.20537388
-0.299063 0.0085253315 -0.19303612
0.10206897 0.20169728 0.10207294
0.061888058 -0.03985783 0.033378396
0.22477801 -0.18316722 -0.07719682
0.042115975 0.13947625 0.049669802
-0.16346851 -0.05510617 0.20420282
-0.070605 -0.0996892 0.08975611
0.13049449 0.21401468 0.038791873
0.23502891 -0.12176423 -0.0640981
0.124146335 -0.031229155 0.003418833
-0.08859443 0.05206082 0.07904862
-0.14219816 -0.25498638 -0.1417412
0.12781192 0.20120779 0.10042784
0.10878727 0.019042313 0.05610362
0.014623977 0.1422004 -0.14186849
0.08289038 0.2748047 0.09655786
-0.033105023 0.111013725 -0.15262914
0.075130835 0.024596404 0.057331115
-0.088405415 0.02044504 0.11013627
-0.18666494 -0.016865253 0.112132505
-0.18992008 -0.13328415 -0.08350653
-0.053552754 0.08188961 -0.020609807
0.047548365 0.21277213 -0.24753982
-0.031233035 -0.003224219 0.058219172
-0.23889592 0.052052997 0.14984554
0.18228696 -0.16588345 -0.10915473
0.057114508 -0.1354992 -0.01622565
0.12614004 -0.016200164 0.030841028
-0.13282202 -0.07592678 0.15218586
-0.24324934 0.029856822 0.04612249
0.02461736 -0.08638067 0.041657355
0.0019347803 0.28658703 -0.07701925
-0.065455355 -0.055230398 0.101310186
0.01904905 0.06421955 0.023515357
0.19441001 0.08605672 0.18353952
0.14671588 0.114208385 0.03389764
0.21382916 0.10997271 0.14065963
-0.10465757 -0.13061224 0.17623548
0.09165319 0.10205008 0.027917659
0.06911096 0.1684674 -0.048581548
0.00361187 0.15175675 -0.08738073
0.031414032 0.27439776 -0.26097143
0.015149985 -0.02783801 0.051696867
-0.29898456 -0.03048664 -0.17481488
-0.27526125 0.03376483 -0.16717745
0.25137255 -0.14820753 0.05894392
-0.19680409 -0.13294356 0.028006962
0.19572693 0.034766782 0.11635897
-0.11038711 -0.22098617 0.11982778
-0.1464071 0.0702344 0.10158053
0.23204476 -0.084531516 0.11249521
-0.19845285 -0.005674957 0.111213736
-0.019700425 0.11857295 -0.07885737
0.2120441 -0.1804373 -0.06523434
-0.19723332 -0.11064146 -0.13867928
-0.15864778 -0.086580075 0.10265939
-0.0043111285 -0.019623054 0.06950304
0.16585684 0.06660061 0.022308014
-0.2660016 -0.14137529 -0.22333655
-0.004481839 0.29413536 -0.14790048
-0.1693815 0.061616987 0.064527854
-0.17353593 -0.04736637 0.119369045
-0.050285857 -0.010723835 0.10321007
0.048490245 -0.03460382 0.042590685
0.20929717 -0.060947977 0.033388738
-0.17780371 -0.031157246 0.16293284
0.072498575 0.17881955 -0.13511688
-0.05277855 -0.16231202 0.034194548
0.0366637 0.074889995 0.051433094
-0.27453732 0.002882447 -0.21085574
0.0196981 0.042002756 0.052695554
0.1199337 0.21589746 0.118553005
-0.09164217 -0.20468807 0.007082866
0.07181194 0.025397032 0.07738876
0.19137608 -0.10790249 0.009933682
-0.16383022 0.07903884 0.031507794
0.21985292 -0.16473214 0.026480513
-0.2764763 0.06560988 -0.041849356
-0.25470763 -0.108885214 -0.1506802
0.16602376 -0.105395325 -0.11750315
0.18133421 0.0014453284 0.009638783
-0.09872359 -0.24962789 -0.04569314
0.13561805 0.043816548 0.058215957
-0.25340098 -0.05120555 -0.103158
0.19724952 -0.14634678 -0.2953986
-0.11066508 -0.09604397 0.16475882
0.028750349 0.0056223213 0.08939587
0.09702321 -0.12801148 -0.12589659
-0.23440446 -0.10815558 -0.1626391
-0.14487845 -0.12446378 0.18353961
0.056723576 0.3158597 -6.7700246e-05
0.08458289 0.27553213 0.07870351
0.09246508 0.23893973 0.032769136
-0.11266079 -0.2526112 -0.00060743483
-0.066679366 -0.10472732 0.0935733
0.21109448 -0.08825025 0.13787423
-0.17855144 -0.1630803 -0.020793583
0.08134269 0.23781975 0.073498085
-0.15490402 0.012571131 0.18037507
0.21534716 -0.18632558 -0.13825281
0.17977223 -0.03515296 0.045412578
-0.1813705 -0.03827633 0.16582346
0.23450191 -0.22571678 -0.05866684
0.202842 -0.05006419 0.043854736
0.15348795 0.108757265 0.086303115
-0.06418988 -0.18086159 0.11512124
-0.20210326 0.056819715 0.15388285
0.17734236 -0.039651945 0.07260909
0.08274706 -0.025464902 0.0471837
-0.14496593 0.05356687 0.10962838
-0.25334454 -0.009731578 -0.05308328
-4.1920535e-05 -0.15999785 -0.058876693
-0.0917411 -0.0061030593 0.11184649
-0.09745939 -0.24070255 0.13183711
-0.039492115 -0.112137616 0.018754443
0.12909769 -0.107117794 0.021998782
-0.14298789 -0.14730705 0.11058869
-0.2161955 -0.14320979 -0.11718038
-0.14020352 -0.081581116 0.1545487
0.1282433 -0.09755654 -0.28296855
0.18728498 -0.0597618 0.054995213
-0.17089866 0.048290163 0.09096495
-0.1687262 -0.002268534 0.14803948
-0.064737335 0.05962312 0.074952595
-0.21662173 0.052257333 0.16517177
0.031363063 -0.06632944 0.048231564
-0.11888028 -0.20418695 0.091972426
0.17958772 0.13993381 0.14264433
-0.051529787 0.072563045 -0.006306272
0.23284882 -0.0931385 0.07730656
-0.2678302 -0.06947758 -0.20247516
-0.118056096 -0.07972352 0.13400471
0.017178096 0.26958734 -0.2063881
0.1183274 0.21305403 0.088147
-0.25353676 0.12399794 0.032253306
0.07969666 0.21314195 0.051691614
0.038871717 0.026432354 0.08665137
0.17473738 -0.078782365 -0.10478561
0.059216578 0.14176773 0.0019979528
0.025930708 0.18609379 -0.19723724
-0.09201633 -0.034960687 0.12925537
-0.20890103 -0.09562554 0.013559675
0.099876165 0.19062705 0.027500266
0.24868366 -0.18371037 -0.022278445
0.04654388 0.11557836 0.04173027
0.12586944 0.07426035 -0.1299852
-0.1520039 -0.030801086 0.13935523
-0.07463622 -0.003311977 0.09763664
0.12018284 0.17713854 0.03818243
-0.069342725 -0.13704316 0.032382905
-0.032308303 0.08587344 0.015212941
-0.14985152 -0.070612505 0.16040367
0.029872416 0.31663987 -0.023672419
-0.16239737 -0.06185708 0.20523557
-0.25865048 0.10562642 0.06413211
-0.26026785 0.004150481 -0.11757154
-0.17875063 0.0058605154 0.17322883
-0.21949585 -0.11117039 -0.04953195
0.04885874 0.052731063 0.033890978
-0.2047921 0.028290529 0.093695164
0.18790588 0.08992755 0.1805883
0.084292665 0.26220328 0.101807274
0.18931349 -0.015620803 -0.072147705
-0.22674224 0.08812248 0.10228061
0.18895198 -0.21760951 -0.16723652
0.02186315 0.1463521 -0.06472156
-0.10911326 -0.17226632 0.1381677
-0.23742367 0.03597752 0.026701976
-0.2411279 0.001154397 0.00485886
0.0023077172 -0.09056742 0.06910704
-0.009693651 -0.142816 -0.08099467
-0.17735933 -0.15368243 -0.008843697
-0.1232288 -0.024992047 0.12686399
0.09336428 0.110121794 0.05102733
0.18454973 -0.039339088 0.07176343
-0.004529566 -0.045020193 0.05121253
0.23129195 -0.1595368 0.060969107
0.09240548 0.08621673 -0.26842996
-0.044254616 -0.09164852 0.0914429
-0.18952489 -0.09004238 0.030774374
-0.022360861 -0.0078082085 0.10618546
-0.046303812 -0.018349571 0.09907728
-0.15723182 -0.11704299 0.037594482
0.036099844 -0.10892813 -0.14213406
-0.14831848 -0.07802304 0.15503417
-0.2534226 0.061758224 0.04443653
-0.020784404 -0.09587238 -0.0013723639
-0.012462593 0.16941047 -0.18923375
-0.021863064 0.32289097 -0.14360243
-0.02345521 0.23602438 -0.2908247
-0.24681465 0.09978743 0.09066138
-0.09122002 0.10459624 -0.022211477
-0.03453401 0.140889 -0.0960672
0.20923695 -0.10305494 0.0218545
-0.20026806 -0.23623481 -0.18699168
-0.034531623 0.10780093 -0.0049842494
0.0044704126 0.18503657 -0.31208965
-0.2481338 0.017278967 0.03475689
0.21335647 0.06702476 0.1495591
0.13445152 0.0028715052 -0.3246045
0.1566231 0.005078408 0.032032035
-0.20424286 -0.19362557 -0.22037981
-0.092310034 -0.27994037 0.05384311
0.054921664 0.11012619 0.038525816
0.22763091 -0.048576545 0.10608652
0.13858718 -0.035403904 -0.14222372
0.25071728 -0.051741652 0.09612674
-0.12508704 0.030299708 0.027033243
0.04189775 0.02942716 0.053792905
0.007882894 0.09176881 -0.22027731
-0.053677842 0.094326966 0.007831349
-0.1311261 0.043927897 -0.15829489
0.08919975 0.16567391 -0.03510367
-0.19561355 -0.040900968 0.0801112
-0.0113080945 0.08188739 -0.0015165089
-0.02963959 0.11765603 -0.015042672
-0.055275742 -0.16134126 0.083971456
0.007523191 0.24774413 -0.051361147
0.027843691 0.12529153 -0.016304096
0.12971865 0.00027463373 -0.098459795
0.14175694 0.011372823 0.0706399
-0.11532851 0.056879945 0.038062233
-0.020378616 0.24663539 -0.26688874
0.04432924 0.24663086 -0.092927426
0.012210949 -0.009401926 0.054923058
