# .PCD v0.7 - Point Cloud Data file format
VERSION 0.7
FIELDS x y z
SIZE 4 4 4
TYPE F F F
COUNT 1 1 1
WIDTH 1000
HEIGHT 1
VIEWPOINT 0 0 0 1 0 0 0
POINTS 1000
DATA ascii
0.2386377 -0.053339764 -0.050169136
0.1141057 -0.07656746 0.15552038
-0.3210439 0.038181446 0.07208986
0.045459505 0.18957806 -0.16761875
-0.08353332 -0.1850136 -0.014055386
0.16229796 0.09971097 0.06717073
-0.08939183 -0.006887608 0.079963654
0.15895613 -0.03509372 0.1672127
0.26430655 -0.019139491 -0.09153006
0.19104753 -0.019736212 0.15874025
-0.21923955 -0.21900344 -0.00194833
-0.30531362 -0.074738614 0.06782317
-0.07108297 0.22457246 -0.105085716
-0.09711042 -0.21987167 -0.013379362
-0.07766522 0.15566789 -0.058555834
-0.27799323 0.038310412 0.08935821
-0.025513519 0.008976913 0.041728284
0.17405091 -0.12129902 -0.07120395
-0.04552269 -0.11449482 0.14271156
0.26105067 0.12729219 -0.08818741
-0.20657684 -0.14911841 -0.0076076277
-0.21214864 -0.19806163 0.013527003
0.21415447 0.070139945 -0.053448293
-0.25010782 -0.24827589 0.057179246
-0.109595306 0.121074826 -0.19279224
0.15235803 -0.094668716 0.22660531
-0.17607741 -0.17809936 0.018568233
-0.09477285 -0.042408902 0.108636804
0.12183113 -0.15186024 0.17698473
-0.09629124 0.117658526 -0.22852892
-0.0832796 -0.04669603 -0.08055918
0.14539047 0.086177446 0.108279325
0.20276144 -0.16163631 0.14867999
0.01518214 -0.14215364 0.026727485
-0.30213323 0.11248172 0.033628263
-0.20766452 -0.07600406 -0.085373215
0.16928376 -0.040050454 0.017440595
0.18999389 0.008165101 0.1417615
0.18617734 0.05437761 0.10744634
0.22555871 -0.02311838 0.2066282
0.22758937 -0.08886449 -0.07916874
-0.09722088 -0.13132857 0.115653254
0.06476713 0.23584248 -0.09377375
-0.12050056 -0.11440414 0.13443108
-0.034404043 -0.019778818 0.07587766
-0.03771638 -0.086362205 0.15584554
-0.07215772 -0.05733523 0.13998064
-0.26267713 0.103420064 0.07496945
0.1764556 0.10328424 0.017506506
-0.23161228 0.027116196 0.0005215553
0.20850372 0.07612295 -0.075542994
0.028010428 0.14539143 -0.16665669
-0.19420296 -0.31341538 -0.07972598
0.15993667 0.032224227 0.09612367
-0.04921024 -0.16980097 -0.00804102
0.016579688 0.016387722 -0.047083244
-0.2288842 -0.04354845 -0.0047148955
-0.03617109 0.0054044356 -0.050645135
-0.15017939 -0.1979662 0.0067313397
-0.22536482 0.08289878 -0.047807906
-0.2480167 0.0708938 -0.01780145
0.028000874 0.20475794 -0.14609194
0.18963292 -0.08359446 0.21505651
0.121398516 -0.12958822 0.22672512
0.19876984 -0.101707734 -0.036530107
0.22965585 0.12349188 -0.1025052
0.03553442 -0.06892426 0.16933767
-0.25062582 0.00063598703 0.074118674
-0.101907745 -0.23387806 -0.005438565
-0.027499791 0.2101902 -0.10302924
0.20691834 0.30190846 -0.07328662
0.16527253 -0.08032308 -0.063509725
-0.07527476 -0.05125589 0.10764852
-0.16039851 0.21781063 -0.090886556
-0.24883287 -0.113507204 -0.008673007
-0.23954515 -0.1725287 0.04973152
0.07896432 0.18621673 -0.11170325
-0.3061213 0.055090558 0.077082604
0.1573054 0.115748145 0.046603385
0.21987762 0.17948994 -0.25709185
-0.047605384 0.22228251 -0.09158073
-0.23953566 -0.08000838 -0.03782346
-0.041035555 0.16263027 -0.019536959
0.18437219 -0.11340352 0.13962716
-0.30018705 0.047578696 0.09891888
0.027053708 0.19827387 -0.11911551
0.04252728 -0.0035879342 0.04495223
-0.16713929 -0.223503 -0.046913154
-0.21869212 -0.07414464 -0.09042381
-0.25660712 0.10907458 0.09305174
0.19494353 -0.043246463 0.21048875
-0.00068116974 0.21404105 -0.09066194
0.06943803 -0.0059904503 0.03267474
0.2708359 -0.028313136 0.15080021
0.2142154 -0.00074624905 0.16654545
-0.1948178 -0.08411395 -0.022808947
-0.04980128 0.09215134 -0.101949215
-0.10614595 -0.03850538 -0.08664793
0.16251534 0.04438126 0.10674098
-0.2105376 -0.06489015 -0.06279553
-0.23304711 0.022434352 -0.052081514
-0.17535529 -0.10317434 -0.01298873
-0.065167464 0.024821319 0.08455203
0.0100984955 0.24208443 -0.10405515
-0.1777664 -0.06088865 -0.06943515
0.0339591 0.20298634 -0.10341138
0.26096782 0.11451448 -0.17691563
-0.11911881 0.07376199 -0.19665702
0.18285798 0.26333618 -0.109109744
0.16329856 0.08666201 -0.08058549
-0.14122735 -0.15455577 0.03949154
-0.066311635 0.014770157 -0.11105607
0.1850728 0.2453392 -0.03384012
-0.22973001 -0.2706652 0.014136567
0.15514073 -0.17253286 0.15871538
-0.17103104 -0.19742158 0.034383435
-0.04103373 -0.07654618 0.14697585
0.20928812 0.2497708 -0.05214291
-0.10223545 -0.098968185 0.14546032
0.28372645 0.11418542 -0.24788424
-0.26732376 -0.21220385 0.04627387
-0.11272098 0.0009851973 -0.10415754
0.16224255 -0.15745646 0.18064193
-0.14934488 0.18581654 -0.10996062
-0.019071931 0.13509735 -0.083935775
-0.019581195 0.13147064 -0.15656027
-0.25026408 -0.025280014 0.07704282
-0.04858307 0.13492751 -0.0069697206
-0.22436368 -0.28658417 -0.006286998
-0.31107005 -0.09379434 0.046791445
0.14879355 0.063070364 0.07769146
-0.05133966 -0.012082742 -0.010106058
-0.10632707 -0.18319048 0.01422844
0.22624929 -0.03160516 0.18039382
-0.019805478 -0.099548444 0.1300443
-0.022740562 0.1258957 -0.094416074
0.17852733 0.25144303 -0.094663315
-0.04804468 -0.044533167 0.12757675
0.023072477 -0.17561662 -0.04581952
0.2866567 0.09642868 -0.15538889
-0.015985671 0.11671521 -0.10816882
0.27874744 -0.012195673 -0.19752993
-0.21934642 0.03385619 -0.03474023
-0.23365238 -0.09603966 -0.07473749
0.15589924 0.077807635 0.05810493
-0.019857466 0.23806751 -0.06781415
-0.010940358 -0.0596375 0.12352187
-0.08863817 0.14911385 -0.039745733
-0.23166499 -0.12676467 0.05818233
-0.22568876 -0.028883154 -0.104084276
0.17934084 0.1673713 -0.07367093
0.1932187 0.14611606 -0.12282926
0.20519462 0.068398446 -0.051024184
0.0076753907 -0.15919216 0.018072614
-0.06655642 -0.17522193 -0.013107591
-0.27558747 -0.088217676 0.082120135
0.061642267 -0.009243443 0.1258379
-0.12747096 -0.07720953 0.12238963
-0.27279204 -0.15021467 0.05299723
-0.13110456 -0.106654644 -0.04480917
0.109490454 0.054241173 -0.038191568
0.15823746 0.029235426 -0.054722443
0.26913735 -0.0434488 0.18439883
-0.025078785 0.039635535 -0.057795558
-0.0696515 -0.02526387 0.10943954
-0.191879 -0.18829419 -0.009711081
-0.0731209 0.099412024 -0.2089312
-0.06536541 0.03241611 0.049810614
-0.13402739 0.21773218 -0.09666575
0.095842056 0.28177455 -0.08885764
0.035533544 -0.14430757 0.001987898
-0.064531654 0.07321946 0.03830943
-0.27775002 -0.069405705 0.075262606
0.25565004 0.09115355 -0.07798466
-0.20762682 -0.12714165 0.002934383
0.12474161 0.22605789 -0.071716666
0.14459795 -0.09928691 0.22431688
-0.2638618 -0.0633459 0.086657204
0.15336394 0.22113097 -0.012622699
0.27343354 0.03659642 -0.23561068
0.06984827 -0.07550621 0.1731118
-0.19891177 -0.06093475 -0.045943037
0.10925589 -0.02422455 0.15030693
0.033231746 0.17576228 -0.14645626
0.14245379 -0.10051861 -0.045043103
-0.025741652 -0.16797963 -0.001041777
0.18137875 0.041727412 0.021428702
-0.26061985 0.079195015 0.071569756
0.23842187 0.2478796 -0.087821506
0.076275975 -0.03703981 0.14467792
0.10176062 0.26099756 -0.07700236
0.14300539 0.008957279 0.121224895
-0.21090455 -0.00924071 -0.11607655
-0.06387817 -0.09888837 0.15153626
-0.004842108 -0.16280864 -0.0064683557
0.23997189 -0.105882704 0.125989
-0.11182529 -0.08089368 -0.059801225
-0.0073613385 0.268456 -0.07626168
0.0956802 -0.12147727 0.14706829
-0.017726861 -0.02877271 0.07166668
0.21116394 0.018439706 0.094106495
-0.11190178 0.14880966 -0.08644421
0.19199085 0.08462003 0.06320765
0.14407195 0.042778686 -0.019889666
-0.13269109 -0.1571449 0.024014061
-0.08153945 0.104212314 -0.18796875
-0.070217066 0.14076689 -0.01635341
-0.002199371 0.08410576 -0.1272065
0.16537377 0.12801312 -0.08452686
-0.121132635 -0.18637429 -0.0067796847
-0.054049697 -0.15612832 0.014435964
0.009529523 0.036721192 -0.055307236
0.12049613 -0.0016362882 0.12640631
-0.062606454 0.092220806 0.0086098425
0.13840179 0.06494169 0.025398886
-0.27028003 -0.20802811 0.061183166
-0.17227861 -0.14214557 0.0092321085
0.015694752 0.178958 -0.12764862
-0.21014646 -0.009953976 -0.13041915
0.042509206 -0.0044213305 0.1287547
0.19487739 0.21440084 -0.038317338
0.14628845 -0.04277919 0.13480054
-0.26039937 0.001460944 0.01536071
-0.0551188 0.01923185 0.065112785
-0.2350346 -0.29521027 -0.01247925
0.17354572 0.20182042 0.009976788
0.15622216 0.21341024 -0.056565277
-0.31619376 0.060369577 0.062939264
0.038754124 -0.079111725 0.07548957
-0.20174009 -0.171901 0.028346006
-0.261978 0.046356864 0.034609996
-0.03764189 -0.002951743 0.10360031
-0.24602936 0.052308634 -0.0052182702
0.29633301 0.016026534 -0.14130573
0.18981093 -0.09157037 -0.055889286
-0.08288473 0.11497106 0.0027123427
-0.18968277 0.01736304 -0.09992113
0.19612326 0.23980068 -0.024963137
-0.16375992 -0.070407815 -0.042304225
0.279795 0.16008824 -0.11424018
0.1527397 0.2516075 -0.057107557
0.21925128 0.25344434 -0.053244065
0.026231708 0.10979379 -0.13444321
-0.22802156 0.048460137 0.011261536
0.025479639 -0.07218181 0.18212074
0.17268409 0.2132298 -0.06854729
-0.03480888 -0.10759861 0.15917549
0.23410612 0.27812225 -0.07839119
-0.12882899 -0.10392887 0.029338947
0.14060216 0.1648871 0.002430938
0.15173456 0.29195753 -0.1082418
-0.037530426 -0.13934015 0.031303838
-0.020598179 -0.03693738 -0.014856311
0.19387597 -0.10249743 0.21612576
0.16896157 0.012540092 0.15312354
0.002215656 -0.1667225 -0.0068922075
-0.10107291 -0.05639619 0.12733257
0.03611558 -0.14187095 0.0027634464
-0.13739572 -0.21798919 -0.036558818
-0.08693713 -0.031698566 -0.047874898
0.13401893 -0.004640047 -0.0042992085
0.14885925 -0.1352592 0.14211844
0.07564197 0.22258005 -0.09835582
-0.25193375 -0.019584274 0.06955488
-0.22487041 -0.0036697537 -0.017473465
0.05357481 0.22713853 -0.07987898
-0.25573656 -0.026790036 0.029838542
-0.061520208 -0.06436574 0.1298471
0.13666937 -0.14297076 0.16364297
0.13686407 0.10597146 0.03260351
0.14035048 0.0779586 0.065406054
-0.07789394 0.14246047 -0.019673618
-0.00806258 -0.011940385 -0.005704651
-0.23427552 0.012000154 0.010405898
0.112501144 -0.12776491 -0.041801956
0.2645139 -0.06068959 -0.13554281
0.274138 0.09392961 -0.07577282
0.27267045 -0.037853017 0.20670207
-0.23340851 -0.19128066 0.069345206
-0.14372922 -0.041503377 0.12209551
-0.17105967 -0.1262415 -0.02165022
0.05511961 -0.029640324 0.17117901
0.035411313 0.24498723 -0.085647665
0.20864797 0.16160347 -0.15816854
-0.2364596 0.001860573 -0.10743193
-0.2273551 -0.046782617 -0.05914968
0.17376547 0.18250066 -0.03790397
0.13439123 0.29905364 -0.0729889
0.19041081 -0.08425606 0.23141941
-0.26971442 -0.17820694 0.05849104
0.008720826 -0.08944951 0.007334712
-0.09273434 0.012603243 0.10206432
-0.06978005 -0.06408988 -0.045310155
0.21922854 -0.046737432 -0.0315213
-0.10022504 -0.06726535 -0.086993374
0.20441015 0.27849123 -0.09389552
-0.045773663 0.09204189 0.019270513
-0.0765604 0.1615555 -0.047325525
-0.23667194 -0.18968026 -0.0067355945
-0.15035553 -0.12291818 -0.01119296
0.01619003 -0.07487603 0.16177107
0.1906789 0.1960035 -0.22860868
-0.092279375 -0.14696294 0.13569346
0.1400637 -0.04690668 0.17325401
0.26559186 0.005621315 0.17747775
-0.034789458 0.0020769122 0.012985604
-0.255256 -0.23209202 0.010424379
-0.072598875 -0.19205715 -0.004326114
0.04886327 -0.08324304 0.08988963
-0.11776133 -0.20093188 0.019252846
-0.22246638 -0.08387702 -0.007716382
0.030389944 -0.053176455 0.041359432
0.18662347 0.026805231 0.15968968
-0.05014954 0.03057895 -0.07531618
-0.2786922 -0.22912948 0.019398157
0.031210424 0.19342814 -0.15513968
-0.031610496 0.0769824 -0.0050078155
-0.2789396 0.025731547 0.0932449
0.16813844 0.15262605 -0.08835459
-0.23710315 0.024122175 0.03597868
0.18424524 -0.0027364455 0.012720245
0.23147708 -0.03315885 0.16271444
-0.10937388 0.017974759 -0.14273009
-0.24984261 -0.17611405 0.033393886
-0.08402797 -0.21926492 -0.014752574
0.071671754 0.0119013535 -0.06687054
-0.0648338 -0.20795302 -0.03466146
-0.0828448 0.05354009 -0.13357629
-0.07405592 0.072365224 0.023154248
0.2273532 0.015096524 -0.057813805
0.1929507 0.31069425 -0.10204014
-0.09441633 0.05585689 -0.16960539
0.06002802 0.2672147 -0.10555599
-0.10402173 0.21630736 -0.09427956
-0.22613499 -0.29983783 -0.0150794275
0.015169575 0.0046622134 -0.0038343598
0.22415753 -0.121584594 -0.14096913
-0.27602527 0.02870408 0.043246076
0.02820478 0.27096713 -0.114237286
0.04121855 0.18130925 -0.13666499
0.10046564 -0.06604219 0.022390196
-0.14333795 -0.1077782 0.0052969367
0.19341959 0.12360711 -0.051039033
-0.24393485 -0.09241955 0.022241518
0.014400116 -0.19824307 -0.047767088
0.12305204 0.2545968 -0.045123577
0.18299814 -0.120176636 0.15558533
0.18617564 -0.12795784 0.11889631
-0.25912133 -0.17944354 0.07548084
0.23117693 -0.07656099 -0.098208375
0.2180168 0.06463828 -0.07545491
0.14641596 0.14120227 -0.1435566
-0.19253895 -0.13409966 0.01850471
0.19675587 0.30192605 -0.08429536
0.2781978 0.04155841 -0.07011353
-0.19638756 -0.2574735 -0.05284482
0.2804649 0.053820796 -0.118972614
-0.28206202 0.06755775 0.06707099
0.12946564 -0.07140234 0.20899574
0.004491614 0.2227858 -0.09152063
-0.09501827 -0.22668287 -0.018819518
0.28566995 0.1404431 -0.1698238
-0.11686133 0.21945415 -0.07063322
0.1396035 -0.11886444 -0.06281222
0.00057972514 0.043063853 -0.08973254
-0.23498414 -0.26603 0.030633578
-0.05762624 0.090636045 0.038848035
-0.2190563 -0.32353836 -0.013443118
0.2207575 -0.07678117 -0.08006245
0.22019742 0.037736606 -0.09075499
0.22534883 0.20486562 -0.18287992
0.14919586 0.16794455 0.0014697723
-0.3110789 0.013366233 0.0698435
0.13636766 0.103129864 -0.0934027
0.14234513 0.022738758 -0.066170365
0.253272 0.0065270173 -0.05675254
-0.014674389 -0.03602249 0.15204875
0.18156499 0.11745441 0.038329843
-0.2305733 -0.13380584 -0.029860657
0.19120382 -0.096407965 0.19258451
0.15764405 0.017561737 0.1317279
0.08198138 0.16942477 -0.16214983
0.18829782 -0.060368903 0.16577463
0.17986721 0.32225323 -0.079370454
0.09681342 0.2450483 -0.09701815
-0.25431338 -0.25943923 0.033498887
-0.19328767 -0.1890199 0.009245714
0.17971462 0.012171641 -0.011516726
-0.12631045 -0.012926583 -0.08410159
-0.035644263 -0.24297151 -0.066797286
-0.2571704 -0.2512511 0.051989187
0.25283727 0.24836187 -0.08239797
0.248152 -0.018142816 -0.08090319
0.12446691 0.009523481 0.0015089371
0.01257868 -0.12940589 0.028077794
-0.092764705 -0.10964363 -0.03013358
0.21491854 0.22393319 -0.20161787
-0.030172873 0.045844402 -0.09199815
0.07983696 0.21499544 -0.07489523
0.20049699 0.06504381 -0.040790096
0.17147021 0.16043465 -0.18425532
-0.10599932 -0.21312018 0.017942067
0.27256265 0.11277428 -0.105258964
-0.23245792 0.02782619 0.0206518
0.21334271 0.031548224 -0.017742926
-0.27130434 -0.2483992 0.051657315
-0.09107179 0.11579303 -0.009247876
-0.20761251 -0.046550494 -0.072523445
-0.23787057 0.014543421 0.03038415
-0.013017803 -0.07570323 0.17215891
-0.09535261 -0.058974057 0.13529107
-0.099266574 0.102594934 -0.0069658137
-0.04180445 0.14731932 -0.051553134
-0.1946784 -0.1749664 0.032232907
-0.07563689 -0.05342067 -0.07593573
0.09867778 -0.1298086 -0.09165819
0.21949351 0.008585703 0.1576309
0.18097782 0.12379281 -0.11507626
0.25815138 0.02093212 0.1258855
0.047477562 0.17908475 -0.1532755
0.0044985134 0.24061944 -0.09826612
0.096848115 0.21626464 -0.092731416
-0.1463057 -0.16052179 0.034178972
0.052746076 0.05472258 -0.07366594
0.19245233 -0.04004615 0.17512178
0.17867249 0.15474173 0.035232086
0.14306945 0.047850266 -0.054767646
-0.08572722 -0.062069423 -0.039777055
0.065958835 0.2211503 -0.1166551
-0.054135513 -0.12501895 0.121143445
-0.018013751 0.034266874 -0.08242604
0.11044958 -0.077824 0.16323194
0.08957445 -0.049835395 0.00094211515
-0.14333397 0.24767645 -0.09277827
-0.24831608 -0.28838235 0.023454607
0.20287946 0.20900768 -0.055320144
-0.17090987 -0.07531308 -0.0077657206
-0.19512181 -0.06915097 -0.10761426
-0.15950175 0.2006937 -0.0741349
-0.020520618 0.0021596653 -0.0484666
-0.10324376 0.21529384 -0.07629152
0.15333275 0.12067054 -0.123325415
0.16341247 0.15038018 -0.105432466
-0.0677676 0.20792972 -0.11670204
0.090271935 -0.14578617 -0.013875188
-0.011333818 0.015514608 -0.034116838
0.22243458 0.13078722 -0.1366846
-0.26230797 0.002466054 0.07459783
-0.1946544 -0.07007723 -0.04598722
0.22477794 0.065947525 -0.09146169
-0.109574236 -0.12742509 -0.0018326587
-0.050137155 -0.007587145 -0.07478497
-0.120432734 -0.11247021 0.024550864
0.22148766 0.0058907922 0.1405889
0.1840632 0.18655302 -0.037777863
0.04183815 -0.09066535 0.052980572
0.08315453 0.026510932 -0.0706909
-0.0740824 -0.038272627 0.1083305
0.1713982 -0.12621163 -0.077157624
0.2139826 -0.06285039 0.19295439
-0.057823215 0.042704165 0.05171294
-0.09835661 -0.06986741 0.12039254
-0.17013024 -0.013193142 -0.07891655
-0.24752061 0.004099101 0.004438615
-0.0592247 -0.05358311 -0.033054326
0.1794595 -0.025275132 0.17532916
0.07539082 -0.1405916 -0.008032388
0.15502062 -0.05785154 0.16854265
-0.14406672 -0.21380787 -0.02880762
0.22339995 -0.102818966 -0.0910875
-0.08590865 0.1999849 -0.08147379
-0.13226047 -0.1918445 0.016301509
-0.22054115 -0.109997764 0.05501003
-0.2677789 -0.026362905 0.062478706
0.15434036 -0.033336993 0.16222367
-0.0422726 0.08077775 0.035975285
-0.10854015 -0.0352929 0.14637358
0.17787026 0.073546164 -0.058497794
0.03801679 0.1996225 -0.11220548
-0.12673919 -0.10140273 0.15049335
-0.12750962 -0.065061904 0.14136215
-0.2374294 -0.049715422 -0.089965075
-0.12121352 -0.15437196 0.03059875
0.18678539 -0.0010989812 0.15805054
-0.043497723 -0.03871375 -0.003596321
-0.08957487 0.24016549 -0.14971736
0.038919345 -0.03511565 0.023393394
-0.27998525 0.05023786 0.0981094
-0.22016859 -0.072660334 -0.08584387
-0.2263333 -0.19104192 0.0021859526
-0.066824906 -0.13407618 0.14001106
0.075283036 0.19440529 -0.12953532
0.2585545 0.0046010558 0.18085973
-0.13352033 -0.17562708 0.01661832
-0.13791381 -0.17243169 -0.012317115
0.20301916 0.18154052 -0.025971027
0.17657457 0.20178989 -0.17870218
0.19142905 0.19576402 -0.060085684
0.102482826 -0.012043239 0.12566042
-0.05693352 0.031042466 0.041732155
-0.03882782 -0.14412768 -0.012864832
-0.19107595 -0.22807367 0.011058291
0.02537529 0.14061092 -0.13639693
-0.20126228 -0.35653824 -0.035730027
0.1733417 0.08723234 -0.02698425
0.014910696 0.009211887 0.03447771
-0.038474258 0.0016364799 -0.04830233
-0.10992772 0.23138303 -0.11402654
0.28900468 -0.0026012396 -0.11913617
-0.18071221 -0.06936059 -0.049682565
-0.12616299 -0.022812866 -0.11651339
0.054330193 -0.06530737 0.12329458
0.247902 0.24182707 -0.06343635
0.057309497 0.2714219 -0.09079515
0.06382692 -0.026421411 0.16156353
-0.05824289 -0.08360297 0.1349425
0.28534174 -0.031858016 0.15873325
0.14425866 0.14652278 0.011509576
-0.013224965 0.009302158 0.08483804
0.106768474 -0.11570761 -0.055122856
0.19200309 -0.037034012 0.18528228
0.26641262 -0.04296424 -0.16051936
-0.27516717 -0.0853142 0.050988153
0.27501848 0.09094515 -0.076286115
-0.11611606 0.028776059 -0.13019975
0.22831908 0.06813269 -0.10080956
0.21724907 -0.05866215 0.21101056
0.26595917 0.024174176 -0.09208468
-0.2306141 -0.014475175 0.05299102
0.022561308 0.092202544 -0.14922222
0.22846644 -0.02529972 0.14351842
0.09546251 0.25615132 -0.088867776
0.15431347 0.08209912 -0.18458019
0.117894396 0.27640644 -0.08603548
-0.030972194 -0.22487819 -0.034326095
-0.2704031 0.055136867 0.057719447
-0.04373449 -0.055318914 -0.04367957
0.04200775 0.14079307 -0.15381283
-0.13446009 -0.019143818 -0.085782796
0.20900524 0.05069224 -0.040987987
-0.019973343 0.16645817 -0.10450034
0.022359198 -0.17575936 -0.0067173
-0.23181407 -0.013074593 -0.03917293
-0.23030154 0.05619038 0.007554437
0.19635713 0.23345496 -0.031601362
0.15568921 -0.07915013 -0.029960783
-0.06306986 0.096657075 0.036533903
-0.12033797 0.24076158 -0.10318639
0.20313248 -0.10578574 -0.090720415
0.19325855 0.083926626 0.08117865
-0.2664731 -0.20313577 0.030034222
-0.13467415 0.029528942 -0.22710131
-0.11160289 -0.092895985 0.14517966
0.08652947 -0.05548549 0.17287156
-0.14349093 -0.19195643 0.030149244
0.22167706 -0.06270873 -0.076654896
-0.1692342 -0.19081843 0.00019556674
-0.1429619 -0.07937461 -0.035674974
0.012350151 -0.059112534 0.09878036
-0.23194924 -0.34228668 -0.035013672
-0.021957051 0.18536344 -0.08785727
0.13976166 0.088101506 -0.070108324
-0.062209208 -0.0485268 0.15192844
0.26211172 0.06680653 -0.10151878
0.21163963 0.14114825 -0.07256875
0.22180021 0.23282553 -0.09275224
-0.25340065 -0.04815836 0.08508804
0.021250455 -0.07056946 0.1479613
0.2104473 0.0006658559 -0.002342018
0.026133608 -0.19575715 -0.029849755
-0.043598518 -0.018958455 0.08470271
0.015591671 0.18634993 -0.13590539
0.23889267 0.27581477 -0.050868433
0.1684386 -0.092081495 0.21327436
0.09828089 -0.014650999 0.110205986
0.19205564 0.29801354 -0.07797165
-0.070054166 0.0572132 -0.030750915
0.144741 -0.012537782 0.15419285
0.07465574 -0.1559156 -0.025898494
-0.0321229 0.057662006 0.028604694
0.1640797 -0.095492 0.21694003
-0.019242913 0.21900818 -0.04514458
-0.006361234 -0.070828 0.05681312
0.099847004 0.11269039 -0.15560016
-0.061828203 -0.21961196 -0.00035412543
-0.20516674 0.011058747 -0.13372579
-0.2444789 -0.25896463 0.045369644
0.25719076 -0.041257307 -0.123184584
0.2626806 0.15888025 -0.18241133
0.08876404 -0.083119415 0.08735132
-0.2408708 0.0021857542 0.10508057
-0.14116554 0.054939557 -0.14200237
0.25453827 0.06396553 -0.08197697
-0.07546169 -0.074893534 -0.0062113814
0.027361177 -0.08165266 0.09592806
-0.111257106 0.2201483 -0.07770118
-0.008125727 0.037484195 -0.07467345
0.14531478 0.081699595 0.0676124
0.1620498 0.18878224 -0.038286738
0.17797546 0.14571078 -0.061658353
-0.115779854 -0.12389689 0.1143281
-0.15372 -0.14485933 -0.0060989563
0.2284769 0.29374304 -0.05895824
-0.3016638 0.036555097 0.067169234
0.16226552 0.28980488 -0.09251575
0.10424987 -0.0251016 0.15095061
-0.23591511 -0.12901011 0.038295504
-0.10389588 -0.22066891 -0.035655532
-0.059652332 -0.1436895 0.12688258
0.1502984 0.25986052 -0.057063323
0.14407931 -0.13728948 0.21349663
-0.18470328 -0.09238814 -0.055391785
0.11220813 0.07921304 -0.1815338
-0.2568082 0.009819631 0.07430073
0.15394843 -0.04554383 0.1723741
-0.061077885 0.054857485 -0.099473275
-0.022805572 0.22280395 -0.071302205
-0.079420604 -0.021131502 -0.060563523
-0.10297833 -0.05428032 -0.10178273
0.2459416 -0.02769551 -0.124638356
0.13328704 -0.16781864 -0.09020683
-0.035693347 0.20925504 -0.10383414
0.28905264 -0.040201705 -0.08928213
-0.13452695 -0.14065067 -0.009934642
0.22532 0.14041361 -0.13252461
0.15173352 0.08522428 0.0692621
0.044872012 -0.01240151 0.12455494
-0.11060907 -0.08463386 0.07861944
-0.0020199346 0.040183652 -0.08231774
0.21937145 0.24643317 -0.07790659
0.14690213 -0.016821777 0.120922655
-0.067649946 -0.067134626 -0.05366825
0.12905982 0.00040825212 0.13087136
0.218814 -0.01959199 0.15324946
-0.25993863 0.06262377 0.025630731
-0.105852656 0.25776905 -0.14092793
0.20727207 0.09507952 0.07657483
-0.038283784 0.1682568 -0.08712609
-0.20805041 -0.0646314 -0.043827873
0.17593643 0.050553396 0.100598186
0.059289593 0.124905 -0.14211363
0.025783395 0.19494641 -0.13363886
-0.22268382 -0.2228894 0.017919865
0.18375888 -0.08279255 0.19715916
-0.22399265 -0.1940126 0.044057228
0.12789126 -0.1033195 0.15780856
0.04956617 0.0013095477 -0.047231216
-0.097853854 0.14964764 -0.037265137
-0.18587598 0.012089201 -0.13309248
-0.124821424 -0.18337126 0.03936726
0.17238806 0.15634155 0.003668323
-0.23415993 -0.27201524 0.020163411
0.15639275 0.06529428 0.055797424
-0.113192886 -0.21128766 -0.013687961
-0.10857202 -0.11037473 0.14614876
0.26332483 -0.022866854 -0.1622779
0.13541563 -0.15392949 0.14067046
-0.08289624 -0.21579526 -0.034364436
-0.034723286 -0.10815754 0.1450086
-0.07451674 -0.19364776 -0.012456798
0.1408944 0.08429056 -0.16137242
0.10889389 0.27430922 -0.07784838
-0.042582475 0.22559553 -0.07828537
0.17016573 -0.020836351 -0.024210162
-0.22950226 -0.20889662 0.05292401
-0.07166692 -0.18751836 0.012894145
0.038391434 -0.05123272 0.13765097
-0.24381475 -0.24568401 -0.013331915
-0.18652087 -0.17573106 0.0027126865
-0.21629922 -0.27740106 -0.07049862
0.06647765 0.27244323 -0.096278295
0.035444397 -0.027619239 0.013359924
-0.035214763 -0.007838492 0.11711268
0.059273157 0.23194328 -0.11070201
-0.035686675 0.025781421 0.06265825
0.17691532 -0.12455281 0.16162142
0.047228202 -0.03211585 0.1334353
-0.14495984 -0.07688413 -0.05677239
0.18415022 0.1051924 -0.11347706
-0.19246642 -0.21829297 0.0020457555
0.18381019 -0.06489917 0.1630811
0.041426044 -0.11975192 0.072228126
0.13183519 -0.0650639 0.18728402
0.21595038 0.22384356 -0.053059455
0.16134965 0.06571982 0.07375629
0.003498325 0.20748557 -0.10466343
-0.060061235 0.106306635 -0.021947755
0.13014282 -0.13061354 -0.12219771
0.23330635 -0.022273414 -0.04966754
0.2361294 -0.09707289 -0.060850523
-0.18752508 -0.08226573 -0.03254986
-0.13334997 0.07644889 -0.14221019
-0.01652824 0.10504436 -0.12822515
0.14731997 -0.050114144 0.1778873
0.17427151 0.18026714 -0.0008447094
0.12096528 -0.12031892 -0.10959069
-0.14430334 -0.14499713 0.014595041
0.012632342 -0.116378136 0.014970618
-0.11395005 -0.020696562 -0.10018027
-0.14277202 -0.094728835 -0.030419381
-0.2249894 -0.20549497 0.028181551
0.15340824 0.16396113 -0.09780712
-0.2282764 -0.18573473 -8.7917884e-05
0.220644 -0.0026130786 -0.06768337
0.18196686 -0.079182796 0.20289776
0.08351883 0.0033786641 0.14580318
-0.2880461 -0.13287325 0.07438286
0.1691493 -0.0046460857 0.1425509
-0.26298213 0.06899475 0.07227123
0.14316696 -0.11932511 0.18105398
0.22960798 0.30327252 -0.06467199
0.09242056 0.21467228 -0.10308153
0.11013697 0.16327856 -0.14625283
-0.22849116 -0.118625775 0.03676169
0.18448824 0.15277345 0.021383012
-0.2341884 -0.2560359 0.048396375
-0.0071292296 0.00077936053 -0.052707773
0.28655085 0.037291817 -0.18889523
-0.15517068 -0.070582755 -0.0611059
0.108982846 -0.051917285 0.16065352
0.24765864 -0.06264596 -0.121448375
-0.054888736 -0.10241834 0.14807875
0.24004467 -0.094029285 0.16656171
-0.16629516 -0.23065066 -0.09958768
0.030449081 0.21290834 -0.09780576
0.10066946 -0.038612746 0.0013072891
0.18967229 -0.01417161 0.13797744
-0.2539588 -0.122786574 0.034145694
0.059701264 0.16733545 -0.14373966
0.014353405 -0.055991765 0.10388013
-0.13942139 0.08039415 -0.19778153
0.25742832 -0.06253729 0.14566697
0.068592556 0.0027834694 -0.04190011
-0.09367775 -0.20729227 -0.054796353
0.19684382 0.034934457 -0.079169035
0.102343194 -0.14624396 -0.03364714
0.08880254 -0.05750642 0.0076872488
-0.16006662 -0.09653771 -0.063508704
-0.061929055 -0.116130136 0.1377462
-0.04479699 -0.20858915 -0.026859732
-0.09202153 -0.18547817 0.0046741124
-0.12308492 -0.16686732 0.0041901874
-0.17791417 0.029409876 -0.10430792
-0.15447867 0.16940336 -0.07960007
-0.17607586 -0.07210274 -0.04229282
-0.2352514 -0.16094352 0.030415513
0.092355326 -0.024575079 0.16637708
0.06424218 -0.16492571 -0.078358665
0.025205765 0.19956696 -0.11380787
-0.122726515 -0.060073547 -0.06908302
0.29217458 0.11088396 -0.12491341
0.18273447 -0.016131638 0.118542306
-0.06883598 -0.044301864 0.11023082
0.23036017 -0.03889204 0.17725298
0.10818854 -0.012999908 0.106364585
0.046167325 0.27104875 -0.08191004
-0.19133534 -0.23794949 -0.022460094
-0.23588546 -0.2240379 0.0065232036
0.24898444 0.011656585 0.15341559
-0.22898158 -0.2857159 -0.032157764
-0.27552226 0.09168707 0.06506508
-0.18591948 -0.060909234 -0.07228186
-0.26162562 -0.14785293 0.05795894
-0.11904248 0.10227861 -0.18491451
0.16773659 0.08719887 -0.011362334
0.1196991 -0.09681476 0.17167741
0.17420077 0.109571934 0.037092227
-0.055072434 0.23213743 -0.10733097
-0.018257368 -0.033023212 0.15158822
-0.12654848 -0.120330885 0.00434855
-0.2561346 -0.11010743 0.0795417
-0.19987462 -0.12146636 0.0069123185
0.0029361295 0.26741704 -0.08461379
0.28515318 0.031170398 -0.11945249
0.21075636 0.037315395 0.13757476
-0.26684982 0.0733682 0.035880163
-0.071875446 -0.12831652 0.15942068
-0.20348108 -0.25251043 -0.016377468
-0.2926067 0.11233583 0.085532986
0.055540092 -0.05401395 0.12732238
0.22179088 -0.04566889 0.16418584
-0.087841205 0.118685655 -0.03663641
-0.16215879 -0.095717944 0.010217104
-0.18367521 -0.23544769 -0.08348968
-0.29246387 -0.09712771 0.062192634
-0.021564104 0.13396387 -0.03976204
-0.26442224 0.022648752 0.087587304
0.14172591 0.020827057 0.0113669615
0.18339851 -0.12655953 -0.07216845
-0.2751978 -0.10647217 0.07070918
0.26536295 0.07362741 -0.25309876
0.31333122 0.07409699 -0.18224189
0.11663027 -0.13943669 -0.05242093
0.23990296 -0.091531985 0.17137975
-0.086272605 0.002578906 0.12318323
-0.27870288 0.064424 0.080950096
0.14548194 -0.04635136 0.01944135
-0.18454167 -0.1477867 -0.0014754263
0.005334681 -0.023436533 0.12721102
-0.24034649 0.06840945 0.031289063
-0.069309324 0.09048856 0.0022963132
-0.23574217 -0.2900412 0.022584295
-0.039440624 0.17304297 -0.03841723
0.26866168 0.11854913 -0.08617717
0.12565698 0.1926042 -0.07846841
-0.23632298 -0.088069536 0.01292163
0.24819642 0.089716144 -0.06966545
-0.13262023 -0.21641845 -0.006814304
0.017410312 -0.042573705 0.119506635
-0.053437937 0.09529422 0.021054609
0.24660774 0.26448697 -0.05717486
-0.022502229 -0.10207001 0.13650776
0.11881287 -0.1614613 -0.08800267
-0.14873035 0.23679313 -0.11631462
0.18253931 -0.12323255 -0.07393826
0.090293966 0.01048571 -0.035258453
-0.1746587 -0.07166893 -0.07105513
-0.036104072 0.19363616 -0.0575323
0.2093875 0.036220692 -0.036937866
-0.2515734 -0.30934444 -0.0036185998
0.12820715 0.23626085 -0.0572941
0.08674926 -0.09572807 0.018500866
-0.078405574 0.10618988 -0.00047689685
0.15894188 0.1515115 0.029383097
-0.2972438 0.061263733 0.08678934
0.033652965 0.22765568 -0.080608845
0.012844401 0.007786542 -0.026844053
0.13410582 0.22988795 -0.07271868
0.19180499 -0.084264256 0.12330982
0.16143037 -0.056990564 0.22555433
0.16795371 -0.13259093 -0.074649245
-0.27673835 0.08333963 0.10906509
0.20984344 0.027669659 0.108335376
0.17994492 0.1323519 0.02823077
-0.2487052 -0.32018206 0.0058891475
-0.06602985 0.0144343 0.08637145
0.028254172 0.16111167 -0.16289128
0.22543798 -0.036131497 0.15826367
-0.16477394 0.17890951 -0.06708576
0.27477026 0.010493468 -0.09141578
0.17463607 0.08615968 0.052727867
0.044220656 -0.034418214 0.004257194
-0.16252954 -0.19129638 -0.01519657
0.07036333 0.19007826 -0.16083042
0.12168786 0.16967908 0.0195865
0.0028268562 -0.064356126 0.16631688
0.046446428 -0.0077103623 0.03896477
0.055949826 0.006947092 -0.030273203
0.1795237 0.27319896 -0.098860905
0.051785998 -0.035590917 0.1639052
-0.29073384 -0.09601514 0.062493704
-0.23157719 0.015210774 0.07661446
-0.23698474 -0.2543531 0.021141846
-0.20526056 -0.21804988 0.018551646
-0.32100928 0.10319247 0.06459286
0.27010864 0.11019298 -0.1008974
0.10551883 0.20937714 -0.103087194
-0.010158809 0.08630867 -0.17502354
-0.27161816 -0.1250733 0.036824483
-0.06689377 0.16490561 -0.017990753
-0.20469812 -0.052811973 -0.10359698
0.27752146 -0.027478185 0.19214533
0.18132043 0.07020638 0.042513464
0.12997903 -0.037714485 -0.0045232987
-0.1753333 0.17506137 -0.14087656
0.18206297 -0.08964771 -0.10171814
0.06699034 -0.10558514 0.06936752
-0.21204786 -0.34841922 -0.05142957
0.025762672 0.24245146 -0.09658625
-0.033789746 0.16666947 -0.092638396
-0.26504225 -0.16804658 0.050696332
0.19382729 0.0049939365 0.16461472
0.18401617 0.05014843 0.061812732
-0.07059529 0.09966892 -0.008923323
0.060823116 0.23045947 -0.12499133
0.07126124 0.080299124 -0.19740196
0.0365708 0.15038957 -0.13351575
-0.2269809 -0.29921952 -0.07396513
-0.24479799 -0.13024798 0.045204673
-0.23687358 0.0053598504 -0.10085729
0.2542576 0.084220424 -0.115668066
0.07699291 0.16600515 -0.11062654
0.04996678 0.20302944 -0.10161788
-0.25006512 0.0559093 -0.05741003
0.18210469 0.2369583 -0.046154592
0.24236518 -0.079774685 0.17878336
0.19489677 0.11854247 -0.08712918
-0.29563943 -0.09335156 0.08173032
-0.24439158 0.041217905 -0.018527685
-0.07771773 0.18770462 -0.07449649
-0.22629751 -0.028579762 -0.063164294
0.09015664 0.29646438 -0.1005155
-0.27075994 0.0060120695 0.067275174
-0.20681019 -0.095036775 0.016422555
0.1117004 0.07327169 -0.09536743
-0.183938 -0.0065031634 -0.1612139
0.057449825 0.038333368 -0.067267045
0.21133627 0.22858557 -0.072075725
-0.11989797 -0.21361627 0.018449884
0.23970634 0.13834909 -0.14999542
0.21523967 0.0032504913 0.16142727
-0.22916393 0.0018685915 0.009683714
-0.14161946 -0.12199392 -0.012962973
-0.30030134 0.041949365 0.077515475
-0.011285405 -0.0077435663 0.09483953
-0.2956301 -0.061377946 0.08587628
0.22077975 -0.12746248 0.18020806
-0.24909419 -0.14563426 0.014948535
-0.11198804 -0.13370022 0.008422037
-0.25747252 -0.07574239 0.06109879
-0.07837202 0.009402758 0.09827597
-0.13932122 -0.16801323 0.022456212
0.22606766 0.247553 -0.055350423
0.06257189 0.19274867 -0.14135896
0.08894183 -0.13320234 -0.115528494
-0.13768867 -0.1012573 0.11088928
0.095675185 -0.08875682 -0.027844155
0.24232535 -0.048292622 0.20299953
-0.06233918 -0.15171185 -0.0026344399
-0.010936874 0.16623643 -0.16219118
0.13331881 -0.14065689 0.18109666
0.17396806 -0.06458961 0.18432403
0.15524536 0.13281229 -0.05292683
-0.030676275 -0.17984733 -0.022496529
0.23428507 -0.040008623 0.15979591
-0.020041654 -0.04431665 0.1038979
-0.0014682406 -0.03604484 -0.045083668
0.19887984 -0.09653871 0.1972278
-0.22002144 -0.18532868 0.033392213
-0.27732286 0.048810784 0.0886518
0.20593877 -0.08782142 -0.008872027
-0.04025088 0.04602824 0.07354671
-0.012647973 0.119798526 -0.10945647
0.114480324 -0.08036917 0.064962015
0.24965775 -0.039387677 -0.08733899
-0.29827332 -0.01577375 0.06462764
0.185344 -0.0032583296 0.17326759
-0.090505235 0.23332688 -0.09251188
0.115044646 -0.1199653 0.056046456
-0.27185866 -0.32577452 -0.018329505
-0.04148325 -0.12724455 0.020800732
0.09779493 0.22617811 -0.060041945
-0.20707029 -0.17749661 0.017729187
0.030750724 0.16395949 -0.14836165
-0.21859618 -0.21296786 0.057629313
-0.015132666 -0.17427008 0.007004161
-0.19601388 -0.053066097 -0.07915777
-0.26744658 -0.23127507 0.02481796
0.15867706 -0.066031985 0.19845922
-0.23864712 -0.11773643 0.09776279
-0.24658786 -0.063933864 -0.02142577
0.088399716 0.28109384 -0.07317599
-0.110852964 0.256448 -0.12314054
-0.25066698 -0.08200517 0.030718816
-0.24265338 0.072325796 0.07712867
-0.0069182073 0.06017352 -0.08787667
0.15279678 0.004629342 0.14675808
0.007386091 0.30595037 -0.0925841
0.12797286 -0.13448353 0.13731769
0.089890175 -0.03751286 0.14322452
-0.10912343 0.1865025 -0.08270266
-0.095308445 -0.14015706 -0.005213679
-0.23465021 -0.07683867 -0.018262219
0.18161653 -0.069335006 0.21255086
0.23936693 0.3001092 -0.06236351
-0.20625958 -0.08091657 -0.016146086
-0.2146463 -0.18585584 0.012009719
-0.0139798755 0.005211377 -0.016540479
0.109117456 0.21241097 -0.07870946
-0.18075985 -0.122871384 0.00419638
0.15740465 0.023668274 -0.17619146
0.15748277 -0.04821537 0.19180302
0.2953425 -0.010724666 0.15641268
0.020259704 0.24486345 -0.10102827
-0.06271321 -0.07944098 0.14627829
0.21979001 -0.08334123 0.17649215
0.1192568 -0.017979722 0.12410105
-0.28650948 -0.041052345 0.0718143
-0.22455432 -0.17127445 0.05527314
0.12701322 -0.024475057 0.18609434
0.1880907 -0.02525061 0.1746699
-0.24235113 -0.008263755 0.016591977
0.15993692 -0.000902757 0.11672654
-0.29173005 -0.21414791 0.04930161
-0.13838279 -0.22385395 -0.0816095
0.1973279 0.02271797 0.13869251
0.24021986 -0.04706825 0.21519786
0.22876017 0.18802999 -0.18621968
0.21075046 0.09925397 0.05989603
-0.14650394 -0.06451864 -0.065970175
0.094760075 0.041455865 -0.0589617
-0.14239067 -0.1951186 -0.012562501
0.04786854 0.20233709 -0.12953463
0.1293009 0.031046199 -0.0065228413
-0.13975035 -0.0804686 0.1395116
-0.0032580225 0.17841183 -0.17096801
-0.07740642 -0.15919454 0.038313486
-0.27880925 -0.14112817 0.049124863
-0.24198996 0.023102343 -0.0768167
-0.25422376 -0.05906489 0.06607089
