# .PCD v0.7 - Point Cloud Data file format
VERSION 0.7
FIELDS x y z
SIZE 4 4 4
TYPE F F F
COUNT 1 1 1
WIDTH 1000
HEIGHT 1
VIEWPOINT 0 0 0 1 0 0 0
POINTS 1000
DATA ascii
0.118822485 -0.08582467 0.12819232
0.021536384 0.1589275 0.103257366
0.14309065 -0.21339889 -0.1799167
-0.22523999 0.255578 -0.25418994
-0.031806722 0.16852236 0.24279362
0.11810783 -0.14256483 0.08735987
-0.11528062 -0.15746966 0.017305162
0.14627764 -0.074575946 -0.24909985
-0.0067796474 0.14484093 -0.27604342
-0.01356774 0.1920013 0.22305807
0.0860286 -0.10797039 0.13430865
0.22727151 0.037236657 -0.41874224
-0.1606005 -0.14750698 0.06958736
0.15923424 -0.09959515 -0.19857414
-0.10183758 0.12962586 0.022550333
-0.2238878 -0.10639392 0.049513668
-0.04104577 0.031731788 -0.08916688
0.24877186 -0.07149123 -0.28339407
-0.06591431 -0.22834033 -0.11870207
-0.033651773 0.116727956 0.23487228
-0.19102304 -0.1636479 0.045316383
-0.09077944 -0.0704576 0.1010775
0.11682676 -0.15464908 0.1013027
0.06189653 0.17208114 -0.19820252
-0.11001455 -0.13840382 0.07821514
0.15504639 -0.14264485 -0.056748673
0.0029944077 -0.16360123 -0.17300837
-0.2178682 -0.18608199 0.0611045
-0.19300537 -0.099067874 0.08923966
0.14870274 -0.027712148 0.13747965
0.1285845 -0.14278798 -0.067917265
0.16909003 -0.19387439 -0.13748054
-0.065108284 -0.15116392 0.08978865
0.04434762 -0.08007761 -0.12020713
-0.06330369 -0.010270572 -0.09045072
0.10801388 -0.0004129772 -0.034413297
0.10843447 -0.056446493 0.123291075
-0.007855898 0.14063412 0.21357217
-0.0121263135 -0.17925079 -0.17624311
0.08829267 -0.07790227 -0.015038874
0.052185245 -0.19440089 -0.30122882
0.16440457 -0.087980255 -0.2171468
0.10301838 0.106907986 -0.12930118
-0.122844055 -0.08922101 0.099463195
0.03943915 0.17845453 0.205075
-0.047600985 0.033316538 -0.10501931
-0.021398889 0.070029706 0.15052243
0.0932812 0.055826638 0.17886423
-0.06662453 0.1551395 0.07458968
0.15638182 -0.13862391 -0.054389145
0.00089542946 0.11106768 0.21903072
-0.043773573 -0.018267253 -0.09083482
0.11574087 0.15065269 -0.06725765
0.14920327 -0.06432884 0.09815911
0.21859333 -0.18705314 -0.19538099
-0.24805884 0.09508677 -0.02662718
0.051348925 0.020637749 0.15520966
0.042826936 -0.049599297 0.13105616
-0.07333285 0.07721771 0.064895
-0.041160747 -0.08356518 -0.14465764
0.088284574 0.13656496 -0.12850784
0.05886845 -0.12939472 -0.06519598
0.04079845 -0.19125453 -0.18335728
-0.20313954 -0.16157293 0.060967773
0.09130406 -0.13271138 0.10936617
0.01098083 -0.1016467 0.080918804
-0.076208785 0.11627142 0.087237865
-0.086015046 0.1946079 -0.2422601
-0.03718895 -0.1400263 0.08700428
-0.09697938 -0.08645475 0.104327805
0.17369372 0.025009744 -0.31520808
-0.073419176 -0.021744035 -0.10672651
-0.11675465 -0.14218861 0.08169684
0.0982292 0.07686563 0.2062924
0.07187661 -0.04228983 0.103001274
-0.06531983 -0.0022424057 0.13061695
0.10202942 0.0760172 0.1473501
0.11402524 -0.010782551 0.14211231
0.1019401 -0.009199294 0.16220963
-0.21773954 0.040405568 -0.020179685
0.1155914 -0.03033086 -0.008126574
-0.12777533 -0.15445225 0.074151784
-0.06857452 0.16458967 -0.20524703
0.20667826 -0.1339146 -0.082507364
0.08434193 0.10656779 -0.065854594
-0.0029279892 -0.15193032 0.067023925
0.14298289 -0.2153373 -0.17481902
0.115467645 0.16674012 -0.121591255
0.072134644 0.055360362 -0.05584716
0.05253912 0.11825366 0.06407299
-0.11064364 0.098786324 0.21324539
-0.027710808 -0.16821341 -0.09928991
-0.0062956447 -0.044147592 -0.10746967
-0.09205167 0.018849226 0.16374277
-0.20597109 0.23616609 -0.20190233
0.17755555 -0.1330759 -0.050779514
-0.055512592 -0.15516533 0.08971531
-0.069534995 -0.16189943 -0.15358067
-0.17640972 0.15156208 -0.11211123
0.23052645 -0.06658156 -0.24602537
0.084253795 -0.041719604 0.146733
-0.07710637 -0.18856037 0.06972096
0.0733584 0.033306666 0.19848007
-0.09759078 -0.038413946 -0.12888809
-0.07003609 0.1106618 0.22641794
-0.18041451 0.18586849 -0.21835314
-0.06877889 -0.02843451 0.11299973
-0.03458169 0.058928788 0.13163377
0.088550515 0.06537344 0.012332223
0.00936513 -0.088943176 0.1362378
0.08603367 0.0849105 0.17994276
0.06523865 0.17035562 -0.07612411
0.03129265 0.13405128 0.07102522
-0.094531536 -0.034852345 -0.11455086
-0.20593266 0.14851947 -0.055546273
0.21638304 -0.20057735 -0.30917257
0.0047621415 -0.08930234 0.079927295
0.09898195 0.123287626 -0.042983558
0.24433137 -0.143175 -0.27985775
0.020941766 -0.18416475 -0.17652553
-0.14037097 0.26457682 -0.21064055
-0.026475478 -0.1823103 0.077806674
0.22962558 -0.12203559 -0.24036252
-0.065465935 -0.12502281 0.08656117
0.08176664 0.10317087 0.15954836
0.078150645 0.07343109 0.1959129
-0.095191464 -0.07946926 0.12418651
0.1595612 -0.10136609 0.075744145
0.1446771 -0.14697167 -0.06516976
-0.041698795 0.1552045 0.2378309
-0.08645164 0.099300236 -0.09068246
0.03018559 0.09736961 0.19351819
-0.14457157 0.04757894 0.18517472
-0.153715 0.21413025 -0.19578956
0.07867345 0.13481873 0.0072228173
0.08929924 0.06619576 0.13541982
0.19601007 -0.001273926 -0.29506862
-0.13335729 -0.030188648 0.11520154
-0.012974908 -0.14775808 -0.17075004
0.0021993706 0.109140515 0.23314796
-0.23847133 -0.15165095 0.08881308
-0.12380344 -0.056384496 0.10161443
-0.13135241 0.022932548 0.16577423
0.21260126 -0.101721995 -0.11831999
0.117437355 -0.10025005 0.09906545
0.09166923 0.028959244 0.13999793
-0.16455168 -0.096281804 0.09447712
0.052679196 0.04912914 0.20476313
-0.030369725 -0.008908435 0.06983519
0.15443575 -0.101061404 -0.046504762
0.16278984 0.15297535 -0.31263778
0.049515236 -0.009378269 0.17047213
0.027692884 -0.13432723 0.1090341
0.02224706 0.06967771 0.17166643
0.058155857 0.015425112 0.108165994
-0.049815204 0.19190218 -0.26131988
0.085573494 -0.16896993 -0.08108969
-0.071479484 0.22701733 -0.23212425
-0.18780941 -0.14403477 0.08078542
-0.21772939 0.24080715 -0.20197701
0.11818523 0.0015270676 -0.037145797
-0.14287212 0.10708882 0.21480724
-0.15393262 -0.090631455 0.07643809
0.015654534 0.051000126 0.12117856
-0.060949598 0.11339933 0.17263784
0.16504821 -0.06322476 -0.24807607
0.0060258834 0.18200052 0.006036955
-0.03525555 -0.1541086 0.07641853
-0.124872 0.19863087 -0.19090551
-0.030846762 0.17696673 0.059732277
-0.050617356 0.17871617 -0.2371612
-0.077881604 -0.07182467 -0.12217462
-0.14572668 0.16509137 -0.21541236
-0.119701356 0.08176966 0.1878954
-0.0014214818 0.1856636 -0.13183406
-0.1290664 -0.09569992 0.12655623
-0.09325266 -0.013442937 0.12617795
-0.008064003 -0.016364269 0.09774186
0.049573593 0.18661125 0.17955734
0.113578975 -0.11992582 0.08959894
-0.05776949 0.15832376 0.2140275
-0.107991934 -0.005695792 -0.08672738
-0.18899998 0.14392877 -0.031885974
-0.0652521 -0.121704735 -0.13652872
-0.016757887 0.13201798 0.1319885
0.062017366 0.063831784 -0.051657602
0.058121987 0.034422286 0.15221708
0.100198865 -0.049751207 -0.038187217
0.08449144 0.0071272943 0.13094732
-0.1334098 -0.0028753977 -0.08427585
-0.027465297 0.19765536 0.20818897
0.20777561 -0.098823264 -0.16664933
-0.11946636 -0.12152178 0.108728826
0.108106405 -0.051190943 0.111126386
0.09246555 0.1780124 -0.21155673
-0.13469677 -0.05367115 0.11474815
0.13747656 0.12886809 -0.13540375
-0.117745906 -0.13797033 0.08195237
-0.093407154 -0.100053534 0.109695464
-0.10229717 -0.011008895 -0.0865259
0.13470249 -0.124908775 -0.049396068
0.032036006 0.17649882 0.20982376
0.041969504 -0.14382957 -0.044991214
-0.08594184 0.03296939 0.16171242
0.07416202 -0.16831806 -0.06838313
0.0009900586 -0.04422567 0.1379977
-0.2387222 -0.19784744 0.038677108
0.07338656 -0.044226263 0.13241704
-0.2261412 -0.14614709 0.07564873
0.13698205 0.07075004 -0.08762881
-0.060653992 -0.025765661 0.118685044
-0.22125448 -0.05629455 0.100994386
-0.05789399 -0.15479615 0.09634079
0.1679573 -0.15116748 -0.08168116
-0.08850673 0.15595151 -0.21079203
-0.15900704 0.2302045 -0.19907273
-0.19311006 -0.044128414 0.11979362
-0.052885063 0.1762191 0.2555099
0.18267934 -0.1086748 -0.21718903
0.20875321 -0.14254211 -0.11280011
0.03364173 -0.05658611 0.12703215
-0.056550976 0.17443515 -0.23194835
0.18455832 -0.21751972 -0.19561054
0.095254384 0.03119104 0.13832591
0.10017717 -0.041670147 0.12834455
-0.18551229 -0.12315455 0.0523927
-0.20000337 -0.16107014 0.06467162
0.15179987 -0.085757405 0.08348219
0.11465478 -0.18929528 -0.10532268
0.09920743 0.07773296 0.17317067
-0.05554811 -0.1670709 0.052695803
0.071028344 -0.12022981 0.068290174
0.07101236 0.04520897 0.19505268
-0.08032708 0.03698642 0.08879456
0.053222276 0.03700035 0.18100838
0.06641542 0.17459132 -0.20874546
-0.06334115 0.06540869 -0.09913357
0.013817972 -0.20763656 -0.1970577
0.14661843 -0.21753028 -0.21331118
-0.10736491 0.061414007 0.18832313
-0.03701181 0.15077312 -0.028392082
-0.05812965 -0.01919543 0.13013351
0.043102928 0.15104038 0.053074103
0.0051915534 -0.0355545 0.10599091
0.22559623 -0.093089625 -0.094420105
-0.12042237 0.23546381 -0.21796708
-0.120593995 0.09358498 -0.10045309
0.18694781 0.030363211 -0.30070806
0.041194256 0.097394444 0.19709165
0.0827037 0.04966226 -0.27039182
0.2348733 -0.07759046 -0.31035933
0.12269362 0.029986896 0.17007244
-0.194264 0.036291502 0.12804899
0.14005314 -0.023462066 -2.5404884e-06
-0.0153356735 0.10467637 0.21350645
-0.072237216 0.1454837 0.041050028
0.24110654 0.046081886 -0.37320703
0.23477753 -0.0037587993 -0.33631405
-0.088689156 0.10568253 0.04340817
0.099447004 0.05139561 -0.2652668
-0.08466269 -0.07044678 0.116957106
0.021943092 -0.11187753 0.09624216
-0.035421897 0.09784832 0.16940331
0.21217641 -0.05337547 -0.12211464
0.08781664 -0.07651627 0.12238842
-0.009151779 -0.24921077 -0.12666026
-0.02274089 0.1461342 0.19619612
0.068744466 -0.21803151 -0.11931614
-0.077284776 0.14060983 -0.11308797
0.0642884 0.092041165 -0.005254302
0.09856214 -0.16908342 -0.07553488
-0.09034611 0.13559641 0.23316179
0.11421 0.03637028 0.15012738
-0.20601423 -0.10189409 0.053361684
0.15227677 0.041936588 -0.28105506
-0.1493274 -0.075832434 0.10775866
-0.18261206 -0.04901609 0.10540111
0.20014927 -0.14979787 -0.114348814
-0.22294767 0.1414256 -0.028055869
0.18349095 -0.13704732 -0.100225724
0.17050351 -0.15534401 -0.10468531
-0.10640274 -0.15617563 0.07868121
-0.0710264 -0.059315868 0.10028956
0.24240921 -0.0865806 -0.15821514
0.18462813 -0.050905686 -0.0040113432
-7.800802e-05 -0.12338099 0.09427538
0.12831078 0.03623792 -0.1581762
0.129693 -0.089475654 0.08793218
-0.0820377 0.13649358 0.06104285
-0.0713938 -0.05786345 0.11979557
-0.031198291 0.1346894 0.02386596
0.108488336 0.1818929 -0.25970823
-0.13303816 0.113491245 -0.1829977
-0.10131244 0.0724548 0.21358402
-0.19924259 0.19362941 -0.28071466
0.027566202 -0.05461661 0.14238739
0.1641753 -0.123647384 0.12039756
-0.11663548 0.13004191 0.20065098
0.08657213 -0.13815822 0.08168348
0.21447812 0.0671932 -0.38069755
-0.0036649485 0.16675347 0.2200374
-0.18445589 -0.06603975 0.11019371
-0.061570015 0.045920298 -0.071514286
0.02632138 0.11007103 0.095262915
0.021595363 -0.046397954 0.14401509
0.108824104 0.13816781 -0.141315
-0.08672327 0.031932577 0.12182556
0.1417014 -0.02093408 -0.27681255
0.06768004 0.16354588 -0.24766628
-0.05791614 -0.12566432 0.0981183
0.2336767 -0.09393074 -0.21158317
0.10163943 -0.009785941 0.14306988
-0.11289372 0.07872513 -0.08870298
0.00862493 0.20130584 0.26821083
-0.031322237 -0.16213125 0.054482233
0.03474901 0.061395526 0.17919804
-0.017149031 -0.1508429 0.075315155
-0.09617396 -0.010318957 0.15750478
-0.08662219 0.124692924 0.11759741
0.031611662 0.15695646 0.079363056
-0.17440571 0.19894302 -0.18813422
-0.09622668 0.034324627 0.141353
-0.028420541 0.1741096 0.2194051
-0.006117528 -0.20050436 -0.19420648
0.054634433 -0.14070685 -0.17416477
0.011578658 0.16957371 0.25418466
-0.06522424 -0.079912096 0.09453104
0.0036769884 -0.027822591 0.10817791
0.12916651 -0.141717 -0.05551025
0.0045464598 0.16853087 -0.074005544
-0.008049276 0.15040763 -0.2506352
0.13081172 0.16387728 -0.16189885
-0.002121967 0.09104756 0.22113188
-0.09121707 0.053062364 0.116929606
-0.11010988 -0.053513914 0.13432904
0.04583729 -0.16897649 -0.18397242
-0.0055657756 0.15940596 -0.07819986
-0.14535941 0.22306424 -0.19918357
0.10537135 -0.09304894 0.09996605
-0.06408959 -0.007700896 -0.36853623
0.062127113 0.17997815 -0.047847793
-0.0590015 -0.07089328 -0.1520026
-0.08290168 -0.01968184 0.10204172
0.20486225 -0.12389097 -0.13620216
0.19226713 -0.0821907 -0.16070905
-0.07265753 0.12691511 -0.10245894
0.14406694 -0.07616202 0.09857271
-0.15981998 0.03794379 0.15276864
0.04304222 0.080062225 0.08101409
-0.048161753 0.14000852 0.020568548
0.036384575 -0.04406115 0.1384363
-0.06735541 0.09650786 0.08531614
0.2572499 -0.111716606 -0.31988606
-0.088976964 0.121312514 -0.120693326
-0.055441737 -0.09437351 -0.14048019
-0.1995345 0.14167564 -0.017047478
-0.09547287 0.17232329 0.18690123
0.090493366 -0.107747704 0.08871963
0.09954556 -0.005571482 0.007806049
-0.081866026 -0.11489692 0.0744911
0.06789855 0.065565504 0.11708572
-0.18058582 0.15638441 -0.16231462
0.00025570302 -0.18102981 -0.23948517
-0.1764194 0.1328273 -0.20003462
-0.122644976 -0.13638279 0.06622476
0.14663707 -0.017582191 -0.051031787
-0.042949606 -0.04775354 0.09474463
-0.080782756 0.027247237 0.18826118
0.10885135 0.011881564 -0.0076154554
-0.22173037 -0.04181816 0.117947295
-0.009353642 -0.044550642 0.14300252
-0.18798986 0.19528751 -0.21661307
0.21027073 0.05594437 -0.3424857
0.11858045 -0.0973401 -0.05326912
0.052611113 -0.051676482 0.128524
-0.17173584 0.0054136277 0.14940828
-0.045220856 0.080558404 0.16234095
0.070094824 0.08728289 -0.01315838
-0.17362355 -0.05809478 0.09886202
0.16499864 -0.07857662 -0.06684237
-0.023188546 0.17176461 0.25237715
-0.124326825 -0.120891444 0.08164425
0.11883265 -0.13173535 -0.07498404
-0.11681078 0.11123923 0.17534013
-0.11031643 0.2630649 -0.23343553
-0.092457615 0.06595485 0.1769904
-0.148744 0.033346113 0.1487888
0.022339929 -0.21310742 -0.24076381
0.023326933 0.1948226 0.015256501
0.013136705 -0.13265386 0.09070588
-0.08057157 -0.078984655 -0.11599212
-0.037688423 -0.10690194 -0.13688642
0.08110977 -0.12507343 0.10636284
0.14163485 -0.17790747 -0.13086538
0.097556606 0.15947264 -0.10713913
0.22820285 -0.012724958 -0.32414702
-0.02261776 -0.07873385 0.09155747
0.0641343 0.11194695 0.18329485
0.12994696 -0.058622275 -0.038807426
0.03800755 0.11988112 0.19084647
0.051545374 0.008198588 0.1155096
-0.15067832 -0.014873914 0.14015025
0.10336386 0.01826679 -0.24434763
-0.020889241 -0.041060127 0.10914336
0.2649687 -0.111757986 -0.3039437
0.07433943 -0.14242898 -0.073438786
-0.052701883 0.14738397 0.0338068
-0.16626014 -0.108035214 0.07493662
0.122028574 0.12709168 -0.1286253
0.06673667 0.19230483 -0.15076452
-0.04842631 -0.024315665 0.12303196
-0.21606967 0.09132366 -0.003375353
0.1149101 0.14284624 -0.24819493
-0.027355526 0.12161864 0.20770964
-0.0642017 0.1524864 0.22089693
-0.0062928586 0.1515896 0.21705784
0.059936307 0.12951724 0.22998996
-0.033468492 -0.16142736 0.04052163
-0.035700835 -0.07299785 0.09216259
-0.010408249 -0.088161826 0.0852485
0.26366395 -0.17512813 -0.16123806
0.17521165 -0.15889917 -0.08435639
0.12742749 0.1642153 -0.2642456
-0.045049228 -0.13857025 -0.16561292
-0.10090945 0.15520705 -0.1192766
-0.13952364 0.05636468 -0.077882506
-0.022350678 0.13163479 0.21162675
-0.020367458 0.09604262 0.13904215
0.11065111 -0.077312395 0.12481103
0.005560462 0.16304502 0.2258995
-0.0036207573 -0.11923621 0.12446168
-0.102095485 0.24275479 -0.22866458
-0.17059338 0.2287183 -0.21437073
0.017752578 0.040599495 0.109826885
-0.013800475 0.09544256 0.20029771
0.06763238 0.14012182 -0.062008828
-0.04207826 0.12333893 0.060146768
-0.1092602 0.22100352 -0.27697092
-0.011354046 -0.17421286 -0.18033415
-0.056633506 -0.118047535 0.09467134
0.07405214 0.046875842 -0.014340426
-0.0062210145 -0.10614485 -0.11967354
-0.046286583 -0.16845432 0.08804271
-0.05879368 0.16905433 -0.03076567
-0.02749061 0.1317473 0.24009933
-0.108411536 -0.013063136 0.11313388
0.027192103 -0.15089458 0.10463115
-0.2347369 -0.18233672 0.040701043
-0.13616464 -0.14999574 0.066409886
0.054824848 -0.0365201 0.123684004
0.21021292 -0.07452674 -0.18844004
0.26556233 -0.13146181 -0.25092068
0.078425705 -0.081673935 0.084423535
0.18906309 -0.16544351 -0.10226631
0.04525604 0.0444275 0.17638025
-0.04045065 0.14344326 0.06103235
-0.040463556 0.10082426 0.2004546
-0.017681448 -0.16708674 -0.18795805
-0.041717846 0.11376526 0.17492616
-0.007193217 -0.090044335 0.084180824
-0.0024283875 0.18212202 0.20400423
0.22266327 -0.011826112 -0.35231918
-0.05087761 -0.1488972 -0.13022855
-0.015478489 0.17700112 0.033237554
0.1306013 0.08324039 -0.3098559
0.042339675 0.068511896 0.06319736
0.0061116694 0.15585652 0.23501274
-0.072930135 0.08921214 0.17899317
0.065736935 -0.06642283 -0.0062509575
-0.05596363 -0.20825242 -0.13614576
0.11461776 0.003792609 0.13583171
-0.15673165 0.23883106 -0.1842548
-0.09370837 -0.11731528 0.0897318
0.02843866 -0.09931718 0.065562755
-0.019395392 -0.13707393 -0.13972674
-0.06215832 0.06981837 0.14206061
0.023179442 -0.03725553 0.12719715
-0.040912367 -0.09007644 0.08369797
-0.071442 0.07840891 0.17070131
-0.054440398 0.1245886 -0.09214769
-0.18048158 -0.044257574 0.11145926
-0.1916902 0.25349838 -0.20248681
-0.11581896 0.026345765 0.18310565
-0.14425382 -0.0902714 0.09477347
0.06788757 -0.016119037 0.0012036528
0.12738706 -0.01761417 0.16253525
0.19123533 -0.17286699 -0.10444924
0.05858506 0.023416493 0.17952469
0.14458646 -0.028085062 0.14159815
-0.0903672 -0.018098064 0.13228036
-0.04338409 0.19564012 0.23076731
0.048357744 0.09457523 0.19646929
0.12612012 -0.11386713 0.11623506
0.22803943 -0.17246163 -0.13739923
0.0037364918 -0.16269325 0.045941643
-0.15628757 -0.12277176 0.058827113
0.060318477 -0.07554626 0.1396614
-0.04867337 0.008012512 0.084725544
0.15986553 0.16121306 -0.32099003
-0.23031415 0.105361 -0.009579903
0.0877555 0.17399725 -0.1812904
0.04902274 0.076846875 0.21401608
0.015218889 -0.15857741 -0.42786416
-0.12847298 -0.05670302 0.11356655
-0.07714837 -0.039253842 0.133586
-0.11242754 -0.026401961 0.12841102
0.1431445 0.17333588 -0.21558833
-0.18861538 -0.19103828 0.044148616
-0.13017285 0.12705232 -0.122361936
0.095740765 0.044950433 0.18552738
-0.08961136 0.038712654 0.1219336
0.031088226 0.12394021 0.19043322
0.07120305 0.059301164 0.026754474
-0.09340161 0.08233652 0.18653505
0.118654735 0.14425252 -0.16268824
-0.11984987 0.17857386 -0.18810993
-0.19345272 -0.115553536 0.067530945
-0.12666157 -0.0875554 0.078228205
0.17503941 -0.038263116 -0.28104314
-0.041830163 0.087460615 0.13696188
0.014628188 0.122409895 0.20711473
0.007907484 0.14474915 0.17724279
0.16596219 0.058229834 -0.29415187
0.17187814 0.079745755 -0.32850823
0.030234354 -0.06790646 0.13060758
0.06451982 -0.1665292 -0.18617234
0.09105224 -0.041977983 0.14039662
-0.101636566 -0.061368022 0.11911325
-0.18526487 0.12965755 -0.1811462
-0.10404852 0.23359127 -0.21882823
-0.0037302722 -0.06365576 0.115109906
-0.10222543 -0.16004954 0.07830686
0.24347198 -0.06103669 -0.26088628
-0.031630695 -0.13487361 0.06475833
-0.18796897 -0.08809802 0.12103264
0.031273395 0.16617447 -0.12482212
0.00022425859 -0.1161972 0.08114214
-0.15913364 -0.16047205 0.059122164
0.15591165 0.022383897 -0.2987147
-0.12260365 0.18797153 -0.2162951
-0.06983339 -0.15465352 0.055568643
-0.023220165 0.07267239 0.13476086
0.23143941 0.030157084 -0.3825293
0.06959815 0.08261758 0.19984886
-0.042464662 0.075409256 0.17569822
-0.17772257 0.12697603 -0.030511582
0.1890796 -0.14064544 -0.0978517
0.023483632 -0.087408215 0.13593535
0.016871197 0.12809591 0.14233814
0.020893358 0.055122614 0.17386861
-0.18852653 0.11107565 -0.008238031
0.0847456 -0.013828745 0.14540423
-0.073498644 -0.06450651 0.10615224
-0.16303575 0.068431765 0.007984082
-0.14607903 -0.17416318 0.03643298
-0.06879467 -0.11096258 -0.12720835
0.15664373 -0.10849262 0.08536862
0.029703585 -0.11855585 0.11456762
0.010380814 -0.17006049 -0.18818647
0.0054660635 -0.04115718 0.105109826
-0.091408 0.048178963 0.070409276
0.06887019 0.10141895 0.12043385
-0.025778806 0.20673195 0.2528487
0.18627064 -0.06965114 -0.25194967
-0.08054696 0.13480362 0.19144979
0.15400735 0.046544936 -0.32587236
-0.07568233 0.10471158 -0.08488122
-0.09186587 -0.12936251 0.0889156
-0.0038099159 -0.094847776 0.1170933
-0.1663238 0.1903941 -0.19594687
0.012827491 -0.06794515 -0.09650516
-0.16108781 -0.0431325 0.11080927
-0.013652051 -0.06266526 0.14830004
0.13855667 0.16880609 -0.29492664
-0.0532333 -0.1495868 -0.13574855
-0.084845126 -0.17357641 0.060485274
0.15684727 -0.07527399 -0.03132434
0.07102994 0.10728298 -0.039261952
0.1237275 0.040557515 -0.0926131
-0.111829646 0.14863543 -0.13477594
0.034969594 -0.08580036 -0.3364109
-0.21043904 -0.14995219 0.033551782
0.055519287 -0.0028661767 0.17632888
0.15281504 0.105459526 -0.24787201
0.12441911 -0.11960536 -0.05909367
-0.08889541 -0.18529746 0.0719242
-0.17924441 -0.0337779 0.12374788
-0.10905359 0.18354526 -0.1881188
-0.19057776 0.11593472 -0.06151797
-0.17286809 0.14211997 -0.17205359
-0.12106397 0.06648239 0.19734444
0.0482389 0.048314754 0.16733316
-0.008372318 -0.19462943 -0.1264737
-0.13376178 0.10307017 -0.149089
-0.05977521 0.15663297 -0.23710725
-0.060224015 0.15327679 0.20669492
-0.13166387 0.090472355 0.11052156
0.12953857 -0.1311647 0.0718856
-0.14807856 -0.096158 0.08851718
0.15738182 -0.22112975 -0.18129328
-0.08861811 0.10580779 -0.12969324
0.018573659 -0.09588173 0.11544213
-0.003714958 0.11838634 0.14196482
-0.22225496 0.12719877 -0.034245875
-0.07102456 -0.009479609 -0.13228117
-0.04839617 -0.04898669 0.13901246
-0.14102882 -0.1494557 0.046130776
-0.16015527 -0.03618383 0.10359349
0.19348817 -0.10376199 -0.08164647
-0.03126934 0.16116837 0.06827755
-0.16879472 0.037882008 0.16276024
0.15983588 -0.10314987 -0.01610238
0.2437597 -0.12679008 -0.21943408
0.11285848 -0.21190259 -0.16302703
0.24287292 -0.09039715 -0.2877978
-0.11421817 -0.17105953 0.07066149
-0.0021323585 -0.14247078 0.0768974
0.030095896 0.0008973026 0.14721608
-0.020561663 0.15854703 -0.1547476
-0.13918044 0.08653 0.1801553
0.17210443 -0.1447282 -0.101629734
-0.03675074 -0.15980592 0.06332938
-0.053830482 -0.06803178 0.11917083
0.15148522 -0.08546609 -0.026180869
0.06880696 -0.037131406 0.107827954
-0.11611536 -0.080338605 0.11357713
-0.030504955 -0.15675242 0.062484838
-0.21065265 0.106809594 -0.020839885
0.01112715 -0.10081154 0.08888904
0.16284114 0.093502775 -0.28417432
0.08187678 -0.13560934 -0.065153204
0.13433897 -0.21147476 -0.122861296
-0.02884145 0.17870933 0.24469104
0.2590878 -0.17031342 -0.15678194
-0.18424901 -0.032539584 0.10479408
0.07111116 0.086141706 -0.038019534
0.019584289 -0.09940513 0.07497571
-0.0127795655 -0.17474207 -0.21451958
-0.070859425 -0.03533008 0.1212491
0.024855025 0.16420685 -0.14908506
-0.076690175 0.14590032 -0.029336715
0.077364065 -0.023833258 0.14647289
-0.07048784 0.10431893 0.20299076
-0.01152098 -0.05392681 0.11481568
0.1334937 0.107294075 -0.13701735
0.0038699452 -0.11899347 -0.12889129
0.23404276 0.053121526 -0.38648725
0.16442005 -0.10802496 0.13679773
-0.22295956 -0.06543512 0.06881022
-0.07365406 0.015545403 -0.073947996
-0.11164969 0.2529185 -0.22967795
0.019180095 -0.08330593 0.120798714
-0.10804307 0.097047605 0.21423925
0.14452769 -0.094988465 -0.054537885
-0.06662386 0.031353574 0.16743347
-0.023209453 0.04922701 0.10410881
-0.17874639 0.26073465 -0.18549001
-0.0584427 0.12292295 0.21395877
-0.04487201 0.11854244 0.12413541
0.112806 -0.014111747 -0.017666625
0.03533905 0.19360545 -0.10804093
0.1641525 -0.09615605 0.12918606
0.033783276 0.16979569 0.028005883
0.14356284 -0.07943955 -0.19761732
0.19945517 -0.13300902 -0.057981253
-0.20042877 -0.12867624 0.03998822
0.078343384 -0.0654379 0.1098204
-0.16974494 0.0041363467 0.10252721
-0.008101295 -0.02835857 0.09444237
-0.07008883 -0.010847639 0.13368419
0.14116217 -0.0768035 -0.022177512
-0.16234915 -0.07239822 0.11768003
-0.14753969 0.02048668 0.13678004
0.17583635 0.10823387 -0.38232735
-0.10935623 0.09273027 0.15319751
-0.19330359 0.13733216 -0.017548641
-0.11453404 -0.13075836 0.0531962
-0.07539236 0.121850476 0.12858304
0.13831994 -0.118919216 0.10478489
-0.071025394 0.12948671 0.21565518
-0.07463153 0.019941416 0.17692362
0.19011763 -0.20528023 -0.15133108
-0.07582222 -0.06578509 -0.11123273
-0.037582457 -0.091992356 -0.13217638
-0.09650262 0.14990959 0.19672862
-0.17511377 0.13524733 -0.19173592
-0.10305002 0.017961347 0.13447961
0.11504063 -0.10289396 0.10052547
0.0023471762 -0.015625777 0.14076579
-0.0017858744 -0.12537263 -0.10875424
0.0599629 0.027350329 -0.030522894
0.07882018 0.034430183 0.1974417
-0.031423714 0.18391992 -0.05475753
-0.0073843054 0.16907357 0.059725344
0.047794692 0.14479633 0.050143335
-0.0939043 0.12532611 0.06583119
-0.03269336 0.13990319 0.21214364
-0.0012724374 -0.10479168 0.0840506
-0.10383037 0.17530257 -0.19427279
-0.21719994 0.08108832 0.004447109
-0.017362341 -0.05591864 -0.1415476
0.12697999 -0.18612282 -0.0780375
-0.122124515 -0.13906763 0.07263452
-0.11703323 -0.042988356 0.12605876
-0.085808225 -0.0343025 0.11633529
-0.0075644935 -0.0007721578 0.0991625
-0.14692622 -0.13679497 0.06891015
-0.055309106 0.09913426 -0.0803806
-0.14572902 0.017761175 -0.122550756
-0.11322456 -0.10425664 -0.14712195
-0.11577611 -0.16167274 0.08044792
0.16858965 -0.030255154 -0.2801184
0.0794252 -0.14402929 -0.27249485
-0.077855535 -0.092266425 0.076350465
-0.0014227608 0.105505444 0.21965739
0.027287714 -0.09419048 -0.13835584
0.027758364 -0.07842032 0.11623447
0.17613746 -0.021749018 -0.33332157
0.19167818 -0.1428897 -0.11149344
-0.07234131 0.039918933 0.18954901
-0.079483666 -0.0112533765 0.1037916
-0.042404566 -0.2638629 -0.12563375
0.10256717 -0.033009347 0.13398151
-0.04093997 -0.030446189 -0.102244474
0.13223484 -0.13134356 -0.04428617
0.088146456 -0.07006665 0.09187467
-0.16053383 -0.12971823 0.075905606
-0.059694413 0.157918 -0.17083558
-0.09081624 -0.014869268 0.119834
0.056243323 -0.117424205 -0.14408854
0.09534641 -0.09138175 0.08627971
-0.094249465 -0.14632457 0.039854974
-0.046194457 0.15654637 -0.007591475
0.21250215 -0.10376423 -0.07961394
-0.17836064 0.14507163 -0.004280032
0.09699181 -0.1851603 -0.26270905
0.23801701 0.057560336 -0.36997956
0.13145424 0.0035572583 0.12949558
-0.0051101623 0.14214368 0.2192158
-0.0548365 0.2003725 -0.22232206
0.11094042 -0.06297552 0.13841943
-0.10575343 0.07372403 0.21251023
-0.010495856 0.145814 0.063597746
0.112213716 0.10710216 -0.067925744
-0.20966062 -0.15110059 0.057625834
-0.16956 -0.049328785 0.123579
-0.09710987 -0.11773168 -0.11731679
0.066010885 0.04163687 0.16078457
0.13229653 -0.036212265 0.12320561
0.019850343 0.14609377 0.1141003
0.023258716 -0.014431258 0.11624261
0.109697126 0.09011211 -0.09182819
0.043878186 -0.016516978 0.14345099
-0.0011464183 -0.14466155 0.09587886
-0.081975125 0.12124427 0.23908457
0.22900577 -0.054505862 -0.34395012
-0.08309154 -0.1157959 -0.16694778
-0.11717328 -0.12119691 -0.12322351
0.10961182 -0.07089935 -0.025047282
0.06754548 -0.03836014 0.14493482
-0.12485969 0.15729545 -0.19762656
0.07818087 -0.12596591 0.11998278
-0.027864471 0.17016949 -0.025734497
-0.13486356 0.23974082 -0.22082826
-0.039054796 -0.023616912 0.11401019
0.06672979 0.07831141 0.19032195
-0.031851184 -0.17933221 0.060824305
0.05811197 0.04260286 0.18882014
0.023822093 -0.12364619 0.07698359
-0.12629871 0.07383675 0.1406561
-0.15495992 0.23020884 -0.22550067
-0.08646117 -0.16361545 0.067219876
-0.044145167 -0.14669156 0.04362692
-0.052332547 -0.032992553 0.12303253
0.059766196 0.017248604 -0.05319753
0.011458438 0.17699198 0.21304412
0.14026032 -0.13421734 -0.04890105
-0.18758456 0.068395145 -0.02025312
-0.20513509 -0.057496756 0.089593135
0.057928793 -0.13005581 0.08576128
0.021941245 0.14867224 -0.028819267
-0.1812396 0.19666484 -0.21232642
-0.2296944 -0.060788553 0.0630903
-0.02179704 -0.07380738 -0.13531832
-0.04599351 -0.17521559 0.04409968
-0.15447356 -0.013735868 0.12399597
0.18611307 -0.09382864 -0.08601492
-0.006427709 -0.19807027 -0.20984955
-0.03044249 -0.15242074 0.048812065
0.06373034 0.07142459 0.19844861
-0.11280581 0.13815743 0.17096889
0.023287559 0.14697236 0.054220207
0.060529824 0.059199177 0.18327813
-0.18863882 0.09174947 0.011953793
0.1801324 -0.06403635 -0.10776146
0.123509504 -0.030447 0.11331616
0.10764424 0.078709416 0.18125667
0.0938532 -0.033916745 -0.2670529
0.08396774 -0.02908988 -0.030349111
-0.16973375 0.1982921 -0.20110705
-0.14465359 0.048412204 0.15177815
-0.066703424 -0.09206756 -0.11278798
-0.17977113 0.13886678 -0.19388673
-0.15420912 -0.1319435 0.07431864
-0.11543616 0.17756762 -0.21155494
0.22989242 -0.14503227 -0.18976226
0.24582487 -0.06469535 -0.297109
0.09372108 0.16793613 -0.21923463
0.10838989 0.17830087 -0.1572291
-0.050395083 0.1381982 0.12531644
0.13296773 -0.06848827 0.12894139
0.13320303 0.12922187 -0.1970017
-0.09717436 0.0988131 -0.10798444
-0.06302054 0.089015976 0.1532148
0.14574918 -0.1268751 -0.041236352
0.13525632 -0.036489427 0.07504702
0.058813266 0.026254851 0.030555138
-0.024125269 -0.20639251 -0.1478378
-0.021797646 0.1509654 0.046862308
-0.1412703 0.09596894 -0.037098438
-0.10743105 0.062057365 0.1632248
0.079599865 -0.024565216 0.15190375
-0.14503108 0.10782789 -0.13292938
-0.115218535 0.016574703 0.17200261
-0.021141179 0.06541295 0.14246166
0.11742617 0.17207347 -0.21768408
0.014079417 -0.24093924 -0.12495116
0.08316236 0.020675125 0.1586522
-0.08500056 0.026700897 0.18223329
-0.049745437 0.17390014 -0.27227822
0.18554613 -0.15618402 -0.0947164
-0.044044584 0.16031241 -0.017738206
0.043170337 0.07111687 -0.040101655
-0.086643584 0.07992156 -0.07644218
0.18333241 0.0684387 -0.29803884
0.16102542 -0.11422128 -0.06926092
0.0037773051 -0.15524104 0.083692536
0.079470485 0.113958016 -0.02929561
0.07475174 0.10988701 0.17096633
-0.095845565 0.058388483 -0.3447595
-0.14900595 -0.050611388 0.13171734
-0.12894489 -0.11555502 0.08460803
-0.093467265 -0.07373 -0.13042675
-0.026245065 -0.21107255 -0.13127121
-0.0862537 -0.09126353 -0.13847318
-0.18706803 -0.14422596 0.05646021
0.08797676 -0.1447433 -0.3000033
-0.15960568 -0.1740411 0.06899385
-0.13783899 -0.04512277 0.15220463
0.16419145 -0.08963356 -0.08231595
0.08997868 0.027920743 0.19387223
0.028244402 0.014557951 0.11239503
-0.031762477 -0.043152172 0.12530644
0.26642093 -0.11731807 -0.18136929
0.2748105 -0.16022927 -0.20992503
0.17181392 -0.06541961 -0.05313878
-0.11545908 0.037606254 0.17365505
-0.058937125 -0.23041308 -0.09822389
0.041359235 -0.14548184 0.07689203
0.04430099 0.16142823 0.20951028
0.14330728 -0.082795784 -0.1763907
0.06565208 -0.09066989 0.109808736
0.00033651604 -0.06097629 0.12197312
-0.0046915365 0.13201748 0.25097522
-0.079175465 0.101010546 0.19959255
0.09733176 -0.18892574 -0.11017317
0.24035254 -0.0655761 -0.37863353
-0.19214664 0.21395907 -0.19734238
-0.03391544 0.13650042 0.21265325
-0.17476568 0.018562794 0.14987159
0.06643276 -0.04434651 0.14296567
0.11007886 -0.21073101 -0.12507544
-0.036900222 -0.034541827 0.1134615
0.028612856 0.17847157 -0.19364673
0.045548234 0.13503435 0.2299484
-0.013262397 -0.22085819 -0.094285026
-0.16061987 0.22205597 -0.33079776
-0.22006793 0.08709803 0.00049680343
0.1443552 -0.032082964 0.11357638
-0.22821055 -0.08260795 0.08587562
0.045495596 -0.039567236 0.013995509
-0.0201348 -0.047651965 -0.12680697
0.060684778 0.1717206 -0.16207273
0.08672456 -0.06912996 -0.30782872
-0.1366542 -0.11897874 0.07377909
-0.14678514 -0.19317676 0.06642564
0.1523352 0.04568112 -0.3167702
0.15703599 -0.21669488 -0.10637372
0.00967533 -0.25774947 -0.13696305
0.13641651 0.10706528 -0.2558966
-0.120911226 -0.1500334 0.07177049
0.1199431 0.118162006 -0.052879836
0.046857674 0.1417048 0.18291487
-0.07249137 0.026783645 0.13527982
0.17563444 -0.0634252 -0.07341364
-0.08768119 0.08069102 0.19764288
0.16218296 0.108655475 -0.31169054
0.0504005 0.16484605 -0.24339803
-0.059677444 0.13846698 -0.078335814
0.018058103 -0.02403557 0.14297883
0.06225768 -0.13562265 -0.12193543
-0.09332697 0.24049671 -0.21924782
-0.17947215 -0.18708862 0.04197744
0.076765485 0.14275867 0.0060108667
-0.113700055 0.10614847 0.20146929
0.14070141 -0.078627296 0.1072883
-0.10789761 0.14588869 0.1800311
-0.06386263 0.103525825 0.08352285
-0.008195042 -0.008111113 -0.09282114
0.052288193 -0.051785003 0.1324992
0.16745543 -0.119030975 -0.05166036
-0.088279575 0.028879596 0.116447516
-0.08367625 0.16789037 -0.22888619
-0.02157025 0.16420136 -0.24088284
0.05973266 -0.00020865821 0.1658214
-0.09695304 -0.13762939 0.080049045
0.020752434 0.1331631 0.20703779
-0.05703007 -0.015092347 0.13486546
0.26441947 -0.11732677 -0.26936826
0.03165614 0.15910704 -0.0028173015
0.042023353 0.05223234 0.17900212
-0.046786185 0.114509866 0.08213582
-0.0077323713 0.17216083 0.04072718
-0.023004847 -0.12863144 0.07115515
-0.026096689 0.1342598 0.19632454
0.24835281 -0.08120537 -0.23188941
0.026337288 -0.15195893 -0.15390815
0.09192727 0.01858219 0.1448762
0.045404594 0.08910947 0.18197155
0.032240473 0.123819776 0.20270273
-0.13315088 -0.106423184 0.11871962
-0.038900133 -0.13506104 0.07879825
0.21625921 -0.09415727 -0.26125678
0.07050608 0.087707505 0.17567694
-0.12580657 -0.04465127 0.10732011
0.10432627 0.16987397 -0.23537421
-0.18844816 0.25773874 -0.2724735
0.021443604 0.10586327 0.22321288
-0.028247628 -0.14691022 0.09491829
0.01545422 -0.010557535 0.12478896
0.16010635 -0.23801991 -0.20913616
0.09424846 0.018039454 0.16067123
0.16239078 -0.027054237 -0.28195456
0.12552695 0.022619376 -0.14353593
0.0569553 0.09353712 0.21624294
-0.15643214 0.07810716 -0.07251144
-0.10862307 0.12379061 -0.13218312
-0.11649672 0.09214729 0.13145763
-0.055672977 -0.1367527 0.08948305
-0.056404173 0.14702621 -0.053728398
-0.1318706 0.24304473 -0.20361875
-0.10201473 0.16256672 -0.120877035
0.24669576 -0.182397 -0.1799735
0.27758595 -0.078558296 -0.31062996
-0.16706575 -0.13916592 0.09209059
-0.13617213 0.02596768 0.13917808
-0.014025899 -0.1199998 0.08856171
0.15321317 0.115992546 -0.2921533
0.04959496 0.073781274 0.16939498
-0.11820103 0.049929168 0.17336546
-0.06333923 0.18201792 -0.014346948
0.11432265 -0.13321215 0.067629494
-0.016498212 0.037567317 0.13104708
-0.11237454 0.09039337 0.17046027
0.17211968 -0.09812681 0.097736254
-0.06571749 -0.017249014 0.14679605
0.23154122 -0.047092862 -0.2725416
-0.033629343 0.15114447 0.05038397
-0.06673482 0.1364555 0.029332366
0.086864315 -0.07896495 0.11927513
-0.09933176 -0.087018155 0.108403966
0.17707337 0.052819464 -0.35771307
-0.046212994 0.07465832 0.22030097
0.04097191 0.16410236 -0.21941161
-0.11189539 -0.13135013 0.06720909
0.21662709 -0.11923306 -0.14844783
0.10102452 0.1381177 -0.14855695
-0.04148364 0.18241316 0.037747603
0.022512505 0.11455297 0.19632179
-0.15338533 -0.1379022 0.090229064
-0.15642686 -0.027196651 0.11035346
-0.17149878 0.1574145 -0.103887476
0.08852153 -0.040661354 0.029046552
-0.079085715 -0.1550947 -0.16376996
-0.1562837 0.16085109 -0.14820331
0.14439015 -0.120648056 0.08891781
0.14243223 -0.15853082 -0.08124542
0.017354645 0.16283159 0.0019873742
0.22658274 -0.036902156 -0.36487406
-0.09532977 -0.17050767 0.080463275
0.08690255 0.054302882 -0.21627374
-0.04373902 0.12793012 0.19791554
0.11633946 0.16523007 -0.12500596
-0.08426632 0.13868661 0.021155376
0.0010926749 -0.19867103 -0.19672391
-0.030088142 -0.14401153 0.08857194
-0.049471233 -0.08469396 -0.13907425
0.22580126 -0.1369899 -0.08846057
0.061115887 0.093540415 0.19635975
0.112807825 0.10175744 -0.2007722
