# .PCD v0.7 - Point Cloud Data file format
VERSION 0.7
FIELDS x y z
SIZE 4 4 4
TYPE F F F
COUNT 1 1 1
WIDTH 1000
HEIGHT 1
VIEWPOINT 0 0 0 1 0 0 0
POINTS 1000
DATA ascii
0.2685834 -0.10860242 -0.0611855
0.15690587 0.016050568 0.02193444
0.23757207 -0.077374816 0.06885527
0.29056698 0.0013853181 -0.06943939
0.31667566 0.030811207 -0.22374177
-0.002555623 0.08118949 0.12778084
0.15041517 -0.16143945 -0.110564925
0.14579508 -0.17924988 -0.1208323
-0.14037904 0.20298155 0.018447962
0.050321512 0.12189868 -0.010325236
0.17952439 -0.09016298 -0.06709894
0.2872053 -0.18947707 -0.1719011
-0.080062956 -0.14778888 -0.10503829
0.11062863 -0.11469107 -0.012705957
-0.17524265 0.114294976 0.1631633
-0.18588355 0.17746644 0.036431182
0.056239866 -0.0035080656 0.17596082
0.33020434 -0.09800049 -0.22945856
0.105463214 0.022134699 0.04242034
-0.004199076 -0.045313608 -0.018413952
-0.22319442 0.015231174 -0.3509506
0.26839277 0.17936754 -0.12949722
-0.27185664 -0.10852925 0.015334148
0.24633646 0.020561386 -0.016460935
0.059827033 0.06231588 0.10288066
-0.13099661 -0.085672036 -0.36551118
0.29225326 0.06298326 -0.14070791
-0.10190471 0.2245288 0.047928248
0.2979779 0.049045578 -0.20523946
-0.23322135 -0.08227011 0.031440854
-0.12726481 0.012394585 0.19357663
-0.01798973 -0.15533006 -0.11039256
-0.24671 0.056896195 0.10038331
-0.11261265 0.03498653 0.20327206
0.051998235 -0.1458979 -0.13646893
-0.10037356 0.027731244 0.19033512
0.075470716 -0.08906154 0.09005959
0.13793403 0.019432142 -0.005948562
-0.26283056 0.038065508 0.11232709
0.2149214 -0.0075007114 0.03643831
-0.0790513 -0.049797334 -0.05422339
0.33853513 -0.1718614 -0.2681398
-0.011744101 -0.08013402 -0.036969244
0.2440599 -0.026046121 0.06471281
-0.30012247 -0.02914778 0.04306686
0.115053274 0.039613537 0.07365547
-0.31070796 -0.03979888 0.03782166
-0.27559263 -0.041434083 -0.10554698
-0.20946755 0.140507 0.024081742
0.23203494 0.19324167 -0.14237824
0.25429875 -0.022797272 -0.09806062
-0.01661012 0.09067075 0.066428766
-0.17729096 0.1161528 0.108317085
0.23747918 -0.05012847 0.09839512
-0.17459348 -0.055179097 -0.31778312
-0.075182036 0.0782664 0.14054771
-0.17607541 -0.1363055 -0.103482485
0.29668507 0.014015254 -0.22352016
0.110274315 0.17879738 0.0769957
0.22139251 -0.09681483 0.07392597
0.0098481905 0.18080783 0.051280096
-0.27102757 -0.08540575 0.027440105
-0.13395357 0.016607992 0.20561478
-0.16958226 -0.17101401 -0.0704728
0.22613819 0.084029175 -0.13926223
-0.21722348 -0.00033028494 0.15184306
-0.16232805 -0.018276297 0.18114246
0.033758283 -0.14785805 -0.13811094
-0.0107871 0.19544925 0.020923283
0.27981615 0.018078756 -0.19412263
-0.16653185 -0.01098347 0.177974
-0.15886831 0.15132672 0.019981092
-0.2130192 -0.07994111 0.031231696
0.2807849 0.09411392 -0.07851704
-0.2650896 -0.12981567 -0.013652294
-0.15872025 -0.132012 -0.06913457
-0.20101543 0.08039336 0.0025872826
0.10365729 -0.13173117 -0.14589874
-0.24949557 -0.02529351 0.134579
0.30272686 -0.26019847 -0.19646037
-0.055389293 0.035878234 0.17057289
0.23097813 -0.11138677 0.03147936
0.12924507 0.052877147 -0.28386927
0.005507507 0.14458472 0.03493818
-0.0951273 -0.031324804 0.14996347
0.14766818 0.0047838707 -0.012271448
0.09712577 -0.19673578 -0.21088138
-0.012111671 0.00046195512 0.17266269
0.057651684 -0.13792479 -0.047187727
0.046945445 0.1642026 0.020013196
0.24211314 -0.12762938 -0.21126992
-0.16588289 0.116397105 0.023286304
0.09772848 0.049450215 0.014532613
-0.277488 0.051528774 0.114634365
-0.12737747 -0.09527201 -0.08730314
-0.1775506 -0.07653229 0.11483002
0.24580796 0.18571952 -0.14623435
0.16499461 -0.09414432 -0.11344358
0.12742487 0.021112112 0.058623422
0.025314461 0.2316325 0.042876758
-0.1935251 -0.046686918 0.1433723
-0.252966 -0.06409867 0.039331872
0.12260971 -0.04670903 0.073017925
0.29728904 0.0047452124 -0.2196749
0.28436205 0.06510133 -0.16329598
-0.13776603 0.06886633 0.17743774
0.037981935 -0.046211626 0.14993763
0.3066108 -0.10532622 -0.24694246
0.1345564 -0.057571765 0.043960918
0.26707163 0.029500172 -0.12734629
-0.28059578 -0.1416469 -0.032550164
-0.09346305 0.12931553 0.051689554
-0.003399738 -0.057789046 0.10509789
-0.20937796 0.014865133 -0.16250868
-0.20362553 0.13487422 0.009237048
0.00016751734 -0.036603726 0.14818951
-0.21008655 0.0021893322 0.17215624
-0.28650707 -0.092818 0.080040164
0.062295597 0.010220251 -0.15717766
0.0568726 -0.06460199 0.11595771
0.035464026 0.18424521 0.045971513
-0.11675764 0.127432 0.13014166
0.1772163 0.003712594 -0.0149946
-0.06667716 0.15069766 0.06581458
-0.08406314 0.036416363 0.21560769
0.24932185 -0.206386 -0.07897248
-0.037716366 -0.002665829 0.17235497
0.24475947 0.015068847 -0.008153693
0.21895842 -0.061841026 0.104407065
-0.11234191 -0.09282276 -0.4185952
-0.24033381 -0.03081911 0.121213175
0.284138 0.000907126 -0.1941081
0.2344689 0.11571301 -0.07128576
0.030674158 0.08457421 0.072256416
0.18171616 -0.06943766 0.097310536
0.24513891 -0.03474838 0.027955867
-0.20706716 0.011739735 0.13325495
-0.18806447 0.10027192 0.13844371
0.15887666 -0.17779888 -0.17197263
-0.23629577 0.07228788 0.101256795
0.22698303 -0.016832726 0.0760142
0.07433874 -0.12421301 -0.034119535
0.025294445 0.10076164 0.0050676535
-0.14328045 -0.16931204 -0.07163064
0.22963601 0.0175816 0.016034871
-0.10818593 0.22395834 0.030519566
-0.18574855 0.12981308 0.043917138
-0.034112237 -0.07001156 0.12219295
0.0398672 -0.13012238 -0.02281073
-0.17638615 -0.032481745 -0.3720035
-0.09535266 0.010480762 0.18952744
0.3025235 -0.09290436 -0.23006512
-0.15541515 -0.11410405 -0.08182258
-0.26348254 0.032380536 0.08338434
0.22362927 -0.13269977 -0.033118375
0.07260263 0.16814226 0.04296764
-0.2817353 0.07809326 0.05641507
0.2159122 -0.02858381 0.046667486
-0.18326388 0.08024739 -0.017858969
0.022219976 0.1082287 -0.036811177
-0.2525393 0.17861259 0.038779043
0.2883553 0.0072009657 -0.12358045
-0.10100619 0.0925459 0.17120472
0.10836529 -0.12106703 0.01378121
-0.23049167 -0.13181889 -0.02419705
-0.13619918 -0.16940418 -0.09633369
0.20437922 -0.05906615 0.05823535
-0.115516394 0.14248544 0.061794158
0.18864205 0.013425507 0.030262128
0.0153405275 -0.14185742 -0.022448502
-0.19040129 0.11013093 0.10601679
-0.16209495 0.0026025455 0.20547695
0.2139148 -0.11629546 -0.077465445
-0.14930694 0.017385378 0.19610126
-0.08014813 0.23743989 0.019185796
0.0057705967 -0.19405705 -0.14741883
0.056676976 -0.12426767 -0.066263035
-0.033334117 0.06700781 0.15548903
0.29699716 0.026349343 -0.14884567
-0.30435002 0.010725661 0.019373814
-0.21162583 0.19162002 0.001977537
0.32764935 -0.15777077 -0.26812622
-0.21778081 0.19735254 0.016207417
0.07452447 0.031492323 0.108041056
0.124031276 -0.0025403907 -0.29696923
-0.10802509 0.09109049 0.15921846
-0.19455768 -0.048833553 -0.38873428
0.050155595 0.15119965 -0.019288395
-0.07703913 -0.2000661 -0.16230358
0.08513864 -0.018461363 0.098076575
-0.26074594 -0.06169536 0.047703154
0.01795572 0.09935081 0.13013667
0.2643588 -0.14051163 -0.021241363
0.28036866 0.008749198 -0.13814168
-0.10862474 0.14246301 0.023551416
0.08582904 -0.104757555 0.061544713
0.2564411 -0.06940522 -0.060927086
0.24702759 0.07179337 -0.22057182
0.22916186 0.107458875 -0.11284179
-0.22198963 -0.1620832 -0.0789631
0.04197667 -0.06165072 0.087104745
0.20293659 -0.06448313 0.06324139
-0.0684513 0.11603241 0.077307545
-0.27389747 -0.12395349 -0.011505085
0.09101341 0.0683504 0.11465931
0.006209033 -0.065873556 0.13186316
0.034181297 -0.07870027 -0.0112597905
-0.08374189 -0.1245202 -0.08634572
-0.23694436 0.10661809 0.10387482
-0.2836163 -0.01201583 0.08415775
-0.23641177 0.17395261 0.012219603
-0.06514867 -0.15006277 -0.09137232
0.34257394 -0.15890594 -0.28145662
-0.02417089 0.117288314 0.167392
-0.18829417 -0.025033904 -0.3856962
-0.15306802 0.16427995 0.043681823
0.17603177 -0.13658366 -0.09515321
-0.06645193 0.09717717 0.07717615
-0.0010061408 0.09685459 0.12945445
-0.21998388 0.07089302 -0.11780445
0.055958323 -0.08437781 0.060887057
-0.049390458 -0.010514805 0.15490375
-0.047631755 -0.044390485 -0.04182854
0.31273583 -0.21937571 -0.197765
-0.18344726 0.06063089 0.18610363
-0.079735026 -0.14987494 -0.100351416
0.115774795 -0.19550468 -0.13570195
-0.194213 0.08129031 0.1254756
-0.03607378 0.07666067 0.1855063
0.050944015 0.20621386 0.07288288
-0.06608791 -0.14312191 -0.07592222
-0.08869486 0.18885964 0.047598094
-0.20409788 0.04018758 0.13633604
-0.18928853 0.022139706 0.15664455
-0.18457572 -0.13292018 -0.044488084
-0.23286392 0.2210083 0.0065042553
0.23609102 -0.09496456 0.10676905
0.048847657 -0.005631232 0.16271748
0.03625319 0.07556438 -0.04104888
-0.23172449 0.22777139 0.03122366
0.1848786 0.036321655 -0.0015794957
-0.104626246 0.062853426 0.17205867
0.26331896 -0.2249678 -0.1111232
-0.060760606 0.13062483 0.03605204
-0.21226443 0.015685165 0.16105905
-0.29255152 -0.031184413 0.06946942
-0.29457545 -0.1020954 0.051427532
0.22878861 0.080382295 -0.17070957
0.2893546 -0.114432015 -0.030072596
-0.059922904 0.11071889 0.071306266
-0.11603342 0.085259505 0.19127111
0.04732412 -0.101285994 0.046774697
-0.052408542 -0.025193732 -0.052609846
-0.035391837 0.0362426 0.15821698
-0.035736855 0.017491268 0.17991559
0.29553765 -0.17509322 -0.1565918
-0.0529639 0.088032156 0.18616496
-0.20250121 0.08620472 0.031690106
-0.09528322 -0.118287414 -0.07821085
0.0028236646 0.066722184 0.14931928
-0.1067559 0.024574943 0.16751252
0.039228447 -0.060462244 0.12129679
-0.2719477 -0.010895978 0.047413968
0.08773033 -0.033961628 0.06914799
-0.0979222 0.09730172 0.16405581
-0.20975445 0.104899324 0.039503846
-0.14738786 -0.007540622 0.15202358
-0.2412886 -0.14298101 -0.037527554
0.047756452 -0.11669165 0.010792227
0.13817899 -0.015060086 0.026131757
0.0037697766 0.20149003 0.03506479
-0.2087631 0.023588583 -0.3593319
-0.14259936 0.2108057 0.04133856
0.26967314 -0.14347059 -0.0325664
0.31258217 -0.003620056 -0.19924664
0.30912542 -0.20192316 -0.25250852
0.21752867 0.2163427 -0.18595532
0.0022726632 0.018437473 0.18489853
-0.20273055 0.100129515 0.14153197
0.0690453 0.07848825 -0.039345846
-0.21378024 -0.036277264 0.11809184
0.22530887 0.017927924 -0.18708853
0.0021327075 0.071429506 0.14951335
-0.027975032 0.1296415 0.0072614257
0.09419238 0.017279772 0.049282596
0.07306403 -0.18442866 -0.12650856
-0.10766324 0.10722361 0.14424717
-0.03602996 0.052136034 0.18547632
-0.13963756 -0.07275724 -0.059179496
-0.036660776 -0.041217715 0.15452151
0.2922489 -0.1997022 -0.13426602
-0.040567204 0.074801646 0.14503148
-0.30082086 0.16123617 0.018874241
0.12561011 -0.20409398 -0.19695608
-0.25050628 -0.09209829 0.03327975
-0.26455644 0.01653381 0.08384439
0.26391333 0.20139004 -0.14862108
-0.16012105 -0.0018961658 0.16069198
-0.3224393 0.059300575 0.012496531
-0.119184196 0.13275829 0.05666615
-0.2152048 -0.047770645 0.10674913
-0.2530924 0.04003626 0.06717242
-0.27745932 0.18552937 0.022929171
-0.25926393 -0.054493587 0.13454849
-0.19442397 -0.18237329 -0.12462793
0.05092993 0.08818211 0.1134684
0.03665782 0.14102168 -0.041847024
-0.13651568 -0.042475108 0.21282235
0.003685233 -0.11946847 -0.01887374
-0.18186258 0.051382437 0.13391039
0.24160652 -0.15302858 -0.019062946
-0.18990675 -0.013604444 0.15044673
-0.04401536 0.22649871 0.02881333
0.25191745 -0.035486635 0.071755946
-0.22052757 0.039531887 -0.16296627
0.028609311 0.22749503 0.04886007
0.20713057 -0.055267442 0.08043583
0.092961214 0.08177408 -0.25779837
-0.20273641 -0.030469099 0.16153923
0.25183982 0.16313969 -0.14730906
0.06432403 0.038929645 0.11236233
-0.30800223 0.16640528 -0.01647212
-0.02327264 0.15316539 0.0077363783
0.094561696 -0.17409916 -0.117425464
-0.24833195 -0.06515812 0.0989715
-0.2170845 -0.010672089 0.13206458
0.065619595 0.18582322 0.055978816
0.0010266923 0.1535937 0.021632189
0.083421126 -0.14825273 -0.09822264
-0.017578976 0.15551718 0.025610462
0.2350633 0.06503174 0.0007055327
0.25568557 0.16257839 -0.10617043
-0.15119876 0.026373051 0.19356012
0.19684826 -0.06274361 0.08738698
-0.0896851 0.14416498 0.026175475
-0.19010158 0.10898261 0.0313299
0.19800942 -0.12124354 0.032749116
-0.13945171 0.14617616 0.020045828
-0.21247093 0.1661184 -0.008974842
0.0008238067 -0.077928975 0.056913923
0.027537815 0.052383427 0.13567638
0.03929288 0.05088103 0.15049607
-0.06816055 -0.17870972 -0.09225
-0.26989856 0.21493283 0.040006507
-0.09631959 0.19382505 0.051166706
-0.031897686 0.13802125 0.059252378
-0.076763466 0.20240222 0.040178124
0.13805556 -0.109270565 -0.12410849
-0.03444902 -0.16057529 -0.0916705
-0.14424759 -0.077577524 -0.05367924
-0.17885622 -0.068002015 0.031451147
-0.26631358 0.0053000553 -0.35364848
0.10000335 -0.11468914 0.012666808
0.21150017 -0.066606656 0.057686824
-0.24282902 -0.07592715 0.02876726
-0.18228644 -0.018697362 -0.3741104
0.17691863 -0.113427036 0.07499618
0.31019425 -0.006646316 -0.15600075
0.18659955 -0.052382316 -0.046441413
-0.056140702 -0.044161018 0.037095785
-0.2758858 0.06543539 0.087836236
0.28119466 -0.25268778 -0.22374709
0.3019276 -0.1956825 -0.1670525
0.00052274705 0.006033516 0.16190398
0.16623946 -0.06522106 -0.0271503
-0.1994784 0.09284132 -0.022011653
0.03485279 0.061654583 0.13934213
-0.1948332 0.20215684 -0.010616477
0.22570105 -0.12265531 0.02903531
0.20895499 0.13932855 -0.09193587
0.32739255 -0.030899966 -0.24653983
-0.04085123 -0.1587152 -0.11226196
0.056797277 0.19830881 0.05423433
0.020882608 -0.12142318 -0.055423077
-0.011849351 0.10720491 0.06462427
-0.25071296 0.18544689 0.032236394
-0.0791909 0.086081155 0.19407643
-0.07874897 -0.050327506 0.17226508
-0.015309024 0.08721506 0.15725972
0.061698776 -0.16334844 -0.12811698
-0.20427606 0.051720865 0.12664805
-0.09568472 -0.14452533 -0.07739776
0.27475324 -0.12875004 -0.20435026
0.21927762 0.006916797 0.019547243
0.16684172 -0.08451948 -0.0872213
-0.025569966 -0.04813775 0.20286022
0.08280464 0.021108482 0.09152321
0.10105671 0.08483346 0.06456442
-0.089772254 0.22912818 0.022379778
-0.09645112 -0.17379671 -0.101525165
-0.1336447 0.038778827 0.17388016
0.13719094 0.052569322 -0.2844975
0.066581845 0.09132236 0.130851
-0.017210253 0.09169879 0.16463691
0.041752964 -0.05562907 0.1278951
0.196478 -0.011998815 0.04337103
0.2500646 -0.013257681 -0.03147348
0.2619051 0.032440644 -0.093584806
-0.20322901 -0.0030778046 0.13735087
-0.30584046 -0.077281654 0.008086144
0.22303514 0.08798364 -0.07387745
0.12051361 -0.20453443 -0.15401962
0.028642043 -0.15147488 -0.1205613
0.24382721 -0.09515044 0.06530509
0.19806276 -0.07912927 -0.10065635
-0.27805805 -0.08073453 0.06830099
0.01913061 0.09121976 -0.004815356
0.18622604 -0.06746494 0.018458063
-0.050472766 -0.03487907 0.115626834
-0.00011260407 -0.03647471 0.1824158
-0.123261146 0.101277664 0.1394858
0.2399698 0.08885315 -0.035336886
-0.122684054 0.09906359 0.05624144
0.1751458 -0.005974383 -0.0066658165
0.077587985 -0.12175642 -0.07182855
0.0511102 0.041919686 0.11351182
0.20675944 -0.07991318 0.10377235
0.19333157 -0.110284775 0.007811
-0.1476173 0.21055463 0.053379685
0.1053008 -0.15207304 -0.14979938
-0.16718897 -0.00344782 0.20361637
0.23904209 0.07074658 -0.035471316
0.13804771 -0.022333365 0.032039214
0.13694441 -0.20013583 -0.16546111
-0.2114089 -0.03455281 0.11146848
-0.269931 0.053233646 0.05134693
0.23543225 -0.10765695 -0.09418259
-0.16572832 -0.062256478 0.13076837
-0.19473398 -0.1605104 -0.0635006
-0.031903803 -0.119603656 -0.07268659
0.34743193 -0.16407572 -0.2686612
0.03101792 0.19859098 0.08036072
-0.07165291 0.029089225 0.19812593
-0.15198566 -0.0733563 -0.062023886
-0.19066526 0.18982981 0.0034745957
0.14531247 -0.06931747 -0.06745048
-0.3085914 -0.035458505 0.007453215
-0.24637212 0.045638822 -0.34338203
0.19116917 0.029514467 -0.027731584
-0.17375629 -0.035235118 -0.33694774
-0.3157226 -0.07897575 -0.029763998
-0.14585857 -0.08238533 -0.09552952
0.19983755 -0.13355367 -0.09169632
-0.093148656 0.18560022 0.05030336
0.061730195 0.03374608 0.11153964
0.15483229 -0.052858558 0.024426064
0.1437195 -0.07766166 -0.100488566
-0.14017954 0.21660793 0.041502524
-0.18180192 -0.011341774 0.15080678
0.042519376 -0.11737502 -0.033808205
-0.13127275 0.0327951 0.1700982
0.020458512 0.15264748 0.01104281
0.1926846 -0.07524492 -0.01708589
-0.18534416 0.061210368 0.1401822
0.22131681 0.007738733 0.04995021
0.04580738 -0.06178117 0.055262346
0.24136649 -0.020741973 0.076331444
-0.17745855 -0.06096617 -0.3840445
-0.21898168 0.0066894502 -0.20841618
-0.20331024 -0.11316112 -0.0888721
-0.0405591 -0.039627276 0.14091896
0.17174459 -0.19410789 -0.18673465
-0.15463415 -0.036813 0.118333995
0.27985057 -0.04251805 -0.13935843
0.24523231 -0.07298837 0.0027483632
-0.17422341 -0.119189456 -0.083802864
-0.22146614 -0.12174402 -0.058278322
-0.112810336 0.023014763 0.20392008
-0.041404862 0.21748696 0.054414902
0.26496667 0.19648702 -0.16041942
0.25801212 -0.089659885 0.014149077
0.20056261 0.040104743 -0.018995466
-0.12244153 -0.048658933 0.12954943
-0.23056553 0.02048677 0.14771093
0.1517326 -0.1984156 -0.17448942
0.19848868 -0.1743045 -0.1337628
0.0023977126 0.061438996 0.16455373
0.24982312 -0.13686036 -0.21917029
0.22445479 -0.14581598 -0.021339629
0.17117104 -0.008219695 0.021381384
0.21319577 -0.13936806 -0.10232668
0.031676274 0.019152831 -0.15460348
-0.10062773 0.15703855 0.03353706
0.11614196 0.021207413 0.03370147
-0.24113199 -0.16151316 -0.11777472
0.24938281 -0.062249858 0.08161763
-0.12681054 0.08824151 0.16507277
-0.2736761 -0.017769033 0.09391177
-0.1806636 0.07863738 0.023445934
-0.25820592 -0.053722173 0.11467137
0.23102035 -0.1866147 -0.09750621
-0.22482401 0.02789348 0.11692952
0.079954416 -0.11290476 -0.038958136
0.00051573385 -0.15495206 -0.10421249
0.2108374 -0.05811698 0.087199755
-0.1398089 0.027117727 0.17776898
-0.116455615 0.05292083 0.16582115
0.06518525 0.040317744 -0.056366812
-0.21692346 -0.06321597 0.12328438
-0.10101877 -0.104470156 -0.047863998
-0.029091995 0.053034764 0.16449966
-0.21230552 0.0021460697 -0.2755225
-0.19474135 0.0071131117 -0.2540991
-0.28485575 0.15141468 -0.013860891
0.00021456716 0.088373385 0.17216025
0.24834348 0.07946358 -0.18447986
0.14115143 -0.029893888 0.03264349
-0.056143105 -0.04924736 0.12132485
-0.2260259 -0.10558373 -0.025180586
-0.05151715 0.20430441 0.022405805
0.17625001 -0.2099627 -0.18200494
0.09571109 -0.048942335 0.12932234
0.015085836 0.18376479 0.06327597
-0.018887933 0.011706609 0.18666758
-0.081517786 -0.028356995 0.16187942
0.21685016 -0.11349131 0.058711782
-0.075354956 0.045817893 0.18362896
0.03619353 0.09243283 -0.10194668
0.07571677 -0.114136055 0.007619517
0.046072923 -0.061219875 0.08189701
-0.036082916 -0.13775215 -0.092127055
0.04132274 -0.20182659 -0.19376934
-0.10535141 -0.037426006 0.054060385
-0.08773514 0.16310652 0.058648698
-0.22842364 0.049144212 0.12754816
0.013232464 -0.00083113456 0.1259448
0.2382858 -0.16633733 -0.05660348
0.07169238 -0.025767285 0.14376767
-0.32687223 -0.030452603 -0.036465265
0.23383883 -0.16491078 -0.10746719
-0.20824115 -0.03660635 0.1536804
0.25744152 -0.13404955 0.0024459874
0.010540124 0.047494054 0.15202892
-0.26030627 -0.1398368 -0.075780116
-0.04518848 -0.005944024 0.18332379
-0.25679004 0.11066216 0.11331789
-0.04715052 -0.048903245 -0.053954527
-0.04069804 0.14668728 0.04494355
-0.23511438 0.048549972 -0.047065057
0.26507023 -0.061658174 -0.24398941
0.29612538 0.055718508 -0.120612115
-0.22758225 0.017804166 -0.36476701
-0.19146737 -0.13995193 -0.063934155
0.17645332 0.009779968 -0.01022282
-0.06768281 0.11063497 0.07841538
0.25960118 -0.1123785 -0.0073629934
0.07972904 0.17685495 0.027586875
-0.2176741 0.013388447 0.13109694
-0.2750397 0.0027796116 0.069458865
0.14960977 -0.040429287 -0.015572925
-0.028965035 0.026466122 0.18260406
0.16718383 -0.073015995 -0.112876445
0.14696933 -0.063142866 -0.07323833
-0.121956505 0.24601243 0.010362355
-0.028597293 0.1272219 0.048130874
0.03301097 -0.17418356 -0.16118892
-0.059809357 0.12425923 0.06973698
-0.10830258 -0.08727806 -0.052147962
-0.12063901 0.21005054 0.06418924
0.04637202 -0.119579025 -0.040434327
-0.21145424 0.07784163 0.027574582
0.17639698 0.029096568 0.041301332
-0.05486903 0.13067737 0.14962304
-0.21623674 -0.16792727 -0.09149141
-0.22984445 -0.051427756 0.11630014
0.0177317 -0.040458858 0.10927402
-0.09727266 0.20235859 0.020939466
-0.26238593 -0.07211082 0.07612919
0.27707636 -0.089299545 -0.076284625
0.10790578 -0.054572586 0.034544326
-0.2511054 -0.04413058 0.10356359
-0.13471967 0.18470344 0.034986764
0.062312555 -0.051936716 0.10982353
0.028077858 0.20182993 0.05444895
-0.094501734 0.09972946 0.17222229
0.035253234 -0.1749297 -0.072606586
0.06325721 0.027060404 0.11702233
-0.020289263 0.029455733 0.17117114
0.056180846 -0.075838946 0.11952123
-0.24328172 -0.046917804 0.14433445
-0.003270745 0.028592529 0.15892
0.07071741 0.10506522 -0.0569143
0.10882814 0.060570832 0.07093605
-0.07688274 0.08166075 0.04887852
0.17530121 -0.049543586 0.073311225
0.25741807 -0.14453165 -0.036706008
-0.008479088 0.09379898 0.14905828
0.062251706 -0.18162058 -0.10907819
0.01706091 0.1135069 0.13271728
0.09868564 -0.19735827 -0.12844615
-0.08264733 -0.098972164 -0.08124765
0.30046523 0.012201247 -0.11949196
-0.10474692 0.07520786 0.18508273
0.27197123 -0.065418415 -0.0077069188
0.07802309 0.08453457 0.08932504
-0.09542303 0.20014092 0.01917221
0.0020374702 0.18180323 0.054490052
-0.079167314 0.05436832 0.16726497
-0.13850877 0.07068615 0.15756728
0.20801967 -0.039190236 0.08840811
0.31093815 -0.09838382 -0.21585889
-0.0694217 0.097396344 0.13994132
-0.10146786 0.110866606 0.073382735
-0.1868537 0.041419126 0.19075342
-0.24346603 -0.14262533 -0.12688841
-0.25850472 -0.1079557 0.0143135
0.08919591 0.20669049 0.029197427
-0.05461503 -0.018886603 0.15477979
-0.10629844 -0.09282795 -0.06854219
-0.18355836 -0.06423774 -0.030995907
0.061584145 0.24087955 0.061659727
-0.019261468 0.119633734 0.030702539
0.29027534 -0.18142192 -0.16783954
-0.029579012 -0.0535873 -0.0235427
0.20179124 -0.056398094 0.086906776
-0.28121924 -0.09173001 0.08349139
-0.232719 0.032320518 0.15311748
-0.15111336 -0.14333767 -0.06364855
0.048560273 0.19435121 0.06695311
0.27639842 -0.14239311 -0.04112624
0.25422314 -0.13568445 0.0031833062
-0.034793653 0.11895304 0.031070385
0.03192182 -0.13136654 -0.040800635
-0.17092128 -0.14289127 -0.06582367
0.26892728 0.08350215 -0.18244787
0.2533482 -0.17979148 -0.081255324
-0.24219471 0.028847184 0.12836324
-0.15430166 0.13379534 0.01783062
-0.18974747 -0.07627746 -0.34958452
-0.20562482 0.040815726 -0.08197689
-0.30766714 0.014731575 -0.037692975
-0.04600162 -0.15932932 -0.15920773
-0.049604636 0.23708913 0.034451634
-0.30361208 0.16076215 0.0027842901
-0.20322351 0.02538674 -0.3103758
-0.22108757 0.18486035 0.018657165
0.050117154 0.17403105 0.015195686
0.20150232 0.0102788545 0.005488512
0.2555345 -0.1400097 -0.20903175
-0.014765738 -0.049636636 0.12443424
0.26951826 -0.11677414 -0.23527065
0.02719427 -0.14378956 -0.06753184
0.19293185 -0.18239607 -0.09362341
0.3365128 -0.17825156 -0.2139918
0.02269193 0.057230912 -0.031032437
0.317206 -0.24641745 -0.22026595
0.261814 -0.13722335 -0.025694424
-0.25699085 -0.042849958 0.094498515
-0.20780516 0.005360535 -0.3663815
0.04247752 -0.032820687 0.14242588
-0.16103615 0.027770635 0.16070716
-0.17584565 -0.17463645 -0.17340577
-0.15893541 0.17572533 0.016459879
0.045053903 0.18302032 0.05655293
0.27519494 0.038763866 -0.13618422
-0.14416106 -0.17159542 -0.11672341
0.07618355 0.21232332 0.042026874
0.2598186 0.052102502 -0.07348677
-0.044834822 0.028492346 0.16347167
-0.13720368 0.109312184 0.15937345
-0.12043355 -0.16339056 -0.1126773
0.17737351 -0.117939614 -0.12224199
0.2644555 0.21988714 -0.13666557
-0.11696283 0.1201385 0.05170666
0.0016259553 0.09569538 0.14433917
-0.111536436 0.06923298 0.19651328
0.09754168 0.23284626 0.02626824
-0.16656473 0.031578228 0.1912222
0.019050458 -0.004470686 0.15698573
0.2677613 0.1769427 -0.20815498
0.26147115 -0.01689138 0.0034559625
0.29564545 0.16353011 -0.13537386
0.06008171 0.0063878815 0.15628621
-0.22264543 0.19934238 0.046751816
-0.21132028 -0.006055837 0.13826884
-0.24461272 -0.10348696 -0.0038966937
0.22437418 -0.121811084 -0.004230019
-0.089731246 -0.034296475 0.1633259
0.17792057 -0.085541405 0.060671296
0.06088562 0.038791467 0.08947119
0.09050435 -0.020694818 0.13673493
0.23213156 -0.03396009 0.08217825
0.050741132 0.1865803 0.027964635
-0.13806732 0.032212622 0.20444992
0.29627818 -0.14952898 -0.062172946
0.028311193 -0.102345794 0.02353066
0.16686502 -0.18563774 -0.17500909
0.08643127 0.056196574 -0.25270376
0.20524083 0.1093627 -0.061101235
0.3070599 0.014691872 -0.23929462
-0.061110392 0.019344807 0.17200346
-0.23352332 -0.09344912 0.04690288
-0.08482085 0.047391348 0.18324539
0.2523087 -0.19718656 -0.13755663
-0.19100894 -0.038788263 0.14544837
-0.21756767 0.15677819 -0.0069026323
0.21585517 0.009646187 0.053402107
-0.043380346 -0.15390028 -0.06369594
-0.061858784 -0.0072564394 0.19223998
-0.27846545 -0.007095215 0.07161049
0.2695594 -0.25029474 -0.1861526
0.09444255 -0.058167785 0.036687654
-0.06490885 -0.00806207 0.1978387
-0.034142494 0.09481017 0.04688323
-0.08035809 0.08749146 0.056613702
0.15087804 -0.014559977 0.048088785
0.2582637 -0.19579145 -0.07015258
0.2763968 -0.05827934 -0.100756906
0.13964689 -0.031303506 0.054872382
0.0936382 -0.0046407757 0.06489928
0.076960236 0.14976412 -0.0065092123
-0.020932004 0.0763448 0.14552763
0.09396929 0.16134208 -0.0001626744
-0.04264749 0.13653696 0.04739179
-0.2569 -0.0029516283 0.06137439
0.0024777881 -0.0045259804 0.18567649
-0.06954218 0.19673379 0.054096047
0.051045645 0.033549186 -0.07447322
0.12525938 -0.077757835 -0.016155196
-0.046369195 -0.04716073 0.17114499
0.09254114 0.07164679 -0.24971972
-0.25277063 0.18729687 -0.049151547
0.081105754 0.049845304 -0.27377048
0.07359504 0.013856243 0.11508817
0.06720038 -0.04107247 0.14836256
-0.21941416 0.035448894 0.15856741
0.009365721 -0.17223005 -0.11625207
0.32107958 -0.06539146 -0.21432295
-0.22204669 -0.030984312 0.1684718
0.015145783 0.14028859 0.03619255
0.045459304 0.2122448 0.051061966
-0.09489293 -0.11272932 -0.0935772
0.04329442 0.11189321 -0.026962245
-0.30750734 -0.008902589 0.027791185
-0.07657477 0.20113689 0.047810763
-0.08171182 -0.030151116 -0.09888543
-0.23507018 0.15437697 0.03405418
0.33776692 -0.024842987 -0.21977171
-0.24846114 0.08532879 0.13395837
-0.08526297 0.1997858 0.06064471
0.32839745 -0.14450635 -0.19534752
0.06645526 0.07015625 -0.02627924
0.075735144 -0.18444166 -0.16252384
0.10104133 -0.16198654 -0.122164056
-0.025107842 -0.084970094 -0.0026576668
-0.27181855 -0.054630432 0.0886601
-0.2691437 -0.026781566 0.124703445
-0.18036424 0.04704614 -0.28238052
-0.112303026 -0.11436224 -0.09854383
0.29608086 0.025286967 -0.09901684
-0.24935964 0.04393605 -0.3304412
0.16395517 -0.010402924 0.030983677
0.06808701 0.04193322 0.07289723
-0.08784437 0.077116825 0.17302428
-0.14002094 -0.01760151 -0.07053301
0.20476706 0.14089978 -0.08007667
-0.21230865 -0.14123543 -0.06468017
0.29290918 -0.21815886 -0.1280743
0.266742 -0.122507334 0.03132325
-0.06353829 -0.08111951 -0.0683736
-0.21644445 0.07343867 0.15087329
0.2161439 -0.20774929 -0.119451694
-0.1629795 -0.02835909 -0.008210623
-0.01873353 0.038929276 0.16697173
-0.08262964 0.15499297 0.022493994
-0.10527319 -0.008466514 0.16989186
-0.11995774 -0.11536135 -0.11092841
-0.06985945 0.10422419 0.14952122
0.019837542 0.036257394 0.11593601
0.06850095 0.03513183 0.13996333
0.25994986 -0.11314054 -0.09484865
-0.29916868 0.23375085 0.02041538
0.024923822 -0.032291576 0.12160652
0.19203587 -0.05708348 0.028006313
-0.036493633 -0.14955013 -0.088279895
0.30300224 -0.017751621 -0.2604272
0.2389715 0.017193228 -0.21925484
0.05752671 0.019128904 -0.1890808
-0.11610175 0.0046518245 0.1963575
0.10433671 -0.1750522 -0.11821579
-0.31406015 -0.10069809 0.04278808
-0.25353873 -0.03034089 0.07694537
0.24247767 0.20318851 -0.14451769
-0.11829014 0.016217547 0.20646289
-0.1402488 -0.09684312 -0.39685228
-0.180008 -0.047046944 0.011764196
0.25799453 -0.06268996 0.08972941
0.0724931 0.050363 0.064479984
-0.25798437 -0.060173117 0.117462985
-0.13983402 0.08738992 0.054775085
-0.21069331 0.102533065 0.03462197
0.08494406 0.08675911 -0.19687346
-0.16079468 0.048952594 0.15276673
0.17232646 0.0013890063 0.05837108
-0.1139303 0.015684364 0.18712543
0.094826 0.052714076 0.059000462
-0.0514615 0.051228255 0.20609362
0.2305245 0.025313493 0.0089628
0.21016964 -0.10012003 -0.07474964
-0.020405075 0.025017794 0.19580498
0.2533456 0.121724956 -0.12776324
0.037745453 -0.056631796 0.14157929
-0.12312624 0.046229973 0.16511405
-0.21669112 -0.15059826 -0.03677282
0.15889542 -0.1742211 -0.11369719
0.019848766 0.025960943 0.16450618
-0.20888911 -0.10096965 0.009932525
0.16417105 -0.05903211 -0.044330657
-0.20779873 0.16288908 -0.01469348
-0.0029452085 -0.041848265 0.012453635
0.2225215 -0.19648254 -0.07462294
-0.1801566 0.1172581 0.0132282255
0.19457918 -0.08675808 -0.07612177
0.15460865 -0.01767804 0.013213026
0.053670306 0.22112875 0.07296338
0.045570217 -0.028670952 0.1551285
-0.21827011 -0.08993978 -0.022161432
-0.09485709 -0.03368194 -0.054468516
-0.033302832 -0.11811986 -0.09577452
-0.020687623 0.15416642 0.01855717
-0.20928212 -0.006081131 0.15622756
0.29164353 0.0207958 -0.09319728
0.13694283 -0.03883253 -0.0038577998
-0.22824779 0.003636598 -0.34175754
-0.19810973 -0.14629935 -0.12705614
0.09012148 -0.104222625 -0.12928489
-0.27288884 0.080673404 0.043880276
0.27810267 0.16837284 -0.1105278
0.19800167 0.018995233 0.0492594
0.29371977 -0.17013405 -0.0927798
0.011111027 0.0070752003 0.17463018
0.0707074 0.05520854 -0.26113495
-0.13038304 0.096391276 0.15805544
-0.26977745 0.15921183 0.006106141
-0.11272902 0.19929968 0.038780734
0.31870678 -0.018588668 -0.24077152
0.27755484 -0.21261063 -0.14259686
0.31314772 -0.18025601 -0.26528335
-0.11381456 -0.18748601 -0.13592538
0.28009984 -0.048109204 -0.08016354
-0.02732733 -0.045511566 0.01552748
-0.13002893 -0.14652467 -0.06409675
0.28327453 0.14216918 -0.184351
-0.2748577 0.05090745 0.06786091
0.19273773 -0.18620989 -0.14445682
0.2470596 0.015622015 -0.0045788037
-0.040632237 0.11609633 0.1568468
-0.0024973247 0.19049716 -0.0033045
0.2183378 -0.07967446 -0.040323388
-0.015851025 -0.056097604 0.16408367
-0.12861359 -0.10031313 -0.095860854
-0.2593963 -0.016254611 0.06948904
-0.15191635 0.045799118 0.19426942
0.06909511 0.1457525 -0.10649331
-0.28230208 0.15366498 -0.024535155
-0.18946108 0.15145399 0.024239695
0.27371508 0.116060816 -0.090436846
0.26609468 0.04092287 -0.13815935
0.289701 -0.07685969 -0.036164083
-0.0032375313 0.02531691 -0.052043933
0.10438618 0.028646883 0.07559216
0.05732273 -0.0029250174 -0.18608566
-0.17728072 -0.027804295 -0.34156433
0.27838412 0.083748974 -0.06382756
-0.18034984 -0.03847542 0.12485045
-0.107192464 -0.08999753 -0.05313235
0.043055665 0.19950557 0.07494586
-0.29893762 -0.10493253 0.021905378
-0.047583308 -0.03805856 0.17755347
0.21291435 0.01033454 0.07642269
-0.044729646 0.1871629 0.051600065
0.06686994 -0.18467252 -0.19173706
-0.16457692 -0.16730726 -0.08770109
-0.08041022 -0.11476499 -0.06715287
0.044229224 0.056438472 0.111013986
0.15428586 -0.064606324 0.002979709
0.25293496 -0.006210584 0.040949535
-0.27482605 0.013696782 -0.0012300117
-0.20574288 0.20105946 -0.005390832
0.058640752 -0.065219775 0.061214767
0.29855976 0.04595802 -0.25478446
-0.18989526 -0.0034198686 0.1824256
0.051538747 0.08600131 -0.13368145
0.30542296 0.013075334 -0.2068446
0.2730519 0.085075 -0.12562959
-0.12825903 0.09592684 0.05036789
0.22232306 -0.07004891 0.093456715
-0.18331416 -0.07832996 -0.3802683
0.19900458 0.11518371 -0.08866097
-0.044653423 0.07515941 0.16646972
-0.05663094 0.03707963 0.18689406
0.24880451 -0.00949352 -0.0760148
-0.17180331 -0.10615751 -0.077135965
0.1638507 -0.06304218 -0.020223951
0.07475218 0.08755171 -0.08222196
0.06168927 0.09930528 -0.11314495
-0.046893336 0.03209632 0.188101
-0.114905044 -0.116366245 -0.07457609
-0.06380675 0.093887374 0.14270136
-0.01028113 0.067813195 0.16818711
-0.030667203 0.14250939 0.0274735
0.24825779 0.15926215 -0.10438318
-0.24066414 -0.079182565 0.054549087
-0.035790965 -0.015724184 0.19581698
-0.2800968 -0.11916651 -0.011566033
-0.20632678 -0.12852785 -0.097537875
0.23857935 0.016879065 0.056641452
-0.28272822 -0.09046373 0.01654971
-0.008568083 -0.065773614 -0.03480523
0.15786578 -0.0905357 -0.11075278
0.018870443 -0.13151635 -0.033765864
0.2587743 -0.12063238 -0.041211046
0.21486883 -0.02313196 0.03402805
-0.07382474 -0.07697859 -0.06814273
0.14724512 -0.097833715 -0.080063276
0.045745518 -0.010354786 0.13916226
0.0085520735 -0.023055332 0.16792871
-0.22024637 0.07381396 0.11834927
0.0028848697 -0.00287316 0.1953274
-0.20055364 0.062190328 -0.353466
0.06324823 0.05007147 0.13774739
-0.08814749 -0.015927194 0.17340726
0.096803814 -0.07971946 0.051826112
-0.12676366 0.148105 0.02323091
-0.1756019 -0.0052925716 0.16629928
-0.1881881 0.065274954 -0.18326482
-0.018866604 0.100610584 0.07955511
-0.08770824 0.21896565 0.056156423
0.321101 -0.17045265 -0.1827998
0.21511781 -0.028238147 0.04903273
0.21741931 -0.104727805 0.017555557
-0.102483526 -0.1979545 -0.18399903
-0.16603991 -0.069871455 -0.40212288
0.0859602 0.1953749 0.0141534405
-0.27899438 0.045685295 0.11240275
0.107218556 -0.02070603 0.052056056
0.061218515 0.20076594 0.08432111
0.30384746 0.09401869 -0.22096968
0.25864723 -0.07786594 0.024301108
0.03572932 0.097632 0.11442792
0.26807705 -0.00709672 -0.021072626
0.03347353 -0.14842758 -0.07168492
0.09354463 -0.19655022 -0.16020547
-0.22411564 -0.044421896 0.115694426
0.10541988 -0.0016606281 0.07536027
0.07098122 -0.1474842 -0.10329523
0.23762064 0.2045479 -0.14973113
-0.29060924 -0.03340283 0.090403326
-0.03234583 0.108906835 0.15614696
0.20378196 0.15066727 -0.09113623
0.07377143 0.06013828 -0.2844964
0.07193548 0.102512635 -0.07445876
0.08391699 -0.099404775 0.029992187
0.12089642 -0.07053408 0.050141055
-0.16539167 -0.012173579 0.17101283
0.058345187 0.08243273 -0.2332199
-0.2736043 0.074711055 0.117596745
-0.030839797 0.016189944 0.17247902
-0.1649715 -0.031926814 0.12906809
-0.16663176 0.04429719 0.14908482
-0.24810879 0.14929199 -0.04556637
-0.07218542 0.1504019 0.043998636
-0.21978414 0.03553294 -0.33187136
-0.20210868 0.026694668 0.13776913
-0.08547402 0.029142424 0.18384273
-0.26063418 -0.012626401 0.07834647
0.20755185 -0.17948665 -0.13904144
-0.076879114 -0.023971913 0.14975882
0.019947818 -0.016816057 0.15540527
-0.19017985 -0.14413765 -0.05105908
-0.28967106 0.16270481 0.0352524
-0.19027717 0.029970545 -0.089875996
0.26512894 0.11776785 -0.10749041
0.3487207 -0.17529923 -0.22723632
-0.19297045 0.083952546 0.1286834
-0.049627803 -0.023921154 0.06703968
0.027462224 -0.110959694 0.018560745
-0.033232182 0.06580899 0.17908584
-0.095380805 0.08887852 0.16654864
0.3296707 -0.19174626 -0.18497191
-0.07474039 0.15393311 0.051618166
0.28343654 -0.0045896946 -0.1093888
-0.22869395 0.13751088 -0.050812114
-0.29854164 0.023205724 -0.023561405
-0.1987843 0.116184436 0.024095774
0.089350395 -0.0790077 0.02365844
0.059347786 0.017905578 -0.12380824
0.27975398 0.12832616 -0.23026778
-0.18159017 -0.11169799 -0.39767173
-0.11687623 -0.16946003 -0.11029982
-0.23043266 0.1993155 0.025074383
0.23323104 0.05794827 -0.07686494
0.2399263 -0.08237048 0.020393739
0.27492678 -0.15948017 -0.05420743
-0.09139514 -0.13458656 -0.10271686
-0.016420627 0.017020183 0.18519337
-0.16387245 0.016937278 0.19049692
-0.16806237 0.22037613 0.046033464
-0.16987021 -0.034552213 -0.03335127
0.060122475 0.09381572 0.06286503
