# .PCD v0.7 - Point Cloud Data file format
VERSION 0.7
FIELDS x y z
SIZE 4 4 4
TYPE F F F
COUNT 1 1 1
WIDTH 1000
HEIGHT 1
VIEWPOINT 0 0 0 1 0 0 0
POINTS 1000
DATA ascii
-0.14205527 -0.28368255 0.05198218
-0.10851934 -0.043465406 0.10172569
-0.1118639 0.2310741 0.035064667
-0.17467001 -0.26320115 0.05724068
-0.08176916 -0.08667536 0.034353394
0.10949443 0.09121569 -0.14171393
0.08467998 0.13368823 -0.054062758
-0.15474649 0.16615462 0.13779958
-0.07902814 -0.28277707 -0.035565987
-0.15063475 -0.12012547 0.0037427493
-0.016166018 -0.12947136 -0.0046701804
-0.047189806 0.13524178 0.04691957
0.17602704 -0.12308691 -0.08054968
-0.044641256 0.052325014 0.1619126
-0.059355423 0.022631042 0.19707921
-0.13049291 -0.17400332 0.02853116
-0.070199996 0.056205332 0.17516269
-0.19902608 0.04036856 0.0018887856
0.04004712 0.07761034 -0.05613387
-0.15559702 -0.22930577 0.09346783
0.18240264 -0.13321793 -0.15427206
0.055090588 0.16457875 -0.028851993
0.03468415 0.24909402 -0.043933768
0.010712723 -0.14568684 -0.015343073
-0.03231354 -0.12943912 0.038776837
-0.026395135 -0.20536606 0.035595957
-0.16526629 -0.011499834 0.1470237
0.033987056 0.21283576 -0.07571084
0.083041966 -0.1290808 -0.010800491
0.047152366 -0.061968777 0.11938083
0.032569386 0.13031518 -0.040338237
0.118999176 0.054433674 -0.029822825
-0.08300255 0.22604634 0.13935268
0.053272218 -0.017523745 0.08443589
0.017538127 -0.13021415 -0.019583125
0.18927649 -0.091448665 -0.066951066
-0.12633811 0.14196275 -0.17633256
-0.08545712 0.14282387 0.18074201
0.08527691 0.15367875 -0.07929727
0.25801685 -0.03141268 -0.11643241
0.001602766 0.18090159 -0.0019969612
0.18977277 -0.09822113 -0.11116436
-0.10588279 0.16865824 0.113309026
0.20484757 0.07959026 -0.20018701
0.23013112 0.053706765 -0.16496679
-0.0071066353 -0.26937976 -0.0095500415
0.01651884 0.25364912 -0.042735226
0.29805732 -0.044010255 -0.16480654
-0.31468818 0.13061495 0.02884663
-0.09319826 -0.18830244 0.050168246
-0.09043945 -0.2278335 -0.0077919257
0.13437447 0.11428729 -0.07775587
-0.15834755 -0.18142022 0.020323247
0.20439592 0.12736064 -0.1598722
-0.14990844 0.032787185 0.12221017
-0.053246226 -0.107072465 0.083840504
-0.12673384 -0.02709087 0.10348931
-0.0016103147 -0.2054691 -0.050644528
0.2960544 -0.058414515 -0.18848665
-0.0029996298 0.024059743 -0.07243103
0.2879453 -0.11137104 -0.16633295
0.046230346 0.20394216 -0.028623402
-0.029297238 0.023459949 -0.08175891
-0.17437279 -0.089834616 0.021924777
0.19652662 0.048624557 -0.20879021
0.20335512 -0.102646396 -0.12924342
0.20195155 0.033137083 -0.21678327
-0.05186318 -0.10938333 0.034880083
0.29776475 -0.1300946 -0.2017211
0.060684852 0.04914849 -0.04312355
-0.18046573 0.049252313 0.11622098
0.26008415 0.032862123 -0.16756196
-0.016011614 0.02314567 -0.050373923
-0.009191541 0.22312614 0.0429788
-0.19544432 -0.08825242 0.008409972
-0.2166707 0.04422477 -0.017974393
-0.08556832 0.2250866 0.10628238
-0.037009716 -0.21534225 0.044478096
-0.11642354 -0.08324259 0.029097872
0.059158873 -0.047925126 0.04560942
-0.06840301 -0.121524036 0.033382323
-0.13887154 0.21913555 0.06809122
-0.095813006 -0.27739108 0.020649338
-0.029184563 -0.19478743 0.030591456
-0.054323465 0.105269976 0.08282901
0.18426435 -0.0985473 -0.08174313
0.06270497 0.072736055 -0.029897187
0.016308574 -0.048250422 0.14066777
0.2812081 -0.00863728 -0.17473084
0.28019804 -0.08900449 -0.17771977
0.2359565 -0.05409535 -0.13220096
0.16322003 -0.03031096 -0.03944267
-0.011374777 0.24170907 -0.006999649
-0.06582155 -0.2567687 0.042813696
0.2467053 -0.017663559 -0.10746628
-0.1456698 0.091717504 0.14535557
0.30810636 -0.019502273 -0.16058321
0.13857336 -0.15914313 -0.08340205
-0.25723597 0.102194704 -0.011687184
0.018902216 0.0122611085 0.13971978
-0.054245226 0.12199676 -0.058552768
-0.11689474 0.057943232 0.14511763
-0.06531879 0.2728833 0.040834773
0.14834207 0.0076020733 -0.13287866
-0.1069805 -0.0069090086 0.12842399
0.040172677 -0.104372464 0.0077134194
-0.0900455 -0.029883094 0.16981414
-0.16558781 -0.10817981 0.01851719
0.3370498 -0.11973602 -0.17045265
-0.0724743 -0.2274968 0.027655233
0.30165377 -0.14907116 -0.20684795
-0.19206057 0.11809188 -0.0054296074
-0.11051541 0.07564814 0.17874382
-0.16587387 0.06412363 0.014684457
-0.1772366 0.16068672 0.08572921
-0.14998534 -0.112342246 -0.013281641
0.032968022 0.16166294 -0.03397897
-0.08697086 -0.11418415 0.043474607
-0.14575161 -0.21478292 0.090380624
-0.20428526 0.11145137 -0.047953457
-0.15082131 -0.21260338 0.06745489
0.08466547 -0.096437275 0.00827798
0.15229967 -0.08187177 -0.010051272
-0.025436452 -0.05071685 0.112510934
0.004619386 -0.06448996 0.0933907
-0.22150022 -0.014843305 0.0029963283
-0.10748908 0.083265394 0.1641649
0.17888127 -0.03576554 -0.07468196
-0.10704071 0.06413129 0.17954104
-0.12712467 0.065335535 0.1547686
0.13790286 -0.08716611 -0.05550276
0.11342618 0.11807834 -0.051605284
0.2642028 -0.00081119704 -0.17312127
0.002190939 -0.070263825 0.08889152
0.11972211 0.14855145 -0.15932953
-0.15387715 0.076410495 0.14328107
0.23403703 0.04328611 -0.15053625
0.19818391 -0.12798722 -0.19766949
0.17934828 0.10595231 -0.1615126
0.14839208 -0.06886969 -0.043444447
-0.071000725 -0.040436476 0.13158141
-0.056215633 0.06721924 0.14176203
-0.11662987 0.038039997 0.14755894
0.059307564 -0.058520194 0.06718338
0.06464784 0.0410902 -0.020224016
-0.19611546 0.06291365 0.030569108
-0.050069004 -0.18128066 0.019568523
-0.013742838 -0.10458962 0.06969494
-0.24281552 0.113660894 -0.08020166
-0.0063259583 0.02558904 0.155553
0.08399051 0.15586172 -0.081522055
-0.19692616 -0.04487251 -0.017719548
0.028876077 0.2297417 -0.02395642
-0.08317016 -0.049721066 0.1205749
0.10792388 -0.10166433 -0.022109909
0.31647828 -0.011755781 -0.17908996
-0.12357954 0.0886778 0.19167584
-0.0668308 -0.2027501 0.024219878
0.23236464 -0.14005347 -0.22348067
-0.14792171 -0.15954468 -0.0016999083
-0.047004674 0.027068095 0.13767454
0.13760418 -0.006858071 -0.14824986
-0.106361635 0.18642764 0.12082084
0.007709628 0.1660844 -0.035366487
0.35887188 -0.07291581 -0.20699061
-0.032829408 -0.2677525 0.053018738
-0.038665514 -0.20471817 0.02939105
-0.19560799 0.14780585 0.10640571
0.10049403 0.1784072 -0.08620206
-0.03267342 0.22995614 0.067012675
-0.17471394 0.11344861 0.1303686
-0.09992734 -0.09703722 0.05893875
0.27280667 -0.13861147 -0.19628054
0.31887975 -0.11167207 -0.20484288
-0.08272156 -0.18305215 0.030731278
-0.06091278 0.22528236 0.09726564
-0.3063832 0.09725082 0.05664939
0.13061647 -0.05903188 -0.018418986
0.16907836 0.024416605 -0.04841569
-0.08495211 0.24698995 0.06550252
0.05758041 0.11221356 -0.059433885
-0.018910518 0.24885876 0.040611602
-0.028151589 -0.21478878 0.04373144
0.034640547 0.19705911 -0.06684813
0.0547285 -0.026489912 0.11974296
-0.061436478 0.18006136 0.009308758
-0.20360477 0.047422815 0.118292056
0.074278705 -0.03199173 0.07096885
-0.08038501 0.16676386 0.15170912
-0.12729286 -0.009292224 0.12461681
-0.12662752 0.14706199 0.15393771
-0.17768611 -0.21736917 0.049876418
-0.18103637 0.03779073 0.10102935
-0.05423933 -0.12632388 0.03193029
-0.00054276537 -0.024879633 0.13018192
-0.04404785 0.039679173 0.20081559
-0.17397296 -0.10532087 -0.0142526105
-0.1637485 -0.26895028 0.03059194
0.21731842 -0.116011746 -0.21279585
0.049687397 0.16130109 -0.052309364
-0.1769262 0.027779976 0.004397443
-0.03434211 -0.24278778 0.05071009
0.058127623 0.22519048 -0.018904071
0.1993688 0.07846403 -0.2066436
-0.16738015 -0.22789805 0.04864461
-0.26068094 0.10997767 0.047187626
-0.16652018 -0.20973301 0.0547604
-0.007490164 0.176022 -0.059559904
0.1877277 -0.08103925 -0.10914142
-0.20346437 0.031438585 -0.004384875
-0.024895826 0.25966215 -7.2689785e-05
-0.14222282 -0.06276741 0.007525561
0.11366792 0.0725506 -0.042945966
0.032598995 -0.07310657 0.057468362
0.032100167 0.07775621 -0.00041235355
0.062412776 0.24022014 -0.074140325
-0.1694163 -0.02608204 0.061181497
0.22870801 0.07028782 -0.15801527
-0.04182914 0.18516387 0.014292764
-0.061986938 -0.10695992 0.096994035
0.29614595 -0.12788022 -0.17090946
0.17347659 0.1640955 -0.16085297
0.22230959 -0.0038431152 -0.17102656
0.2928509 -0.09551061 -0.19906528
0.2063842 -0.07721529 -0.10230755
0.24912177 0.10909138 -0.18494628
0.084067464 -0.08626704 -0.0007933408
0.25774252 -0.023395367 -0.15426815
-0.10680636 0.023173138 0.18839198
0.22202481 -0.09513763 -0.08932594
-0.20930181 0.0106676575 -0.023042407
-0.05174462 -0.27400625 0.015246804
-0.055604737 0.24215618 0.0879866
-0.05345569 -0.03753874 0.18152617
-0.022809451 0.020140156 0.04583948
-0.04969148 -0.19446585 0.028811619
-0.074045226 0.06190366 0.19241503
-0.022580521 -0.13485803 -0.004308011
-0.23198496 0.06826124 0.035075527
-0.0013510545 0.2456288 0.05394976
-0.18892129 0.19191296 0.06216251
-0.096432365 -0.25713083 0.037953585
-0.1640176 0.15461582 -0.14879642
-0.0730854 -0.099233955 0.029779308
-0.15704806 -0.10996694 0.01571536
-0.06543677 0.24501735 0.089021266
0.34079367 -0.08092519 -0.15663306
-0.19849217 0.06722655 0.11419591
0.1499638 -0.10528145 -0.054059353
-0.011426692 0.0063938494 0.12947834
-0.1397206 0.038919687 0.15970428
0.08702414 0.21034662 -0.07060925
-0.011590034 0.045909382 0.049109627
-0.16071843 -0.03486385 0.033342745
0.08250483 -0.010465927 0.03200402
-0.019368844 -0.022879219 0.13784549
-0.10660886 0.05205856 0.1757914
-0.10185425 -0.07537445 0.119279824
-0.049810696 -0.28800845 0.04423304
0.08000845 -0.111150995 -0.055409577
-0.06156061 -0.19046889 0.018004486
0.09915331 -0.09245873 -0.29680452
0.09958354 0.08775592 -0.046589702
-0.07561215 -0.2738316 0.057033923
0.12519057 0.1258763 -0.08356575
-0.15562794 -0.22830918 0.047031607
-0.12947716 -0.02056822 0.09986282
-0.12515561 -0.24895728 0.05376344
-0.010436107 -0.13040254 0.0013165333
-0.19212648 0.15233132 -0.07938589
-0.089335434 -0.24732588 0.051224377
-0.042696264 0.2703568 0.017759994
-0.03328489 0.018754318 0.17673065
0.16534784 -0.017649028 -0.0970397
-0.0908558 0.21145181 0.08976084
-0.08242507 -0.13320577 0.065490134
0.13391711 -0.043751713 -0.06562886
0.26077706 -0.11522951 -0.2247186
-0.015565095 0.16988344 -0.020613214
-0.24504885 0.07926749 0.049331594
-0.15847917 0.19343932 0.08268107
0.11489032 0.111551546 -0.048307188
-0.22847709 0.04593163 -0.017638179
-0.15842597 -0.051495194 0.02266877
0.02258673 0.012353171 0.070368774
-0.21091583 0.106752954 0.06689105
-0.12583096 -0.19492145 0.028792808
-0.16515921 -0.044703107 -0.021436675
-0.008960987 -0.14867896 -0.020808319
-0.0956243 -0.046675228 0.15332967
-0.13905732 -0.23635685 0.07144296
-0.14925566 0.18659872 0.12224864
0.18911968 -0.011400822 -0.15409525
-0.08239619 0.016249286 -0.16228004
-0.17533116 0.07586127 0.13390736
-0.09766371 0.21321763 0.08901448
0.020760499 -0.10463521 0.05005851
0.020089181 -0.084848985 0.10270166
-0.14352956 -0.13141401 0.03178154
-0.1749894 0.15790637 -0.08345446
-0.26027477 0.13979156 0.027191972
-0.049667213 -0.18475105 0.05262903
0.0023265246 0.24819805 0.018794268
0.23994444 -0.02642992 -0.1555426
-0.01788311 -0.15123282 0.012840899
0.21362768 0.017021473 -0.14065462
-0.1550874 0.21562836 -0.025481528
-0.030301591 0.20022085 0.059090767
-0.08017459 -0.16514736 0.03783307
0.041553196 -0.15911879 -0.1693782
-0.067618236 0.02913247 0.19292812
-0.011518918 0.27368063 0.025491634
-0.11230299 -0.23338778 0.02677442
-0.18678822 -0.048847347 0.0327513
-0.043915246 0.23532273 0.056347407
0.022134073 0.1383613 -0.019813122
-0.097551316 0.06594243 0.16521874
-0.17218687 -0.09650281 0.0074570864
-0.12530896 0.15323068 0.14095479
0.0053243237 -0.24118714 -0.01704721
-0.19891763 0.09533794 0.10157154
0.21792439 -0.14010963 -0.25614834
-0.037647735 0.020125076 0.14420435
0.04300797 -0.054506656 0.050693702
-0.07134432 -0.2194479 0.054000832
-0.26819882 0.048975334 0.045651
0.1527243 0.04989226 -0.1953065
0.18780914 0.1549957 -0.17763346
0.076037236 0.08547971 -0.019967183
-0.05542237 0.19359475 0.11034447
-0.18610005 -0.13250186 -0.020121558
0.06491406 -0.027054338 0.0834621
-0.19421674 -0.085928194 -0.0040681087
-0.057697978 -0.010862259 0.17388985
0.25840667 -0.049097724 -0.16558403
-0.010289786 -0.030977419 0.14428002
-0.090219416 0.24501656 0.07796651
-0.026770888 -0.16365765 0.0132900905
-0.050115876 0.21366706 0.09542594
0.31028518 -0.07736237 -0.19785956
-0.058272894 0.059422567 0.15669556
0.05165139 -0.02358305 0.071410224
0.21851406 -0.07207534 -0.12120977
0.096230805 0.07457561 -0.019347712
-0.2530931 0.08164383 0.05934303
0.0883803 0.01529178 0.047798235
0.04793664 -0.09124209 0.038140915
-0.052635703 -0.19405454 0.04997871
-0.09041756 0.0063409456 0.15201558
-0.029685793 0.18389311 0.07779912
0.0023303207 -0.13722943 -0.08443504
0.026170647 -0.0062855226 0.11712028
0.0496822 0.008390802 0.00188737
-0.023626901 -0.28503796 0.042481344
-0.07920474 0.09080419 0.045399148
-0.09759704 0.20817594 0.1178447
-0.07509634 -0.18282641 0.008236926
0.090043314 -0.12912512 -0.08527693
-0.031201662 0.053364865 0.06263286
0.04689993 -0.12501083 0.011177383
0.2803954 -0.10636372 -0.19225098
0.07424605 0.13217458 -0.06404846
-0.02042141 0.01476439 0.18556434
-0.044859197 -0.106411524 0.045136176
0.3445792 -0.10687177 -0.18515092
0.13996306 0.12648806 -0.20836127
-0.02712707 0.07648762 0.16062358
-0.070987314 0.16141938 0.15883008
-0.13973004 -0.0073156366 0.14239582
-0.026481101 0.27210414 -0.0056065316
0.020517237 0.17287293 -0.038398232
-0.17736891 0.14467297 0.11121988
0.09576427 0.10617907 -0.06755524
0.24541222 -0.16047592 -0.2339728
-0.098946206 0.18165338 0.12115419
0.051534235 0.14456916 -0.03283066
-0.17592834 0.21402268 0.06884346
0.10047995 0.019333908 0.008904118
0.26791775 -0.18112037 -0.22699848
0.2148198 -0.09565324 -0.2469198
0.13968602 -0.10672368 -0.03700222
-0.03027399 -0.19136061 0.0005548056
0.07883835 0.1489743 -0.04868355
-0.06135094 -0.040992938 0.16307192
0.057582058 -0.20593674 -0.18517907
-0.12385041 -0.124233045 0.009325013
-0.1374569 -0.016545774 0.13670447
0.12203539 0.10164534 -0.066821925
0.23341198 -0.14180529 -0.25116184
0.09390374 -0.087910995 0.0036007469
0.10337342 -0.1240914 -0.31184438
0.024403471 -0.16793706 -0.14008261
-0.118742295 0.06903105 0.15077819
-0.16580324 -0.19470721 0.05989132
0.17302455 0.18971068 -0.14518072
-0.19604 0.16699098 0.09970457
-0.12297857 0.02978087 0.14832957
0.04470014 -0.16063572 -0.14768454
0.117040075 0.04103466 -0.031578053
0.040425383 -0.10462534 0.10052212
-0.14781433 0.14457956 0.14510112
-0.056942 0.2164739 0.06617429
-0.07218367 -0.24744004 0.03505997
-0.16341047 0.056694977 0.13634501
-0.122173086 -0.26783085 0.05505117
0.13566118 0.10434438 -0.15204848
-0.105834685 -0.022100694 0.14781538
-0.031302445 0.14876893 -0.0047790557
-0.15713851 0.11650094 0.14734146
-0.17684415 0.025701404 0.11722504
-0.13694306 0.18558185 0.15412053
-0.17379917 -0.08149739 -0.0027861067
-0.15426908 -0.16889293 -0.016128846
-0.0009961106 -0.15699075 -0.025553744
0.17837995 0.18217601 -0.15125859
0.14709646 0.019904992 -0.023386016
0.07479489 -0.17816463 -0.1861728
0.17015229 0.12446334 -0.163312
0.032287247 -0.09922153 0.06501354
0.19812118 -0.027538273 -0.102942
0.15236585 0.046739507 -0.18092668
0.08769741 0.12182162 -0.051046193
-0.027410602 0.2822491 0.01188933
-0.026222926 0.21435376 0.019363604
-0.04615335 -0.15453707 0.05740025
0.23737906 -0.11963102 -0.23395075
-0.15716921 -0.19824786 0.07777088
-0.14516753 -0.07290096 0.012660488
-0.0022303886 0.15649498 -0.0025839603
0.1230464 -0.15429236 -0.11123236
-0.19335665 0.16705826 0.11892639
0.29539773 0.010415445 -0.17617764
0.004500998 0.12640624 -0.023863984
0.301051 -0.083506 -0.18003301
0.012131413 -0.15804698 -0.053226914
0.2691209 -0.10846749 -0.19639248
-0.21038158 0.14083353 -0.06411101
-0.00014620752 -0.030816568 0.15703763
-0.19118565 -0.106279686 0.009402429
-0.14368023 -0.070267506 0.014647729
-0.13405897 0.20213439 0.12352603
-0.10412177 -0.013684421 0.13782364
-0.06779172 -0.23115513 0.04038776
-0.052180413 -0.016938893 0.1884564
-0.025114452 -0.014525541 0.13796379
-0.14492443 0.10834831 0.124108374
0.22135878 -0.123942025 -0.25377852
0.17429031 -0.12704365 -0.10687862
-0.00018477596 -0.010505312 0.12109679
-0.07631699 -0.2650483 0.036492895
-0.04814794 -0.043919317 0.13909803
0.3113854 -0.0055284435 -0.19620739
-0.0875684 -0.09165207 0.02758461
0.17375676 -0.08009527 -0.053931143
-0.19414918 0.07526925 -0.0037985372
-0.09189991 0.05159067 0.1540053
-0.16255586 0.1886204 0.13812852
-0.18577106 0.049592815 0.008231628
-0.11573745 0.010334022 0.14452071
0.22993343 -0.026922531 -0.13396649
-0.04071377 0.041793816 0.04376516
-0.25064644 0.06391785 0.046730645
-0.12240789 0.01336157 0.14182901
-0.051166315 -0.19816816 0.044154763
-0.07732511 -0.20832734 0.010834999
0.17119724 0.055063814 -0.18257764
0.30357212 -0.0448553 -0.17666446
0.32040122 -0.08035008 -0.16882932
0.018768648 0.045266803 -0.021469474
-0.06350655 -0.14275345 0.034188315
-0.109711744 0.01996732 0.14687657
0.17198607 0.11933399 -0.19660102
-0.29265445 0.067460194 0.026377322
-0.0031641352 0.17700355 -0.036087543
0.03868038 0.015949931 0.030117244
0.04410607 -0.024863422 0.05835692
0.17557426 -0.014880879 -0.05757914
0.076789536 0.2262036 -0.080505624
0.103049226 -0.0033637967 0.039313365
-0.30110234 0.1046979 0.054551136
-0.12661119 -0.11455531 0.028288947
-0.021673605 0.16275541 0.027198093
0.22505547 0.085024446 -0.15773125
0.30019206 -0.062054835 -0.18243624
0.12769793 -0.11032151 -0.30396312
0.109199814 -0.104410574 -0.012014569
0.19745913 0.008972588 -0.19322722
0.22456226 -0.13549362 -0.23210025
-0.08666476 -0.039176576 0.10558814
-0.15425967 -0.0115119675 0.029088823
-0.06773216 -0.15375187 0.04016584
0.009441973 -0.11254274 -0.02234911
0.05960044 -0.040041875 0.11030619
-0.17714258 -0.18991631 0.030788621
0.12708913 0.07312475 -0.17030218
-0.16383094 -0.06454161 -0.013537962
0.19434142 0.10807956 -0.14644466
0.06535735 -0.17404355 -0.19161414
0.08138676 0.16245075 -0.060768597
0.030841969 0.072357826 -0.0068271453
-0.19119442 0.13249677 0.07466519
0.29570213 -0.035163388 -0.15480267
-0.078999825 -0.123804964 0.05806548
-0.115368366 -0.1662947 0.04502853
-0.11764357 -0.044635896 0.04107215
0.06352503 -0.044511102 -0.3263078
-0.01714771 0.17857738 0.04380394
-0.044874396 0.052617516 0.15591195
0.29550117 -0.049401015 -0.17955941
-0.05444561 -0.028838824 0.13655166
-0.17160013 -0.013194646 0.014507802
-0.05082962 -0.23416296 0.04842761
-0.05965723 -0.22418377 0.04792189
-0.031497356 -0.24697061 0.0626652
0.04625485 0.08346578 -0.060295288
-0.117453195 0.13845877 0.14055273
0.21876872 -0.043419734 -0.086834356
0.05537519 -0.13057812 -0.05983747
0.17972036 0.011674651 -0.12339115
-0.18514076 -0.06604961 0.016019054
-0.113925695 0.10092382 0.18544124
-0.07629081 -0.04554088 0.1635837
0.28165993 0.020971006 -0.16731107
-0.061089728 0.095505804 0.14212346
-0.14046258 0.077684805 0.1605546
0.030998033 0.27718556 -0.051540397
-0.15536247 -0.10795175 5.5417466e-05
0.1210826 -0.113406725 -0.019995132
-0.17220913 0.13952228 0.09150406
-0.29997087 0.048757676 0.0046771225
-0.16148981 0.1390039 0.10037912
-0.29740307 0.09334973 0.0549165
-0.15813294 0.18845831 0.09697574
0.11232662 0.15232566 -0.14914304
-0.105900005 0.11610212 0.13466942
0.09608311 -0.02897784 0.034559213
0.28486818 -0.036540724 -0.16128235
-0.2845206 0.040878814 0.061623268
0.106530115 -0.016278211 0.012106783
0.21237743 0.03322278 -0.15610461
0.002341857 -0.22152436 -0.008252326
-0.12180228 -0.17968449 0.04657905
-0.15796077 -0.17016335 0.027408738
-0.17025329 0.044824876 0.119903736
-0.049298067 -0.03311009 0.15499547
-0.01785228 -0.21850972 0.029345747
-0.20337683 -0.00052454055 -0.0073517854
0.06003569 0.11513067 -0.041423764
0.0760154 0.15166508 -0.06892848
0.079509765 -0.013972775 0.029808821
-0.25042418 0.08182964 0.010037817
-0.1694116 -0.10293225 0.012697243
-0.17004466 0.16912325 0.09739166
0.15400027 -0.09343459 -0.28081945
0.18338858 -0.049367122 -0.08740987
0.056688003 0.21818039 -0.072396144
0.19731022 -0.052508246 -0.09886836
-0.082229085 -0.0852502 0.0717129
-0.15103292 -0.25338784 0.08534399
0.22490312 0.023394676 -0.1572406
-0.05906834 -0.25552204 0.03150501
0.2484244 -0.0990993 -0.2318013
-0.010296291 -0.09240635 0.08882317
-0.14773868 -0.25729078 0.05155523
0.096120216 0.07686178 -0.06396874
0.26473936 -0.12638381 -0.20947216
0.252362 -0.029609736 -0.11386194
-0.10604276 0.06942837 0.20213917
0.22848813 0.007795932 -0.20586659
-0.048688017 0.26973587 0.024293944
0.041461118 0.02457399 -0.014468219
-0.16611113 0.14240323 0.11089482
0.10310965 -0.01583367 0.043468967
0.10911765 -0.037161335 -0.31682274
-0.06963579 -0.13611715 0.031812035
-0.16797353 0.026968041 0.0010035188
0.17752826 0.17001939 -0.18875685
-0.15362006 0.033222444 0.14490919
-0.19115408 -0.06527186 0.0064141997
-0.031372696 0.009587399 0.19520396
0.029822085 0.13724121 -0.016206248
-0.23023106 0.028832892 0.014406105
0.24688892 0.01546479 -0.13547039
0.2352548 0.047085177 -0.1654243
0.19100879 0.15030111 -0.15843505
-0.15247528 0.0668598 0.16821614
-0.15123692 -0.024250528 0.08568369
-0.07719509 0.07881916 0.17027391
-0.05072716 0.18698923 0.017997175
0.1555418 0.04197158 -0.052355092
-0.14721061 0.13219684 0.14304477
-0.010724342 -0.26444137 0.029999446
0.27059585 -0.063517496 -0.1800134
0.026520813 0.15973614 -0.0030632187
-0.16076294 -0.15597124 -0.00056596234
0.15898387 0.134078 -0.15390927
-0.112625696 0.16672383 -0.20972726
0.28594208 -0.12948444 -0.17642434
-0.022152536 0.0039419723 0.114721574
0.10376542 -0.10422731 -0.29116952
0.0048305416 0.16177784 -0.04450964
0.32248202 -0.064352326 -0.16354322
-0.105610535 -0.002161424 0.16414598
-0.047112767 -0.22489516 0.0110631455
-0.17001384 0.06773003 0.15667844
-0.084977865 -0.04733713 0.12471513
-0.11013569 -0.06149198 0.046358474
0.16390158 -0.119603336 -0.29313242
0.07140133 0.15546247 -0.014746648
0.17527048 -0.12851971 -0.112717
-0.1736605 -0.18858415 0.043772195
0.2610258 -0.060871486 -0.18488647
-0.006345534 -0.284036 0.010437758
0.104616344 -0.07162136 0.023826312
0.17655279 0.14840701 -0.14433463
-0.05530933 0.09259301 0.12734488
-0.0030301744 -0.048526604 0.120253846
0.12531981 0.07613037 -0.025916584
0.2409577 -0.053064235 -0.11774413
-0.1160024 0.19586653 0.07291201
-0.2486053 0.06643546 0.00755083
0.18505868 -0.0064193476 -0.12133144
-0.10366076 -0.19124164 0.034047253
0.28968462 -0.06425586 -0.14464727
0.20715614 -0.09953358 -0.082224876
-0.07294044 -0.12626521 0.028213428
0.14927433 0.08704872 -0.19332272
0.12218977 -0.014298178 -0.0043287133
-0.037550084 0.17764033 0.052372687
0.03620845 0.0070056217 0.11167152
-0.10706603 0.09198442 0.17530811
0.12932672 -0.10211047 -0.00980086
-0.14482781 0.03693087 0.058892056
-0.06418314 0.035845872 0.14875284
0.258826 0.009774809 -0.17991325
0.02517775 0.2167454 -0.015503018
-0.19694166 0.055425182 -0.001091229
-0.06095771 0.16918248 0.0741785
-0.14019811 0.074611016 0.16537507
0.295584 -0.04618038 -0.13716432
-0.14080615 0.18010162 0.07258689
-0.17721301 -0.016250186 0.09697167
0.32974955 -0.005373399 -0.15504181
0.17159012 0.17874649 -0.15301242
-0.1544569 -0.05608143 0.0030448283
0.09399911 0.03599293 -0.03403912
-0.050634857 0.20266299 0.030437231
-0.041458465 -0.18217617 0.012824506
0.21926408 -0.05853611 -0.0807838
-0.12891686 0.20550889 0.100524746
-0.08436281 0.19932574 0.08726492
0.110974625 -0.07186385 0.003396081
0.0537716 -0.06542268 0.10187999
-0.05433879 0.048862398 0.20349754
0.08232391 0.20899963 -0.051702876
-0.10690868 -0.1008726 0.04149585
-0.07870602 0.17944002 0.14325316
0.026904225 0.026149416 0.10734015
-0.05863662 0.15834558 -0.21978858
0.054468352 -0.030619798 0.04616926
0.27749923 -0.04045999 -0.16419241
0.10721035 0.05849099 -0.033124935
0.063717246 0.10650558 -0.05380877
0.14493762 0.108965375 -0.090068474
0.28630742 -0.0054845903 -0.17337129
-0.036890578 0.087712705 0.08170587
0.34184155 -0.059187 -0.18350512
0.16401103 -0.0016961028 -0.16813722
-0.011687488 -0.022723708 0.16559352
-0.08415438 0.1353618 0.16905577
-0.011519311 -0.09177904 0.08884497
-0.0760427 0.07217128 0.12281175
-0.14875266 0.096305594 -0.128545
-0.2629986 0.044818297 0.011732758
0.008995551 -0.18491927 -0.167364
0.10930437 0.048807234 -0.012728266
-0.13966778 -0.23249516 0.018499069
0.026151938 0.010691359 0.09649124
0.24024269 0.003952866 -0.17985232
-0.106579766 0.059261575 0.15951541
-0.052395273 -0.02836408 0.121273026
0.09132361 -0.05235668 0.0704011
0.03079586 -0.027638497 0.13286099
-0.15157261 0.021780623 0.10566967
0.22683819 0.09856212 -0.14417444
-0.10415601 -0.10669852 0.021831764
-0.20996511 0.14103344 -0.051719036
-0.26366162 0.07828863 0.020027326
-0.13319908 0.039474785 0.132511
0.060840026 0.105891004 -0.042281333
-0.049906474 0.23511861 0.082192816
-0.07177011 -0.058662713 0.13365738
0.07521235 -0.13172181 -0.03819109
-0.19238286 0.10755266 0.13624385
-0.14831114 0.004515444 0.1269488
-0.103231765 0.21946459 0.12074013
0.15262161 -0.158297 -0.07484206
-0.1435816 0.08171578 0.14638202
-0.16664097 -0.19948347 0.06611642
0.14473726 0.093521595 -0.18407406
0.30091852 -0.08219126 -0.19309062
0.19562648 -0.034401074 -0.09055986
-0.069379486 -0.014989549 0.15655811
-0.1143049 -0.00080872554 0.15714644
0.01737588 -0.10858488 0.008826993
-0.07446862 -0.21986751 0.03680322
-0.07440277 0.06886041 0.14313146
-0.15514818 -0.07485763 0.016812399
-0.27087432 0.051475253 0.010783231
0.20075697 -0.09031067 -0.06892949
-0.054225992 0.032217648 0.0518319
-0.080589816 0.029131113 0.16025682
-0.2385593 0.091405645 0.014052729
0.23278582 0.14410102 -0.1985934
-0.13467523 -0.1624333 0.030150345
0.12351679 0.09179907 -0.02980868
-0.14076461 -0.05059962 0.04709021
0.30748636 -0.14214557 -0.1752394
-0.19166335 -0.10776597 0.0011837531
-0.07256957 -0.2805524 -0.00027564183
-0.06797272 -0.20183817 0.019760711
0.30683216 -0.14267962 -0.16679344
0.0009966982 -0.069504 0.11465534
0.04255137 0.18452905 -0.051651303
-0.011685665 -0.16653869 -0.0641689
0.13345325 0.14093319 -0.06645119
-0.07729337 0.07236165 0.15496095
0.03411951 0.19112957 -0.036084924
-0.07963781 -0.12157271 0.029308591
-0.03947078 0.05492445 0.14885218
-0.1645212 0.2037303 0.07056585
0.024536764 -0.124305636 -0.040423833
-0.14333016 -0.0141878445 0.017337393
0.20712319 0.14864182 -0.15433113
0.1450463 -0.12827986 -0.28625488
0.2467184 -0.10480579 -0.17794189
0.11919404 -0.07379399 0.03462596
0.008253692 0.17059605 -0.014755592
-0.1762812 0.17498738 0.029231383
-0.19838232 0.06828802 0.0038923067
0.0754244 0.01462194 0.0052421526
-0.006854179 -0.093590185 0.109298296
0.019456582 0.18607709 0.0016524707
-0.111641936 -0.16410391 0.06416955
-0.1694537 0.19765617 0.07776823
0.02455463 -0.17889525 -0.14203176
-0.05180445 0.26368243 0.03476006
-0.2132489 0.14826515 -0.1096459
-0.0017743529 -0.019535081 0.13803768
-0.15089324 0.06170037 0.15861073
-0.15585063 -0.12582357 0.01994861
-0.12492857 0.10962168 0.19338278
-0.16952471 -0.046589028 0.032701608
-0.2514192 0.10047388 0.002247174
-0.011675044 0.008679598 0.13887505
0.036950577 -0.01903387 0.08747116
-0.06738272 -0.122749634 0.044097334
-0.05156033 0.25207028 0.04767492
0.25834632 0.056286927 -0.1377302
-0.030490803 -0.051141508 0.10780251
-0.11428487 0.14087889 -0.18069695
-0.14256176 0.23776568 0.061145324
-0.15144862 -0.0071629933 0.023490168
-0.028938703 0.23482983 0.056725163
-0.14584938 -0.18297115 0.044850398
0.26532465 -0.13352309 -0.20107654
0.09291406 -0.076893166 0.009553193
0.22074978 0.043450356 -0.1946531
-0.08382155 0.023309289 0.14225668
-0.061446514 -0.033623103 0.16071686
0.34488788 -0.059726752 -0.17246416
0.24809748 -0.11594079 -0.21637954
-0.13259539 0.115082905 0.1465236
-0.10834245 -0.20181681 0.039468605
0.0066807326 -0.09323375 0.09223191
0.11000945 0.1924354 -0.11648249
-0.08108663 0.1925123 0.087380074
-0.062059537 0.2383551 0.08322686
-0.056147296 0.039194163 0.13008404
-0.08273944 0.12923372 0.15086739
-0.16969366 0.15238214 -0.06947688
0.14855498 -0.11868989 -0.072573245
-0.08912415 0.16647041 -0.20741679
0.02028419 0.01809045 0.007412294
0.20225017 0.045449283 -0.18004905
0.026360126 0.03255242 0.053943172
-0.025059173 -0.07244358 0.10586275
-0.11644013 0.04349726 0.15033527
-0.016288267 -0.043403573 0.16142333
-0.047032874 -0.21014965 -0.12787461
0.040657677 0.16891092 -0.014439805
0.12602055 0.034401573 -0.12781963
-0.11917821 0.1790401 0.12814176
-0.17052844 -0.22259393 0.045743216
-0.03948659 -0.031026123 0.12273418
0.022560567 0.21475744 -0.0042497194
0.26576185 -0.11780295 -0.21027896
0.15499215 0.08815256 -0.17989086
0.13994473 -0.08681634 -0.26230222
-0.008709767 -0.18694416 0.044275552
0.23292251 0.028836023 -0.19161215
-0.086501196 -0.079039864 0.12716666
-0.12533645 -0.2860915 0.0047288486
-0.15614343 0.19696267 0.066170655
0.025119727 -0.09351582 0.10588563
0.09190588 -0.20026106 -0.20573004
0.18055785 0.11426023 -0.17717037
-0.09828498 -0.15658823 0.020476352
-0.06568159 -0.30962607 -0.044234987
0.2023657 0.1656846 -0.19044386
-0.00021312313 -0.2317405 0.004852577
-0.042008113 -0.20827161 -0.0038568468
0.20878123 -0.13426363 -0.22378641
0.2982855 -0.051132046 -0.167866
-0.032240745 -0.19179335 0.050031025
0.06552161 -0.063434504 0.07353185
0.11908872 -0.08567651 0.0019455341
-0.10698581 0.01816236 0.15258396
-0.14246804 -0.17759128 -0.012708703
0.15560749 -0.12752448 -0.042943828
-0.028890196 0.19612943 -0.023969103
-0.28962252 0.11055202 0.022988304
-0.021943271 0.29512417 0.016925933
0.04606181 0.17195444 0.0014244947
0.22463852 0.053542033 -0.15078709
-0.09863328 0.11566057 0.15994115
0.26626948 -0.04036488 -0.1797672
0.039818194 -0.13171741 -0.021008398
-0.11797832 0.23892598 0.023263363
0.17327742 -0.05194011 -0.07754864
0.25790244 0.015004513 -0.15959103
-0.09833448 0.22741891 0.08954675
0.041106347 -0.07917064 0.07634423
0.107948214 -0.07398723 0.034298792
-0.2623389 0.024770973 0.020942235
0.14298697 -0.09489875 -0.04062881
-0.1904789 0.13112374 0.08355887
-0.20606588 0.04414756 -0.0066434187
0.3536553 -0.100862965 -0.22129975
-0.10382441 0.055591613 0.1565125
-0.063245215 0.22259063 0.04354032
0.06386071 -0.045894213 0.07487309
-0.1321039 0.22892429 0.06285109
-0.14718373 0.15820286 0.12262238
0.08435044 0.006766164 0.02782829
-0.19231199 0.13548668 0.08223572
0.010442901 -0.13960055 -0.011742947
-0.07457032 -0.050489813 0.09747783
0.250226 -0.086544424 -0.18144424
-0.12964106 -0.018149382 0.09834659
-0.04396007 0.020567201 0.061658062
0.00713577 0.23049752 0.0014686423
0.2843148 -0.025499178 -0.1773055
-0.03625087 -0.083235234 0.088578455
0.16233149 0.09728712 -0.17707276
0.17928813 0.10464636 -0.1535535
-0.09783653 -0.016931644 0.16289778
-0.1261482 0.16688193 0.13115408
-0.055833645 0.2622019 0.034679685
-0.1137663 0.18340778 0.110175155
0.11337158 -0.05424528 0.06119372
-0.10782868 0.013706696 0.17381705
-0.031623766 -0.24637231 0.065558195
-0.034589432 0.25537637 0.006457132
-0.058094412 -0.18467318 0.0541234
0.1592692 -0.14140949 -0.06869354
-0.29173046 0.061837316 0.023468874
0.2417733 0.044847537 -0.1855918
-0.08811859 0.2311065 0.1026548
-0.14521112 0.100389354 0.14512987
0.0006391576 -0.08273605 0.048761815
-0.15919997 0.14415093 0.15181081
0.32660043 -0.04018137 -0.17233142
-0.16204856 -0.20845447 0.006354892
0.1810738 -0.12716675 -0.12891784
0.015793644 -0.054383665 0.13708244
0.11246837 -0.083730705 0.029386729
-0.11453486 -0.22135429 0.029152876
-0.059094522 -0.19644962 0.0039018344
0.22346772 0.09691056 -0.14200032
0.025234388 -0.07855906 0.089087605
-0.010752371 -0.04719266 0.17617369
0.22899322 -0.07752793 -0.14793602
-0.03671006 -0.15750673 -0.036354166
-0.067610875 0.2564683 0.05187001
-0.20477448 -0.043253936 0.0027688837
0.011408134 -0.13724537 -0.0052273343
0.053137556 -0.08316015 0.044371273
-0.019769644 0.21722572 -0.010347689
0.08620396 0.037099615 0.0019450532
-0.082608216 0.10472294 0.17388374
-0.10598126 -0.00058739557 0.15471166
0.014248784 -0.11060643 0.0148507105
-0.0021314567 0.124496356 -0.005735752
-0.09535838 0.026033083 0.17339861
0.2056723 -0.17084643 -0.24291499
0.01552722 0.043202654 0.11622769
-0.19977804 -0.0038879458 -0.010799569
0.0736323 -0.12515326 0.010802206
0.06359728 -0.098278835 0.024011875
-0.06335751 -0.03286299 0.11870084
-0.06949163 -0.21124506 0.051889885
-0.010959524 0.22723918 0.057533808
-0.12931907 0.17833023 0.14040641
0.13933356 -0.059125498 -0.00994402
0.1929257 -0.103906676 -0.27393422
-0.2125211 -0.066274926 0.01901495
-0.17388962 -0.18897498 0.032068368
0.114552945 0.05336889 -0.06738793
-0.086083524 -0.064150445 0.10141584
-0.07971156 0.19293652 0.10244507
-0.065404646 -0.23811525 0.035866976
0.34229565 -0.1067836 -0.15505804
-0.22295111 -0.009193016 0.021582205
0.22502172 -0.111398384 -0.14168996
-0.013598487 -0.036134575 0.1650858
0.13746828 0.024412178 -0.0064754975
0.108658314 -0.09018575 -0.015158067
0.024003565 0.24279588 -0.03140567
0.16564384 -0.032300558 -0.07147055
0.10017262 -0.014864221 0.040954135
-0.02592712 -0.0062913103 0.15896583
-0.2624862 0.10304394 0.04626315
0.06585719 -0.04630617 0.036971368
-0.058320794 0.053838845 0.17797586
0.28040817 -0.012410564 -0.17884025
-0.012029041 -0.21214184 -0.18342352
-0.22548805 -0.015338504 0.009315866
-0.11589643 0.040662766 0.17039798
-0.024256555 -0.17926225 -0.040980294
0.15136479 -0.10077324 -0.26842967
-0.0037275977 -0.04713801 0.1761667
-0.0728853 -0.058603015 0.07725989
-0.08781171 -0.06677464 0.10919092
-0.053713236 0.18134865 0.037459135
-0.17492531 0.10756381 0.109440446
0.14842598 -0.022089371 -0.07066151
0.0374492 -0.06824299 0.017134884
-0.14876446 0.07019483 0.12210583
-0.17876366 -0.19140187 0.010163658
-0.030258493 0.2682197 0.048148334
-0.09737071 -0.1873535 0.00398248
0.111699596 0.12473931 -0.18600507
0.20989716 0.08820607 -0.15935023
0.21321385 0.056427307 -0.15705103
0.055591986 0.13108599 -0.044655904
-0.021725245 0.16199905 0.004398602
0.1416654 -0.04976083 -0.066714205
0.083946764 0.20530619 -0.053518623
0.19219951 0.17296712 -0.1883227
0.17373003 -0.07204252 -0.042591777
-0.15715313 -0.043543067 0.11562193
-0.3026411 0.06811307 0.039322026
0.28003478 -0.08507926 -0.16503528
-0.1658627 0.13813268 0.1282893
-0.22800927 0.07244216 0.035121765
-0.032911036 0.020116262 0.12708764
-0.07992984 -0.010778583 0.16865438
-0.14528868 0.000758594 0.05624684
-0.16108412 -0.1453439 0.022359928
-0.15273106 -0.008293871 0.11598365
-0.08873264 0.16164532 0.122987196
0.15983163 0.16366932 -0.15618654
0.13456786 -0.007187056 -0.069434166
0.016512183 -0.1485403 -0.056778356
-0.03615723 -0.052937597 0.15281956
-0.08517132 0.15294145 0.13838452
0.27868506 0.03972127 -0.1408736
0.17336002 -0.018554071 -0.08792207
0.071012 0.14189574 -0.034589555
0.052449916 -0.1019948 -0.028762009
-0.14686878 0.24087237 0.07915271
0.06412621 -0.07385842 0.016425617
0.31458706 -0.1168742 -0.1536534
-0.08400509 0.21127501 0.12107375
-0.12840658 -0.041570902 0.024771694
0.2891806 -0.15468146 -0.17727791
-0.0075804912 -0.056447875 0.1294322
-0.10118769 -0.03251622 0.13301596
-0.21214236 -0.084014095 -0.0062332223
-0.12985 0.007677395 0.12025227
-0.17638044 -0.09083436 -0.009923543
0.3212371 -0.08981233 -0.19017082
-0.10047666 0.049122006 0.17044443
0.012222086 0.12806778 -0.016969854
0.24449128 -0.06767776 -0.12661104
0.21842498 -0.0016619968 -0.17567916
-0.1610512 0.08698739 0.14311898
-0.029480461 -0.12199416 0.0775013
-0.1496023 -0.09819974 -0.010497623
0.2687355 -0.09084982 -0.19039614
0.077973746 0.1883885 -0.062301613
0.15038072 -0.010211148 -0.08137755
0.14956245 -0.101969786 0.0019168478
0.2220417 -0.14268132 -0.22775535
-0.12572798 -0.0030478763 0.1306343
0.12010386 0.09900536 -0.17216553
-0.21741979 0.05342787 0.008217847
0.025205359 0.17620744 -0.00049800705
-0.20837314 0.02657374 0.008597712
