# .PCD v0.7 - Point Cloud Data file format
VERSION 0.7
FIELDS x y z
SIZE 4 4 4
TYPE F F F
COUNT 1 1 1
WIDTH 1000
HEIGHT 1
VIEWPOINT 0 0 0 1 0 0 0
POINTS 1000
DATA ascii
-0.18548733 -0.09049308 -0.18764761
0.17121026 -0.27636522 -0.025990626
0.26400125 0.1448964 0.06669933
-0.048625834 0.18255606 0.03316552
-0.014808533 -0.24199547 0.17666899
0.15670688 0.11559023 0.04875474
-0.2887987 0.131538 -0.10466166
0.3091273 0.15086824 0.03146895
-0.20659043 -0.019127969 0.05771495
-0.21106565 -0.03994324 0.08903087
-0.12526117 0.24925026 0.05971696
0.0040826076 -0.28111196 0.19960278
0.023972452 0.083899304 -0.07759766
0.25689435 0.24596907 0.029783312
-0.076872066 -0.042433172 0.08649491
-0.16626781 0.2143203 0.04611177
-0.14388126 0.09038443 -0.06762747
0.10623613 -0.10613935 -0.060182087
0.009630463 -0.28435865 0.19241723
0.042694952 -0.11270603 -0.052080754
0.17888924 -0.042483218 -0.101420894
-0.2912254 0.11062319 -0.057737958
0.0517483 0.009697122 -0.032043204
-0.26028514 0.08767471 -0.048253845
-0.09587766 0.13894874 -0.13799736
0.17235322 -0.29437596 -0.04201637
0.12583402 -0.11660638 -0.057917513
0.04805209 -0.04571584 -0.03399625
-0.0154977515 -0.073917136 -0.033592217
0.18880484 0.19995865 0.05140586
0.19878992 -0.07619214 0.07734702
0.0033860258 0.24883199 -0.12654746
-0.0060466565 0.032011133 -0.048943356
-0.23498379 0.008023289 0.028889595
0.22254702 0.22329731 0.059110057
-0.096116684 0.18585902 0.063420914
-0.0058423947 0.21291591 -0.015242911
0.081837125 0.019832369 0.0025350524
-0.082586706 -0.23046914 0.097576015
0.14863789 0.11228041 -0.08295376
0.0743702 0.19197945 0.054255106
-0.042083316 -0.19598797 0.13876024
0.12131722 -0.3361708 -0.1290368
-0.067350395 0.27089235 -0.23083664
-0.21897487 -0.013329937 -0.04327919
-0.18250382 -0.12123536 -0.078810096
-0.10584024 0.013866526 -0.024145072
0.3000682 0.15832928 0.055079564
0.20959707 -0.005165688 0.0727906
0.1550394 -0.0662817 -0.10051981
-0.15920272 -0.045825012 0.09901161
-0.20146252 0.069458805 0.08694175
0.19886434 -0.27406213 -0.024819873
0.032752432 0.22505885 -0.110811986
0.021960787 0.284524 -0.094403386
-0.11271229 -0.005223132 0.056567032
-0.098074324 0.24037632 0.03075415
-0.17801523 0.22200054 -0.07166005
0.24597855 0.08351163 0.03125022
-0.22580348 -0.1062414 0.062873065
0.120756045 -0.29877123 -0.18635677
-0.09000967 0.13046126 -0.04663868
-0.09948406 -0.119260386 -0.042427357
-0.09403377 0.21308126 0.036866244
0.06312571 -0.039932918 0.0767297
0.09280229 -0.043682285 0.10114507
-0.2003252 0.15323181 0.06903259
-0.21297024 -0.041218866 0.074885204
0.24042514 0.24411863 0.05707439
-0.24289057 0.08059248 0.07401598
-0.1663157 0.02649518 0.07424433
-0.17122927 0.021462375 0.09694496
-0.2050461 0.09052922 0.0850155
-0.026317332 -0.27258173 0.20604602
0.1977291 0.0020605414 0.07634178
0.11040508 -0.23800407 -0.035629034
0.21517476 -0.32765204 -0.072422445
-0.16415966 0.025247687 -0.041540995
0.27058727 0.1719588 0.036399283
0.16726984 -0.17943855 -0.11604542
-0.2649726 0.19582064 -0.115134045
-0.16764939 0.28854182 0.033950314
0.007583807 -0.13536009 -0.05992405
0.012728861 0.13268615 -0.04256124
0.26072258 0.07225638 0.026432993
0.14708945 0.12667714 0.052327238
0.09984935 0.105175406 -0.05438693
0.27590016 0.14814785 -0.011295532
0.18096894 0.0228892 0.04508684
-0.28385025 0.015939787 -0.09093419
-0.013930422 0.031080537 -0.0401379
-0.09149595 -0.28904966 -0.006491178
0.32109722 0.1735007 0.047799274
0.16588514 -0.36438444 -0.12624009
-0.09411563 0.21002293 0.037106138
0.054696545 0.026010504 -0.035721634
-0.21878 -0.10657593 0.071231954
-0.1812553 0.18602286 0.057998605
0.0055109803 0.102330156 -0.14696226
0.086953156 -0.045505837 0.057648152
0.18527701 0.19846678 0.05122648
0.06455158 0.19419482 0.03902445
-0.039512217 -0.2841656 0.098185584
-0.22702909 -0.085027106 0.09275462
0.11762857 -0.15051775 -0.05205994
0.13232422 -0.19924748 -0.04260813
0.0022502693 -0.31599733 -0.046337634
-0.17096877 0.22706035 0.05950782
0.236099 0.119422786 0.061868638
0.006013466 -0.22767504 0.20201916
-0.08347844 0.24436283 0.031772286
-0.037327677 -0.047335543 -0.05515995
0.013495182 -0.2197297 0.15733032
-0.14082298 0.17260374 0.033654414
0.03732811 -0.30030656 0.15150389
0.19442098 -0.272997 -0.089361526
0.30308893 0.12445828 0.010576678
-0.07721893 0.23679492 0.06542329
0.15449224 -0.09199951 0.053814925
-0.17915191 0.046240047 0.075615525
0.20254919 0.23318516 0.029385772
0.050015993 -0.27623966 0.12259492
0.009706972 0.01565305 -0.056047935
-0.04540573 -0.22398369 0.180189
-0.005102127 -0.20609707 0.05747079
0.05943769 0.057437263 -0.06648986
0.01436966 0.065937884 -0.07338815
0.08709256 -0.1945224 -0.016008878
-0.16768782 0.21580651 -0.076605946
-0.06386622 -0.033310857 0.061035473
-0.17809193 0.09431514 0.06894232
-0.13084833 0.22614245 0.030481717
0.020436775 -0.24424365 -0.02986978
0.009916853 -0.18239439 -0.07419359
0.10961164 -0.28946608 0.045637995
-0.026331725 0.25902978 -0.107314035
-0.23075669 0.1253546 -0.073176175
-0.29449964 0.030454023 -0.121945426
-0.07677028 -0.14496261 -0.07197163
0.10119757 0.16519566 -0.046638653
-0.1717473 0.19611591 0.06964748
-0.28595492 -0.0048493803 -0.095996216
-0.07474348 -0.12025691 -0.07127846
0.05608152 -0.1641126 -0.053734604
-0.026253587 0.004938448 -0.03897556
-0.12814225 0.2677855 -0.15324381
0.2180426 0.12599634 0.07780309
-0.31260327 0.04294172 -0.16134812
-0.0528815 -0.10081483 -0.083405256
-0.10277531 0.010292762 -0.105853885
-0.0673603 -0.123773105 -0.05680271
0.18035112 0.1095651 0.05438698
-0.07579641 -0.07026934 -0.053078346
0.022936502 -0.2446069 0.087037265
-0.2817274 0.09600825 -0.06685393
0.03644124 0.15562795 -0.009664983
-0.06974109 -0.107725166 -0.040715788
0.06816649 0.18787831 0.03384794
0.26561868 0.09823895 0.037692416
0.13210852 -0.27798498 0.06322771
-0.13328578 -0.25284487 -0.13326108
0.3034009 0.15773346 0.03435628
-0.22529802 0.0798102 0.049681954
0.1242524 0.18824881 0.06809656
-0.08369633 -0.25639158 -0.014023432
-0.084451154 -0.2643043 0.03288457
-0.119908474 0.2854553 -0.1165022
-0.015106341 -0.2470526 0.050349467
-0.1419307 0.050225306 0.00853736
0.14195628 -0.33457416 0.020666337
-0.26229677 0.1876923 -0.10730859
-0.08034093 -0.1293952 -0.06642775
0.13320142 -0.21294798 -0.011868751
-0.1698621 0.28421167 0.05901964
-0.1356064 -0.0025597324 0.05666876
-0.08682467 -0.23864469 0.122893505
0.14948387 0.12903897 0.053729147
-0.13406174 0.08712051 -0.03365329
-0.19410409 0.19137862 0.05280008
-0.09430027 0.28073335 -0.19843554
-0.06513265 -0.24503534 0.0634011
0.08873828 -0.2914531 0.11885011
-0.00042656707 0.24038595 0.05669013
-0.04369041 -0.24614035 0.0829589
-0.039443582 -0.2142022 0.13184057
-0.09245977 0.21159989 0.047839377
-0.20915775 0.090346135 0.050896753
0.17519091 0.06435632 0.040860582
-0.09274706 -0.08285459 -0.06392801
-0.14295268 0.27831393 -0.106171966
0.12179392 -0.2609016 -0.01605953
-0.18924159 0.25918582 0.0655976
-0.147682 -0.21307158 -0.11687952
-0.17581458 -0.25117224 -0.10323183
-0.049046077 0.122354 -0.10879048
0.20474753 -0.33532605 -0.0863542
-0.16541648 -0.26523635 -0.13787892
-0.069620684 -0.13913694 -0.06562108
0.18037498 0.1739972 0.03651169
-0.046991672 0.00976996 0.081001766
0.07694279 0.19618838 0.08089235
0.13730465 -0.3113234 -0.18301769
-0.01800243 0.14160037 -0.067503184
0.23485741 -0.33985305 -0.14718454
0.10219037 -0.29078943 0.08685836
-0.17415163 0.18670957 -0.07823175
-0.21128032 -0.02000525 0.10128463
0.0052825874 0.0014249515 -0.03027287
0.021413064 0.22635004 -0.088265106
-0.20185886 -0.10592607 0.100054234
-0.13975702 -0.05610708 -0.061309986
0.031110136 0.13223483 -0.07663458
0.12284958 -0.08696043 -0.042935044
-0.15288259 0.03353716 0.07230556
-0.19643223 -0.069505684 -0.14666069
0.078666516 -0.30985096 -0.009558967
0.023754084 0.065170996 -0.03433396
0.011935687 -0.20926943 -0.05658261
0.012542208 -0.19492598 -0.034984976
0.15952367 -0.09831068 0.094083644
-0.122398816 -0.2166176 -0.029012749
-0.12008547 0.26197764 0.05193214
0.08372214 -0.19799127 -0.044478286
0.034559246 0.007856268 -0.042667788
-0.26944262 -0.05438186 0.07558979
-0.0914551 0.22892687 0.05376157
0.19059084 0.20542197 0.07235533
-0.0839229 -0.05332959 0.08002279
0.018528894 0.18688424 0.0685156
-0.119377516 -0.019256994 0.029968541
-0.036517236 0.16500393 -0.04427531
-0.22385049 0.030738456 -0.05287481
-0.23684719 -0.05851461 -0.101357624
-0.17851399 0.2620545 0.0448457
-0.04956625 0.12586741 -0.11486486
0.18208465 0.06880653 0.055818245
-0.20557809 -0.03014659 0.08421382
0.2504481 0.26556277 0.05013336
0.24979492 0.22354092 0.0447571
0.021050371 -0.030860513 -0.053938013
-0.18631378 0.13442387 0.077911526
-0.10206914 -0.23144129 -0.032426085
-0.10591695 -0.14040619 -0.07384328
0.15472858 -0.3277225 0.026786601
0.19784656 -0.2594969 -0.09876362
0.15859626 -0.10586387 0.100489065
-0.26425833 0.15766306 -0.09285576
-0.19449896 0.15043557 0.04277862
0.007044057 -0.24151826 -0.05949302
-0.24024065 -0.07039443 0.08628522
0.23368207 0.20926131 0.0696567
-0.06521525 0.15236595 -0.038361426
0.22209103 -0.31154388 -0.14587888
0.17464791 0.06716191 0.057577256
0.071669996 -0.24019544 0.08819117
-0.10012652 -0.021281604 0.07471699
-0.04697967 -0.07396905 0.08621618
-0.05311169 -0.23176631 0.1363544
0.132591 -0.15370594 -0.06384215
-0.19458516 -0.100709006 -0.0760976
-0.013027422 -0.24261194 0.08112188
0.0060599865 0.07711055 -0.06534402
-0.1179656 -0.14470169 -0.10114795
0.17672479 0.19435354 0.061675638
-0.05345829 0.22824842 -0.06890771
0.10526166 0.17047001 0.062107254
0.027218081 -0.15036502 -0.047174834
-0.051787894 0.1816654 0.05378956
-0.22503753 0.11823608 -0.062263742
-0.0066656163 0.20281291 -0.095091164
0.21590306 0.10967972 0.06733908
0.009719324 0.1796507 0.018636178
0.09148171 0.013345756 -0.025845585
-0.08459078 -0.17576922 -0.05138188
-0.23861729 -0.037442945 0.05871631
0.05302939 -0.2469179 0.144419
0.20449038 -0.020177653 0.08234565
0.06153486 0.15245554 0.052946255
0.040901445 -0.25872564 0.14690448
-0.08004046 0.0034416965 -0.046585992
0.11045382 -0.31617385 0.018913481
-0.19019344 0.069626585 0.047779843
0.2932153 0.08888394 0.011707296
0.15573813 0.12856911 0.06841183
-0.1455499 -0.22600615 -0.05204647
0.18716294 -0.31849578 -0.19466142
0.035254575 -0.15794072 -0.042474765
0.1350912 -0.024959076 0.058354396
-0.10414071 0.20455314 0.060446683
-0.22868553 -0.03051562 -0.06440276
-0.0021312546 -0.050079446 0.06742462
-0.17616507 0.17220664 0.059555564
0.120497614 -0.05968502 0.05731298
0.26206395 0.25914678 -0.002510259
-0.01805089 0.30074087 -0.09508166
-0.060021896 -0.17052458 -0.054762185
-0.07682106 -0.2232865 0.14859281
0.041982338 -0.029473737 0.067006566
0.018018557 -0.31252772 -0.060121913
-0.19092563 -0.036804594 0.08525609
0.0059553944 -0.27122888 0.17965811
-0.14907148 0.09792199 -0.031755492
-0.2357019 -0.032893088 0.097131394
0.1622239 0.017289935 -0.015104206
0.16427287 -0.21220641 -0.053417195
-0.30936033 0.06506849 -0.054113135
0.22812672 0.14970262 0.05041424
0.08131203 -0.081831224 -0.041645885
-0.15236767 0.32703212 0.025356736
-0.010227852 0.13315539 -0.05349588
0.14909118 0.085063785 -0.071641676
0.13787772 0.09270644 0.04303844
-0.21709976 0.07424268 0.058737703
0.303252 0.15085632 0.054444574
-0.04675634 -0.22412862 0.10814185
-0.16634159 0.009897628 0.098792516
-0.003914969 0.10110444 -0.06995102
0.10720894 -0.29567882 0.050024316
-0.25736678 0.08455473 -0.06105942
-0.12025512 0.2616136 0.047241107
-0.1669247 0.10860764 0.08206178
0.18200135 -0.21519834 -0.04820839
-0.045244914 -0.046834778 -0.0046918006
0.029476663 -0.23727593 -0.06564066
-0.07330926 0.25390586 0.04095329
-0.013500608 0.11078802 -0.039022073
-0.27861053 0.055026766 -0.088432476
0.20244975 -0.12646148 0.06761259
0.04432619 -0.14646314 -0.054105014
-0.17812261 0.2310826 0.07390168
0.17932005 -0.019358918 0.082248144
-0.075547256 -0.07507749 -0.07509054
0.03529671 -0.13275512 -0.063862845
-0.1273778 -0.12553525 -0.040078536
0.2738937 0.094717786 0.03394694
0.12342298 0.16075327 -0.03297707
-0.047184248 0.28000003 -0.1578367
0.012754022 0.21142097 -0.10740157
0.12923722 -0.13299216 0.102761395
-0.15701659 -0.002619267 0.08937648
0.18573473 -0.009591402 0.054360576
0.17210586 -0.3336009 -0.16647126
0.16933352 0.12688741 0.052729655
-0.090714455 0.19657238 0.05435687
-0.1859457 0.08651519 0.051824383
0.225395 -0.079001226 0.070322484
0.057504904 0.017119287 -0.036554873
0.12129468 0.13054504 -0.020622985
-0.009720466 0.23657572 -0.016113443
-0.05316987 -0.2403754 0.12557717
-0.16934921 -0.002066466 0.058191977
-0.15211779 0.26642847 0.04929416
-0.120835915 -0.21307917 -0.076883435
0.07562144 -0.05941462 0.07034276
0.29501078 0.10582128 0.058117133
-0.034457233 -0.097137734 -0.063666105
-0.106100515 -0.039680235 -0.079072885
0.22307482 0.0038288848 0.06955856
-0.15068904 0.2549907 -0.102875024
0.09123503 0.19318542 0.049545985
0.251611 0.22645165 0.05492063
0.12594943 -0.30453497 0.06671913
-0.058977056 0.18018956 -0.07231626
0.094435625 -0.07207976 -0.04930069
-0.06445414 -0.12625225 -0.076921135
0.086471714 -0.14760627 -0.05705222
-0.056333445 0.17712279 0.040003616
-0.18905215 0.04117104 0.07120998
0.14566979 -0.0362253 -0.099381514
0.026887527 0.06379248 -0.041065067
0.20992963 -0.024810338 0.05911227
0.15447359 -0.121902786 0.07087431
-0.01029128 0.089876935 -0.064431354
0.06743535 -0.020028792 -0.028665913
-0.10638648 -0.09187305 -0.058205448
-0.0358904 -0.24005409 0.0090124495
-0.1430668 0.29355055 0.07633183
0.20135458 0.20856498 0.057273526
0.025309702 0.20069794 0.04843536
0.08680791 -0.16952209 -0.052822728
0.014329286 0.15820709 0.070784666
0.27739596 0.16219059 0.05390946
-0.11686678 -0.028664304 0.09712815
0.14209755 -0.31003237 0.010246943
0.03703855 0.14719027 -0.06535243
0.19379024 -0.1022219 0.06482696
-0.19364576 0.07666737 0.061052293
0.20489478 -0.32700014 -0.09590474
-0.24282992 0.24736519 -0.18963838
-0.07206306 -0.20689386 0.03268568
-0.025077032 0.1454232 -0.07528532
-0.17465815 -0.0060565975 0.10229144
-0.0504856 -0.08678163 -0.047420103
0.111665405 -0.12037165 -0.033118475
0.262892 0.08635472 0.023444086
0.19210145 -0.10779792 0.08941596
-0.035226863 0.23177674 0.060538754
-0.16007486 0.29223302 -0.110033035
-0.052016996 0.29847416 -0.18940888
0.015140398 -0.23553358 0.13327935
0.20282513 0.057250988 0.03998468
0.03661697 -0.08433512 -0.08119716
0.16328567 -0.011884664 0.063864216
-0.0787054 -0.010029406 0.07585016
0.1955583 0.21647713 0.05270531
-0.17230709 0.17631868 -0.09288567
0.07227711 -0.30108413 0.1029279
0.011178395 0.117702 -0.065619394
0.29264772 0.11071356 0.03932394
-0.075961344 -0.082689404 -0.05592608
0.30790675 0.0818437 0.045048818
-0.20990922 0.040971044 0.06699161
0.22435802 -0.29508477 -0.10595825
-0.05687314 -0.051842116 0.059097033
0.057897188 0.056660302 -0.03765497
-0.20971759 0.10111773 -0.077615075
-0.19064368 -0.009357608 0.06166894
0.051916625 -0.19274104 -0.024060128
0.16325578 -0.10885782 0.06813573
-0.16159411 -0.13715567 -0.10478697
-0.21934853 -0.063541956 -0.056255363
0.05076826 0.09921808 -0.04644852
-0.03416553 -0.28524965 0.025347404
-0.19943711 0.17130904 -0.08702578
-0.05459709 0.18150464 0.06642377
-0.05727171 -0.013521486 -0.025856568
0.086411454 -0.1683408 -0.052323993
-0.08227159 0.15327644 -0.049584877
0.15255156 -0.23154385 -0.027771365
-0.14085929 0.22809017 0.047735434
0.08630907 0.014813018 -0.017167224
-0.051728778 -0.2646317 0.08823242
-0.057759155 -0.043250266 -0.0007506491
0.015719743 -0.2279956 0.004793545
0.1326654 0.20632531 0.039280772
0.09865578 0.03488705 -0.04422464
0.11709144 0.21347983 0.056764673
-0.0058007045 0.05737811 -0.07027337
0.02938346 0.029481726 -0.07525475
-0.069740176 -0.27844855 0.11571985
0.016317384 -0.28763053 0.10635573
0.20169492 -0.3107328 -0.08434841
0.21935935 0.08866931 0.048317987
0.077730566 0.038446654 -0.006205402
-0.21840245 -0.067559555 0.0746164
-0.24289902 0.05795184 -0.07169979
-0.01258028 0.06744076 -0.068206266
-0.07557004 0.2056146 0.07568461
0.12265208 -0.12728228 0.07053318
0.052908666 0.2359731 -0.08567216
0.012425479 -0.22510678 0.043845776
0.008157243 0.13234891 -0.06996216
-0.29721153 0.15733384 -0.15821774
0.07359234 -0.09430111 -0.028966464
0.21366833 -0.33832023 -0.08054911
-0.19009876 -0.09697656 -0.070471935
0.2951365 0.15850419 -0.023729425
0.20308165 -0.03603833 0.060334004
-0.08107741 -0.2458144 -0.044668484
0.2414765 0.23674761 0.025923863
0.2132597 0.16693741 0.046203323
-0.07076766 -0.23593049 0.05416294
0.16977333 0.028509881 -0.0003132653
-0.12268119 0.2475689 -0.08750802
-0.20216584 0.16097762 0.08158657
-0.16648732 -0.10287258 -0.07808536
0.23771484 0.19359224 0.025742972
0.25224522 0.167955 0.03577676
0.11854265 -0.058928773 0.08826759
0.2493378 0.20927826 0.05515193
0.03610296 0.033484243 -0.028277684
0.18005991 -0.06634896 0.08772624
0.19649002 -0.1998107 -0.064466804
0.08155802 0.09569914 -0.06735564
-0.10309739 0.22212544 0.04331555
-0.17884718 0.012207947 0.06955047
-0.020908106 0.1958587 0.051306047
-0.17693354 0.28900412 0.023881638
0.08998525 0.19690178 -0.08449052
-0.039487466 0.25890082 -0.0870768
-0.19671842 0.067386165 0.09429717
0.081583 -0.06534291 0.081236206
-0.061112486 -0.11507813 -0.07583618
-0.057342645 -0.24296196 0.14750475
0.20449631 -0.37850276 -0.09356746
-0.123523355 -0.22608379 -0.031458948
0.13495633 0.14041036 -0.061273113
0.1696638 0.26911002 0.053936694
0.035714936 -0.2960094 0.07322445
-0.16587068 0.14014041 0.04451574
0.106638305 0.2228707 0.059605908
-0.14958726 0.21433501 0.07421863
0.13783741 -0.13447613 0.05043355
0.015403824 0.20321846 -0.023876708
-0.2700138 0.16084883 -0.10405214
-0.08815594 0.1986968 0.0010579488
-0.18606701 -0.121834435 -0.051081643
-0.053435978 -0.3045487 -0.04014073
0.18696824 -0.3611622 -0.043494985
0.15552527 -0.09599767 0.06654121
-0.0109976735 0.22223242 0.035437338
-0.04892127 0.303789 -0.12180074
0.17611638 0.13001114 0.045856092
-0.11240376 0.25974292 0.045904893
-0.25063992 0.029103788 -0.06499478
-0.18331069 0.023127785 0.066509254
-0.20043841 0.082189605 0.06367774
0.22259772 0.08223856 0.08438858
0.09745359 -0.046212528 0.05465809
-0.21979225 -0.002671105 0.07389207
0.13176239 -0.075351916 0.10092043
0.012397925 0.047707044 -0.06898701
0.13488728 -0.12084403 -0.051317587
0.11089732 -0.1490112 -0.043290224
0.03907523 0.021848949 -0.072155826
-0.23612899 -0.010586276 0.08204599
0.20019656 -0.3770485 -0.09207926
0.0024792184 -0.08975925 -0.083470196
-0.18531679 0.30690336 0.04156597
-0.18375753 -0.020457363 0.062824875
-0.20805764 0.07409867 0.07207195
-0.15472712 0.08979382 0.044905104
0.015043246 -0.21298814 0.08304818
0.13951069 -0.09724194 0.10179344
0.005772981 0.06430579 -0.07214261
0.2112261 0.075259484 0.06706528
0.13116615 -0.081897534 0.06104001
0.08884635 -0.28264627 0.052118447
0.058160804 -0.0036369986 -0.027612897
-0.031843152 0.24331674 -0.06580145
0.0027058432 0.02447891 -0.034622002
-0.2682638 -0.018582914 0.07326934
0.041182637 -0.05012601 0.007146123
0.2520576 0.21624269 0.035490546
-0.14858443 0.012593471 0.07342647
0.19531094 -0.017921524 0.05714063
-0.16694188 0.07425803 -0.13697354
0.22587262 -0.08071179 0.061767884
0.065388925 0.20159037 0.047922384
0.019880243 0.032435507 -0.037622757
-0.15511604 0.13570236 -0.12156473
-0.12569825 0.27679434 -0.097238734
-0.09873102 0.16147281 -0.097350664
-0.12879609 -0.08855422 -0.07840437
-0.049435683 0.16031256 0.07391973
0.2769746 0.1237414 0.077169865
0.13144794 -0.26906654 -0.050577153
-0.2264299 -0.022710651 0.08388614
0.08013259 -0.09129585 -0.0041416516
-0.1448045 0.13024479 -0.062147733
0.28018573 0.22892465 0.04121327
0.09028809 -0.23097786 0.07202549
0.13632742 -0.039467752 0.07049196
0.08364456 -0.20519044 -0.03807129
-0.20089424 0.1401286 0.045215815
0.09667856 0.05026766 -0.07739711
0.16601841 -0.3320172 0.0055142264
-0.09399004 -0.21424688 -0.046253998
0.25424644 0.20556708 0.03855274
-0.160357 0.1134513 0.08195436
-0.058623776 -0.04457483 0.057273638
-0.2949548 0.05780963 -0.07175114
-0.17694192 0.19716616 0.08008781
-0.24462615 0.13359244 -0.0808354
-0.017750317 0.21555746 -0.093354195
0.022949908 0.059382394 -0.046556138
-0.18413147 0.0673988 -0.04145185
0.026229933 -0.13037312 -0.043204945
-0.0517562 0.0007714514 -0.046932362
0.055224136 0.26619005 -0.09815544
-0.0545396 0.15663847 -0.0524199
-0.24887654 0.08386131 0.057110716
0.18375592 0.08802917 0.0609758
-0.13892612 -0.060188074 0.08962811
0.03916355 -0.19695215 -0.058152996
-0.24076717 0.05392181 0.058990255
0.05491484 -0.022380434 0.08627988
-0.018399263 -0.24471705 0.17841946
0.19736989 -0.3352152 -0.0023031642
-0.033881925 0.052310452 -0.07154744
0.13558972 0.012986302 0.065144725
0.21388632 0.20209885 0.06895479
0.012100954 -0.27883157 0.14930187
0.182871 0.22263107 0.05690193
-0.08652187 -0.09019395 -0.040806938
-0.13082449 0.28142422 -0.11925217
0.16333365 -0.33822873 -0.1787254
-0.09819843 -0.05670139 -0.07838023
0.06122389 -0.14791137 -0.073191725
-0.063621335 0.2858038 -0.12301692
-0.20954299 0.051588852 0.079788156
0.10160132 -0.24284396 0.012142041
0.20748587 0.20978996 0.038207386
0.078854464 0.04356981 -0.031613097
0.18667822 -0.13099894 0.085961975
0.03716639 -0.27222255 -0.021383718
0.15259443 -0.23947491 -0.037534136
0.18297227 0.22802196 0.052783802
-0.18330085 0.23381647 0.045683812
-0.15599433 0.08514921 0.05023843
-0.01637592 -0.17865206 -0.051064942
0.14536966 0.081883825 0.039447192
0.0855443 0.0749079 0.001959895
0.12395311 -0.33367497 -0.13840154
-0.1378286 0.040105537 0.068445005
0.21287674 -0.1044644 0.07371672
-0.06048695 -0.2098783 0.099920735
0.18511511 -0.34874132 -0.014220347
0.076112494 -0.2362069 0.10171466
-0.03165517 -0.29456225 -0.12569556
-0.12969752 -0.24565871 -0.13375334
0.1567805 0.048899792 -0.07060805
-0.16980612 0.27339888 0.030044794
-0.13214415 0.1308114 -0.048319444
0.107331805 0.19430178 0.046925645
0.08697209 -0.3340803 -0.18741864
-0.10213856 -0.24368827 -0.0031631652
0.08525749 -0.20326789 -0.04820534
0.09043894 -0.07756297 0.023279138
-0.03906373 -0.028438635 0.03918955
-0.1477744 -0.008352519 -0.044477794
-0.063827164 -0.23461732 -0.05840758
-0.15477403 -0.10252354 -0.046745393
0.14635688 0.15945266 0.06046521
-0.16245675 0.18857557 0.05696961
-0.25979835 0.08170402 -0.059100274
-0.015610629 -0.20305641 0.17919926
0.0071793 -0.021973457 -0.047250807
0.12370469 0.13040072 -0.013681116
-0.028788367 0.127722 -0.09964634
0.017698279 -0.06493076 0.0947624
-0.14802794 0.055139493 0.025994133
-0.15931827 0.27593014 0.016317386
0.2118632 0.20423193 0.065032415
-0.18277535 0.20911494 -0.06683574
0.2711463 0.09511004 -0.01279427
0.06553342 -0.03591873 -0.044543568
-0.07894083 0.23550315 0.06530627
-0.043943286 -0.2043418 0.08169211
0.18181811 -0.20354082 -0.054820824
0.0012293941 -0.07435434 0.09711149
-0.070971996 0.20727861 0.011258238
-0.23589979 0.21599011 -0.10243314
-0.17878747 0.038694415 0.060275573
0.061147492 0.15478842 -0.008670693
0.2106835 -0.028468324 0.081677176
-0.0190549 -0.23819122 -0.014632508
-0.0017347196 -0.22363369 0.18678857
0.06855849 -0.32792798 -0.011628227
0.01675595 -0.31593478 -0.01277655
-0.20061705 0.252051 0.06726741
0.20224884 0.2254708 0.05382334
-0.14068939 0.14721678 0.084942706
-0.04284778 -0.21564023 0.094091415
0.06952935 0.067251645 -0.05604344
0.0120783225 0.061323218 -0.052839525
-0.004230409 -0.17421415 -0.05099669
-0.007883483 0.010243084 -0.050609175
-0.2770483 -0.013893525 -0.04966553
-0.028647814 -0.03621163 -0.05207605
-0.060319364 0.2074363 -0.08456172
-0.142233 -0.037872 0.07286788
-0.08369335 -0.050613083 0.081737645
-0.11740897 -0.25839245 -0.008593021
0.1994087 0.08078386 0.053804044
-0.15555923 0.29187545 0.06215845
0.11711101 -0.10159275 0.063315354
-0.1264121 0.17297049 -0.019266529
-0.15852398 0.014489941 0.059838936
-0.19014978 -0.031097913 -0.08749118
-0.040170252 0.22925447 0.032410093
-0.012014995 0.22833014 -0.068606645
0.006124765 0.10459234 -0.057639737
0.24818136 0.21011874 0.037003383
0.118831284 -0.105638966 0.08655421
0.12538412 0.020657122 -0.03399429
-0.015628465 0.2573844 -0.113276415
-0.082688786 -0.16070363 -0.048445787
-0.012177765 -0.21094985 0.04795166
0.0959112 -0.02782335 0.07356941
0.15771295 -0.09547643 -0.049875297
-0.23240095 -0.04678378 -0.07781879
0.12061839 -0.29770935 0.017639007
0.17739008 -0.1908228 -0.044820223
-0.052919537 -0.020936953 -0.037895177
0.01695821 -0.21043822 -0.04856728
-0.14568439 -0.27293798 -0.13201009
-0.11122406 -0.23064116 -0.06454824
-0.128753 0.020766377 0.04226372
-0.21168716 0.046674673 0.06942516
0.23141348 0.25262502 0.024488118
-0.23352431 -0.06595509 0.0885968
0.18608788 0.09074925 0.05156437
-0.30554134 0.1673495 -0.16940938
-0.117651865 0.2851822 0.030281365
0.040198874 -0.034294173 -0.022523202
-0.052410692 -0.27617028 0.17981867
-0.16248727 -0.05153531 -0.050997235
-0.16038378 0.2879062 -0.1655468
-0.08660062 -0.018607492 0.09317575
0.019580325 -0.2966655 -0.18571429
-0.21215737 -0.061946206 0.07548532
0.12140844 0.19642857 -0.02276857
0.0065642972 0.00082692556 0.066360235
0.20006049 0.1763245 0.03327037
0.23224333 -0.08321813 0.029083828
0.14331694 0.111224696 0.06974776
0.053035147 0.25392142 -0.08059837
0.011771771 0.10950233 -0.042906515
0.11351422 0.106684305 -0.054963205
0.14393316 -0.12312454 0.041205864
-0.08301936 0.0080023045 -0.016279044
-0.037538934 0.22877464 -0.06908397
-0.11314874 0.14998205 -0.11029539
-0.12711866 -0.055596508 0.009685748
0.25827035 0.114111185 0.068731874
0.1600365 0.06672706 0.043076634
-0.13308528 0.25375843 0.03293724
-0.1177006 -0.06398658 0.045692146
-0.22397663 -0.0031994232 0.07128448
-0.2157028 0.09347094 0.08789694
0.085139245 -0.06564836 0.07926541
0.21771082 0.034881014 0.07090835
0.13733885 -0.14370976 -0.049177747
0.16340116 0.14151198 0.029772222
0.031617038 0.18962772 -0.08800348
-0.14898805 -0.21423024 -0.091452084
-0.23132986 -0.06520292 -0.13940711
-0.15218797 -0.0983107 -0.054805394
-0.06716176 0.00015596511 0.012065011
-0.14153616 0.16351756 -0.03723188
0.18346368 -0.29069677 -0.08379801
0.22051369 -0.047793295 0.05632996
0.19406074 0.0035682076 0.057587463
-0.21117659 -0.10472294 0.081784256
-0.06757814 -0.25281855 0.003024509
-0.028175974 -0.23553063 0.19471818
-0.17310418 0.10493265 0.041875396
0.087345816 -0.24201156 0.1125494
-0.093250565 0.008931119 -0.0654266
0.10101906 -0.3057747 0.06466408
-0.27737427 0.04222576 -0.066527456
0.1559912 -0.0132606635 -0.021682283
0.28155392 0.13487163 -0.0007560287
0.13494444 -0.150199 -0.018406875
-0.22284707 0.2120528 -0.14170825
-0.2241383 0.11002445 0.08190134
0.22792609 -0.12609018 0.09420604
0.22203416 -0.35653102 -0.1717858
-0.020726476 -0.24658976 0.16991478
-0.118534476 -0.03632334 0.014675568
-0.10238323 0.24029252 0.04894431
-0.02291284 0.014095997 -0.090700716
0.05600629 0.031414554 -0.014871033
-0.09402091 -0.12706298 -0.05200239
-0.15199637 0.034949496 -0.005286132
-0.039570935 -0.28746992 -0.08971716
-0.08209919 0.18885668 0.046303086
-0.018293113 0.0025465519 -0.039741304
0.23517647 -0.3157899 -0.12533002
0.064994685 -0.32409364 -0.016737431
-0.14411671 0.120544165 -0.027149249
0.07830763 0.21599151 -0.13368498
0.117751546 -0.22827505 -0.0087034665
0.028226662 -0.29503033 0.14849539
0.17404278 -0.1393553 -0.072434165
-0.17566988 0.29427856 0.063667834
0.21104434 0.1531539 0.04682678
-0.113737084 -0.04832517 0.076597415
-0.2978534 0.105458565 -0.14816841
0.04500169 -0.21869864 -0.047237363
-0.0032330947 -0.13682118 -0.052308995
0.23286124 -0.34275368 -0.076114915
0.168122 0.0298232 0.074862674
-0.20668577 0.16754554 0.0800411
-0.18066281 0.26295337 0.06639357
-0.079834215 -0.1577044 -0.05968222
0.1714708 -0.3477687 -0.04027124
-0.18331504 0.2591674 0.031437106
0.30357942 0.1695129 -0.027377944
-0.018905398 -0.2642971 0.1952526
0.17776553 -0.1270631 0.09029842
0.011382529 0.17465585 0.072314
0.082536206 0.029267967 -0.027410757
-0.046006728 -0.04349167 -0.010425862
-0.07403378 -0.13071921 -0.06551549
-0.0765763 -0.29341748 -0.033666022
-0.20075369 -0.113004886 0.09315522
-0.10580867 -0.1262151 -0.065179236
0.21176697 0.15473083 0.0666528
0.15294662 0.18696873 0.07506288
0.2118372 -0.16187882 0.051547017
-0.15583833 0.067585506 -0.11041245
0.18273515 0.15428121 0.03607269
0.016544137 -0.3036792 -0.15485364
0.23064743 0.08146514 0.05357495
-0.023123175 0.08441333 -0.1467949
0.12836899 -0.20217662 -0.036053523
0.0053058146 0.081625834 -0.038432043
-0.2525387 0.03769038 -0.075726196
0.11059027 -0.32530674 0.015829401
0.1394635 -0.07995317 -0.057648323
0.11067802 -0.050385784 -0.030481666
0.10178503 -0.057863828 -0.05827914
-0.022573678 0.0066353227 -0.049889296
-0.27592307 0.14987051 -0.09692539
-0.18133475 0.11371113 -0.027521808
0.14437555 -0.32649553 -0.1428077
-0.13391095 0.19487138 0.034768388
-0.15957822 0.2207971 0.074017264
0.0053757406 -0.021746395 -0.033133425
-0.025280325 0.2597237 -0.088371694
0.017491028 -0.17142162 -0.062033493
0.19043677 -0.19283196 -0.09981668
-0.032676682 -0.20458567 -0.07169252
0.10186891 -0.05446314 0.08685454
0.09733024 -0.08124267 -0.03968956
0.29994974 0.15222529 0.038176112
-0.13306123 -0.012127294 0.065703504
0.05106194 -0.064965524 -0.0514155
0.047380563 -0.22253819 -0.0533406
-0.12122694 -0.12581453 -0.047874287
0.16763376 0.07829803 0.03952769
0.033198465 0.11249897 -0.047215644
0.074216194 0.17329359 0.07883868
0.13986553 -0.2907949 0.029171515
-0.076158054 0.20596734 0.042073105
0.0033151628 0.11596477 -0.080862194
0.14860539 -0.028280754 0.06797469
0.026721591 -0.077387676 -0.015936173
0.04556674 0.13166627 -0.037905756
-0.30729318 0.12252014 -0.14538637
-0.19241855 -0.0774735 -0.08859169
0.13082778 0.1353131 -0.04527288
-0.008066415 0.06005637 -0.06390498
-0.07160293 -0.052451715 -0.072378956
0.15307984 0.10709602 -0.014234125
0.034819845 0.072767764 -0.04801102
-0.07784867 -0.2409961 -0.0323026
-0.016394394 0.1193435 -0.03913229
-0.10147681 0.2907804 -0.11592746
0.09619574 -0.10293578 -0.0668588
-0.2729798 0.11078571 -0.077016726
-0.17801215 0.25550535 -0.14997739
-0.23338847 0.031134034 0.07584232
-0.039919175 -0.27269423 -0.02456867
0.2359859 0.24600284 0.025970638
0.030272594 -0.23098785 0.11887758
-0.16962273 0.007600699 0.09581955
-0.077830575 0.18025918 -0.06810374
0.059249066 0.14117853 -0.07944623
0.20333906 0.11978097 0.053598505
-0.07421505 0.21238704 0.04226729
0.16791849 -0.28028893 0.012512986
0.17267439 0.08162723 0.046354894
-0.1500407 0.18031129 0.056249887
-0.20288874 0.08921672 0.05172723
0.010613948 0.17611422 -0.07532645
0.07305724 -0.022606136 0.029541267
0.094045 -0.041805718 0.09862291
0.18985923 0.05943087 0.08471745
0.17321618 -0.06683415 0.094604895
-0.02250218 -0.031931143 -0.0056991987
-0.21697716 -0.040494625 0.08244302
-0.20707439 0.0631658 0.071010694
0.079446696 0.20188968 -0.09748112
-0.18431792 0.24716428 -0.0840461
-0.12976785 -0.022860514 0.09941223
-0.084780954 -0.03039845 -0.04462569
0.17568865 -0.25577742 -0.07323536
-0.21648924 0.07891641 0.0668373
0.27504432 0.12349028 0.042175915
0.16476229 -0.16174063 0.079514146
-0.14043479 0.16042314 0.02908486
0.13137151 -0.06393606 0.050263535
-0.107839264 0.292401 0.008876376
0.21299466 0.03489454 0.05021051
-0.22124979 0.09081015 -0.09278124
0.0066877618 0.10749426 -0.061194368
-0.15065965 0.049648307 0.056697346
-0.0101037435 -0.23489648 0.087977484
0.17563477 0.17269902 0.029749207
0.18862943 0.13605373 0.071110465
0.18117015 0.04476852 0.07638388
0.18183401 -0.10773363 0.09645207
-0.14408286 0.05093645 -0.142179
0.13678223 -0.083311826 0.08727076
0.015131466 -0.197986 -0.054735184
0.096825406 -0.28157175 0.06424479
-0.034025375 0.11005006 -0.068259716
-0.25966117 0.087586485 -0.055715214
-0.22267497 0.095666885 -0.044915073
0.032716837 0.2860043 -0.14957513
-0.05014492 -0.15222418 -0.06316596
0.20322184 0.18768677 0.034563165
-0.14080076 -0.24804285 -0.07308031
-0.26505238 -0.0033971898 0.048201207
0.13227755 -0.12283204 0.058134243
0.011636081 -0.08221486 0.0034511439
-0.008784402 -0.21581757 0.10168268
0.14921747 -0.014216864 0.09173583
0.090067536 0.13307396 -0.06417902
-0.10183255 0.15170091 -0.08461262
-0.07259932 -0.13351174 -0.054872114
0.11398616 -0.048456647 0.09723853
0.25184494 -0.31615743 -0.1583599
-0.23193853 0.021877244 -0.04373444
0.22517209 -0.36814204 -0.1520026
0.06343823 -0.111262985 -0.06395546
-0.16442102 0.20429356 0.06985732
-0.047592092 -0.20160383 0.06289214
-0.043581065 0.17843609 0.050697565
0.004923259 0.16600972 -0.022636682
-0.043891188 0.21581675 0.034414977
-0.075760104 -0.1837479 -0.032196224
0.1482844 0.03398743 0.016838837
0.23695335 -0.2977253 -0.11966758
0.244959 0.09478869 0.031820126
-0.1797424 0.13310902 0.09148217
-0.09368111 0.24080506 0.051332057
0.18178359 -0.15231496 -0.06582304
-0.10071181 0.19765191 0.071081206
0.18712956 0.08145733 0.062453207
0.1576734 0.11409933 0.042763434
-0.014240539 -0.039890144 0.022845935
-0.19627653 -0.10531584 -0.06990038
0.030106163 0.07861168 -0.056934256
-0.011362351 -0.050329924 0.08824879
-0.24077305 0.09766077 0.03761738
0.17281829 0.082555205 0.06863948
0.25487086 0.25552192 0.030147018
0.29681474 0.10069007 -0.0177129
0.1346378 -0.10658318 -0.07166104
-0.22123031 0.11248347 0.06764717
-0.10394331 -0.1953204 0.015836107
-0.1394131 0.09973273 -0.06186445
0.0036426967 -0.11235233 -0.039500177
0.11556341 0.008795297 -0.036453106
-0.07341455 0.21086794 0.0702936
-0.029940521 0.12847964 -0.14675894
-0.043086994 -0.06728745 -0.004149263
-0.11565787 -0.0062107765 -0.05742127
0.1064781 0.009682298 -0.03784394
-0.07576144 -0.0017311265 -0.05401405
0.12458898 0.023033448 -0.028050346
0.10833607 0.19524609 -0.108778134
-0.1562006 0.3050541 0.009727931
-0.035662834 -0.21034712 0.11751006
0.21632598 0.06752369 0.032889877
-0.2957618 0.057777733 -0.07257945
-0.07152725 -0.17575638 -0.052633055
-0.09552805 -0.20150512 0.019809727
-0.027150938 -0.009474239 0.07015531
0.060346887 -0.2683893 0.16596065
-0.074706 -0.13204122 -0.06924375
-0.16853218 -0.27514535 -0.14907849
-0.054740567 0.013347575 -0.106025666
0.08020153 0.17968461 0.06923353
-0.13433856 0.1677764 0.05215991
-0.24262066 -0.048287366 0.081717595
0.097896025 0.06625064 -0.06831446
0.15319873 -0.15339679 0.08955207
-0.10395479 -0.015198313 0.07031675
-0.21105473 -0.0971706 -0.057737578
-0.22979733 -0.07297942 0.08608433
0.18145122 0.11233223 0.053139247
0.21819812 0.25952807 0.04111008
0.050365474 -0.023006154 -0.037786487
-0.120574765 0.21660826 0.05513825
-0.1306353 0.25485122 0.058774546
-0.18154752 0.026812494 -0.044639196
0.087540284 0.19432066 -0.031215955
0.21467069 -0.08484251 0.057013005
0.09012499 0.20397232 -0.19525787
0.004943285 -0.17117697 -0.073445626
-0.17632298 0.14011171 0.06707528
-0.2273162 0.24916716 -0.0836778
-0.08863684 0.013843191 0.08015372
0.24692832 0.21783501 0.07048766
-0.13908033 -0.22709976 -0.11411853
0.26618502 0.18295725 0.035839994
-0.081485175 -0.18848713 -0.027423091
-0.11126999 -0.24879594 -0.11536422
0.06717116 0.13163105 -0.046990607
-0.025367724 0.20592754 0.061630156
0.22802666 -0.094288334 0.086788066
-0.15394327 -0.11437934 -0.13124526
0.14851403 -0.022439038 0.054355323
0.22379959 0.25822696 0.041369915
-0.07849092 -0.09103083 -0.0647553
0.22472838 -0.1471283 0.1024359
-0.13194847 0.29622927 0.07204642
0.22715747 0.18738611 0.07212138
-0.11322875 -0.29011977 -0.14728479
-0.15219973 -0.011128173 0.06000828
0.1892859 -0.076472014 -0.13225634
0.1305455 -0.007419022 0.067147285
-0.123347476 -0.010049941 0.04543111
-0.21848404 -0.023537239 0.063850045
-0.051031608 -0.30798078 -0.09289539
