# .PCD v0.7 - Point Cloud Data file format
VERSION 0.7
FIELDS x y z
SIZE 4 4 4
TYPE F F F
COUNT 1 1 1
WIDTH 1000
HEIGHT 1
VIEWPOINT 0 0 0 1 0 0 0
POINTS 1000
DATA ascii
-0.114094555 0.001210965 -0.10001043
-0.13147345 -0.07987595 0.0067615393
0.05265404 -0.03647353 0.18080947
-0.19137809 0.04127907 -0.14505716
0.011285505 0.10365483 -0.12843549
0.047861237 0.17644353 -0.2819163
-0.19703636 -0.23667014 0.2709381
-0.06473884 0.014854446 -0.11751721
0.061744 0.14887929 -0.28327245
0.0022315467 -0.17498566 0.24596667
-0.08679355 0.04800537 -0.17284752
0.1776151 0.15316087 -0.082624875
-0.014380932 0.11043033 -0.12312563
-0.2013863 0.03460547 -0.12793402
-0.122633934 -0.06221493 0.00871281
-0.19018513 -0.08396747 0.19705306
0.020980079 -0.07035691 -0.037096314
0.25335547 0.09701833 -0.1799251
-0.07317194 -0.17108724 0.28614652
0.16728307 -0.09509638 0.020710653
0.10062937 0.0031650902 0.15491687
-0.07488122 -0.19301888 0.16326675
0.17307158 0.18624383 -0.22711135
0.024028596 0.20701951 -0.14885193
0.10721914 0.047644887 0.12897304
-0.10723907 0.022539938 0.13387361
0.07944756 0.11752422 -0.2710843
-0.1010463 -0.054226343 -0.027887609
-0.032530136 0.107997626 -0.2613798
-0.028962212 0.16381462 -0.27725375
-0.19430564 -0.22473072 0.27884656
0.19093277 0.117723875 -0.23871742
0.22017956 0.18804634 -0.15718533
-0.18685578 -0.08818798 0.04970619
-0.17150514 0.18108365 -0.14889891
-0.19021909 -0.091340035 0.19958186
-0.114759676 0.19606371 -0.07714419
0.119899146 0.22728129 -0.21950124
-0.21970363 0.026422596 0.03467372
-0.12426089 -0.25064787 0.1951763
0.2754759 -0.020019265 -0.036174454
-0.15373021 -0.11292179 0.05507031
-0.05796856 0.012404062 -0.13788588
0.027183969 -0.090357065 0.16765486
-0.06481269 0.059728917 -0.10453656
0.023397261 0.19077125 -0.27534992
-0.089529745 0.100435615 -0.24388222
0.040955395 0.062360108 -0.16680455
0.2714103 0.109246954 -0.13744448
-0.18005785 -0.11470808 0.26622987
0.2856671 0.041152652 -0.10335856
-0.14081779 -0.094853364 0.028388545
0.20103298 -0.07502981 0.10077842
0.2472146 -0.037820693 -0.051355667
0.18632185 0.13553956 -0.22280109
-0.14456159 -0.1032807 0.3553252
-0.21881244 0.10286192 -0.026061203
-0.14653811 0.0731811 -0.20179789
0.2535126 0.15878305 -0.10968779
0.048442814 -0.02187244 -0.004288893
0.15808576 0.008789457 -0.09856545
-0.12711641 -0.2804959 0.19508843
-0.18130192 -0.29971215 0.2110847
-0.029730193 0.09722396 -0.11214915
0.17331538 0.16974153 -0.23823723
-0.06794326 -0.2685693 0.22516522
0.18413582 0.05425066 -0.1929529
-0.17760858 -0.039476074 0.1895065
-0.11667852 -0.068308234 0.32457224
0.10246555 0.21731843 -0.1496765
0.040158816 0.23751014 -0.14610596
-0.21208404 0.007288946 0.0718683
0.13077325 -0.086439155 0.009302183
-0.22670272 0.09737208 -0.07608368
-0.037239738 0.22981042 -0.16387281
-0.18778734 -0.23403272 0.27112305
0.085539535 -0.017792147 -0.20174436
-0.037792154 -0.20341462 0.14942387
-0.13831174 -0.23563 0.18728307
0.21889855 -0.04398428 -0.05360699
0.2392192 0.17351432 -0.12878327
-0.14982915 0.14599615 -0.009051436
-0.055433445 -0.18081252 0.13220246
0.27620843 0.044936135 -0.12623152
0.16179338 -0.058079395 -0.029935937
-0.025851326 -0.058931798 0.2665295
-0.18315001 -0.122597784 0.24308115
0.19005229 0.006994492 0.12589617
-0.18623748 0.06624304 -0.16850027
0.11459768 0.038376156 -0.076252684
0.009638585 0.07108481 -0.13868818
-0.03601915 -0.087900445 0.17187665
-0.101548724 0.049238615 -0.17835625
0.22509392 0.18244454 -0.16227865
-0.02752355 -0.092216834 0.15748243
-0.19612974 -0.06641083 0.16530064
0.04105157 0.23750387 -0.23167974
0.035270333 0.2338042 -0.23834482
0.14075941 -0.085584 0.035216607
-0.056213148 -0.083432436 -0.12710269
-0.0773607 0.22037616 -0.14935829
-0.112817906 -0.07484477 0.36960053
0.18793684 0.11720215 0.017614372
0.04305989 -0.07902693 -0.024111766
-0.20963632 -0.033707913 -0.009698682
-0.14430054 -0.04784751 0.24635835
-0.025507117 -0.087519065 -0.049107965
-0.16303954 0.12659599 -0.013235082
-0.1476392 -0.21983986 0.20506991
0.029130846 0.09764649 -0.25087222
0.19836439 0.16122197 -0.05838647
0.25477198 0.061587602 -0.16540669
-0.15808065 -0.2806833 0.23292646
-0.14386438 -0.14105177 0.094426416
-0.11780348 -0.17177528 0.28829166
-0.15670557 -0.19614768 0.16595396
0.013655584 0.11591824 -0.27159554
-0.13432752 0.19873688 -0.124729834
0.28618455 0.024892678 -0.0011386303
0.25464493 -0.014527849 -0.08385715
0.17663749 0.13506523 -0.24744612
-0.029376898 -0.22853392 0.24637035
-0.18287714 -0.1591904 0.32290387
-0.15744202 -0.15985984 0.31783676
0.07819895 0.22195227 -0.119131625
-0.15539 0.14411613 -0.21153785
-0.10838374 0.01165854 -0.11014239
-0.099071 -0.06113831 0.30434734
-0.122646034 -0.09398615 0.35790613
0.046195637 -0.09504021 -0.05564235
0.27854353 0.08962289 -0.01382402
0.19307858 0.19176163 -0.116329975
0.28033876 0.11627861 -0.09901728
-0.04911921 0.101519 -0.22696704
-0.01853312 0.007597144 0.020074842
0.12614346 -0.0047246395 0.155571
0.23512697 0.17690504 -0.12926956
-0.1605224 -0.05937574 0.24762118
0.17821878 -0.028127052 -0.07137727
0.050441165 -0.020073017 -0.22033945
-0.024301011 0.23886794 -0.20015565
-0.104883514 0.17075488 -0.2429916
0.17423217 0.16787618 -0.05239096
0.21936068 -0.07752135 0.008554594
0.20670074 0.07342376 -0.20777506
-0.13850556 0.17413935 -0.08175253
0.16514686 0.17346299 -0.0707724
0.16533886 0.21615912 -0.16806032
0.18316847 -0.009867027 -0.09845669
-0.034009 0.015944682 -0.1710037
0.1566211 0.03513592 0.109017156
-0.0987624 -0.05429402 -0.0032171428
0.1675552 -0.08271605 0.0030281274
-0.0893382 -0.12684478 0.07272219
-0.06412419 -0.27544698 0.219635
-0.06884588 -0.26059312 0.1958313
-0.17732547 -0.18197618 0.25477937
-0.17436287 0.179236 -0.13128254
-0.0085602375 -0.20950678 0.22362348
-0.1758789 0.04896171 -0.16406298
-0.22909686 0.027608393 -0.031988643
-0.18074517 0.08285644 -0.183688
0.1361588 0.03972152 -0.107692875
0.15055375 0.16292098 -0.25686795
0.09153416 0.22417344 -0.122650206
0.00028435324 -0.096405946 0.33399168
-0.020403525 -0.09076912 0.29073918
0.11322434 -0.0981471 -0.09493139
-0.081036 0.031924512 -0.1006984
-0.19759655 0.0018325961 0.11485981
-0.100387424 -0.2926654 0.2140707
0.006014817 0.21718693 -0.2320358
-0.1901968 0.027700504 -0.13216516
-0.11390494 -0.2932293 0.19676034
-0.14808461 -0.048510946 0.24227133
0.19670756 0.18798141 -0.20256752
-0.18806693 0.0722264 -0.1705454
-0.051391352 -0.020159105 0.19338071
-0.100351244 -0.022252053 0.197644
-0.0421307 0.22857937 -0.22863156
-0.1344006 -0.028548835 -0.066442214
0.089125276 0.04296577 -0.15686683
0.06552976 -0.056748465 -0.015114911
-0.057428908 0.11115068 -0.10527117
-0.15550134 0.18428293 -0.10580355
-0.09692123 -0.08289389 0.32243022
0.080949426 -0.08924235 -0.07160076
0.10484911 0.062142786 -0.1731604
-0.005544681 -0.0007608664 -0.18280318
-0.012087786 -0.14279191 0.3035845
-0.022081649 0.21374574 -0.2524347
-0.11543324 -0.06282203 0.30798012
0.062754564 0.21398303 -0.25682336
-0.18513122 0.16946793 -0.1175522
0.09281512 0.03555058 0.14661554
-0.09412481 -0.23955473 0.18114594
-0.033590145 0.23258482 -0.22592725
-0.1342196 -0.07256385 0.37507248
-0.022600919 -0.13032646 0.09700552
-0.060521957 -0.022746958 -0.05616445
0.06415485 -0.07459552 0.17398772
-0.19436193 0.09606053 0.014704377
0.24342178 0.07157233 0.0446082
0.068784565 0.2398431 -0.20244157
-0.09455114 0.035035193 -0.14422697
-0.1441791 0.18531445 -0.09896845
0.019915001 0.22895923 -0.1276175
-0.22019114 0.088525474 -0.009536459
-0.16541481 -0.10412948 0.08438095
0.08897546 0.22403127 -0.122380614
-0.11616107 0.20803991 -0.13492495
-0.052960034 0.010249833 -0.149282
-0.0004536606 0.17968965 -0.27814373
-0.09329649 -0.22122772 0.16669287
-0.034138072 -0.071966626 0.009296227
-0.166581 0.052171215 -0.17312562
0.03568255 0.017079834 -0.1987196
-0.22608094 0.012042802 -0.04518962
0.08328745 0.031708352 -0.16930604
-0.15100946 -0.07082518 0.02174498
-0.07727621 -0.23996735 0.18024549
-0.20680395 -0.064217076 0.075410545
0.08437915 0.0037873657 0.15565585
0.042175863 0.22992204 -0.12957188
-0.1981963 -0.15844722 0.31121778
0.20467137 -0.07598798 -0.0074946727
0.06416216 -0.05686882 -0.014660102
0.17288797 -0.030991666 -0.06462196
-0.13843723 -0.01985486 -0.051353257
-0.08981914 0.06635249 -0.20309503
0.23487392 -0.056255102 -0.027401648
-0.043976728 0.22630861 -0.122169256
-0.023622915 -0.0023697885 0.16327369
-0.05334929 -0.016235443 0.18782967
0.10886038 0.008728985 -0.11737213
-0.14726104 -0.06470651 0.28203586
0.02171865 -0.023775749 -0.004372064
-0.061404657 -0.040451825 -0.16839667
-0.1802519 -0.18638286 0.21219091
-0.00018753791 -0.28544438 0.19608249
-0.07293959 0.15703303 -0.26520073
0.15804102 0.022141855 -0.12788215
-0.08300364 0.05291156 0.12151014
0.2072564 -0.06863601 -0.01810867
0.2696776 0.08581482 0.0049779313
-0.013982548 -0.0057295887 0.16650768
-0.14257686 0.15391645 -0.22058454
-0.17934668 0.13970946 -0.18279782
0.1677766 -0.09247134 0.116963066
0.017138764 0.117638364 -0.25170636
-0.18355323 0.027219398 -0.13690881
0.14462632 0.16330948 -0.2598036
0.121488206 -0.088315636 -0.10719002
0.25029668 -0.029582616 -0.063331686
-0.20766188 0.0029169396 -0.02589437
0.12743787 -0.07043793 -0.14080492
-0.048981372 0.0572568 0.11931872
-0.041376263 -0.20841627 0.18566537
0.21059492 -0.07852725 0.00079249835
-0.115276776 0.16232799 -0.039469536
0.21059513 0.106867865 0.01576267
-0.10334498 0.100115605 -0.23916237
-0.08794354 0.15898646 -0.25860465
-0.18945259 -0.115812875 0.11261345
0.26650196 0.110002086 -0.1499046
-0.041753594 0.22688073 -0.12304388
-0.012881549 -0.0060054716 -0.0032637804
-0.07322476 0.21998002 -0.14890023
-0.06772461 -0.063900076 -0.1057051
-0.18492852 -0.056580745 0.19339897
0.11041295 0.01913425 0.011819803
-0.09948417 -0.108788945 0.047207866
-0.16765487 0.038816053 -0.15895033
0.11635143 -0.09202963 0.017658884
0.05782704 0.06136015 -0.14259526
-0.19558734 0.1250778 -0.16211861
0.28966895 0.01456903 -0.04091111
-0.14102921 -0.035688717 -0.05607606
0.012503765 -0.13240221 0.08743756
0.12654442 0.20145138 -0.10034825
-0.16270828 -0.13113558 0.33900207
-0.03382086 -0.28673768 0.20621444
-0.029214123 -0.124288395 0.12246739
-0.19771227 -0.16837533 0.30939674
-0.06991657 -0.035722665 -0.117050044
-0.109182045 -0.081918895 0.009097947
-0.21094486 0.035813216 -0.0052412013
-0.021802245 0.041806646 0.14066923
0.08491672 0.2152457 -0.22688252
-0.068766154 -0.07510217 0.30066037
0.12819067 0.04018549 -0.028590724
0.1127573 0.020756347 -0.050315704
-0.09193589 0.20269975 -0.20069304
0.11837268 0.123550795 -0.2502908
0.12928034 -0.12188089 0.09394776
-0.17264785 -0.06256543 0.37123483
0.2899841 0.018855585 -0.055364586
0.12470091 0.046424396 0.13026023
-0.16742079 -0.169903 0.20681038
0.2184514 -0.06360336 0.044638008
0.14479664 -0.004114952 -0.061693914
-0.002713684 -0.20994473 0.22225894
-0.07641936 0.01056976 0.15016036
0.03511971 0.07843763 -0.22057077
0.13807282 0.036721095 -0.1108546
-0.0057490706 0.08646085 -0.23399414
0.26241836 -0.027091246 -0.05169337
0.13107948 0.1395385 -0.2686507
0.12019742 0.012992758 -0.026952682
-0.21512014 0.120421246 -0.050652
0.07723727 -0.12218025 0.13294753
0.20070216 0.07791924 0.051834647
0.12074558 0.03749792 -0.042689454
-0.2115636 0.08771799 -0.14322977
-0.1304124 0.17377394 -0.21917252
0.269023 -0.022841396 0.02640398
0.18987107 0.05154071 -0.18923326
0.15253621 0.15916461 -0.25740018
-0.16845307 -0.0764122 0.26570323
0.1330713 0.063881405 -0.20537306
-0.14207673 0.184173 -0.095984414
0.22497608 0.17999683 -0.11866084
0.27841115 0.0066814367 0.018969597
0.23292021 -0.058353074 0.072279654
-0.18429962 -0.21744142 0.28216848
-0.029036527 -0.14293008 0.19494857
-0.124523535 0.004617424 0.15991178
-0.11839171 0.20938161 -0.1431942
-0.0342951 -0.06672099 0.006360248
-0.06919431 0.00037642743 0.16452548
0.020632647 -0.13255362 0.08558992
0.053399228 0.2117807 -0.25962934
-0.12135575 -0.07000549 0.34217322
-0.11895121 -0.2484264 0.19124472
0.02717794 -0.11047781 0.15284808
-0.027483061 -0.09843124 0.33758378
-0.21556318 0.06731366 -0.13121745
-0.063623615 -0.05023805 -0.16936107
-0.047995552 -0.13486701 0.08648459
-0.040925078 -0.05038069 -0.00057907996
0.24740845 0.12967499 -0.033233102
0.104379 0.22751936 -0.13513027
-0.18264915 -0.15490821 0.16638564
-0.13822879 -0.18305027 0.27752456
0.22867575 0.13561217 -0.20311591
-0.016620347 0.006019496 0.0153717715
0.17099234 -0.05895326 -0.030988095
0.008215061 -0.14035739 0.2794848
0.1272115 0.09481905 -0.091480464
0.04124736 -0.11817956 0.14500019
0.24593677 -0.000551386 0.084624365
0.15837497 0.15747188 -0.25470492
0.07358282 0.1618821 -0.2650809
0.20610474 0.022293476 0.10912984
0.22902411 -0.055492405 0.034486324
-0.20275046 -0.014655301 -0.061515223
0.12788397 0.05940736 -0.060265746
-0.20463128 -0.06977054 0.10507279
-0.14100914 0.05578833 -0.18667942
-0.028480047 -0.10205897 0.22211355
0.28176358 0.058443695 -0.12267593
0.12733491 -0.004861541 -0.11480489
-0.044310633 -0.15902698 0.27666938
-0.12776497 0.008696312 0.15417285
0.16188027 -0.071157366 -0.013326691
-0.071458094 -0.24285714 0.20134456
0.24277833 0.08821978 -0.19076166
-0.14604692 0.06634527 -0.19692512
-0.14541203 -0.27987343 0.19883178
0.26602948 0.013793581 -0.11030417
0.13074708 -0.012980117 0.15826313
0.060126934 0.11695066 -0.2722731
-0.13996303 0.10893764 0.047903236
0.03999942 -0.01043465 -0.21768296
0.031273052 -0.026679615 -0.0051707495
-0.21351112 -0.012230029 0.07063627
-0.043632217 -0.2802657 0.2125414
-0.052996766 0.027992351 -0.025911361
0.037097804 0.20449962 -0.26541948
-0.09352176 -0.19589071 0.14681087
-0.07763655 -0.19855092 0.16772455
-0.13646789 -0.21363834 0.18940571
-0.16329527 -0.10257629 0.32480264
-0.06226609 -0.27440703 0.18765585
0.1030434 -0.077952996 -0.09650166
0.12050726 -0.08709798 -0.10248089
-0.07010002 -0.091676824 0.35003704
0.17622788 0.18861309 -0.07408627
0.08339775 0.17863658 -0.27514076
-0.09902034 -0.2830788 0.1881939
-0.22787781 0.08954525 -0.041209523
-0.17621309 -0.08343554 0.36916158
-0.22559868 0.08382242 -0.020879097
0.23582603 0.030687578 -0.15456553
0.19048247 0.1094115 0.038619634
-0.061970707 0.09751818 -0.09211571
-0.021905648 0.21727528 -0.22503312
-0.0693327 -0.24173953 0.20032772
-0.14216007 0.16656835 -0.2127224
-0.049899627 0.12082431 -0.26574913
0.26048347 -0.0012942768 0.019443378
0.20192482 0.15768406 -0.0671264
0.021668602 0.024847178 -0.17377666
-0.005778485 0.030936688 0.15093264
0.1377807 0.21961477 -0.11894099
-0.10517578 0.16428241 -0.2458145
-0.05268148 0.18534638 -0.26233706
0.102800064 -0.0308804 -0.19073328
0.12274037 0.1395044 -0.25390893
0.27385125 0.07457522 -0.084001526
0.14864847 0.0755143 -0.058759317
0.046138015 -0.004080064 -0.19167817
0.16294019 0.06487121 0.102927655
-0.12830026 0.18739773 -0.06506866
0.11002856 -0.080478795 -0.11871346
-0.18701477 -0.08423034 0.21152925
0.13344191 0.070967354 -0.21549916
0.0791044 -0.079653054 -0.03921746
-0.1793569 -0.11622343 0.08886811
-0.098438494 0.15726899 -0.2334737
0.1487789 0.07554747 -0.05873508
0.25031748 -0.045509074 -0.03181768
-0.019478226 -0.16075192 0.2587086
-0.117923446 0.04608545 0.10053588
-0.17786613 0.0986827 0.024103938
0.15047069 -0.014981662 -0.05899442
0.17183003 0.18508504 -0.22889273
0.14046936 0.04042365 -0.15056767
0.18454255 -0.09389781 0.098720714
0.1547225 0.20740151 -0.13687883
-0.11212793 0.040463943 -0.1655531
-0.05531252 -0.06829001 -0.1487451
-0.06050901 0.11369639 -0.24047218
-0.036974806 -0.085081264 0.016053246
0.098471336 0.23442578 -0.1842159
-0.17345577 0.1711893 -0.09381807
0.2736473 0.022931544 -0.020626541
0.04698123 -0.111725755 0.15058927
-0.18334149 0.022375327 -0.13162468
0.057187166 -0.12604535 0.13092192
-0.15891095 0.18654862 -0.17039762
-0.20090862 -0.025019959 -0.044939782
-0.07066877 -0.23449463 0.17546785
-0.13957572 0.10671251 -0.20555688
0.25445005 0.068427116 -0.14237624
0.011990603 0.21460596 -0.25794402
-0.083767384 0.22367568 -0.16280599
0.065547 -0.048179835 0.18019351
0.14206113 0.17498569 -0.2557113
-0.22222711 -0.0038097703 -0.016110158
0.06514784 0.0019988385 0.025627777
0.24869773 0.018773735 -0.13234447
0.23030077 0.035368305 0.08567218
-0.20024432 -0.08799936 0.12584303
-0.12345537 0.026889708 0.12808561
-0.1989422 -0.0299352 0.019000594
-0.023572195 -0.26692134 0.21830729
-0.07209611 -0.06108744 0.3066539
-0.055209048 -0.064743966 0.31932923
-0.19634922 -0.044790775 -0.015679805
0.0031645203 -0.28411984 0.20137405
-0.04301369 -0.12371174 0.07067335
0.11019704 0.05140706 -0.12523718
-0.18437296 -0.07040361 0.20854034
0.1495301 0.083509855 -0.2338254
-0.095388256 -0.059767697 0.3005099
-0.024023505 -0.09804229 0.25874197
0.2761516 -0.021731457 -0.0063751005
-0.027356248 -0.1389782 0.21011986
0.22408728 -0.018579382 -0.09001309
0.10558496 0.057425167 -0.09825815
-0.21464089 0.053843226 -0.04738965
0.10825036 -0.09187802 0.017652761
-0.23000865 0.064658724 -0.032191332
-0.20047455 -0.26424608 0.23442727
0.23172176 0.10204212 -0.20427465
0.15568046 -0.05107167 0.15305384
-0.08319253 0.1859424 -0.10756557
0.13756232 0.035474163 -0.093605004
0.23543306 -0.07005163 0.04299863
0.12588063 -0.04416896 -0.09006049
-0.12518048 -0.047983803 0.26191008
0.12071861 0.07590215 -0.22221339
-0.013634208 -0.27774036 0.17660089
-0.017129283 0.10988259 -0.26462516
-0.035218723 -0.14267614 0.14739698
-0.21169479 -0.04439491 0.035667017
-0.06393472 -0.24642769 0.18434983
-0.16607006 -0.083077624 0.015252759
-0.090373695 0.02287014 0.13296267
0.16393723 0.14258495 -0.25418803
0.0547102 -0.058721837 0.18030973
-0.10111464 -0.06844599 0.32641077
-0.057554085 -0.22911564 0.17029081
-0.19806175 0.043266635 -0.11150883
-0.019015752 0.12684417 -0.27391925
-0.14377986 -0.25684083 0.21009366
0.007883669 -0.2154239 0.23491344
-0.11519991 -0.12562154 0.07164954
-0.028796976 -0.138373 0.19934528
0.040866047 0.21214603 -0.25998232
-0.16339707 -0.21137768 0.18853548
-0.12765957 -0.018395418 -0.08043185
0.18338846 -0.0729611 -0.011311659
-0.04871366 -0.098694555 0.031473935
0.12901191 0.22066335 -0.2248131
0.16096628 0.2032336 -0.22264086
0.104389176 0.22308762 -0.1579634
0.13075015 0.049543608 -0.16720045
0.26193687 -0.018494435 -0.06913948
0.1261575 -0.03492362 -0.14071429
-0.031595737 -0.057410464 0.29993853
0.11439263 -0.070225045 -0.00031589498
-0.18587251 -0.08902425 0.22000638
0.12524441 -0.088820204 0.012844727
0.12147028 -0.046587117 -0.16565558
-0.089773476 -0.08161026 0.0081514055
-0.20660447 -0.06416029 0.063656196
0.12783068 -0.01991985 -0.11941137
0.21359959 -0.042198915 -0.05601827
-0.016651612 -0.12878513 0.11893558
-0.08295656 0.03241204 0.1191463
0.045357727 -0.102341875 0.034231104
-0.12574743 0.12364183 -0.23914462
-0.19751936 -0.11910737 0.33845863
-0.06900031 0.20913832 -0.097002596
-0.18813464 0.014168655 -0.11793732
0.092260204 0.053200126 -0.120464176
-0.15868986 0.13948767 -0.031754293
0.12299838 -0.12317989 0.10255647
-0.21958636 -0.003035805 0.028916378
0.11517188 0.22283334 -0.1213529
-0.028965114 -0.12009964 0.2082743
0.12530877 -0.12072643 0.11093903
0.21302153 0.117154956 0.026839834
-0.16262123 -0.0749408 0.0006214943
-0.19618265 -0.14670308 0.33332422
-0.027155386 0.19671293 -0.24273095
-0.036308777 -0.17605679 0.13364264
0.04637853 0.23077156 -0.16742273
-0.13661227 -0.068075 -0.009952837
-0.010897752 -0.11569454 0.054759543
-0.15494348 0.0023273416 -0.1099894
-0.19615592 0.10274208 -0.17141806
0.04661489 -0.123863 -0.07205725
0.042146638 0.03392568 -0.18644434
-0.1452318 -0.005239904 -0.0994387
-0.048238553 -0.06745286 0.36313385
0.033281226 -0.07986777 -0.023586888
0.03981641 -0.10124112 0.15995051
-0.12406264 -0.11068766 0.05055891
-0.04566592 0.08574451 -0.09755033
-0.19597629 -0.27735877 0.24211329
-0.147557 -0.03429533 0.21234347
0.006851458 -0.25510666 0.20474166
0.09613948 0.12457768 -0.27213332
0.2908337 0.029504688 -0.02705865
0.22470546 -0.0010036842 -0.115122475
-0.10965123 -0.14124388 0.093809545
0.13272847 0.06229108 -0.05725073
-0.113645904 0.20902924 -0.20132932
0.1683874 0.08455417 0.0746842
-0.13062222 -0.05290849 0.2743357
-0.027195606 -0.103287295 0.33411443
-0.18224016 -0.06671253 0.35549137
0.033435516 -0.029136956 0.17912853
0.23086452 0.13428256 -0.20068942
-0.11782955 0.21304621 -0.18360648
-0.035902873 -0.2818731 0.21001378
-0.17024238 -0.20625198 0.2875027
0.057571016 -0.05168964 0.18107998
0.28800496 0.019610172 -0.0708597
-0.19970961 -0.08945419 0.1307306
0.046641655 0.09069226 -0.13032764
-0.11335776 -0.11340306 0.054156892
0.12832789 -0.015563151 -0.08527427
-0.14749499 -0.024757419 0.19893548
0.0059147417 -0.005548061 0.010604902
-0.03316946 -0.10819008 -0.092355385
-0.22387587 0.09958439 -0.03663917
0.2149406 0.03037748 -0.13227475
-0.13950716 -0.07321999 0.3431908
0.14408234 0.13315466 -0.24539022
0.14952533 -0.11686607 0.07885028
0.19560295 0.17198023 -0.21672082
-0.1143064 -0.1666811 0.2809275
-0.07565808 0.2063408 -0.09283572
0.23805872 0.07161637 0.04901416
-0.15411003 -0.070598714 -0.0058936765
0.10010113 0.10904774 -0.11479669
0.12412769 0.22948413 -0.20772843
-0.15589306 0.0530228 -0.15494715
0.2537143 0.117813975 -0.17429917
-0.046105403 -0.16507463 0.11975587
0.26028147 0.0017478486 0.022003843
0.25839514 -0.025585836 0.050305657
-0.20359963 -0.021909805 0.11694233
0.055408925 -0.11641431 -0.07393824
-0.032962706 0.16612248 -0.27613914
0.17815566 0.1462076 -0.24647559
-0.09884783 -0.22673126 0.19096419
-0.021771356 -0.12583406 0.07089134
-0.047371697 0.16888529 -0.25411233
0.21365978 0.046871208 -0.181315
-0.013695021 0.0037283965 -0.19657886
0.15693125 0.06973876 -0.21435708
-0.15330085 -0.1412251 0.0990788
-0.11138058 -0.0026089654 0.16988637
0.11683205 0.041704882 0.13720378
0.0981998 -0.08962736 0.01716923
0.07637206 0.014109277 -0.18630002
-0.0114557175 -0.005403464 0.16650343
0.00054999086 -0.21787395 0.21608916
0.19292541 -0.08905482 0.013832772
0.25249016 -0.029067833 -0.06189654
-0.032727193 0.2333971 -0.13476424
0.017552508 0.085630946 -0.23341607
0.20123649 0.1330333 0.004614299
-0.16362368 -0.0355639 -0.05566553
0.2251678 0.05548111 -0.18402867
0.2571002 0.15612441 -0.12001364
0.27515367 -0.0040423525 -0.0708726
0.11265358 -0.022020793 -0.037434828
0.2849449 0.101679295 -0.04891214
-0.12820518 -0.21507871 0.16683334
-0.17653228 -0.17695302 0.26370963
-0.024020229 -0.1759171 0.21518175
-0.21318208 -0.03225212 0.06196791
-0.08234065 -0.090001464 0.32586464
-0.024672814 -0.029637331 -0.03259618
0.2239329 0.08909929 0.030219814
-0.09808223 -0.23977774 0.20094144
-0.19072314 -0.08979303 0.196527
-0.20360972 0.1284347 -0.14085495
-0.15913334 0.06763661 -0.19027744
0.030866023 0.23416655 -0.13533743
0.29294378 0.0637655 -0.04128329
-0.19057468 -0.08047092 0.34731528
-0.1818563 0.16906591 -0.10169982
-0.17645171 0.17308438 -0.1545635
0.20281784 0.14277843 -0.22700141
0.24914773 -0.03770877 -0.04941242
-0.008043378 0.036843862 0.14739627
-0.029099116 -0.10768504 0.043798678
0.07917027 -0.09358232 -0.049298607
0.26795587 0.08231681 0.010952085
-0.04941784 0.020059135 -0.14835614
-0.21789283 0.092032716 -0.12344592
-0.16048944 -0.090738624 0.3133658
0.19968475 0.11070927 -0.01314124
0.22052637 0.0871779 0.033051744
-0.04894451 -0.28413665 0.18208647
0.27572253 0.101988055 -0.13018712
0.12570605 -0.006415805 -0.12750955
-0.0663035 0.14648342 -0.26890397
-0.07954264 -0.017321045 -0.04191411
0.18110324 -0.07173474 0.1224368
0.17253411 0.17292465 -0.053480398
0.27805743 0.060108557 -0.13067682
-0.013066628 -0.0038133692 0.16517816
-0.16372326 -0.13940777 0.26097247
-0.00591775 0.23373306 -0.14289236
-0.05269645 0.2307006 -0.21906263
0.1516354 0.032075927 -0.14247395
-0.04955505 0.17246264 -0.27021044
0.22932547 -0.07395474 0.012819986
0.005392304 -0.13816169 0.3036848
-0.118917815 -0.029006226 -0.037447188
0.0053244615 -0.010671307 -0.19477205
-0.08750171 0.012129001 -0.0803217
-0.0385409 0.21744815 -0.109660655
-0.16492292 0.068269104 -0.16562739
0.0810667 -0.12995146 0.10896524
-0.1598382 -0.012675695 -0.088442296
-0.04456863 0.072115585 -0.21250182
0.071997866 -0.11931508 0.13877977
-0.032682065 -0.08701457 0.19811718
0.26625687 0.116898544 -0.14643368
0.008236062 -0.27107307 0.20648554
0.11330647 -0.07513141 0.16082412
-0.035680316 -0.12836908 0.15184337
-0.123611584 -0.12405139 0.06962672
-0.014594626 0.09342966 -0.24371335
0.17132433 -0.105296396 0.044296876
0.27681044 0.047111783 -0.047663774
0.062147133 0.1609992 -0.26688305
-0.13007231 0.05913165 0.08222586
-0.05048907 -0.18657038 0.13636523
0.19760755 0.13965487 -0.0047449213
-0.014954627 -0.12088967 -0.074698955
-0.14220454 -0.11616783 0.058855757
0.08884606 -0.09489157 0.023309648
0.078326814 0.2252525 -0.24288854
0.11236404 0.22440377 -0.12352147
0.28202718 -0.009056996 -0.03430149
0.24500196 -0.06376477 0.023219373
-0.075837605 0.042817418 -0.12725252
-0.03917512 -0.029042814 0.18047407
0.11230429 0.21508916 -0.14674985
-0.13850106 0.17476416 -0.2108893
-0.10393354 0.08922259 0.07511229
-0.19270226 -0.093821354 0.18549685
0.029212056 -0.09079558 -0.031052545
0.040807024 -0.12912974 -0.06438684
-0.17348158 -0.064715885 0.02485894
0.03160467 0.026303358 -0.19235505
-0.14771132 0.031508893 -0.124444455
-0.1501472 -0.023829263 -0.072770566
0.1309398 0.06198143 -0.05917027
0.15248922 0.22107105 -0.17718683
-0.1586545 -0.167556 0.31263977
0.24270456 0.015155862 0.08651181
-0.055353615 -0.07309981 0.36044583
0.21697249 0.03426839 0.094342425
-0.22712457 0.036019072 -0.00737917
0.010996037 -0.09465175 0.027891234
-0.19265649 0.15856089 -0.0929354
-0.093650185 -0.10717566 0.07214886
0.046288997 0.031211695 0.124107495
0.16280927 -0.039624605 -0.04866742
-0.15248148 0.022287982 0.13519381
-0.18038352 0.15300757 -0.060034256
-0.1366287 0.095552005 -0.22218081
-0.046104383 -0.14290443 0.09909128
-0.071150556 -0.27724332 0.21964052
0.2770915 -0.0055624507 -0.06579177
-0.09315367 -0.07711261 0.30458146
-0.20412602 0.08138756 0.02324567
0.14671655 0.22183804 -0.20468347
-0.13597696 0.17131974 -0.21597694
-0.13728477 0.034776673 0.11718529
-0.15049846 0.1791604 -0.19279414
-0.036372878 -0.11680638 0.057010837
-0.15619077 -0.20188543 0.27338332
-0.02389313 -0.23678248 0.2395751
0.21737094 0.0075333402 0.11046581
-0.043788493 0.23304547 -0.21843228
0.27652213 0.05877972 -0.029872663
0.15071788 0.066820174 0.083608456
0.1507125 0.03662344 0.10768062
-0.0863752 0.0069333646 0.15561178
-0.11130809 -0.080405526 0.006992833
-0.10563988 -0.24139579 0.18342817
-0.026892453 -0.031624053 -0.20183372
-0.17592545 -0.14561246 0.2859325
-0.20674716 0.009338762 -0.048258964
0.043343112 0.22651531 -0.16126706
-0.098196015 -0.09675368 0.029991768
0.17522714 -0.086999126 0.008943406
-0.08796836 0.07298634 -0.21261474
-0.03076624 -0.031604707 -0.2017603
-0.1723183 0.07011412 -0.18408182
-0.20366603 0.08002388 -0.12034104
-0.036389314 0.015328175 0.009897958
0.28980783 0.06620433 -0.021012561
0.25894603 0.03186744 0.06173596
-0.037197128 -0.13511184 0.25893164
-0.102974765 -0.0512272 -0.031797163
-0.06820908 0.019510083 -0.089013234
0.24767151 0.08379386 -0.18410607
-0.08445904 -0.26041746 0.19682766
-0.18428363 -0.16211002 0.19335307
-0.15696356 -0.08670247 0.04688614
0.132671 -0.020864489 0.16130258
0.102491155 -0.091602616 0.15350997
0.18722445 0.09925825 -0.21455242
0.06374157 0.02795677 -0.16301721
0.13560338 0.048775513 -0.032058813
0.28984082 0.08979011 -0.05953216
-0.095404 -0.05830007 0.29603928
-0.19867302 -0.23958978 0.26212692
-0.22893073 0.08692837 -0.056597248
0.24338801 0.08745116 0.027726175
0.06322188 0.068833746 -0.13511197
0.06463669 0.042868864 0.1289958
-0.044550687 0.12532744 -0.26903903
0.09501998 -0.056612186 0.0017822617
-0.029159242 -0.13865131 0.30958283
0.011649077 -0.07748579 -0.04381641
-0.07354568 -0.2593819 0.22957331
0.23957105 0.031244908 0.082397245
-0.20046166 0.09313145 -0.12697004
0.28466117 -0.0036894327 -0.022385195
0.17679736 0.19997491 -0.12685071
-0.1672231 0.1746748 -0.1722565
-0.040328722 -0.2780467 0.21350595
-0.15498509 -0.28949448 0.19379093
0.13230917 0.05895611 -0.19832116
0.16652136 0.16155103 -0.24846147
-0.18573955 -0.07433542 0.35075927
-0.022705663 -0.22130561 0.19992067
-0.16760202 0.15488204 -0.18822123
-0.16905028 -0.02407713 0.18071483
-0.11727272 -0.16935034 0.12773469
-0.05559051 -0.033215545 0.22329517
0.20576037 0.15327762 -0.051802818
-0.21045491 -0.046011303 0.075305514
0.070670895 0.20189539 -0.26357028
-0.11220672 -0.07765385 0.030483883
0.09880139 0.087007605 -0.106387
0.029227246 0.21998312 -0.25400367
-0.038851704 -0.18980072 0.14068739
-0.12735118 0.017983504 -0.13306078
-0.12889515 -0.052198518 0.27413455
0.23502746 0.041198913 0.07774398
0.19016743 0.17877503 -0.060403403
-0.13500765 0.122542284 0.028350284
-0.018957637 -0.13048185 0.08983212
-0.15889138 -0.25569928 0.21827951
-0.0055996273 0.16172473 -0.28154323
0.26946348 0.090660214 -0.15327941
-0.028078726 -0.06961427 0.17220217
-0.2006494 -0.22919022 0.2527023
0.16219217 0.006545054 -0.10259289
0.07213132 -0.122595824 0.06245044
-0.04946496 -0.26032946 0.22762445
0.0020090297 -0.122385144 0.13759696
0.08269855 0.101457834 -0.2577093
-0.19034441 -0.016980173 -0.07197924
-0.09712719 -0.14758623 0.102538176
-0.20924197 -0.052105147 0.043650594
0.253279 0.007083038 0.074271575
0.11582229 0.043485112 -0.07287046
-0.027042566 -0.11329708 0.0517578
0.25102225 0.008706386 0.077700175
0.26560274 -0.01135833 0.042897794
-0.07051009 0.22752517 -0.16855256
-0.16343252 0.18821938 -0.14356294
0.23836522 -0.06479275 0.05099016
0.14298737 -0.053946942 0.15877035
-0.12130373 -0.19436423 0.14763053
0.085198216 -0.01125176 0.16648243
-0.041628107 -0.029667668 0.2145903
-0.18029061 -0.10835267 0.2633052
-0.0560328 -0.16077998 0.13708021
-0.020706188 -0.14650355 0.25720984
-0.024855176 -0.09877471 0.030966721
-0.061800152 -0.020119779 -0.15254436
0.017599922 -0.12595119 -0.056625705
-0.13162139 0.13510607 -0.21527188
-0.09316882 0.21925278 -0.20723791
0.00891489 -0.23819217 0.23012617
0.2573249 -0.042172946 -0.024502775
-0.062467787 -0.011763268 -0.00071658404
0.2597443 -0.034529913 -0.040522348
-0.060911167 -0.24426816 0.18243462
-0.22046494 0.09890526 -0.10816024
-0.18001279 -0.059642855 0.026600527
0.021547947 -0.080327064 -0.04397702
-0.21360557 -0.03156624 0.008745624
0.16338015 -0.09072811 0.014575653
-0.03583982 -0.24455476 0.18083802
-0.064861394 -0.03920065 0.24067195
0.06172646 0.22746953 -0.16310829
0.25879133 -0.04704739 0.019571379
-0.17279649 -0.22741078 0.23671219
0.03257284 -0.010283714 0.1702759
-0.11457652 -0.15173377 0.10891412
-0.021204086 -0.11442755 0.097127594
0.104348294 0.024173677 -0.15225255
-0.06948295 -0.025100289 -0.11363655
-0.08214922 -0.03209875 0.218286
-0.1294975 -0.08249899 0.3672278
-0.0505415 -0.24663922 0.18354335
0.26118416 -0.039899074 -0.021803034
0.01412082 0.20879334 -0.14656785
0.1606238 -0.031599034 -0.03151601
0.10292126 0.15562348 -0.27642414
0.039213397 0.14468025 -0.28321785
-0.19292508 0.06337322 -0.13509774
0.22475275 -0.046935346 0.062204346
0.0136255305 0.0817108 -0.22771737
-0.06563214 -0.06981284 -0.10143679
-0.07953027 0.13252534 -0.24423772
-0.09842361 -0.16432741 0.1228178
0.20023967 -0.056439213 -0.03533894
-0.02649518 0.05164721 0.12548713
-0.20383024 -0.037923746 0.12291121
0.06570737 -0.00047490984 -0.20205313
-0.19057934 -0.10466155 0.19580568
0.1208606 0.09068296 -0.24331973
-0.021881612 -0.015625121 0.17047441
0.19705655 -0.047869258 -0.0474919
-0.22353855 0.107494086 -0.05670907
0.25958723 0.08307295 -0.16953318
-0.12484521 -0.04068665 -0.049361564
0.17791328 -0.022237409 -0.07909982
0.21674976 -0.078046456 0.0068829563
-0.17066787 0.015397779 -0.10084471
-0.0814922 -0.23870902 0.19889477
0.035088465 0.006151845 -0.2063827
-0.014859832 -0.11828217 0.32133362
-0.15742005 -0.2036937 0.17358626
-0.1076076 -0.03919507 0.23675457
-0.12093756 -0.18012755 0.1364236
-0.22573277 0.0230312 -0.06956098
-0.046324085 -0.048628695 0.27107203
-0.0014634815 -0.07734861 0.17350596
-0.16597356 -0.24639827 0.2261048
0.10323659 0.17247391 -0.27289277
-0.21213171 0.035400227 -0.114909194
0.25387725 0.10270872 -0.14323862
0.2125737 0.15787281 -0.20852163
0.26005504 -0.009806659 0.0585263
-0.017078465 0.12670091 -0.27422476
0.014733197 0.030912802 0.1552708
-0.20172654 -0.05102609 0.0076989657
0.00073903863 0.19448237 -0.27077264
-0.22284819 0.09291483 -0.02193858
-0.17694247 0.03230245 0.1061989
0.022093803 0.24167748 -0.21781178
0.008650693 0.012219175 -0.19973609
-0.03494439 -0.042576507 0.20553708
-0.17853443 -0.19834398 0.22558127
0.0714338 -0.12572302 -0.07004887
0.029128954 0.22878632 -0.24521074
0.122532345 0.17698662 -0.26386377
-0.16794242 -0.070927784 0.25717857
-0.22287226 0.06472119 -0.11165359
-0.05939324 0.05528543 0.12240439
0.122715 0.017463462 0.13513188
-0.21447045 0.10248076 -0.1295418
0.029209593 -0.13422863 0.10426566
0.02515603 -0.09033568 0.16765524
-0.094410375 0.013080974 0.1470437
-0.207839 0.043361876 0.009987823
0.01574737 0.23471731 -0.13573003
0.22376367 0.13511854 -0.20962104
-0.13833752 0.016789827 -0.13107081
-0.0010133273 -0.18903853 0.26903912
-0.19152889 -0.1051411 0.09327671
-0.18790574 -0.14270256 0.18739271
-0.18043809 -0.14340451 0.2523576
0.046225406 -0.077807054 0.17446086
-0.17755018 -0.19045518 0.19847026
-0.19148418 -0.037288524 0.16291185
0.16239113 0.08683718 -0.21151438
0.1008238 0.12546793 -0.27175218
-0.13282807 -0.15009491 0.107049555
0.23667353 -0.04844759 0.021854207
-0.11946935 0.037690658 0.11256107
0.26922175 0.028401991 -0.08532649
-0.04496595 -0.023601098 -0.1863854
-0.09833482 -0.100500785 0.34892908
-0.16282871 0.18440786 -0.11725895
-0.22927895 0.043393537 -0.02514155
-0.18083523 -0.05820694 0.20310615
-0.02821343 0.23765524 -0.19168963
0.19345662 0.11390346 0.032128874
0.22978444 -0.018773995 -0.08988406
0.009217297 0.2304622 -0.16601318
-0.07588437 0.03623356 0.0038850438
0.24798171 -0.058560513 0.0052721803
0.16782466 0.13704498 -0.25218695
-0.10055388 0.20864816 -0.09548134
-0.06861558 0.042655203 -0.021676034
-0.17006963 0.1235719 -0.008734414
-0.09676005 -0.054555785 0.2845152
0.11049547 0.0604123 -0.18250722
0.18851194 0.11524457 0.0061829425
-0.08329467 -0.055907097 0.289859
0.07973438 -0.013284797 -0.20275405
-0.13683599 0.0960185 0.06379775
0.12558217 -0.053314686 -0.09596094
-0.03062085 -0.060258776 0.22899467
-0.049277123 -0.04075577 -0.15423466
0.22637445 0.17885776 -0.11726847
-0.16371113 -0.23958892 0.22025192
0.14337394 -0.07782788 -0.0033208325
0.23711322 0.0868684 -0.19616039
-0.22968803 0.030653335 -0.0403728
0.15210007 -0.08648654 0.13370629
-0.13855304 -0.13874379 0.090992756
-0.18075053 -0.02254371 -0.07124496
-0.18062724 0.08280509 -0.16100574
-0.09002135 -0.022215284 0.19732279
0.07797911 -0.08553193 0.16572875
-0.01053082 0.24016774 -0.19578983
-0.120004684 0.053540017 0.089946784
0.030699074 0.04112966 0.14026855
-0.0183055 0.069726534 -0.12412504
-0.1922763 -0.058374666 0.06922495
0.14654556 0.028274119 -0.11771806
-0.19546588 0.1428087 -0.057637766
0.17522374 0.0154484445 -0.13397779
0.13482516 0.008497644 -0.048854843
0.22157773 0.18719876 -0.15008318
-0.16009215 0.1518045 -0.049302716
0.2735974 0.014275414 -0.03588637
0.21145958 0.18445516 -0.11187508
-0.031227637 -0.13963562 0.17988715
-0.03472392 -0.037843514 0.22775176
-0.17114063 -0.11697462 0.35049117
-0.08957119 -0.041846085 0.24647267
-0.038118318 -0.15310387 0.11919374
-0.14823236 -0.29752383 0.20378548
0.13656217 0.018841274 0.13280372
0.07433241 -0.0148257185 0.17030096
-0.21650222 0.096199624 -0.01161419
0.09459466 -0.07233771 -0.048554737
