# .PCD v0.7 - Point Cloud Data file format
VERSION 0.7
FIELDS x y z
SIZE 4 4 4
TYPE F F F
COUNT 1 1 1
WIDTH 1000
HEIGHT 1
VIEWPOINT 0 0 0 1 0 0 0
POINTS 1000
DATA ascii
-0.12539966 -0.04988805 -0.05727063
0.09864874 0.06440138 0.15944672
0.2065254 -0.13793968 0.12742124
0.13331802 -0.07678399 -0.05534977
0.015552316 0.026349135 0.21329147
-0.17024171 0.28768125 0.02015327
0.13922365 -0.019942462 0.15661426
-0.16931656 0.18085705 -0.21993308
0.021581018 -0.024410965 0.17310476
0.10292961 0.053871162 0.16407576
-0.050698947 0.21743532 0.17806773
-0.021294292 0.0019991915 0.18761861
-0.112094946 0.1216856 -0.08507948
0.09917926 -0.002101053 0.18220042
0.17730744 -0.08430884 -0.015088064
0.11442173 -0.0347967 -0.06903174
-0.0821484 -0.0056991265 0.085258976
0.21746115 -0.13006571 0.118294686
-0.044831563 -0.09385739 -0.080549166
-0.17781852 0.020420898 -0.2011606
-0.18282852 0.05499556 -0.06261168
0.03674576 0.17802452 0.11741242
-0.019604838 0.09113093 -0.22036174
-0.2381335 0.12498346 -0.13625309
0.09223505 -0.07707146 -0.15492228
0.23691146 -0.18481651 -0.079861134
-0.19277921 0.14130457 0.030481638
-0.21134761 0.044504598 0.027404867
-0.04671761 -0.11462204 -0.13135171
-0.148046 0.1033572 -0.074629076
0.030975541 -0.058321487 0.1739852
-0.21710078 0.04033653 0.00821345
0.06582824 0.027685001 0.19869821
0.0013414386 -0.084127575 0.0720369
-0.14433244 0.08471927 -0.26149407
0.1329399 -0.124010585 0.15841584
-0.0634846 0.26157582 0.025050621
0.26291382 -0.15991615 0.07262048
0.25329745 -0.1915463 -0.05718276
0.11165252 -0.00484841 0.17500249
-0.09142436 0.23921165 0.15908574
-0.12032922 0.095225155 0.11440784
0.09343883 -0.30301657 0.041954935
-0.0070371926 -0.06526673 -0.23561177
-0.08047027 0.19071215 -0.18232733
-0.08280243 -0.043185335 -0.25039047
0.010156886 0.12692876 0.21432091
-0.22524278 0.09811015 -0.16690803
-0.17402306 0.034017827 -0.15278475
-0.09896429 -0.07181631 0.010200897
-0.23464984 0.23905946 0.00791693
0.19354807 -0.0856166 0.024291059
-0.037515648 0.22654523 0.15604043
0.0015844691 0.014292312 0.0224099
-0.17413867 0.037432164 0.09095052
-0.013132824 0.038531568 0.21670435
-0.07260981 0.05616387 -0.2570299
0.051302146 -0.15231426 -0.026082389
0.10800815 0.047098093 0.16031986
-0.089777894 0.13314892 0.21106146
-0.16073571 0.13276407 0.10710784
0.113170214 -0.1933229 0.128604
0.065441996 -0.18151371 0.04400855
0.29662317 -0.18768883 0.10673697
-0.0903651 -0.06715194 -0.146575
0.3340461 -0.16734146 0.03013466
-0.035856657 0.23062672 0.1363592
0.27066544 -0.15998116 0.012508054
0.041164454 -0.14647555 0.035798714
-0.18184868 0.13984455 0.0607516
-0.22528884 0.218411 -0.1368763
-0.20114079 0.13854308 -0.0007065858
0.07384671 -0.14228868 0.13486019
-0.18261312 0.14642869 0.07663777
-0.21822916 0.008931129 -0.048649155
0.11674586 0.0069061965 -0.04435767
0.10726738 -0.21137376 0.07798021
-0.0029544663 -0.10870707 -0.19959132
0.018302783 -0.14415592 -0.13429351
-0.22841443 0.23266403 -0.10993036
-0.19820355 0.26925662 0.033470348
0.05850631 0.11657535 0.18566324
-0.083877824 0.20101744 0.19016564
0.101045616 -0.14736496 0.006508405
-0.020559557 0.0065654786 -0.10155384
-0.065048054 0.08178116 0.058375224
-0.16958988 0.2762031 -0.08270656
0.013933355 0.06223805 -0.20758769
-0.10643692 0.25406647 -0.045039576
-0.1240195 0.044879746 -0.26781622
0.12699652 -0.008474089 -0.050325565
-0.025740433 -0.044236537 -0.2508312
-0.0011005304 -0.06854229 -0.23287483
-0.11369155 0.1205705 0.18854451
0.114219256 -0.030024467 -0.0588377
-0.11968984 0.20514166 -0.18045534
0.06316927 -0.028588299 -0.18759032
0.33580428 -0.16743821 0.033811614
-0.06229314 0.23642407 0.018594572
-0.13259712 0.24343424 -0.12865463
0.21670751 -0.09575418 0.05339051
-0.1317842 0.082073994 0.06823368
-0.13347086 -0.028892804 -0.18105061
-0.030026916 -0.014557719 0.14104651
-0.06325264 -0.09052386 -0.12333038
0.2148149 -0.2265991 0.035764344
0.1405523 -0.18316132 0.14314528
0.22682182 -0.10739432 0.031813715
0.15752439 -0.059382804 0.053175267
0.20833075 -0.10342152 0.11352985
0.12105151 -0.3140408 0.035681464
-0.073725626 0.19509447 -0.15140277
-0.09176277 0.073068894 0.10956692
0.116438225 -0.23449919 -0.005976793
0.2136128 -0.2696674 0.14425533
0.2568929 -0.1913226 0.104305714
0.1120825 -0.29384804 0.051923487
0.052210867 -0.0005917388 -0.17238708
0.15028486 -0.3228312 0.117263414
0.08313551 -0.07954568 0.17611901
-0.18030712 0.15093042 -0.2289748
-0.18854593 0.1489783 0.06576823
0.031978972 0.17015897 0.094295144
0.10165844 0.0005292735 0.018684577
0.15481605 -0.054038316 0.0007320926
0.19430707 -0.1833084 0.13074921
0.1189316 0.04265614 0.04237988
0.30315596 -0.17719607 -0.0015743473
0.3119228 -0.19432132 0.10889393
0.15927738 -0.29315296 0.14125264
0.12166214 0.020400591 0.1583664
0.060229734 -0.045155425 -0.19735484
-0.18421976 0.2767915 0.040066853
-0.0990898 0.15227228 0.01204316
-0.10920287 0.082501404 0.13649184
-0.10986486 0.28047016 0.04404848
-0.13535613 -0.0824705 -0.029064754
-0.049120273 0.024422893 0.17546155
-0.14979556 -0.0075189206 0.10595542
-0.18083347 0.24295595 0.10804986
-0.20265344 0.059494756 0.05374219
0.00042010675 -0.11200459 0.006594073
0.32550368 -0.16453649 0.00562252
0.043647036 0.08376129 0.20976625
0.043953735 0.100894414 0.20682706
-0.07106586 0.21709707 0.18071598
0.04292826 -0.07218851 0.17080824
-0.24586181 0.22574723 -0.06188711
-0.039266884 0.14177833 0.21835089
0.08081121 -0.08227735 0.17518364
-0.18663895 0.17865732 0.12075465
0.12098127 -0.10996443 -0.06428013
0.0448534 0.11551713 0.2012371
0.048521347 -0.01622431 0.19831328
0.076669045 0.044320654 0.19331701
-0.22487374 0.025806641 -0.04345078
0.042365156 -0.13025561 -0.11657104
-0.05447641 -0.018116793 -0.26376942
-0.16817416 0.16581437 0.14364597
0.051744033 0.027170345 -0.18074791
-0.022951616 0.057501104 0.22120945
0.019131463 0.012264564 -0.22381969
-0.11339515 -0.08387706 0.03573454
0.18192565 -0.049261957 0.08897758
0.3143174 -0.16550873 -0.013251381
-0.1172181 0.23320235 0.15817198
-0.01220649 -0.06646863 0.0729644
0.21967219 -0.18016891 0.1204807
-0.15427887 0.20027772 -0.20622727
-0.14919409 -0.004913171 -0.17102145
0.17717807 -0.14427961 0.1405742
0.25678876 -0.14572155 0.09252952
-0.07606765 0.1497562 0.21432918
-0.19551738 0.03678053 -0.040413596
-0.22865735 0.22409298 0.041213974
0.22747901 -0.12758096 0.02762981
0.271424 -0.19354388 0.09714775
0.2913167 -0.2210962 0.10049607
0.049864985 -0.11008266 -0.17369224
0.11239126 0.010043507 0.1724124
-0.13794748 0.09423572 0.054014947
0.14125836 0.0051547973 0.09623416
-0.1348496 0.24387035 -0.1312577
-0.12618001 -0.023250334 -0.24331048
-0.08022877 0.16390504 -0.19097048
-0.07416357 0.041175127 -0.10652847
0.29125366 -0.14951503 -0.06948564
0.038020074 -0.11126438 0.11359013
-0.14647116 0.25358224 0.122409485
0.23932748 -0.22836722 0.08142594
-0.12652636 -0.02299325 -0.1501764
-0.04909914 0.04780081 -0.26739782
-0.16418709 0.005373169 -0.2151116
-0.12485488 0.0981464 0.123708166
-0.16553806 0.050623912 -0.25095657
0.07236764 0.10796652 0.11865355
0.12725691 -0.33186877 0.09844014
0.09600206 -0.32391113 0.03360913
-0.23063825 0.16992845 -0.17557846
-0.22954692 0.13075244 -0.0901847
0.10070732 -0.1679222 0.005204468
0.11684137 0.042365387 0.13990933
-0.13348314 -0.059167344 -0.071119875
0.1795476 -0.11518197 0.14071555
0.17567705 -0.24070945 -0.05846489
-0.12010201 -0.030866412 -0.24061027
0.33103085 -0.14554736 0.05088654
0.22209229 -0.22037536 -0.035483744
-0.115534775 0.14560506 -0.04484952
0.15623102 -0.30782077 0.0860353
-0.24761018 0.21969578 -0.07276573
0.123996176 -0.06191652 -0.080157444
-0.18489096 0.12835991 -0.016028194
0.03416665 0.1593952 0.16247018
-0.24528247 0.2214633 -0.0864072
-0.0054237307 0.010387834 0.018879993
-0.12963077 0.21480249 -0.1765946
-0.1352477 0.21902616 0.16351587
-0.058713745 0.15103865 0.21574989
0.21221146 -0.111703545 0.11490867
0.052826 -0.07910196 -0.19904025
-0.1556048 0.0007678572 -0.17616904
-0.13424534 0.26412725 0.1153082
-0.048779085 0.014854065 -0.27084452
-0.2027014 0.24967526 0.070838384
-0.21018712 0.08372292 -0.20518987
0.024140192 -0.1124437 0.072050095
0.19636995 -0.1344903 0.13231881
-0.13269621 -0.008314963 0.10470741
-0.088373154 -0.05080182 0.07196805
-0.08579997 0.25157872 0.14285772
0.0035676323 0.02176539 -0.23694228
0.02803458 -0.012346163 0.18321143
-0.20542197 0.07341958 -0.2083181
-0.029306713 -0.09296596 -0.04280184
-0.14923292 0.28868067 0.045874998
0.124796346 -0.25352967 0.081637174
-0.16980517 0.15750906 0.13518596
0.21112157 -0.2209418 -0.055096574
-0.065625094 -0.06383425 0.013165839
-0.040585227 0.24270937 0.046653524
0.07073177 -0.15129805 -0.041628838
-0.024529798 -0.098980114 -0.037047435
0.13780159 -0.178901 -0.010905803
-0.08405062 0.22168192 0.17523806
0.10688942 0.050122697 0.08239156
0.048519086 -0.0060961237 -0.18892197
0.11717224 -0.17938113 -0.00240906
0.12923951 -0.024393829 -0.0040648147
-0.067201465 -0.011198053 0.07454505
0.0691672 0.10690462 0.17556018
-0.18601984 0.13704474 0.027151376
-0.18503457 0.057436384 -0.02871813
-0.22960563 0.15618289 -0.18196464
0.10788394 -0.1614406 0.14125934
-0.014440683 0.031014161 0.19330204
-0.18884546 0.083904006 0.0006295919
-0.1770836 0.029852666 -0.17075028
0.12575455 0.020596592 0.0117491055
0.1374917 -0.32583445 0.14549533
-0.114027485 -0.06899796 0.067515284
0.12020412 0.053870432 0.071232565
-0.19364859 0.03533724 0.07975161
0.10884199 -0.3087095 0.08796192
0.13418008 -0.043529876 -0.028381843
0.17765805 -0.25568128 -0.020940928
-0.16605921 0.10128406 -0.017049054
-0.019793255 -0.12791838 -0.1621295
-0.10505204 0.12016081 0.019758273
0.13465941 -0.3218343 0.1465815
-0.20471583 0.26533723 -0.07892003
0.032654915 0.05242269 0.21366091
0.17302477 -0.14327215 0.14236216
-0.08696563 0.15717861 0.19270137
-0.18999638 0.23512842 0.10645812
-0.017491976 0.21445872 0.09623098
0.25385568 -0.16843328 0.0858821
-0.052755535 0.20475008 0.18917173
0.15397763 -0.025676949 0.14073928
0.27739525 -0.15982841 -0.090301566
-0.09926055 -0.0149637135 0.09230941
0.13086706 -0.30974555 0.042443283
0.062155783 0.1378977 0.09810618
-0.024181902 -0.037281428 0.09738475
-0.18959373 0.06613164 -0.18100387
0.03315926 0.15888278 0.14007795
-0.06264787 0.029824343 0.123893864
-0.06644321 0.2566659 0.0056901225
-0.16646633 0.1545654 0.083309494
-0.12300297 0.08411098 0.06922776
-0.06397107 0.1195422 -0.22072122
-0.22210006 0.19690733 0.058192864
0.19087951 -0.09918005 0.04292755
-0.20332481 0.12298461 -0.047594525
-0.0214155 0.10260178 -0.2155883
0.20772558 -0.10879621 -0.02938622
-0.15005866 -0.020991705 -0.08824063
-0.12356813 0.058908716 -0.26949129
0.046936687 0.029670794 -0.18857633
-0.05720665 0.09609988 -0.24552315
0.011619404 0.04960399 0.22005367
0.16932477 -0.22165376 -0.04285402
-0.14441274 0.2723659 0.09521522
0.12334514 -0.078458495 0.16745847
-0.15668978 0.12829936 0.020251267
-0.14886963 0.2905972 -0.00583918
0.026777338 0.009536081 0.20738675
0.20910892 -0.1124611 0.118380666
0.059020743 0.04627479 0.20281887
0.28801098 -0.22705941 0.11107832
0.018121962 -0.13222574 -0.116595834
-0.010355522 -0.1301587 -0.1669935
-0.20970854 0.042747907 -0.0449616
-0.18444453 0.068272024 -0.048785042
-0.14046712 0.07370169 -0.10186497
0.14164862 -0.32176504 0.09752005
-0.19451028 0.20424782 -0.18781795
0.14253165 -0.20524763 -0.014712527
0.1002481 -0.10646947 -0.12054106
-0.153998 0.20996872 0.15651675
-3.9192106e-05 -0.0063719596 -0.07113733
0.0175003 -0.082439736 0.12110755
0.052473873 -0.15196525 -0.08046888
-0.10714451 0.0049408874 -0.2650435
0.13334183 -0.3134136 0.14875364
0.048265073 -0.1453674 0.0059645046
0.02191615 -0.05946772 0.16699044
-0.020934362 0.19849864 0.18388252
-0.103876956 0.23229454 -0.1121274
-0.190935 0.092086025 -0.2361354
-0.10179512 0.0077500017 0.094634406
0.22049573 -0.17407337 0.120568424
-0.2502679 0.19506592 -0.106922306
0.17506452 -0.18331815 -0.026625337
-0.1783105 0.07903128 -0.10244612
0.2801984 -0.16234402 0.041461464
-0.1348927 0.0790353 -0.08843109
0.1036755 -0.27531338 -0.017107207
0.047097694 -0.1435428 -0.12157025
0.05647823 -0.13296522 -0.13371372
-0.10485945 0.10841401 0.100126445
-0.09632588 0.1342607 -0.24299414
-0.22020353 0.1248253 -0.13428573
-0.2192271 0.1641852 0.014114004
-0.14835905 0.15810141 0.16644391
-0.14343886 0.22121161 -0.1755842
-0.020813197 -0.05729184 -0.24298565
0.021895839 -0.14758381 -0.12344892
-0.11639099 0.01889518 -0.26648864
0.053998854 0.1267572 0.12601194
0.16531168 -0.04496282 0.1365178
0.17820376 -0.0816123 0.13737492
-0.22416182 0.13336039 -0.19590187
0.14455333 -0.02742182 0.15369453
0.14741722 -0.024383679 0.14891738
0.07122299 -0.092035435 -0.17441589
0.08284385 -0.17267704 0.10066655
0.27698645 -0.18092506 0.091764234
0.13762853 -0.19539778 0.13964076
0.16367441 -0.29647222 0.15920873
-0.24431899 0.14378275 -0.118924595
0.084896445 -0.034183927 0.18629704
0.027997075 -0.10623762 -0.1907477
0.2129914 -0.24562415 0.11864603
-0.24000372 0.21754156 0.0077100946
-0.0888877 -0.008066221 -0.26415184
-0.200483 0.17087379 0.081703156
-0.18657634 0.06751415 0.05696488
0.00053304597 -0.09496384 0.045336824
0.09636081 -0.027521955 -0.10321969
-0.16056895 0.27210933 -0.090844825
-0.2192926 0.048000667 0.036473148
-0.23981513 0.22683714 -0.09312907
0.028850026 -0.03420244 0.16993724
-0.024975244 0.043840636 0.2140042
-0.10775915 0.0982886 0.17776658
-0.064716056 0.25421372 0.004998892
-0.115536846 0.10001445 -0.26686212
0.22277167 -0.15302597 -0.04422582
-0.09965889 0.072126105 0.13130644
0.12357291 -0.23784605 0.09242867
-0.078440845 0.26645517 -0.005842275
-0.09322005 0.15386222 0.20732312
0.151541 -0.116585836 -0.012210661
-0.0010292948 -0.011551243 0.19026682
0.08015336 -0.18896732 0.07616092
0.22008239 -0.096946344 0.07964494
0.029230027 -0.13691477 0.015432176
0.17920892 -0.3008397 0.15629315
0.005572395 -0.09041462 0.06971195
0.11994763 -0.29235417 0.07359155
0.07626343 -0.110330135 0.16017918
0.04102776 -0.13766544 0.025968619
-0.10794677 -0.08359462 -0.035458185
0.110596664 0.061452594 0.061418287
0.07721785 -0.17958267 0.077038296
0.15582223 -0.14863628 0.14824012
-0.09468583 0.2683277 0.11021319
-0.092274755 0.27202696 0.08301288
-0.13066296 0.26001382 0.1233588
-0.10804026 0.27625984 0.014113161
0.19644709 -0.17757252 0.11373413
0.21237658 -0.28726894 0.14353046
0.15989508 -0.118960515 0.14949925
0.1396849 -0.07098307 0.16122633
0.008744619 -0.08118965 -0.22100744
-0.19838408 0.004533548 -0.054833405
-0.0074395416 0.021241117 0.20822112
0.11656196 -0.2098254 -0.0042946627
0.15374573 -0.32414576 0.13274455
0.23433581 -0.23926337 0.06188949
-0.06704486 -0.045606397 -0.098262034
0.042600557 -0.0741201 -0.20935558
-0.13928464 0.22832915 -0.16256072
-0.24178311 0.1385659 -0.1400069
0.090066515 -0.0045857215 -0.14500752
-0.13799243 0.28636575 0.062512465
-0.1599583 0.1442803 0.039684314
0.12031507 0.004092026 0.035170183
0.1816294 -0.21237458 -0.04546526
-0.18186669 0.17144789 -0.21881016
0.14184421 -0.07060264 0.16021705
-0.083554804 0.18331237 0.20091976
-0.17857619 0.07033865 -0.1125247
-0.19885153 0.16649428 0.07639808
-0.015409238 -0.09299155 -0.21776484
0.08504358 0.09394156 0.08284183
-0.08764866 0.10544701 -0.25970536
0.16720498 -0.058044996 0.026402228
-0.19599319 0.07671954 0.018422777
0.10725929 -0.30170533 -0.026119357
-0.08379367 0.022105133 0.072307035
-0.14310041 0.23780869 -0.14982782
0.111566745 0.017534856 0.17160247
0.27435833 -0.14810702 -0.04902112
-0.13517357 -0.007868579 -0.14631136
0.21298751 -0.11432516 -0.033328444
0.08334005 0.007171264 -0.11944927
-0.1087785 -0.036027577 0.07387798
0.19320258 -0.0780593 0.052926823
0.018499399 0.016281182 0.02877548
-0.036077645 0.16067976 0.21133663
0.10672218 0.056207627 0.1474324
-0.15642862 0.055798285 -0.2572806
-0.17508976 0.0005621546 -0.067310534
0.10417096 -0.31590196 0.07455294
0.18100026 -0.05169667 0.0793615
-0.10852959 0.26943147 -0.007540618
0.16656436 -0.038206924 0.069342695
0.18238997 -0.26787406 0.113204435
0.25462154 -0.14314495 0.093057334
-0.092999876 0.06529372 0.13112363
0.06752805 -0.19417305 0.038114473
0.029515048 -0.03412827 0.18850897
-0.052863713 -0.036509417 -0.060054757
0.037873693 -0.025223875 -0.21965742
-0.003525139 -0.077198654 -0.22728106
0.09217086 -0.12353423 -0.105765566
0.15054359 -0.1368636 -0.013222576
0.26643753 -0.14090459 0.003357652
-0.07097792 0.11845995 -0.2374752
-0.16260034 0.1456315 0.061369758
-0.043924034 0.090559274 -0.22991958
0.018815992 -0.11265097 0.056667183
-0.104596354 0.180919 -0.19611743
0.10242021 0.01283736 0.035358395
-0.21620892 0.2592615 0.017303549
-0.1873306 0.10126361 -0.23873979
-0.08966762 0.04114673 0.08719166
-0.10077971 0.27033773 0.01621245
-0.117830075 0.24089542 -0.09794254
0.20356545 -0.24196145 -0.00987662
0.14699045 -0.32802925 0.12568854
-0.13623811 0.2610292 0.11899822
0.28729558 -0.18672845 -0.0051218686
0.1272148 0.024570879 0.14008698
-0.02519383 0.18504147 0.19835226
0.15029776 -0.1004651 0.15476708
-0.10182222 0.17371042 -0.20460273
-0.11078683 0.102562375 -0.26657057
-0.088699296 0.06304716 0.0659995
0.19361928 -0.08861141 0.012503176
-0.13888982 0.28085822 -0.03925816
0.2353326 -0.23966637 0.06377347
-0.089034125 0.027269622 -0.2730577
0.19210453 -0.07473234 0.11375763
-0.20165887 0.27334598 0.00039458595
0.07520726 -0.011677147 0.19205497
-0.11082714 0.002550227 0.09775215
-0.10347898 -0.020824267 -0.12579855
0.024931341 -0.05284172 0.15046334
0.016229488 -0.0040102415 -0.013454487
-0.19467688 0.0800537 -0.16373794
0.013949018 -0.1446117 -0.043463472
-0.063950114 -0.061819065 -0.09625843
0.10190526 -0.17001727 0.13171189
0.16621551 -0.029043349 0.089028366
-0.21107042 0.24281567 0.016887406
0.046376396 0.14331166 0.14198954
-0.19200334 0.08874887 -0.23481505
0.02681706 -0.08147089 -0.21296604
-0.022920964 -0.010077005 -0.0059093535
-0.1978141 0.066660486 -0.14582084
0.028009618 0.12164114 0.20893966
0.32233796 -0.19517685 0.10452688
-0.0820366 0.076675236 0.060164567
0.04015805 0.15260027 0.14551567
-0.08929038 -0.08415512 0.015847107
0.2500779 -0.24807909 0.097526774
-0.08079591 0.021034546 0.08732111
0.021900719 -0.017139446 0.19618158
0.028360322 -0.010343617 -0.022208985
0.22809714 -0.16713157 0.11777836
-0.23732068 0.18647964 0.0067945975
0.023777112 -0.05820334 -0.22846717
-0.14635374 0.13778667 0.063244
0.12260247 -0.013350745 -0.07363076
-0.050484646 0.025220677 0.17343913
-0.031249406 -0.016935589 0.13225982
-0.037776593 0.032784216 -0.26563
0.08348067 -0.087018214 -0.16351964
-0.12498029 0.22188348 0.16520403
-0.07796128 0.17452763 0.20486903
0.16019656 -0.065451145 0.14871722
0.104122736 -0.2498143 0.07607195
-0.08450758 0.039836265 0.08642636
-0.08659114 0.19221094 -0.17873697
-0.07313748 0.25324252 0.05509551
0.2168841 -0.27179632 0.100825936
0.005957764 -0.10910449 -0.19617625
-0.023475012 -0.11000049 -0.19946356
0.1176943 -0.1688972 -0.0018885983
-0.080148615 -0.02164459 -0.26048273
-0.10759384 0.14419694 -0.0059280507
0.25927597 -0.143735 0.08900178
0.13652241 -0.00012057322 0.1498411
0.091028504 0.06300475 0.06808883
0.020045862 -0.13221717 0.013280511
-0.19757496 0.07339943 -0.12995373
0.024568869 -0.017489659 -0.23169824
-0.16786893 0.22888136 -0.17318194
-0.22483884 0.0548673 0.017201642
0.03626704 0.14286244 0.10042977
-0.21540402 0.22415377 0.07285276
0.2276457 -0.10811658 0.08748768
-0.12337756 0.2146381 0.17123748
0.15164405 -0.15174273 0.14889596
0.0006372593 -0.115847334 -0.0014636441
0.059179936 -0.10534781 -0.17158692
0.05327461 -0.12222548 -0.15525483
-0.22608161 0.12705314 -0.08881912
-0.20088933 0.080657184 -0.12287156
-0.17002535 0.17553866 -0.22254665
0.05980398 -0.1757892 0.023397874
0.18434414 -0.23928438 -0.05468482
0.13387243 0.018802416 0.12782665
0.03776526 -0.075217396 -0.2119331
-0.001862676 -0.07092667 0.09282992
0.0071322145 0.20605461 0.10791665
-0.16906473 0.06715785 0.067211606
0.15762953 -0.06593673 -0.008455775
-0.14470528 0.2659677 0.106252894
-0.10812833 0.18885772 -0.18810919
0.32349628 -0.18353271 0.05581772
-0.24388969 0.1417386 -0.11507944
0.039596144 -0.15148361 -0.0961284
0.09949038 -0.024581332 -0.10142009
0.18605398 -0.06812883 0.120604366
0.11902826 0.055898055 0.07756857
-0.0969493 -0.08555571 0.03752584
0.11638288 -0.30879673 0.011718735
-0.11610073 0.16999939 -0.22220366
-0.14506473 0.2863012 -0.024891548
0.08836692 -0.20478526 0.0077184704
-0.108089305 -0.04686332 0.06799146
0.17449807 -0.079969004 0.14004034
0.033045307 -0.11256297 0.09672669
0.22906595 -0.122221254 -0.029782766
-0.18855087 0.1629559 -0.21847731
0.2092489 -0.14884554 0.1264854
0.025208183 0.048448235 -0.20710042
-0.10237146 0.02498871 0.07724728
-0.004392245 0.03513944 0.045520104
-0.1298137 0.2839962 0.0749053
0.13620654 0.00352332 0.07840339
0.03378916 -0.1522141 -0.04748268
0.25016892 -0.1497453 0.100980915
-0.0071868747 -0.12982298 -0.16822816
-0.19854476 0.2776771 -0.0242959
0.012475141 0.19625278 0.09052916
0.15648293 -0.15989119 0.14654121
-0.075875774 0.062029835 -0.12305782
0.10024158 -0.07624346 0.17524108
-0.003601889 0.020369 -0.24410373
0.14613195 -0.30498138 0.058413696
0.030765818 0.15554883 0.18104334
-0.09247688 0.21540818 -0.15823528
0.2528897 -0.22121008 0.11755508
0.12924309 -0.33064038 0.098785296
0.08669317 -0.17231494 0.112266034
0.12041499 -0.3116874 0.027749335
-0.14983657 0.09037004 -0.2588211
0.2646342 -0.21150121 0.11263745
-0.2037479 0.12935276 -0.22051708
0.056001164 -0.020473521 -0.19356988
-0.08259584 0.2403765 -0.076288745
0.0944457 -0.32111216 0.004337809
0.19443712 -0.08393894 0.03352345
-0.024806174 -0.013004949 -0.26144278
0.14912212 -0.24631983 0.12808055
0.06735279 0.135772 0.11970923
0.005899168 -0.14017838 -0.04534431
-0.05823889 0.07177503 -0.261714
0.10821415 0.035505384 0.16817914
0.05092117 -0.15441568 -0.056632698
0.1909433 -0.06418379 0.09615911
-0.22014953 0.046968922 0.03174625
-0.20177473 0.100792944 -0.08828922
0.22300276 -0.22270943 0.11611555
0.07606787 -0.18141961 0.071350664
0.21079004 -0.2476372 0.020259174
-0.018923054 0.2285248 0.07534827
-0.10756404 0.11939067 -0.111045465
-0.061054528 -0.061805513 -0.0036225459
-0.12814648 -0.08757064 -0.013916871
0.2001382 -0.2437478 -0.011421779
-0.25190455 0.19975318 -0.08443537
-0.21379234 0.1205833 -0.06898367
-0.16036661 0.090038955 -0.25448996
0.057425614 0.14855428 0.108886756
-0.060100704 0.19764504 0.19468538
0.23165481 -0.25074217 0.069465436
0.034173027 -0.13306366 -0.15213928
-0.05838444 0.11216366 -0.22170971
-0.20391381 0.20523702 -0.14945959
-0.22598343 0.2552365 -0.030024007
0.21746297 -0.2555821 0.14365292
0.24305892 -0.14757589 -0.05223224
0.10103902 0.052308153 0.16804579
0.06433664 -0.14790414 -0.08470767
-0.06454309 0.049672134 0.18898317
0.093308665 -0.0018043708 -0.12965383
-0.026360288 -0.12595421 -0.16124791
0.09750222 0.08710109 0.08257453
0.294736 -0.15657125 0.046786517
-0.09068945 -0.03182605 -0.25477743
0.01801265 -0.10714383 -0.19365537
-0.0028931915 -0.03169709 0.12149759
0.0037580682 -0.10043252 -0.20592546
0.06624833 0.1112001 0.1757538
0.10741536 -0.118206635 -0.084493645
0.07764922 -0.11183555 0.15976253
-0.08106126 -0.041500848 -0.25196373
0.21086204 -0.27111652 0.14529115
-0.21890964 0.22773372 -0.13354951
-0.027030569 -0.011285439 -0.26229665
0.28088441 -0.23228356 0.1190629
0.18504906 -0.13138247 0.13820358
-0.052528635 0.052807286 0.20332155
0.03370997 0.0021053308 -0.21035576
-0.08359375 0.052271724 0.06807541
-0.14721707 0.12274876 0.060114104
-0.17722295 0.20436741 -0.19750997
0.11999036 0.01191858 0.1649372
-0.16477956 0.07359892 -0.2538198
-0.16402225 0.0741484 -0.036509912
-0.10703647 0.09255704 -0.26907116
-0.22111657 0.019429775 -0.03306315
-0.08523516 -0.08029505 0.01710306
0.2535461 -0.254278 0.12188534
0.053672623 0.014533797 -0.14913584
0.09718839 -0.09190532 -0.14046253
0.113151535 -0.012026697 -0.09712058
-0.20703517 0.18844725 -0.187549
-0.12249424 -0.026619682 -0.08793581
-0.17759235 0.23643732 0.11882161
-0.10414798 -0.055295173 -0.066241086
-0.22003394 0.18134025 -0.18061242
-0.17727949 -0.047742005 -0.06173762
0.116367176 -0.30559033 0.093641266
0.14183398 -0.10361517 0.15804602
-0.17401914 0.20245603 -0.20050575
0.041514948 0.094490044 0.2095368
-0.104035795 0.2741857 0.01763982
0.16882958 -0.27595985 0.12444742
0.09094128 -0.055223253 -0.153144
-0.16861323 0.22385815 -0.1794628
-0.18894807 -0.034931052 -0.065535046
-0.18155934 -8.421694e-06 -0.064675294
0.27780446 -0.19647068 0.09533046
-0.1254752 0.20481186 0.17678756
-0.09789124 0.097780354 0.19241326
-0.021963648 0.054317527 -0.2429341
0.028585423 -0.1082878 0.0938729
-0.22441684 0.22965221 0.051410265
-0.09425179 0.15742348 0.2064967
0.35169086 -0.17098774 0.074651696
-0.092638314 0.083985694 -0.27006716
-0.11627069 0.019961748 0.096642956
0.13807264 -0.013283214 0.045733355
-0.17672546 0.16024186 -0.22733462
0.25427452 -0.241728 0.08756598
0.12146273 -0.22428457 0.12158597
0.18861143 -0.21618669 0.13079531
0.073884934 -0.12487284 0.020973725
0.29162583 -0.15472043 -0.080181345
-0.06567496 0.123147614 0.21894333
-0.07333313 0.08774428 -0.26207352
-0.0052606775 -0.116417944 -0.019271847
-0.12379732 0.11636246 -0.0120573295
-0.024696607 0.22736531 0.056559846
-0.24093603 0.21741448 -0.109833635
0.25386375 -0.206303 0.104506366
-0.14707857 0.118369125 0.11290493
-0.20201144 0.041366212 0.06992072
-0.17425023 0.1627994 0.13184842
-0.17591289 0.06845394 0.062228177
-0.04336865 0.24867827 0.05231567
-0.11063892 0.10008366 -0.26714718
0.033020724 -0.10612888 0.051247157
-0.098692 0.27301553 0.09784264
-0.072495155 -0.03818467 -0.25477096
-0.03540867 -0.12351498 -0.12140463
-0.15021148 0.16550338 -0.2351102
-0.06889617 0.16605064 -0.20000288
-0.21241632 0.09694077 -0.21168771
-0.17485619 0.18171097 -0.21681096
0.18001792 -0.06790026 0.12973133
-0.12649931 -0.036505014 -0.17868748
0.033652272 -0.05004584 -0.22525524
0.078339286 -0.30799666 -0.017227186
0.1581251 -0.26905006 -0.020673508
0.06384061 -0.02468959 0.19361772
-0.15015712 -0.0032674584 0.09263677
0.31032172 -0.17301857 0.00039680683
-0.106026 -0.06466679 -0.18483968
-0.045568936 -0.10611758 -0.19767627
-0.0034741252 -0.10164578 0.019045226
0.014908059 0.042316478 0.20211583
0.24238726 -0.20526834 0.09279136
-0.15833125 0.12516421 0.08762202
0.32050416 -0.16945049 0.1010193
-0.20708957 0.054390185 -0.036346525
-0.14513199 0.11698662 0.091727555
-0.059533317 0.030807564 0.16068985
-0.080242425 0.05977245 -0.2740101
-0.033218447 -0.111449905 -0.1957985
-0.1994394 0.13500924 -0.010452507
-0.116516106 -0.06933088 -0.057805263
0.07281049 -0.14019792 -0.09715328
-0.0973144 -0.06353992 -0.22004664
0.20573196 -0.15543348 -0.037348483
-0.024435755 -0.036063366 0.101858735
0.099604174 -0.2131521 0.10069415
0.04783942 -0.13445462 0.08880254
0.13293916 -0.12587996 0.158008
0.10925354 -0.05305377 -0.11483409
-0.124020964 0.26683474 -0.056790944
-0.061616022 0.18977463 0.1985123
0.06191373 -0.09557127 0.1640237
-0.17093241 0.28845564 -0.027058765
-0.13183293 0.28889477 0.036643863
0.103720956 -0.23244706 0.09278862
0.06022116 -0.039486114 -0.19578436
-0.20147435 0.024477055 -0.064609736
-0.13032886 0.003791329 -0.15835127
0.08668306 -0.1250938 0.15511273
-0.19349654 0.08432481 -0.23230685
-0.25101587 0.18425852 -0.09943789
0.023095902 0.18063353 0.09189893
-0.011567672 -0.005982615 -0.050354052
-0.15670376 0.2905549 0.023862397
0.06691703 -0.028388355 0.19220805
-0.21111372 0.2090466 -0.13478827
0.1099851 -0.22356474 0.1095795
-0.092636116 0.26080287 0.12793271
-0.21117611 0.15740833 0.021385025
0.18743683 -0.077976935 0.12536898
0.058468286 -0.0065052113 -0.16286026
-0.008540459 -0.12027305 -0.18487641
0.036037777 0.15870872 0.15796651
-0.005752131 0.06933546 -0.1907625
0.15782891 -0.15246591 0.14716281
-0.18291518 0.18060906 0.12672713
-0.111401916 -0.044179 -0.23138003
-0.15262252 -0.048698932 -0.078263745
-0.23320732 0.22652684 0.02844772
0.0551092 0.08440694 0.20361722
-0.097875185 0.13008454 -0.24760754
-0.12515174 -0.039966457 -0.18271768
-0.18402769 -0.008398879 -0.06424391
-0.23621783 0.14223242 -0.17244971
0.23397127 -0.15417995 0.1134809
0.09449712 -0.04279853 0.18189214
-0.11019492 0.110921934 -0.26341224
0.09314811 -0.0609196 -0.15032783
-0.20270532 0.1676301 -0.20476858
-0.06654087 0.054151703 -0.27218616
0.12395177 0.024679162 0.015905501
0.08907399 0.10543402 0.10030501
-0.07700147 -0.048802048 0.029182408
0.082571216 0.028544419 0.1907097
-0.17978589 0.27719563 -0.07617831
0.15010495 -0.17569263 0.14466833
-0.05290024 0.018802471 0.114172935
-0.11548187 0.14485699 -0.044671863
-0.11456062 0.050954018 -0.27098486
-0.09459512 0.16599831 0.026375968
-0.0009395045 -0.1260376 -0.12375752
-0.15522477 0.23117393 -0.16764635
-0.0192286 0.20020936 0.18078464
-0.18171947 0.051760174 0.076775625
-0.081488855 -0.042300005 -0.11189552
-0.17207885 0.27932388 -0.07224573
-0.038712755 0.06268325 0.19893947
-0.21414727 0.19172822 0.074069485
0.17349084 -0.047025613 0.12286607
-0.18170114 0.14485238 -0.22974727
-0.059283733 -0.057029832 0.018618183
0.21897365 -0.2328923 0.11706638
-0.18456125 0.14422007 -0.22819614
-0.073358774 0.25950277 -0.007284521
-0.042383283 0.11807896 -0.19016549
0.1443412 -0.29815716 0.056371253
-0.041851915 0.11798264 0.2236509
0.2017104 -0.07835369 0.081461735
0.17451526 -0.3195537 0.15481241
-0.067648984 0.040928442 -0.274203
0.009705286 -0.14815971 -0.096391864
-0.17845854 0.250419 0.06546888
0.2484643 -0.14648707 -0.05114941
0.216315 -0.16343917 -0.04228713
0.13225144 -0.10226826 -0.018600041
-0.10018328 0.09399376 -0.26809597
-0.025030948 0.025783494 0.044147316
0.09378713 0.101039 0.10359718
-0.09300935 0.22480282 -0.14057894
-0.08369144 -0.0726913 0.038842194
-0.22960399 0.20187354 -0.15063106
-0.09019154 0.17977858 -0.17851518
0.007469492 0.15050799 0.2065854
-0.10738787 -0.06758403 0.048659213
-0.062425647 0.043111097 0.18033163
-0.18531735 0.056109242 0.042794008
-0.078850694 0.019577658 0.086667806
0.1327298 -0.28519106 -0.02385452
-0.15420556 0.29087842 -0.0045245406
-0.13222761 0.28106415 -0.026473045
0.09330125 0.038494017 0.18220869
-0.14052905 0.09114083 0.055983163
-0.16645019 0.014566526 -0.0698995
-0.034188066 0.07119814 -0.24198699
0.23932034 -0.12981905 -0.032156102
-0.04727104 -0.095623806 -0.17341962
0.25240377 -0.13495615 -0.014040193
0.10217512 -0.17708403 0.12724826
0.2035537 -0.17532471 -0.03784482
-0.037532784 0.008353622 0.1716856
0.23345292 -0.2472167 0.06290764
0.010233472 -0.14824714 -0.0942002
-0.038797043 0.121973716 0.2229349
-0.10078482 0.12689312 -0.25184965
-0.07138851 0.042097904 0.15294023
0.031778835 -0.10412343 0.112209216
-0.0510688 -0.11196058 -0.16965653
-0.11423692 0.09827992 -0.26734585
0.34814095 -0.17344548 0.07478048
0.22740714 -0.1306143 -0.043190587
0.24789222 -0.1327777 -0.01839782
-0.038056307 -0.043515433 -0.009133624
0.26282206 -0.16227296 -0.08899272
0.12743865 -0.013956956 -0.059184898
-0.12371847 0.18124865 -0.21468304
0.27535033 -0.17713076 -0.055555113
0.13241267 -0.23536356 0.12449883
-0.2039984 0.14130075 -0.21682426
-0.11738713 -0.08174783 -0.04610082
0.14188783 -0.28476173 -0.0073592938
-0.17410044 0.28100598 -0.06495866
0.12335197 -0.08840702 0.16675651
0.09257221 -0.13929512 -0.012141458
0.12559725 0.016438797 0.0019325989
-0.024654416 0.040168837 0.21240719
0.33824492 -0.18356091 0.08443235
-0.0731785 0.25275984 0.030087385
-0.23093466 0.23696505 0.023743069
0.066491865 -0.15018022 0.105591305
0.016367324 -0.13839263 -0.01285475
0.20693283 -0.13894154 -0.036686916
0.29900178 -0.20481783 0.06902353
0.031852845 -0.05746142 -0.2244599
-0.18710814 0.02269718 -0.05556488
0.14027043 -0.06048864 -0.015426191
0.27280962 -0.15677568 0.045650683
0.11184188 -0.26573163 -0.00626976
-0.03721674 -0.11179607 -0.09836521
0.1391081 -0.007955212 0.15103461
0.11527168 0.021896172 0.06119106
0.27913338 -0.17530766 -0.053427085
0.17406666 -0.29504707 0.15882635
-0.033610955 -0.10138695 -0.064792715
-0.14172325 0.10030848 -0.26147828
-0.08147181 0.16142996 0.20978276
-0.052001864 0.16324948 0.21072191
-0.18598643 0.040108457 -0.17256328
0.3100023 -0.16981052 -0.009353607
-0.16982222 0.28966677 0.0011220716
0.1272532 -0.32329053 0.07401186
0.19582714 -0.29251638 0.11907304
-0.2138132 0.093517736 -0.13007523
0.07702017 -0.14905848 0.016324408
-0.10338027 -0.052854303 0.08215646
-0.1336559 0.25521097 0.1285475
0.27686444 -0.19793472 0.09767857
0.17090471 -0.03870491 0.11528865
0.21384418 -0.13034889 0.12082904
0.0073741623 0.02236437 -0.23229231
-0.026044646 0.044011075 0.21368699
0.00583431 0.16795743 0.19508916
-0.21586993 0.2582235 0.024360135
0.15379247 -0.041045245 0.027164249
-0.02596245 -0.009520887 0.041553687
-0.078774735 0.25456902 0.13507949
-0.07917053 0.072996065 -0.1319611
-0.13037914 0.2867019 0.012113883
0.07412985 0.100339554 0.1723465
-0.0050675985 0.11127527 0.22114393
-3.258031e-05 -0.0062556863 -0.09654388
0.1901973 -0.20913662 0.13063471
-0.14274104 0.016423374 -0.2546838
-0.17923255 0.06460109 0.064738475
0.073542 0.07381576 0.19119169
0.138463 -0.2503409 -0.043752257
-0.17859049 0.09764258 -0.24466984
0.23780769 -0.22651018 0.08193874
-0.13318677 -0.02063022 -0.09012497
-0.010442599 -0.1045587 -0.007044906
0.21151334 -0.19898881 -0.07035379
0.18724729 -0.08541915 0.077724785
-0.009107005 -0.003028946 -0.0042507937
0.11159042 0.0076886406 -0.02797807
-0.18159012 0.083998255 -0.09800995
0.21292716 -0.14455636 -0.039560016
-0.16534662 0.022890666 -0.23673908
-0.08669218 -0.03920966 -0.25171232
0.19628015 -0.2439927 0.0015287455
0.08638426 -0.32452482 -0.0015443985
-0.0076301913 -0.040945657 0.14427997
-0.20111175 0.06911564 -0.019206258
0.27016667 -0.1381498 0.060429905
0.033941202 -0.12996772 0.059987765
0.18790478 -0.12486689 0.13637932
0.08803679 -0.075046584 -0.1614556
0.022878373 0.018589163 0.034579918
0.12474177 0.035440285 0.0423843
0.16542275 -0.07220053 0.04639713
0.012449852 -0.046743345 -0.23848338
-0.18482791 0.27866843 0.0330335
-0.19182445 0.045477778 -0.2088399
-0.13097022 0.13903329 0.1787763
0.21949059 -0.11575195 -0.032738693
-0.08560888 0.12124385 -0.24689397
0.029910449 -0.15252228 -0.08444931
0.1109051 0.005325586 -0.06428405
0.18725811 -0.15092233 0.13593894
-0.018402144 0.21571214 0.1424018
-0.010938457 0.20964615 0.13188282
0.09640196 -0.25405455 0.00093526935
-0.1598397 0.038221702 -0.13087875
-0.11763322 0.13070992 -0.2546615
-0.24648662 0.2229734 -0.024002057
-0.1948402 0.20346265 0.11219325
-0.13195203 0.0633434 -0.26690185
0.18084094 -0.055147544 0.114142
-0.12867655 0.1040616 -0.078551
-0.25180736 0.19737831 -0.092174344
-0.074212775 -0.07446299 -0.11877836
0.15024512 -0.19194777 0.14160788
0.1470436 -0.3089602 0.16258436
0.1222189 -0.33028975 0.08419781
-0.1792593 0.28765815 -0.0105901
0.10773908 -0.25537175 0.03570407
-0.13375166 0.2839429 -0.014275401
-0.04246703 -0.09516252 -0.18294829
-0.10225784 0.07904446 0.07544511
0.1118381 -0.3281085 0.06850528
-0.061407402 0.118266046 0.05757599
0.03564552 0.1480435 0.18510595
0.04447788 -0.0031613393 -0.19362445
0.22050253 -0.19973117 -0.074123226
-0.14305505 0.1571658 -0.24069399
0.05712607 0.09630531 0.107844226
-0.23359443 0.21561468 -0.12769854
-0.11734091 0.17049073 0.17627628
0.2473834 -0.18011373 -0.083861224
0.11723836 -0.05385853 -0.09530237
-0.08322839 0.2277105 -0.10662276
-0.062316246 0.027687967 0.14585906
0.052188326 -0.124494486 0.025782932
0.00969626 0.030207833 -0.215808
