# .PCD v0.7 - Point Cloud Data file format
VERSION 0.7
FIELDS x y z
SIZE 4 4 4
TYPE F F F
COUNT 1 1 1
WIDTH 1000
HEIGHT 1
VIEWPOINT 0 0 0 1 0 0 0
POINTS 1000
DATA ascii
-0.019600743 -0.19896604 -0.30957726
0.01647063 0.035812292 -0.055759687
0.05246559 0.10245326 0.098254405
-0.009434092 -0.04364657 -0.23939353
-0.12314266 -0.065101385 -0.35256875
0.052836172 -0.15877229 -0.3082695
-0.07799221 -0.1547801 -0.32442084
-0.0018815292 0.14506964 0.3021985
-0.039454754 0.0051887953 -0.15353705
0.14126024 -0.045277253 0.25162077
0.0078022275 0.02551267 -0.07788811
-0.03492247 -0.23758689 -0.21672614
0.09287733 0.08996851 0.32578197
0.09082824 0.17400497 0.34674326
0.05696067 -0.19736621 -0.25407034
0.049603287 0.09298784 0.075165205
-0.060864277 -0.113264725 -0.34250253
0.032348227 -0.05006764 0.04990364
0.019481463 0.20140707 0.29303902
-0.057508506 -0.13515829 -0.1713203
-0.06693235 -0.017589651 -0.33886072
0.03008678 -0.08596437 -0.13878946
0.0065804226 0.004035025 -0.31689316
-0.10782572 -0.10480626 -0.33972135
0.10910958 0.0032563298 0.22800903
0.029883433 -0.027127102 -0.14440838
0.011372355 -0.19146274 -0.18638061
0.059866976 0.23895563 0.1938508
-0.09080443 0.07939215 0.24503416
-0.06244103 -0.093314685 -0.3492428
0.052937143 0.014857039 0.32245538
-0.067509726 0.12660244 0.28087673
-0.074247666 -0.05604271 -0.34843403
-0.0198785 -0.021591464 0.26443213
0.118121125 -0.023526147 0.23760691
-0.08800192 -3.816455e-05 -0.32258064
0.07331359 0.19581419 0.27524617
0.016072933 0.03211282 -0.065173104
-0.057098407 0.10157501 0.30494526
0.07911488 0.21102831 0.27699438
0.09821058 0.020885317 0.31657293
0.042507365 -0.14165959 -0.24218631
0.08495871 0.11675654 0.35918376
0.106722206 -0.008834257 0.23363538
0.21823555 0.094028234 0.17273636
0.16441403 0.13254595 0.26092553
-0.114418626 0.08082843 0.2740551
0.033013333 -0.19710866 -0.18780948
-0.09026874 -0.13089375 -0.19079755
-0.16797526 -0.06381797 -0.21555364
-0.02298423 -0.22380391 -0.2943858
0.06187478 -0.16556872 -0.21990196
0.1605631 0.09227516 0.30293816
-0.17889336 -0.11772783 -0.30171725
-0.14288574 -0.18904676 -0.2041474
-0.05084673 0.021481588 -0.092994444
0.023982374 -0.19898386 -0.18520142
0.11046106 0.1352978 0.17151733
-0.054704774 -0.056573298 -0.35675946
0.018662881 -0.095744014 -0.071177125
0.0946544 0.10334849 0.31972894
-0.050953634 -0.023286866 0.30927053
0.048316896 0.073850825 0.04648631
0.20129724 0.045426242 0.19158375
-0.089196384 -0.027488237 -0.29525307
0.06449325 -0.19474643 -0.20864347
-0.013687902 -0.08275005 -0.0309148
-0.13032581 0.09422459 0.23724844
-0.10299316 -0.08714775 -0.20737824
-0.059686027 0.031168757 -0.29601476
0.09575135 0.158137 0.35251302
0.18955107 0.15906635 0.17164487
0.040701907 0.028965985 0.34757137
-0.07393885 -0.012873298 -0.13061193
-0.16123188 -0.14509016 -0.18728098
-0.019101439 0.037008002 -0.08170782
-0.02114472 -0.12297139 -0.34935385
0.08871973 0.21445212 0.2254313
-0.08904678 -0.030932467 -0.2341082
-0.028151073 0.047172647 0.15209441
-0.07793458 -0.21920627 -0.23986147
-0.029667595 0.078202076 0.15998572
-0.17418043 -0.04334636 -0.2645542
0.06279865 -0.021342166 0.011741571
0.04918795 0.06497189 0.34517843
0.10089333 0.09314188 0.32282478
-0.08145417 -0.053265948 -0.10815184
0.21729416 0.10942407 0.17838031
0.025737943 -0.18678121 -0.3315783
-0.040658653 -0.08029612 -0.037633054
-0.0045547285 -0.01073174 -0.33076242
0.051256403 -0.104147285 -0.35919324
-0.0315737 0.036767725 0.13359813
-0.1112309 -0.21745984 -0.16354206
-0.1477724 -0.07271167 -0.34538308
-0.05604384 -0.1149758 -0.33865988
0.064491384 0.014427977 0.013882923
0.018311767 -0.14866093 -0.3438504
-0.080916114 -0.23947594 -0.276358
-0.1070961 0.08558832 0.27709794
-0.03664086 -0.2222326 -0.21619646
-0.057782985 0.0036512332 -0.14765227
0.087662496 0.12616813 0.1799726
-0.023859398 -0.041189793 0.28296298
-0.04428817 -0.071051076 -0.03732781
0.03222202 -0.2257054 -0.21837498
0.025430894 0.22331688 0.2449631
0.076604515 -0.109118246 -0.26208374
-0.037385505 -0.10177703 -0.09491987
0.1165865 -0.033997055 0.2730577
0.02664867 -0.038423203 -0.3292084
-0.036142822 0.042464122 -0.024236655
0.03355814 0.036335625 -0.029951803
-0.16611454 -0.1766967 -0.2690857
-0.043931782 -0.22412866 -0.17598192
-0.0510821 0.23735256 0.16981953
0.04033392 0.043620713 0.3278774
-0.14733669 -0.07414017 -0.34486237
0.08763161 0.21771981 0.14099836
0.06138521 -0.053366438 0.26167932
-0.14727215 -0.13836838 -0.3175279
0.091251396 0.16571574 0.35018754
0.12806524 0.19029942 0.237846
-0.12039811 -0.20482439 -0.26258865
-0.17411406 -0.1437216 -0.2482448
0.07241552 0.20113662 0.15110719
0.04191834 0.16787018 0.17138168
-0.057790108 -0.012890372 -0.19069761
0.21049683 0.081070304 0.22150707
-0.06263161 0.06880309 0.26574996
0.04126105 0.16565709 0.34345183
0.053001545 -0.13917446 -0.28962636
0.13870078 0.20116761 0.26925445
-0.05531828 -0.0024937845 0.0201404
0.021102771 -0.09988858 -0.121934965
0.019190941 -0.1834058 -0.2900074
-0.094278105 0.109129176 0.26207322
-0.08900726 -0.029929722 -0.34105027
0.011952395 0.03279647 0.23489723
0.026666211 -0.08837529 -0.094971895
0.1131963 -0.03363635 0.24289802
-0.13569821 -0.10212202 -0.23330642
-0.065938435 -0.022272194 -0.24458322
0.0008350017 -0.1452623 -0.34426677
-0.041419048 0.046664435 0.027376426
0.12430328 0.0029114967 0.2943354
-0.034054562 0.025285609 -0.10414894
-0.0038450279 -0.13837798 -0.18862985
-0.16957524 -0.13617218 -0.21689601
0.0053151892 -0.03688942 0.2658979
-0.12085558 0.17994231 0.21568726
0.044064008 -0.057875734 0.2670697
-0.15496805 -0.19945551 -0.2711991
0.014621984 0.12938255 0.3246793
-0.044950698 -0.07720532 -0.042776816
0.034220684 -0.049404126 -0.13697787
0.04328308 0.00036886983 -0.077968635
-0.011691896 -0.20111628 -0.29076958
-0.025292834 0.10093603 0.3368885
0.010720487 -0.1262746 -0.18500236
-0.03170998 0.044024203 0.13632394
0.07007081 -0.014502309 0.24339178
-0.06308261 -0.090714246 -0.33495784
-0.021538623 -0.20498896 -0.1794681
-0.052628208 0.19371505 0.25605422
-0.022190917 0.00600966 -0.16071282
-0.014755379 -0.039319564 -0.37918282
0.007210732 -0.041192804 0.06844891
-0.03090778 -0.14725083 -0.3370602
-0.015387694 0.043596976 0.20193905
0.038487982 0.12605694 0.34167144
-0.1171792 0.14912003 0.21124147
0.042058147 0.0016086707 -0.082349814
0.16146885 0.12993276 0.25587267
0.012173765 -0.13757607 -0.34981135
0.044026054 -0.03914003 -0.09281175
0.06731323 -0.1973129 -0.21230394
0.03922592 -0.051947042 -0.04695183
-0.051934287 0.11920714 0.3016978
-0.10364295 -0.017314663 -0.32221794
0.006186006 0.030827519 -0.071805306
-0.088682435 0.06951993 0.23942393
0.11932958 0.066997744 0.32970455
-0.043397352 0.03273432 -0.27085698
0.17576402 -0.0001577671 0.24295326
0.010205943 -0.07999704 -0.35376963
-0.08084645 -0.21799521 -0.29693347
-0.06899761 0.14097953 0.26403457
0.014738322 -0.07700368 -0.22798419
-0.05719296 0.16365434 0.27563938
0.12954691 0.23358774 0.13523272
-0.024852026 -0.21063347 -0.19236954
0.058293626 -0.0034100069 -0.019159265
-0.089862645 -0.04589083 -0.13872616
0.026707148 -0.16628331 -0.19967085
-0.06401918 -0.031652376 0.29454747
0.02580687 0.08579143 0.31608245
-0.037170965 0.09464439 0.3404583
0.034576874 0.21843639 0.19379751
-0.013300328 -0.2021614 -0.18455131
-0.02844836 -0.16146576 -0.3315008
-0.009159315 0.062209014 0.3580453
0.1283854 -0.00049162464 0.28692183
-0.00889437 -0.20046301 -0.30800435
-0.06341498 -0.046798464 -0.03250391
-0.06255577 0.04225944 -0.27280712
0.15245192 0.20046721 0.14474516
0.070844166 0.21310447 0.14632626
-0.07318525 0.027095603 0.2543826
-0.05005172 0.21398838 0.17956121
0.0634538 -0.09375862 -0.31445315
-0.011757369 -0.09886348 -0.056294825
-0.015377482 -0.046740722 0.31179297
0.014733169 -0.045428816 -0.33583087
-0.12637177 0.14265163 0.21583746
0.011028359 -0.21097684 -0.2608637
-0.046213895 0.031374943 -0.08174299
-0.17788997 -0.12474651 -0.24526203
0.08415419 0.025913695 0.09834476
-0.018334135 0.039516665 0.18821923
0.07979044 0.1764871 0.32443234
0.08664562 0.20694506 0.20701456
-0.12666917 -0.062983766 -0.23088226
-0.036137037 -0.12816508 -0.13899133
0.11045351 0.16345221 0.15953155
-0.0028289787 -0.04236996 -0.3541711
0.17963842 -0.007279356 0.25536007
-0.15893793 -0.01255265 -0.27627724
0.051444292 -0.007715079 0.14742558
-0.03245573 -0.14621647 -0.16543381
0.21559505 0.053176682 0.18895799
-0.027519258 0.11907053 0.33751312
-0.041091256 -0.031069128 0.28369796
-0.12766007 -0.13853353 -0.32138717
-0.0073997257 -0.2277407 -0.2834166
-0.111321464 0.0029677514 -0.30254927
-0.050233327 0.16055536 0.27370703
0.06293443 0.10771503 0.120708354
-0.0119766025 -0.22551352 -0.25691438
-0.049557153 0.20231296 0.18443325
0.036973935 -0.07021247 -0.06427732
-0.047901932 -0.10981816 -0.34843713
0.11655795 0.19150522 0.1463639
0.08918606 0.03742271 0.21745321
0.03245201 -0.06407213 -0.15073125
0.08463793 0.028762206 0.17860207
-0.18339169 -0.1520052 -0.2835605
-0.0725423 -0.040819094 -0.06660191
-0.10976457 0.00818688 -0.25254944
-0.09780203 -0.08281277 -0.18740194
0.07617155 0.1549753 0.35778216
-0.110326305 0.0823802 0.23828489
0.052618027 0.23515686 0.14997733
0.04891812 -0.029672414 -0.068811975
0.08291948 0.07005803 0.11329173
-0.08536581 -0.18549928 -0.18361358
-0.0705278 -0.13090074 -0.17013699
0.04923985 -0.044591118 -0.07424976
0.13940519 0.22438744 0.13717468
-0.011503248 0.016897725 0.2960766
-0.061158046 -0.077022806 -0.06630319
-0.06747548 0.036563877 -0.29521525
0.020333504 0.052186765 0.34701464
0.1785871 0.17313848 0.14175619
-0.017089983 0.24116094 0.18100993
-0.014278137 0.05401401 0.30829424
-0.040688254 0.010558704 -0.13889663
0.036770366 0.0067600925 0.19023702
0.064914785 -0.15715334 -0.34284112
-0.011832049 0.06056518 -0.024322446
0.13276397 0.012046995 0.28807205
0.014576615 -0.018764023 -0.2733401
-0.04334395 0.03897106 0.016142536
-0.013623847 -0.07690559 -0.020707464
-0.046460994 0.021732865 -0.28817576
0.06440969 -0.17320623 -0.23960704
0.035354435 -0.0028898686 0.24540317
0.036421977 0.03740057 -0.017924342
0.1457798 0.070804246 0.2960799
-0.0682356 -0.03193149 -0.04522749
0.062906004 0.029653927 0.014364452
0.060982227 0.21247168 0.14857234
0.12993482 0.15607233 0.24990925
0.08065442 -0.067645214 0.26389867
0.0017244518 -0.24176647 -0.30335572
-0.083062604 0.18994986 0.18702139
0.22146396 0.098404065 0.18954608
0.0069810203 0.11620677 0.110335395
0.0078287795 -0.03346006 0.29933596
0.1484563 -0.039341923 0.23826252
-0.15699458 -0.0832159 -0.27196038
-0.13486865 0.11520444 0.23861454
-0.019601816 -0.038091816 0.30895662
-0.071786314 -0.045621153 -0.3496927
-0.043891083 0.19232436 0.22514765
0.057158746 0.10014891 0.09400586
-0.16026573 -0.083668455 -0.28442216
-0.18722738 -0.04453389 -0.25147688
0.09369823 -0.007137046 0.29318136
-0.03832662 0.018407516 0.26048622
-0.18252377 -0.039828308 -0.24176794
0.16569608 -0.0032584374 0.22883373
-0.024148783 -0.23061898 -0.29530615
-0.0584515 0.14468788 0.2869239
0.0034295225 0.13688555 0.17793465
0.072737366 0.014917168 0.3313209
0.051781997 -0.17252834 -0.23103169
-0.07050702 -0.028592804 -0.19486177
0.080398366 0.008353137 0.23159118
0.003011729 0.017410683 -0.09638933
-0.07764208 0.053299647 0.2441182
-0.050418872 -0.14644702 -0.18936917
-0.17336813 -0.05359014 -0.2758978
-0.16268021 -0.1717464 -0.20515363
-0.0708804 -0.023835888 -0.11562834
0.16669698 0.124835975 0.262818
0.047419168 -0.19991101 -0.23892903
-0.021619765 -0.2139316 -0.25094202
0.06654607 -0.019522065 0.006841834
0.07248434 -0.031611253 0.25019258
-0.02007834 -0.2116171 -0.31182384
-0.1552088 -0.056411006 -0.30389032
0.11460815 0.09985539 0.18577719
-0.03392131 -0.028292265 -0.24365534
0.16424721 0.008970137 0.22391728
-0.015469946 0.09692981 0.08369609
-0.083551295 0.020185998 -0.28370845
0.013777113 0.13638352 0.1591783
0.10488497 0.014594974 0.28484967
0.1760487 0.010153063 0.21166049
-0.05802183 0.008912955 0.014389954
0.14936832 0.16124506 0.19898859
0.014458122 -0.038257707 -0.34393162
-0.008740575 0.01049911 -0.28314945
0.19669752 0.0124359 0.21593986
0.13708863 0.16486506 0.26328036
0.10327319 0.02283304 0.31984052
-0.09922541 -0.095489725 -0.19886506
-0.0100721475 0.25243884 0.18200283
-0.10619531 -0.22677042 -0.1951357
-0.09676375 -0.020469982 -0.23764694
0.08053203 -0.030790752 0.30456313
0.040120248 0.13460398 0.14033833
0.027416464 -0.2074492 -0.3067446
0.03794289 -0.1474708 -0.25484818
0.21364306 0.08557372 0.17201567
-0.034909327 0.049219586 0.055093016
0.07975198 -0.08199729 -0.25208557
0.098016955 0.19948438 0.2779581
-0.083940506 -0.2268604 -0.22754687
-0.040808633 0.028456721 -0.04400678
0.09515078 0.23859178 0.15163745
0.028117979 -0.21906248 -0.30915788
-0.014995823 0.0032163265 -0.16967222
-0.121453226 -0.09532858 -0.30879736
-0.003991552 0.044556346 -0.070214346
-0.034712844 0.043272927 -0.0087365005
0.2259462 0.045729857 0.19478685
0.17687245 0.030113768 0.26108682
0.019971356 -0.038325395 -0.18942666
0.05556553 -0.053699702 0.27237573
-0.0692387 0.03127889 -0.3047083
-0.12196724 -0.13475475 -0.18374814
-0.17112198 -0.0421704 -0.2630987
-0.081774995 -0.15658568 -0.18624349
0.0019000574 -0.13734357 -0.16435297
-0.013237209 0.08228778 0.34092417
0.17487456 0.06455367 0.18873288
-0.07567624 -0.117054984 -0.16265363
0.118022546 -0.029369317 0.24950308
-0.07264317 0.16990761 0.23935194
0.0987056 0.03370594 0.21712834
0.12919971 0.06907426 0.30757618
0.011874072 -0.17973486 -0.32475328
-0.12675153 0.0034794793 -0.29165065
0.047791246 0.21970275 0.2701882
-0.11954915 0.03625537 0.25977167
0.032391533 0.01897283 0.20565367
-0.07750407 -0.033018492 -0.23244624
-0.053908948 0.008947513 -0.13595742
-0.16528153 -0.11366321 -0.29848152
-0.062293343 -0.20856257 -0.16678482
0.049012568 -0.018005911 -0.06316645
-0.0910727 -0.21985717 -0.26910272
0.03718029 0.15313622 0.36362505
-0.039230008 0.032801464 0.100940235
0.09470083 0.056276694 0.15457156
-0.02014067 0.12748075 0.30555448
0.041368548 -0.038218427 0.02762954
-0.08504093 -0.041535016 -0.33029613
0.009622559 -0.20758913 -0.3153738
0.018553622 -0.15682922 -0.32411537
0.035768624 -0.031259187 -0.12254631
0.055995837 -0.0030848568 0.11117264
-0.001966843 0.122074835 0.13043246
-0.026655098 0.0014775232 -0.31023076
-0.08341469 0.17656761 0.19279002
0.087746166 0.2208742 0.24810132
0.15363605 0.21834701 0.1523057
-0.0939226 -0.19357401 -0.22039402
0.0587206 -0.027943643 0.045008197
-0.08788491 0.016761148 -0.29028362
0.08622915 0.11492872 0.34074542
0.03656391 -0.061307948 -0.13290268
0.15594792 0.11840024 0.16959862
0.17923409 0.13332209 0.2214335
-0.12083319 -0.080793895 -0.33340776
0.07901662 -0.06386645 0.26261792
-0.027718816 0.1434078 0.31780156
-0.09023021 -0.018573843 -0.26986122
-0.053966362 0.1421775 0.22637133
0.105597615 0.21770379 0.20954777
0.123698674 0.04508382 0.3053987
-0.1401818 -0.054121636 -0.30180424
0.06264973 -0.017369075 0.02216107
-0.081855655 -0.099034585 -0.13043174
0.05403392 -0.019722406 -0.043694247
0.002608842 -0.15509607 -0.33932966
-0.1005279 -0.0070786 -0.27214822
-0.18292917 -0.13709135 -0.21990393
-0.17367025 -0.13304089 -0.17367771
-0.078376874 -0.06404994 -0.10061389
-0.12016257 0.10644155 0.23939966
0.06466598 -0.0030274468 0.006707161
-0.17841433 -0.14694032 -0.2906389
0.09182527 0.03560789 0.14429425
0.12325752 0.1287291 0.1717504
0.15313433 0.01187756 0.21551736
0.042393923 0.15880205 0.34492308
0.05643898 -0.11810517 -0.33788234
-0.12301017 -0.20978054 -0.20436452
0.06922636 0.037915383 0.04357439
0.08091202 0.031419534 0.0877585
-0.034478914 -0.006116088 -0.33038074
-0.17688368 -0.118628114 -0.23844315
0.078607306 0.071775645 0.096685
-0.07601487 -0.170599 -0.31808168
-0.09265695 -0.09652261 -0.33534405
-0.104660705 -0.19408904 -0.2652852
0.098967314 0.13640314 0.34993085
-0.043187004 -0.013187989 0.0642259
-0.13167042 -0.059023693 -0.3169471
0.1375983 0.18315998 0.22758119
-0.15799679 -0.0035827123 -0.25234726
-0.0064160256 -0.040713612 0.051425137
-0.15976822 -0.03446407 -0.28579032
-0.1290354 0.1465046 0.21473072
-0.049470644 0.019819437 -0.08819488
0.08976388 0.114042066 0.33413216
-0.010600442 0.13774063 0.3261743
-0.008783998 0.10561158 0.1145733
-0.0034502835 0.20861796 0.285175
-0.10382963 0.18104848 0.19992469
-0.049030747 -0.065395996 -0.33786678
0.16367084 0.14734983 0.21849932
0.06398664 0.10130874 0.1220589
0.012348831 -0.123288035 -0.17810774
0.058790438 -0.16928549 -0.22637239
-0.17871182 -0.122706205 -0.29533845
0.06701685 -0.1308734 -0.2755839
0.20098442 0.036085658 0.21901284
0.0307662 0.023995664 0.21222423
0.014413822 -0.14559141 -0.33124563
0.16313548 0.026275367 0.22628255
0.013840093 0.130682 0.14430493
0.12777734 -0.0013052686 0.28731695
-0.093555875 -0.0449063 -0.1531717
-0.065009505 -0.005240906 -0.070401914
0.06173526 0.17674567 0.16363254
-0.046852067 0.041326594 -0.0072533786
-0.024410222 0.16349389 0.2906778
-0.0479528 -0.21847086 -0.18963934
-0.10755576 -0.04449805 -0.3654534
-0.1274283 -0.08072508 -0.22949673
0.14837815 0.12239726 0.1694133
-0.118384935 0.016617768 -0.25450093
-0.03784849 -0.061952055 -0.007255752
-0.15997802 -0.16334927 -0.19046769
0.092434846 0.05217724 0.18708655
0.046638705 -0.19627321 -0.2951918
-0.14205769 -0.18167365 -0.29501602
0.03557088 0.16671379 0.17314595
0.052281868 -0.121934325 -0.34493756
-0.050841693 -0.16190057 -0.31781292
0.026017714 0.029411122 -0.06348046
-0.00959834 0.22366913 0.15794553
0.054421622 -0.0010577978 -0.03370825
-0.018395659 -0.043172568 -0.3838818
0.055692922 -0.013895776 0.08319987
0.081043094 -0.06767461 -0.30087838
-0.03622411 0.09970061 0.33961335
-0.10492338 0.055465374 0.2580507
-0.023927854 -0.09778036 -0.35699034
0.12274937 -0.016271593 0.2335908
-0.064063534 0.018570198 -0.28957975
-0.09589965 -0.05147709 -0.16558577
-0.04597827 0.13649729 0.33351716
-0.08430948 -0.100227065 -0.14086266
-0.02084239 -0.20625795 -0.2877994
-0.14452632 -0.071950935 -0.34586123
-0.020409472 -0.19397919 -0.17843798
0.021301698 -0.01760663 0.25448477
-0.13942003 -0.008981419 -0.23336194
0.028915673 -0.07698094 -0.36741078
0.115806185 0.12584226 0.30591354
0.07304686 0.102748744 0.13616897
0.025166677 0.2655727 0.16366872
-0.16422535 -0.12659524 -0.18152778
-0.086904876 -0.11648766 -0.3364676
-0.047834158 -0.11786267 -0.3421531
0.0020123567 0.17017627 0.28412348
0.060360376 0.03305253 0.0056355293
-0.10208573 -0.022927862 -0.24117316
0.1675327 0.13364886 0.28283697
0.0005326228 0.2300959 0.16256788
-0.10075838 -0.031101206 -0.3179655
-0.05041072 -0.16466556 -0.20369379
-0.0077995053 -0.15129158 -0.33661065
-0.019796723 0.05139236 0.23334086
-0.10707008 0.0407407 0.28042412
-0.0242181 0.030952804 -0.09470628
0.149277 0.15216923 0.2719117
-0.02605476 -0.036668826 -0.23226404
-0.03078096 0.053342354 0.14427502
-0.16431265 -0.118833214 -0.18785019
-0.055467956 0.04670719 0.30087718
-0.025495425 -0.06928737 -0.3713398
0.18088059 0.10655947 0.23266071
0.051312465 0.1810136 0.35167646
0.06456537 0.08746738 0.100975
0.08798268 0.16757949 0.35004976
0.0787009 0.013184004 0.07060833
0.043233197 0.09563888 0.33331394
0.037254147 -0.03596658 0.29666057
-0.028616434 0.07403937 0.019796908
-0.115745 0.12429535 0.23091255
0.01650396 -0.036293566 -0.1951838
-0.15971042 -0.13561039 -0.31035578
0.032306947 0.051521722 0.34489885
0.08483035 -0.096609324 -0.24426809
-0.0072666737 -0.10876702 -0.08149192
-0.076941185 -0.037902273 -0.22500668
0.020629803 0.23626804 0.18924914
0.045819107 -0.06823093 -0.25682464
-0.18339589 -0.07397321 -0.23366545
-0.06422535 -0.07524412 -0.33258066
0.15578097 -0.04313089 0.24260947
0.0009012278 -0.11773027 -0.109224655
-0.15518653 -0.033059515 -0.2871446
-0.08455061 -0.19039898 -0.2535314
-0.048359767 -0.16291508 -0.31735244
-0.016786685 0.09766512 0.34291524
0.04760811 -0.06032406 -0.08151276
-0.039139625 0.03633977 0.102899015
0.04164077 0.23277864 0.15378071
0.17863081 0.09590112 0.17463294
-0.07740898 -0.04787883 -0.22292434
0.14018255 0.048516884 0.29654646
0.041977927 0.021547068 -0.058397252
0.06594152 -0.10730774 -0.3160042
0.039797585 0.2083134 0.28581262
0.061015826 -0.17638716 -0.24605516
0.008668062 0.02653068 0.21377295
-0.03255114 0.00810813 0.2543257
0.10278877 -0.001041759 0.3058732
-0.05751453 -0.12117161 -0.13491766
0.028560882 -0.007799401 -0.1275327
0.05045622 0.173443 0.3323328
0.011588788 0.05895335 -0.037326254
-0.012842087 -0.013939508 0.11523626
0.07619802 0.24568874 0.13869174
-0.08489637 -0.03711743 -0.19088018
0.022102067 -0.18394336 -0.33195713
0.05106845 0.12688152 0.36548892
-0.0033250689 -0.012664096 -0.17124009
0.008839317 -0.07759721 -0.009061347
-0.13645716 -0.07534368 -0.26203135
-0.067291155 0.04189521 0.25628898
0.025995346 0.17978834 0.28828198
-0.09390779 -0.06722779 -0.16466688
-0.046914104 -0.14126742 -0.3364011
0.08080305 0.17565963 0.3480476
-0.00044323012 0.06797461 0.35384387
-0.15686873 -0.012202142 -0.2516885
0.08459754 -0.06733191 -0.29692066
-0.03964669 0.061395388 0.04108884
0.008044832 0.004335123 0.3010869
0.05599264 -0.033418413 0.029012362
0.086630404 0.012926424 0.3154414
0.0671916 -0.10805101 -0.30065522
-0.05813065 0.108592466 0.21666677
0.06969581 -0.14703138 -0.26463076
0.030381098 0.015738524 0.1974173
-0.008947362 0.034726057 0.19635703
-0.007317154 -0.0032868448 -0.28363305
-0.11697418 -0.024842361 -0.2834063
-0.058688805 -0.0011427487 0.0071627875
0.03776139 -0.08211943 -0.3504474
-0.043412898 -0.007516948 0.31228474
-0.111042395 0.1667813 0.21188089
-0.02620643 0.090455614 0.34912762
-0.047992717 -0.20427716 -0.18339263
0.00049052696 -0.22722481 -0.20097037
0.04198903 -0.05722087 -0.10918539
0.055538006 -0.019492188 0.2954576
0.032369006 0.017873982 0.32319924
0.07845906 -0.14024645 -0.25790206
-0.06437718 -0.03590939 0.2836621
-0.01751157 0.106981866 0.15099533
0.1511004 -0.02697492 0.23246747
-0.19351298 -0.06948096 -0.21651746
0.13608888 0.18410996 0.26732695
-0.07544995 -0.06880986 -0.09096166
0.038736984 0.09375842 0.08303271
0.07151125 0.0059182113 0.10934019
-0.05605312 -0.013621665 0.012155318
0.15223634 0.11052487 0.2914521
0.027251273 0.073370345 0.0323296
0.062350687 0.07211397 0.3152617
-0.013105105 -0.011437352 0.11530777
-0.10868783 -0.14736825 -0.22373718
0.07764636 0.02715879 0.12995502
0.014863888 0.22407554 0.19042577
-0.019203555 0.05307288 0.23250626
-0.023174163 0.22862022 0.15855742
-0.06807228 -0.15245554 -0.32739794
0.12196341 0.1385753 0.16781792
-0.03448172 0.042241585 -0.017639747
0.073453076 0.004688562 0.31497267
-0.0849491 0.14968088 0.26087734
0.070628494 0.024421614 0.17486231
0.049942363 -0.021827314 -0.27411997
-0.05044266 -0.20839961 -0.19513263
-0.045446627 0.05363591 0.07226975
-0.036112137 0.16680072 0.18747121
0.020893184 -0.038726747 0.08559622
0.024034183 -0.052025147 0.26859152
0.11977085 0.18948072 0.25924578
-0.06927702 0.048342027 0.3097168
0.08614939 -0.09094953 -0.29648682
-0.09957207 0.005592339 0.293993
0.023353653 -0.074922584 -0.19231239
0.07443695 -0.042942647 0.29997134
-0.11552257 -0.18377106 -0.3044208
-0.11927581 -0.16071104 -0.20450333
-0.10106491 0.19357122 0.20790036
-0.035958912 -0.15704557 -0.19165687
0.04896633 -0.17401947 -0.3228889
-0.16729529 -0.09163182 -0.28830537
-0.07612602 -0.0884729 -0.10256378
-0.09012048 -0.060743004 -0.217463
-0.02998753 0.0042561437 0.12531759
-0.08984537 0.017752713 -0.28664523
-0.09440696 -0.13992475 -0.3045753
0.0047874902 -0.05689357 -0.33896714
-0.00839823 -0.22210205 -0.1828445
-0.17509748 -0.067790136 -0.22204944
-0.121944554 -0.16791095 -0.30798638
-0.030663405 0.15634029 0.26223627
0.015605602 -0.055584256 -0.2449025
-0.08119227 -0.1864335 -0.25212854
0.03435102 -0.12478641 -0.33861697
0.044855367 -0.07003067 -0.31639
-0.13101143 -0.12906344 -0.32474792
0.18731143 0.19391543 0.16705173
-0.062312867 -0.10889438 -0.12708083
0.10283751 0.21671888 0.138378
-0.023476664 0.03980217 0.16761371
-0.17828299 -0.10795365 -0.22836225
-0.09282827 -0.03190453 -0.26952925
-0.00965887 -0.016949529 0.11050246
-0.057495274 0.17495194 0.18828513
0.17477572 0.08915718 0.2533868
0.09713484 0.2137068 0.21517715
0.03804293 0.229134 0.19448265
0.01524228 -0.01566642 -0.14082158
-0.011822426 0.021340543 -0.12640774
0.11711932 0.18535568 0.27913025
0.07467768 -0.13460903 -0.2411912
0.029313434 -0.058614142 0.029297654
-0.18352239 -0.148098 -0.3003508
0.18927269 0.13534372 0.2113446
0.025958044 -0.06218625 -0.36416066
0.117000125 0.12325168 0.17533636
-0.010957113 0.03201968 0.30320665
0.055132076 0.2270428 0.15292871
-0.101456955 0.1839324 0.19630083
-0.04318736 -0.15341575 -0.19114532
0.009619675 -0.05644199 0.27336052
0.01740393 0.040702496 0.34243518
-0.17372371 -0.14312023 -0.3072733
-0.077043995 0.0755338 0.3028779
0.055332575 -0.10661706 -0.361654
0.20271079 0.080696434 0.20891899
0.04195749 -0.20349406 -0.2601627
-0.15188158 -0.19448933 -0.27482215
-0.053379145 0.071429595 0.23153739
0.055451535 -0.17802073 -0.3224145
-0.027082147 0.072542325 0.015073733
0.05654872 -0.016339485 0.30632156
-0.11217539 -0.22124146 -0.2416906
0.0044828346 0.03240437 -0.07796101
0.0019952222 0.17152327 0.30640537
0.0032974593 0.01826305 0.24281949
-0.035726625 -0.23800375 -0.22015756
-0.1769171 -0.10101567 -0.23062553
-0.031137522 -0.012265072 0.3190485
0.021154793 0.0074931094 0.30223286
-0.08670259 -0.22190802 -0.28484228
-0.021722525 0.08748514 0.1475636
-0.08837383 -0.029197147 -0.31313172
0.034402225 -0.066991255 -0.14418332
0.124238744 0.20328572 0.269031
-0.07750368 -0.12918146 -0.33541808
-0.06428301 -0.079621226 -0.0713786
-0.01224482 -0.15042046 -0.33194703
-0.057647135 -0.13405709 -0.16837965
-0.0985102 -0.10710844 -0.26919153
-0.0060648434 0.11755945 0.1208917
0.057786793 -0.03404843 0.26356426
0.07498053 0.22529717 0.2610661
-0.016804747 -0.0569936 0.010145069
-0.1703613 -0.045940645 -0.26775852
0.09764443 0.23241226 0.1708648
-0.08127418 -0.03803705 -0.1952269
0.1256299 0.16247985 0.15690473
-0.037248302 -0.0022129023 0.09312268
-0.024089323 0.027644072 -0.1033859
0.22541001 0.049256887 0.20425424
0.048030097 0.20983662 0.27434134
0.048750743 0.08806532 0.06281352
0.035987757 0.05572692 -0.011405924
-0.0010204265 -0.14066309 -0.16786806
0.010785083 0.01556424 -0.2983737
-0.04755944 0.021013718 -0.10798171
0.038176317 -0.04752375 0.036165725
0.20185597 0.03561369 0.22231379
-0.01374168 0.038118243 -0.081709586
0.01888446 0.22954988 0.14973511
0.15189995 0.17059387 0.2773141
-0.0881509 -0.06905271 -0.27438834
0.11937487 0.034116168 0.3150443
0.14284427 0.09214375 0.29387668
0.14915097 0.21550973 0.14734064
-0.02505498 0.035804126 0.24103157
-0.10602563 0.004198352 -0.25227377
0.026961181 -0.07672201 -0.036592986
0.006294976 0.16667953 0.30952713
0.104099445 0.01915116 0.31769353
0.17247348 0.16338809 0.2034649
0.16155162 0.2096541 0.13901071
0.16586182 0.076994166 0.18524204
-0.00120436 -0.060658846 -0.355877
-0.09113163 -0.23347491 -0.2564248
0.031191789 -0.14616564 -0.34996483
-0.02699865 -0.058302008 0.28160855
-0.015720952 0.052331153 0.20453922
-0.13189167 -0.02368436 -0.32355666
-0.009713532 0.21912466 0.16929209
-0.1750507 -0.10686309 -0.27551416
0.044968087 0.07494957 0.3323869
0.12187724 0.06775095 0.19799052
0.13796239 0.055734582 0.31652763
-0.15806264 -0.06442089 -0.2603329
0.10290566 0.037181813 0.21480739
-0.09734211 -0.21944194 -0.20851447
0.021145677 0.023946976 0.33910662
-0.086036965 0.06769949 0.23966889
0.081618644 -0.057371266 0.2593307
-0.11524692 -0.008872987 -0.30234572
-0.0437779 0.02255767 0.30156925
0.2166871 0.10433473 0.17114468
0.12581496 0.21538323 0.13434273
0.061627094 -0.18581897 -0.19834907
-0.0640492 -0.2467724 -0.26731277
0.076729625 -0.07869091 -0.26278156
0.032369286 -0.06870982 -0.33635026
0.025109448 0.2417241 0.17068191
-0.114988536 -0.07310223 -0.35178506
0.0017653285 -0.13344587 -0.15058948
0.019570466 -0.066989206 -0.20398085
0.06366506 -0.009869735 0.31381065
-0.054022115 0.23363912 0.16260102
0.061556395 -0.031810973 -0.01882194
0.025576316 0.15822645 0.1787622
0.0027265179 0.20410089 0.2952485
0.057158895 0.20387296 0.15299891
-0.060198933 -0.20423628 -0.21532509
0.1219053 0.00089670456 0.22644942
0.062848486 -0.07160214 -0.30470183
-0.09391165 0.082763195 0.29116473
0.16927591 0.0013039852 0.22617406
-0.04879503 0.20674156 0.18239479
0.023862658 0.117077895 0.103496425
0.016797893 0.013926281 -0.107643835
0.00760845 0.0112896655 0.17468062
-0.012234741 0.035645287 -0.28194362
0.09317925 -0.106791474 -0.27526963
0.052603345 -0.0067263935 0.14357889
0.056044456 0.096249945 0.08775367
0.08965535 0.069219865 0.3207555
-0.08148554 0.11295037 0.21949004
-0.03862255 0.060581665 0.08666519
0.014842329 0.012659067 -0.30812427
0.022675276 -0.07036424 0.0022995942
-0.036961608 0.07032489 0.12702277
0.019529505 -0.041999526 -0.19286585
-0.02339623 0.071846165 0.059521265
0.1449017 0.09790219 0.18053974
0.07101152 0.09740128 0.31633556
0.003109604 0.20779835 0.27964562
0.14730133 0.10414497 0.30884093
0.170898 -0.01290907 0.22251189
0.03701206 -0.08338797 -0.14106286
-0.15313923 -0.038400587 -0.25390163
-0.072013855 0.07698147 0.23290677
-0.12859057 0.13834359 0.2494011
0.036116604 0.1460428 0.32368737
-0.024065426 -0.03839297 0.28181332
0.093645625 0.1958663 0.14909744
-0.059430517 -0.11139555 -0.11658895
0.0037825764 -0.042562068 0.061585274
0.044459265 -0.095980264 -0.36476365
-0.037329637 -0.089994796 -0.06466803
-0.13947381 0.13438836 0.23957811
-0.13539432 -0.086647786 -0.3407537
-0.03238528 0.044358823 0.13375212
-0.084319495 -0.082324855 -0.34580117
0.009547145 -0.03226265 0.30152443
-0.08165103 -0.008870218 0.27139208
0.2023668 0.029117325 0.2214418
0.17518336 0.1604639 0.14783514
0.040409442 -0.09399032 -0.3582315
-0.17555413 -0.14291367 -0.27256885
0.04850791 -0.111937426 -0.36687577
0.09171476 0.11697816 0.16993505
-0.06964898 -0.208477 -0.16259332
0.08382164 0.2355878 0.13415328
-0.15969865 -0.09360508 -0.20104443
0.029058943 -0.22132957 -0.21493997
0.056487918 -0.0413842 -0.043580193
-0.10031996 -0.073122874 -0.19317992
0.012097048 0.14349467 0.1785908
-0.07468116 0.12577184 0.21266867
-0.06888598 -0.008768107 -0.037393555
-0.0045393845 0.18529946 0.23864968
0.054295573 -0.063816026 0.26754904
-0.1144046 0.02133374 0.2744828
-0.04555394 -0.004350534 -0.31985295
-0.054152265 0.016583549 -0.037538256
0.12897933 -0.049894013 0.25604698
-0.14407161 -0.13683751 -0.2563556
0.13012455 -0.056908343 0.25880364
-0.06557945 -0.016696714 -0.33875766
0.04382092 -0.025976907 0.106409535
0.03622184 0.14101265 0.28657097
-0.015210064 0.011030947 -0.1514114
0.18692757 -0.010052948 0.221549
-0.11337367 0.070154235 0.2441008
0.037904873 0.19373767 0.16117221
0.14355993 0.210763 0.13732912
0.034730956 -0.2093752 -0.20712762
-0.01224729 0.10252324 0.08509561
-0.024696732 -0.118684016 -0.10757944
0.2118056 0.0635355 0.21932185
0.08222865 0.21468376 0.17579214
0.03219268 0.1290054 0.13004386
0.013582011 -0.008702516 -0.31691137
-0.09043671 0.106793836 0.28284636
-0.014526707 -0.11426909 -0.35438552
0.10736142 0.17559302 0.28642264
0.067247346 0.0771236 0.07260898
0.052534427 -0.15553397 -0.20942217
0.05168449 0.00057620986 -0.044004325
-0.1140332 0.046263162 0.2637943
-0.13560572 -0.12506036 -0.2878988
-0.1107019 0.086107455 0.2743278
-0.044645008 0.16688219 0.2816159
-0.15795681 -0.01097555 -0.2555221
0.016007926 0.036279444 -0.05429513
-0.015520994 0.07251938 0.22348838
-0.16791077 -0.1164274 -0.20127288
0.043219425 0.11432411 0.32817337
0.052766938 0.17115624 0.16780952
-0.11090008 -0.044286273 -0.3648734
-0.057192225 -0.016838327 -0.34129915
0.17512074 0.0025531307 0.24158406
-0.05205548 0.010204619 -0.102957375
-0.103887856 -0.07434368 -0.33560956
-0.06723355 -0.013508764 -0.17485647
0.021953443 -0.21958329 -0.2212247
0.0039086575 -0.01755651 0.10506244
-0.002771105 -0.021253113 -0.19389084
0.010194967 -0.062024966 -0.38152903
-0.057506334 -0.14021975 -0.18449287
-0.027160201 -0.08033485 -0.04438288
0.0883334 0.035024 0.19290583
0.1241327 -0.017906321 0.2903411
-0.06406499 -0.019312397 -0.16470279
0.0033821242 -0.058256414 -0.37131205
0.023400148 -0.047267906 0.2666933
-0.08892024 -0.13006207 -0.1893607
-0.09183755 0.17608972 0.20407002
-0.07284633 -0.07126369 -0.081571504
0.08973856 -0.052666686 -0.2695738
0.08909946 -0.06196404 -0.27634808
0.0344334 0.13142465 0.34565565
0.11404521 0.16882092 0.28796706
-0.018422103 0.048600763 -0.051904652
-0.055107933 -0.02065019 0.012794021
-0.051838014 -0.04287378 0.2798976
0.055526674 -0.019811485 0.3091267
-0.102684006 0.20264834 0.203194
0.075287156 0.091055 0.104528174
0.04900364 0.07867685 0.33540508
0.049089305 -0.026861172 -0.0668535
0.0041237813 0.005171525 0.16063777
0.12665692 0.13720258 0.24516381
-0.04078286 -0.21950154 -0.27931038
-0.057783607 0.0021527736 -0.15155153
-0.12759252 -0.06717587 -0.26075318
-0.09150833 -0.05494138 -0.1494456
0.027899835 -0.06946145 -0.17151524
0.013598781 0.22644433 0.20844816
-0.039321333 -0.16742742 -0.32606888
0.15009525 0.22018245 0.15899254
-0.061580777 -0.016459659 -0.15339842
0.09450441 -0.05071327 0.26330283
-0.012135035 0.061297704 0.35902932
0.057698384 -0.030365428 -0.0089904275
-0.022604436 0.063870184 0.32781506
-0.05186648 0.17987664 0.2583655
0.109206416 0.17117712 0.28793338
0.046246205 0.031225175 -0.035513148
0.06159365 -0.15040196 -0.28636518
-0.11884181 0.0050432747 -0.2992124
-0.12845467 -0.052667953 -0.3525943
-0.018452795 0.24591935 0.19158304
0.0601322 -0.023165403 0.056682196
-0.14652035 -0.06403137 -0.22768268
-0.13139395 -0.079354085 -0.32396424
0.15169865 0.11811401 0.29262424
-0.13733588 -0.06057922 -0.22365192
-0.07570395 0.13556512 0.20870319
0.023939112 -0.059621364 0.029575527
-0.041173488 0.03759657 0.0952676
-0.10755578 -0.0414133 -0.3667666
-0.004533997 0.13856238 0.31946558
0.007902666 0.24588896 0.17417979
-0.06950703 -0.14867753 -0.3287194
-0.059298724 -0.013374151 -0.19114204
-0.17473674 -0.1414772 -0.30905455
0.16007534 0.15849587 0.28314078
0.04408064 -0.14619157 -0.35132387
0.015927883 -0.20003857 -0.28328598
-0.00070619944 0.0060416195 0.3051571
-0.0283963 0.039994806 -0.06892084
0.05056583 -0.030566279 0.0084191365
-0.065134004 -0.03045551 -0.34639338
0.1940324 0.14057866 0.15252468
-0.038150787 0.17152461 0.3033377
-0.024660608 0.058482017 0.31579474
-0.047675513 -0.047570806 0.29045105
-0.13468249 -0.043436028 -0.26497212
0.13573591 0.18493886 0.26800448
0.0010331168 -0.026567157 -0.3287665
-0.117752984 0.0879213 0.23741359
0.20118697 0.017538654 0.2034793
-0.1045031 -0.17078818 -0.1831389
-0.019260919 0.04670034 0.32957435
-0.17497729 -0.06568023 -0.21662396
-0.041514255 0.15482153 0.21780112
0.037591968 -0.1120525 -0.22494207
0.0175041 -0.10025037 -0.12093506
0.05136179 -0.06965589 -0.30187657
-0.03422541 -0.1406746 -0.33828276
-0.11235876 -0.13889854 -0.20041516
-0.045522355 -0.16263457 -0.32589254
-0.051025607 -0.0069318046 0.31103924
0.20452805 0.041800514 0.23587996
0.011462585 0.22873873 0.20121117
0.17069744 0.03664703 0.20145255
0.029297804 -0.09354697 -0.35108522
0.19951443 0.03376364 0.21203803
0.035527978 -0.050119787 0.043118395
0.051058676 0.16691831 0.3150272
-0.047134433 -0.040285364 0.021740546
0.008610221 0.0011906436 -0.31760406
0.025068544 -0.1639627 -0.3390698
0.11314619 0.16629988 0.15777947
0.11872364 0.15317677 0.29369044
-0.054756396 0.011952165 0.028926756
-0.075338416 -0.23069641 -0.2029285
0.022143263 -0.10894519 -0.21254902
-0.057490535 -0.1768776 -0.3052816
-0.032739233 0.07984378 0.2822805
0.065380655 0.024166789 0.21015193
-0.0915801 -0.047071006 -0.14618236
0.087812774 -0.13073558 -0.23819582
0.014834885 -0.069255024 0.2959817
