# .PCD v0.7 - Point Cloud Data file format
VERSION 0.7
FIELDS x y z
SIZE 4 4 4
TYPE F F F
COUNT 1 1 1
WIDTH 1000
HEIGHT 1
VIEWPOINT 0 0 0 1 0 0 0
POINTS 1000
DATA ascii
-0.026888646 0.14317797 0.24903804
0.15980041 0.2126672 0.24668226
0.06204559 0.21418023 0.26166412
0.12023348 0.2089206 0.26764488
-0.07147571 0.009424142 -0.020475138
0.046537083 -0.078484856 -0.277699
-0.007455795 -0.06893103 -0.15443765
0.015605971 0.19178118 0.16750802
0.036422353 -0.16624099 -0.24418591
-0.020052567 -0.1802309 -0.28657982
-0.018109169 0.15638378 0.2709686
-0.032437727 0.20133568 0.19703075
0.026458064 -0.07157259 -0.04426493
-0.035977326 0.16966224 0.22740802
-0.0597371 -0.10464249 -0.04302603
-0.14362988 -0.054116752 -0.24876478
-0.014936478 -0.011201715 -0.27798346
-0.22235653 -0.013964815 -0.16961902
-0.2378004 -0.15538415 -0.101954035
-0.08154903 -0.20386799 -0.10515828
-0.065868154 -0.07361264 -0.014642288
-0.067183815 -0.18908668 -0.27176598
-0.1439785 -0.2435474 -0.05761548
-0.112982936 -0.2109673 -0.085684225
0.058303792 -0.20571929 -0.18544677
-0.06413675 -0.20087697 -0.2651153
0.027548881 0.080812104 0.18368834
9.9955025e-05 0.02072705 -0.078243926
0.029412068 0.15260327 0.14082329
0.01435448 0.08789574 0.015749546
-0.08204974 -0.10313143 -0.31296453
-0.03359372 -0.20672163 -0.27531916
0.06760278 -0.11089881 -0.23812492
-0.07107211 -0.2286061 -0.09310358
0.13243602 0.21452023 0.2581388
0.035348006 -0.08511151 -0.24077074
0.108988374 0.14202441 0.12574658
-0.0693844 -0.110909656 -0.31731385
0.041067556 0.004488863 -0.049932018
0.0716679 0.27914008 0.20915264
-0.11334968 -0.26028246 -0.20158519
-0.0760202 -0.047739208 -0.0054102093
0.17646112 0.10315111 0.30062783
-0.029298117 -0.24311163 -0.119899
0.21252719 0.11215202 0.24371515
0.14895928 0.060080014 0.20014358
-0.08306458 -0.22920968 -0.16483153
0.16726023 0.19056927 0.25210103
0.13442768 0.09505709 0.33885494
0.20294176 0.13452381 0.14735979
-0.11293004 -0.07944811 -0.09278252
-0.23748 -0.14999443 -0.12221943
0.0381374 0.056436516 0.17690244
-0.124291286 -0.14782904 -0.2704509
-0.14231277 -0.23519075 -0.11757167
0.110847145 0.19130212 0.28406423
-0.11260165 -0.014618564 -0.24376497
0.057266165 -0.15855826 -0.2007092
0.08477039 0.04225251 0.15226012
0.08583454 0.27580637 0.23787534
-0.05235532 -0.049982168 0.019838458
0.1535895 0.23680554 0.14672457
-0.044246275 -0.011593307 0.0471727
-0.020434333 -0.019025464 0.06485542
0.22855681 0.17501621 0.23672672
0.0060881926 -0.047129106 -0.29455945
0.036003176 0.08140042 0.20903133
-0.16297749 -0.17554559 -0.29424617
-0.16440241 -0.12418839 -0.1211501
0.05782101 -0.20559613 -0.16878237
0.114576966 0.2499751 0.15416113
-0.097432144 -0.13001291 -0.283626
-0.23087217 -0.0762225 -0.18726724
-0.059148148 -0.054334916 0.001821027
0.062708795 0.259779 0.23612715
0.018924542 -0.00344322 0.116175756
0.05273308 -0.08114885 -0.25156572
0.08917579 0.03932846 0.28867775
-0.16439946 -0.1849444 -0.13178708
-0.0014862705 -0.001593925 0.091523945
-0.1583149 -0.19680789 -0.2883132
0.13023815 0.09659986 0.32518613
-0.21319778 -0.16785532 -0.12934022
0.18620346 0.15103292 0.27657688
-0.19380453 -0.04155603 -0.17775759
0.05026431 0.013210767 0.1398384
0.02043725 -0.19023754 -0.24147497
-0.15921842 -0.22877485 -0.19695666
-0.17983581 0.015349471 -0.20944887
-0.22342621 -0.13893387 -0.08361452
0.19154137 0.07459898 0.22551942
-0.16107525 -0.23887676 -0.08909321
0.11323049 0.08211232 0.21046975
0.031529028 0.07520904 0.19917338
-0.060940426 -0.24241701 -0.17684005
-0.10470612 -0.05735737 -0.28850353
0.2166711 0.11861728 0.22708006
-0.12270312 -0.18779926 -0.3110365
-0.0038807765 -0.046968993 -0.25932848
-0.062506415 0.00068848516 -0.2539752
0.09795279 0.1834589 0.29542646
0.07788186 0.02963589 0.045401707
-0.13359225 -0.03248116 -0.19822477
0.06531707 -0.16994722 -0.19665961
0.018785458 0.06383824 0.16730772
-0.002665073 0.018263623 -0.08515946
0.20321958 0.19260192 0.22383642
0.14474957 0.09619094 0.31197473
-0.039706875 -0.04054801 0.03355709
0.025314812 0.014335271 0.14235264
0.034594957 0.21992636 0.13942032
0.019325307 0.12309768 0.06783996
-0.014493305 0.19437431 0.2557821
-0.16849047 -0.10632935 -0.13146861
-0.15818295 -0.20726001 -0.20680751
0.084408835 0.016916672 0.07292655
-0.059278753 -0.014749492 -0.29099965
-0.08530409 -0.007104129 -0.26873854
-0.06309581 -0.10436486 -0.302154
-0.20057993 -0.030198582 -0.22071853
0.0478721 -0.21852909 -0.17458679
-0.030574037 -0.0833265 -0.0007367414
0.023995467 0.11475384 0.30384025
0.17457217 0.22150911 0.15616588
-0.0039295116 -0.09683683 -0.28796098
-0.19312327 -0.028624548 -0.23738785
0.099524826 0.20464158 0.28020167
0.22237468 0.11527991 0.22648805
0.21869385 0.17978328 0.24179652
-0.014976047 -0.029538458 -0.12807035
-0.16124868 -0.108629905 -0.28307647
-0.18002206 -0.04415911 -0.24582373
0.050347086 -0.12726551 -0.26569548
0.040464908 0.18722278 0.30993176
0.21706378 0.1619624 0.17984174
-0.02813379 0.11355841 0.26194257
-0.22206222 -0.16510859 -0.1042441
-0.035533685 -0.025252847 -0.2594685
-0.12837742 -0.21835199 -0.21691047
0.06850584 0.02173289 0.26996082
0.006073598 0.041576654 0.14211819
-0.031023432 -0.12606564 -0.09369205
0.006365722 -0.26531318 -0.12454408
-0.077551045 -0.072642356 -0.29311347
-0.033871125 0.04795461 0.07054743
0.018281806 0.14025798 0.17330267
0.09903285 0.20273471 0.2817354
-0.017459355 0.07346631 0.10501828
0.05010651 0.16568281 0.1472748
0.03544898 0.042426605 0.17719574
-0.10780298 -0.038357295 -0.2744524
0.043888878 -0.20323011 -0.16392319
-0.20232625 -0.2012999 -0.1898673
-0.14844044 -0.22661954 -0.058487035
0.018841637 0.037090976 0.14683191
0.18667535 0.10886956 0.21911703
0.051565893 0.06969191 0.20971197
-0.014044918 0.027628433 -0.07275649
-0.037459128 -0.27601552 -0.10942522
0.12944984 0.00645515 0.24137545
0.00290299 0.02099432 0.123475276
-0.09066118 -0.053880446 -0.20354597
0.1962067 0.17999974 0.11679768
-0.060305696 -0.028440703 -0.15442665
0.043720774 -0.23367202 -0.14636272
-0.2021958 -0.17586641 -0.06821778
0.060435094 0.19380815 0.3057904
-0.075043395 0.010042982 -0.03169344
0.092208706 0.279673 0.21198113
-0.0039695688 -0.18944699 -0.24774557
0.20002705 0.1572985 0.23057918
0.09494318 0.040075608 0.14868432
0.026528064 -0.06251342 -0.2628328
-0.0992203 0.03250025 -0.26929417
-0.030953672 -0.2170338 -0.11967676
0.20971431 0.11882685 0.17743167
0.17603494 0.23308061 0.22082582
-0.21380268 -0.16758718 -0.09009439
-0.06760596 -0.23677951 -0.08912273
0.0107558565 0.094256446 0.17822215
0.21375836 0.11289206 0.24700996
0.033088468 -0.05984324 -0.027076395
-0.01785098 0.052510187 0.11649312
-0.12802371 -0.1387904 -0.12807538
-0.008167956 -0.117508344 -0.12725069
0.005127689 -0.04289463 -0.29619026
0.0047665937 0.18131135 0.28206012
0.16174418 0.20570548 0.25054207
0.020885076 0.1989577 0.29849407
-0.08719738 -0.017752009 -0.2760266
0.11237648 0.24854323 0.2327861
-0.11971051 -0.23082627 -0.0689677
-0.088331945 -0.10983613 -0.06765649
-0.2100737 -0.124109976 -0.17577532
0.21786521 0.14399542 0.1869996
-0.23191042 -0.12505011 -0.09222588
-0.007148358 -0.26060006 -0.14210904
-0.1778216 -0.20273153 -0.06116953
-0.054274175 0.0014406914 -0.11027087
0.04780041 0.25531542 0.2631588
0.027923586 -0.21171074 -0.22486643
0.037198383 -0.15710016 -0.19237481
-0.0011295864 -0.24308974 -0.115716815
0.15487227 0.20259638 0.25586465
-0.05920506 -0.18569632 -0.12798174
0.19878617 0.06776396 0.24531473
0.09747694 0.06588588 0.18691474
-0.02395213 -0.0925185 -0.29773113
0.07930811 0.05252502 0.30407032
-0.1344577 -0.21403846 -0.22341113
0.03358384 0.0067912424 -0.046259724
0.028908435 0.091697425 0.020900693
-0.15498704 -0.16591036 -0.09698148
-0.16281474 -0.018248966 -0.25391263
0.13720807 0.16975288 0.12603556
-0.17150122 -0.0770366 -0.15011135
-0.02371301 -0.08686303 -0.0062189777
0.0072725336 0.15432844 0.23484235
-0.04793968 0.02883113 -0.06806125
0.14994512 0.13260321 0.14853267
0.091343395 0.23112033 0.25924167
0.016179746 0.19144486 0.2534354
0.090696864 0.27567628 0.23570323
0.14514498 0.21902163 0.14693624
0.04667086 -0.011474213 -0.024628783
-0.14776577 -0.20590228 -0.25053725
0.17284513 0.11481513 0.3034185
-0.21469174 -0.06416578 -0.13883469
-0.020972246 -0.15288933 -0.1682071
0.12689883 0.2032327 0.26843715
-0.18592894 -0.20953158 -0.2025612
-0.11236712 -0.010461011 -0.24015632
-0.23636071 -0.03814838 -0.16287266
0.054879222 -0.015741173 0.06717885
0.044476785 0.09164262 0.22860013
-0.14268428 -0.12975597 -0.2725198
-0.16359408 -0.13348953 -0.19079804
-0.11182276 -0.10174062 -0.29075018
0.030180834 0.10789375 0.04490179
0.011182932 0.15289512 0.30519006
-0.015179672 -0.25401232 -0.10171014
-0.08347749 -0.2138157 -0.097455196
0.15723279 0.24304694 0.1735851
-0.11659096 -0.23807421 -0.12841323
-0.004259316 0.21153522 0.20804943
-0.06130426 -0.0440952 -0.2957212
-0.043535896 -0.061720964 -0.26846477
0.057118185 -0.17780475 -0.20300993
-0.022266531 0.028236885 -0.071575165
0.10153056 0.0140762385 0.2574748
0.20588316 0.12821513 0.267515
0.02222953 0.13015282 0.20659569
-0.1571778 -0.009376414 -0.20306669
0.08724198 0.26990533 0.24125835
0.1254266 0.15009634 0.14496373
-0.13397779 -0.23471466 -0.1166448
-0.20125377 -0.13330117 -0.24627562
-0.21147959 -0.12718314 -0.23684677
-0.06376146 -0.01665355 0.018730476
-0.16856155 -0.0645324 -0.2338602
0.037253022 0.061911996 0.2463014
0.05374611 0.20240101 0.18985261
-0.13470027 -0.21405846 -0.2503302
-0.01977343 0.14969586 0.27526066
0.028924905 0.12034581 0.063430056
0.0030002724 0.06614881 0.16098395
-0.2238881 -0.087398775 -0.118662
-0.13348866 -0.042062245 -0.25720373
-0.003927916 -0.035036676 0.0700485
-0.18753259 -0.033201776 -0.24374269
-0.21024396 -0.12395224 -0.20059061
-0.19490398 0.011424704 -0.19975679
0.1375502 0.020696336 0.26608175
0.22553356 0.1438432 0.25091246
0.011549736 0.09386737 0.29041097
-0.08427535 -0.27305025 -0.10350603
0.12783907 0.005576115 0.24396461
0.067123905 0.19232433 0.3036955
-0.010473969 0.0031234818 -0.09974802
-0.18766691 -0.046787467 -0.2386477
0.2049077 0.20818071 0.20897703
-0.023994155 -0.08035059 -0.2932088
0.15965685 0.250044 0.21449283
0.024460316 -0.17149302 -0.17660367
0.13508303 0.09264791 0.28860104
-0.08741204 -0.20094435 -0.25424647
-0.052429415 0.045139477 0.015838232
0.18217437 0.17387962 0.26281753
-0.1369879 -0.23918214 -0.15152562
0.030622767 0.13296157 0.32262462
0.034712974 0.053001124 -0.0072204964
0.08028066 0.26784334 0.19240083
-0.14954403 -0.06942484 -0.16552968
0.02947732 -0.08592407 -0.24818552
0.0030302696 0.12770651 0.13452792
-0.010530789 -0.04871066 0.049972568
0.07989618 0.10265737 0.35910887
0.020814618 0.15583476 0.2752892
0.1624848 0.18018216 0.11821175
0.03832552 -0.09556226 -0.26769078
0.03249557 0.06279408 -0.0051905387
0.08254873 0.21712972 0.12811217
0.023456367 -0.11913595 -0.2226622
0.16492684 0.26236975 0.21029094
-0.16074923 -0.1723007 -0.23974346
-0.051098272 -0.20895843 -0.26564917
0.0015824353 -0.027188959 -0.09848645
0.044521138 0.26679313 0.2632528
0.15989824 0.039869264 0.21572062
-0.056614332 -0.053037565 0.008739414
-0.04798293 -0.039916415 0.02704725
0.0042165215 0.110933505 0.14826775
0.018493773 0.099392004 0.032676846
0.11401167 0.0957915 0.11525044
-0.071211874 0.013906798 -0.2908848
-0.12244276 -0.2046841 -0.23682912
0.14191234 0.02058815 0.24549848
-0.008911983 -0.10070177 -0.13966806
0.1529592 0.22850825 0.1710771
0.070468344 -0.14041942 -0.22995971
0.02426796 0.24845926 0.23352343
-0.059299584 0.01907301 -0.04299382
0.18658523 0.10393167 0.3024838
-0.117370814 -0.06327468 -0.18469834
0.0610605 0.02293775 0.14718784
-0.07817251 -0.101210006 -0.3160828
-0.0037282563 0.049947564 -0.03997345
0.18843405 0.17008421 0.10234153
0.044813253 0.2709191 0.22869983
-0.15618521 -0.106144756 -0.2665327
0.13799605 0.19967507 0.11845792
-0.17813967 -0.105277024 -0.27539143
0.011202499 -0.21669471 -0.13951105
-0.06366669 -0.101011604 -0.29665792
0.05026785 0.15363638 0.11212716
0.04471396 0.023331214 0.15504959
-0.090556316 -0.048516706 -0.20726469
0.06651706 -0.17353348 -0.19476372
0.056946367 0.22182953 0.13414003
0.025968255 0.25256962 0.25982156
-0.10837379 -0.2215945 -0.20784803
0.09928093 0.1881865 0.29157403
-0.09617027 -0.04696998 -0.16886584
0.04309777 0.042436562 0.29388374
0.17255762 0.18113123 0.2623277
0.032668184 0.12519622 0.070504
-0.020678563 -0.0774967 -0.28506732
-0.044642214 -0.25326496 -0.16117819
-0.2164096 -0.15229836 -0.21419373
0.011219338 0.17685045 0.32504717
0.09173207 0.22829723 0.12856682
0.12707296 0.24501108 0.2156532
-0.08526565 0.033174414 -0.26561943
-0.1304359 -0.07132562 -0.15090235
0.00649824 0.11347226 0.2891692
0.025929362 0.033535402 -0.035820235
0.20159899 0.12654933 0.15535493
-0.023316212 0.01665115 -0.08873896
0.014074607 -0.062767066 -0.28313044
0.05385928 0.18628898 0.27856958
-0.17984551 -0.0742313 -0.24787666
0.03460037 0.23729645 0.1275337
-0.106305405 -0.10732513 -0.27910888
-0.020725785 0.14635974 0.26584992
-0.022972483 0.06161808 -0.011981305
-0.12415034 -0.230812 -0.08913068
0.019684188 -0.016772399 0.096363045
0.18932931 0.041844867 0.21568254
-0.07350174 -0.24752292 -0.113623396
0.050746564 0.05631674 0.00049824925
0.043943863 0.041742 0.25713068
-0.20305078 -0.13878262 -0.21977034
0.021630969 -0.05998295 0.0026265883
0.102254964 0.2545185 0.1494391
0.2046662 0.11008288 0.16736916
0.03488804 0.20297623 0.30398494
0.11386561 0.05879906 0.13715725
0.0076529086 -0.12088018 -0.2676248
-0.004297551 0.22637911 0.21373415
0.0061251586 -0.13530025 -0.27845
-0.11070704 -0.18583284 -0.10393986
0.06856615 0.04452594 0.008573214
0.020734 0.24683163 0.27746403
-0.1702128 -0.09252275 -0.27535763
-0.08959463 -0.23450877 -0.12932558
-0.06768753 -0.064610064 -0.017927684
0.01179091 0.09682686 0.29479575
-0.15284418 -0.18301336 -0.2589327
0.06024715 0.26153383 0.1853317
-0.107872754 -0.24298924 -0.076851636
0.13102384 0.23051977 0.12971844
0.034097996 0.043084227 0.17269172
-0.007257037 -0.24817993 -0.10938446
-0.193533 -0.17539604 -0.20668772
-0.096761756 -0.03567184 -0.07008798
0.010716862 0.13334914 0.14239608
0.12875882 0.112115726 0.31131545
0.1865404 0.16065025 0.14744528
0.0021785481 0.23326471 0.1453677
-0.016836017 0.06889246 0.0022768413
-0.06711688 -0.054827407 -0.21384585
-0.15301031 -0.21925735 -0.07643489
-0.05203822 0.022729797 -0.28539833
-0.041276257 0.13878387 0.2407921
-0.13917606 -0.21274404 -0.14572184
-0.031033445 -0.14432459 -0.28795356
-0.22828145 -0.062814556 -0.17024176
0.012711337 -0.17853895 -0.1663198
0.01932874 0.18990292 0.20018876
0.038290277 -0.10310022 -0.22983032
-0.08635764 -0.025761127 -0.09052165
0.10932774 0.06627026 0.15756142
0.011730361 -0.12791927 -0.20049861
0.110232666 0.08192663 0.32694432
0.0071810014 0.10530783 0.05327613
-0.110337414 -0.26131755 -0.06512034
0.10888555 0.10406341 0.34466708
-0.022110796 -0.20548473 -0.13169083
0.029768446 0.01463027 0.14263974
-0.03212861 0.07146055 0.051970717
0.013080496 -0.16105495 -0.20617372
-0.221671 -0.103806525 -0.108466506
-0.037886117 -0.13571681 -0.10778707
-0.030475378 -0.2616888 -0.089345604
0.03855281 -0.11824802 -0.21958837
-0.013903436 -0.08085498 0.0023676462
-0.20692334 -0.17537305 -0.18043739
0.2069482 0.195072 0.19785443
0.14382839 0.169036 0.12344772
0.09450392 0.2594357 0.16502824
-0.036941137 -0.100152776 -0.025500182
-0.115364484 -0.028143767 -0.20966877
0.16010979 0.13377109 0.1524201
0.105733074 0.17017536 0.3008974
-0.030794095 -0.05956441 -0.28473863
0.06800763 0.10781765 0.33222955
0.063185245 -0.10074168 -0.26355618
-0.23859139 -0.08502749 -0.12414789
-0.07447426 -0.22479998 -0.09412607
0.08274028 0.16018237 0.12074549
-0.17176594 -0.20307812 -0.19692235
0.040263977 0.16081822 0.17399698
0.057648104 0.059486546 0.288065
0.20540798 0.08261137 0.18622412
0.012689593 0.19698666 0.325368
-0.01707486 -0.10076086 -0.05605641
-0.040649112 0.17432283 0.2181351
0.043704767 -0.24031164 -0.14773811
-0.1741053 -0.06478877 -0.23405305
-0.027586175 -0.0033861876 -0.27812538
-0.15010163 -0.22776829 -0.1832751
0.16041906 0.057666052 0.256141
-0.11876842 -0.21370016 -0.25033823
0.030804932 0.24645707 0.13249488
0.10667927 0.06333893 0.21997325
0.008093408 0.066472135 0.2943181
-0.10623426 -0.13499363 -0.2906193
0.039417725 -0.02469905 -0.038684472
-0.018005686 0.20766658 0.17226814
-0.054428495 -0.2593242 -0.11887308
-0.10898441 -0.22148603 -0.091047585
0.16600585 0.19601822 0.10533465
0.008649673 0.09261439 0.28864884
-0.09906928 -0.2262772 -0.23043577
-0.21565638 -0.1680528 -0.13669427
0.07138207 0.24265824 0.11173325
-0.015335465 -0.16684376 -0.28033033
-0.114343815 -0.09977763 -0.28802073
0.0444845 0.13123192 0.32885566
-0.118783824 -0.052654672 -0.2533651
-0.08224678 -0.0057154056 -0.060902454
-0.173812 -0.21194364 -0.13627434
-0.040452354 -0.13994105 -0.30286035
0.041380376 0.17266618 0.3178131
0.07511898 0.07074578 0.3124323
-0.04371278 0.014340473 0.060943935
0.012046505 -0.058914177 -0.10120983
-0.07772654 -0.19987848 -0.109665394
0.078894995 0.13146237 0.09435523
-0.10194769 -0.18967816 -0.1053818
-0.20572548 -0.15771382 -0.16162026
0.06213873 0.10770781 0.3092427
-0.018133216 0.013983604 -0.092874624
-0.12291611 -0.20537505 -0.0848915
-0.20170964 -0.11521433 -0.25975648
0.15505557 0.1613174 0.14950238
0.07516398 -0.1947475 -0.19444591
0.22148634 0.13011895 0.15998049
0.17874086 0.18839046 0.14865173
0.0041765254 0.17131807 0.1868238
0.12537834 0.04926997 0.21397375
-0.023830216 0.13285047 0.24878968
0.110329084 0.19251008 0.13828072
0.2040786 0.10875443 0.16638681
-0.13334666 0.017866053 -0.23278764
0.15709981 0.1919586 0.2539658
-0.21675704 -0.17236848 -0.08373181
0.07233786 0.1056805 0.28564826
-0.06687516 -0.2658151 -0.123267345
-0.02313917 0.008018689 -0.278694
0.068979084 -0.14774923 -0.2436666
-0.11606609 -0.20439671 -0.08874615
0.17845845 0.18387718 0.15052128
0.0033339069 0.21059911 0.28983137
0.0086868135 0.24087186 0.15447554
0.032583803 -0.042580307 -0.048653387
-0.09227473 -0.027992887 -0.061088752
-0.062180933 -0.06350397 -0.0018585825
-0.09876521 -0.24801406 -0.15153697
0.019375656 -0.20690842 -0.15000752
-0.070467964 0.0128158275 -0.28796452
0.06778139 0.02372218 0.2729379
-0.0575851 -0.04687493 -0.29898515
0.045450926 -0.1990949 -0.20469812
-0.13159327 -0.22637707 -0.2687231
0.09629795 0.23749518 0.1368887
-0.008478551 -0.07596949 -0.23734806
-0.10119827 -0.06522129 -0.28052172
-0.008521442 -0.19608435 -0.14444162
-0.14663044 -0.05978653 -0.25708035
-0.005808794 0.16347566 0.19683258
-0.15771426 0.018433863 -0.22915007
0.22443658 0.16101515 0.23526977
0.022845138 -0.037615377 0.04756785
0.20543145 0.112901896 0.13496454
-0.06648126 -0.0061739823 -0.12116152
0.0462915 -0.030870216 -0.014062813
0.19131112 0.048880596 0.2174571
-0.06820846 -0.10366927 -0.051635362
-0.123651914 -0.20074521 -0.3017373
0.035987925 -0.12302013 -0.23360454
-0.14944507 -0.23553069 -0.12535858
-0.07234123 -0.2788112 -0.0828714
0.012741134 -0.19276954 -0.24067886
0.022972727 -0.1659044 -0.17973578
-0.03664566 -0.11843207 -0.053249452
0.09999567 0.18166134 0.28926557
-0.091771714 -0.0635371 -0.0380833
0.030285364 -0.22882463 -0.1965842
-0.02730445 -0.08879536 -0.2972427
0.2151214 0.16545984 0.24218372
-0.05660676 -0.20831645 -0.11371261
0.068756916 0.22910126 0.26014742
0.039724357 -0.020133156 -0.04051223
0.022637105 -0.030479696 -0.27852505
0.029857114 0.17681107 0.31023726
0.064146206 -0.012883046 0.029341748
-0.0678192 -0.14221409 -0.29355136
-0.0042918213 -0.07746474 -0.25302878
-0.12729123 -0.24509785 -0.18630955
0.11551543 0.10460294 0.266308
0.031920586 0.24398361 0.19744886
-0.21133147 -0.1719977 -0.18377821
0.022598691 -0.06764535 -0.008781562
0.20473029 0.12869926 0.2719852
0.13356161 0.24889362 0.14071965
-0.090944484 -0.19187398 -0.27510887
-0.19686528 0.008147257 -0.207303
0.10215433 0.26244175 0.19745104
0.06725456 0.25375947 0.13711874
0.03658826 0.07995487 0.0032090414
-0.0039291023 -0.095569484 -0.049337205
0.0037788223 -0.21286717 -0.16468704
0.15644202 0.10947392 0.31885102
0.023171632 -0.2489306 -0.13031526
-0.23709694 -0.09199666 -0.1229171
-0.12287552 -0.08087332 -0.12215269
-0.07525473 -0.11734535 -0.070260406
-0.09183123 -0.114208214 -0.3115379
0.17021643 0.14455512 0.28050056
-0.046499934 -0.11458036 -0.046594825
-0.079682335 -0.25436988 -0.07586041
0.2084066 0.10131685 0.23773888
0.21554084 0.099133916 0.1732282
-0.1935643 -0.19919014 -0.19674051
0.123151064 0.07100312 0.21171063
0.09468997 0.08239642 0.064612314
0.07577406 0.049803898 0.026809169
0.1637339 0.16258611 0.15109181
0.08819628 0.2782915 0.2220119
0.011794795 -0.24916855 -0.17048658
-0.011160473 0.01282695 -0.09482786
-0.23044555 -0.13456436 -0.1481817
0.0023671726 -0.22756118 -0.18645313
0.01372219 -0.07130609 -0.034929067
-0.15083455 -0.2418591 -0.05616557
0.032731835 0.1569175 0.30473962
-0.1367881 0.013229203 -0.22801465
-0.18134274 0.0028750442 -0.23127659
-0.14871542 -0.097185075 -0.14692055
-0.113116674 -0.0141948005 -0.24017991
-0.04758198 -0.25905815 -0.10782664
-0.030931195 -0.01951148 -0.26553684
0.10894868 0.07122251 0.1147045
-0.046305347 0.038487453 0.03847346
0.078135036 0.13981281 0.09066221
-0.011553718 -0.1757111 -0.15697145
-0.06554731 0.018759197 -0.27659917
0.17647234 0.1098959 0.1610058
0.0861434 0.19260086 0.29258305
0.19182846 0.17156692 0.25991115
0.035768762 0.12765805 0.07405389
0.052043464 -0.1920313 -0.17537734
-0.0013522462 0.013194953 -0.07810686
0.120954685 0.18098341 0.28642404
0.06575227 -0.0066429884 0.05079513
0.17042756 0.055399835 0.26285577
0.014048177 -0.008272136 -0.07202505
0.09281602 0.18207005 0.13824992
0.060916595 0.24429561 0.13263409
0.18210936 0.13672975 0.25969568
-0.014493752 0.0033681348 0.09789801
-0.036239542 0.16789353 0.21801278
0.038887188 0.10462041 0.03974729
0.05675208 -0.11387792 -0.23104098
0.18565066 0.18659948 0.1564756
-0.075440764 0.008248411 -0.03181684
-0.07970448 -0.09054797 -0.03931455
-0.06837995 -0.15681641 -0.108555146
-0.07466734 -0.24753441 -0.13148698
0.20384519 0.10288211 0.26775572
0.08155852 0.05122684 0.18371333
0.11855543 0.21688694 0.17419018
-0.057589885 -0.06270264 -0.20319064
0.0911431 0.25889614 0.19347228
0.13233739 0.23430221 0.1379714
0.14419362 0.13313855 0.29182884
-0.1605697 -0.07389049 -0.27754548
0.23669787 0.14099891 0.252316
0.0072229756 0.10905965 0.05113744
0.17497101 0.0429825 0.25371024
-0.12685509 -0.026189568 -0.20566292
-0.18451408 -0.2118389 -0.06821353
0.01991191 0.20475812 0.31714195
0.16796851 0.020889977 0.21711734
-0.12923056 -0.1516521 -0.11871431
-0.17888774 -0.04887648 -0.24677548
0.026331658 -0.025140177 -0.078195505
-0.13417977 0.01870711 -0.23297569
-0.1439084 -0.04274441 -0.18640599
0.059804354 -0.11786181 -0.2675689
-0.13051887 -0.08916258 -0.14037697
-0.048028223 0.0044728178 0.05378757
0.02047538 -0.12989296 -0.20321421
-0.19587384 -0.19485472 -0.20797837
0.008377922 -0.0065062987 -0.090327054
0.048961706 -0.062258776 -0.27790582
-0.20534833 -0.16691723 -0.0728747
-0.17956184 -0.15614279 -0.14157748
-0.058334365 -0.24910504 -0.0850012
-0.12324902 -0.1623037 -0.114207275
-0.034007862 -0.088006355 -0.2949794
0.037842557 0.076124236 0.0030082285
-0.15827036 -0.24522829 -0.19099763
0.05434673 0.029955188 0.16455717
-0.00024708276 -0.056676596 0.037798848
-0.05986308 -0.095818155 -0.036182158
-0.08783916 0.03316397 -0.26869443
-0.034309592 -0.070685245 0.012001847
0.02997794 0.0661708 0.25362
-0.07930398 -0.2605214 -0.21725263
-0.038951904 0.16319287 0.2179049
0.1450651 0.24685486 0.19024107
0.1363885 0.24964653 0.22585696
0.17609945 0.12680669 0.15660104
0.07872702 0.18134727 0.29991254
-0.064076126 -0.012088789 0.015014522
-0.11526894 -0.22414999 -0.26597014
-0.018079039 0.18844683 0.19564334
-0.10793599 -0.12101049 -0.1061906
-0.08648076 -0.07581826 -0.046740666
-0.020510128 -0.2087674 -0.2707273
0.033905756 0.17900814 0.3274811
0.038995054 -0.16293547 -0.1892181
0.007314752 -0.068096295 -0.11004532
0.17573625 0.24176845 0.17966819
0.1814148 0.21908958 0.20485249
-0.16399759 -0.024892233 -0.25348517
0.20266291 0.08023862 0.17931345
-0.11644007 -0.20904578 -0.29941165
-0.18242984 -0.16926591 -0.23173879
-0.02523582 0.072282806 0.0820961
0.1849793 0.070342556 0.257449
0.16842681 0.11931049 0.29988402
0.09457185 0.2620181 0.16002804
-0.02971348 0.14765911 0.2535762
-0.10660429 -0.18859738 -0.29284728
0.07741146 -0.15266362 -0.23471782
-0.07385474 -0.17971677 -0.27507493
-0.17107236 -0.22257997 -0.17978592
0.030431464 0.09608106 0.027356487
-0.014860374 0.15402406 0.23299918
-0.00010470076 0.103024706 0.0862108
-0.020139717 0.1997596 0.18166499
0.17854567 0.20187804 0.14903879
-0.055629127 0.031799536 -0.0061110808
-0.0092405435 0.18449257 0.27771947
0.07733598 0.028004006 0.25953057
0.086715825 0.0978888 0.33143762
0.069588594 -0.18930331 -0.22050247
0.102299064 0.23005898 0.21332343
0.19293015 0.24820462 0.20208736
-0.033446737 0.011149974 -0.09656289
-0.09783442 -0.20982188 -0.093511745
0.13059424 0.08640443 0.18673134
-0.024193116 -0.11650502 -0.07973057
0.06570987 0.25007904 0.12811673
-0.16915832 -0.13315322 -0.112805046
-0.023153262 0.1384472 0.26325127
-0.048927564 0.02291383 -0.06748848
0.103254266 0.14688368 0.30497614
-0.12113581 -0.10812388 -0.100398436
0.08314312 0.24612933 0.17382403
0.04770162 0.09353643 0.022993496
0.16662002 0.20606716 0.10112841
-0.013228013 0.083538674 0.05809507
0.017510284 0.23382528 0.17142229
0.080655746 0.16703439 0.13098876
0.20745163 0.10556294 0.29575518
-0.059738845 0.028901014 0.0034326199
0.053459752 0.000722233 0.0916676
0.06111558 0.054734148 0.20111391
-0.0092657 0.08535707 0.069039844
0.037158027 0.23149557 0.13031335
-0.13350332 -0.24830677 -0.18312481
0.14533909 0.19280748 0.266995
-0.03729556 -0.09036902 -0.010964048
-0.107664905 0.02644605 -0.2509413
-0.15458652 -0.04366421 -0.18081108
0.081748314 0.11013618 0.35274157
0.06544118 -0.19629924 -0.17868713
-0.0072610476 -0.10214514 -0.058986437
-0.031146368 -0.09977115 -0.025130102
-0.041991863 0.026443047 -0.07356965
0.06900057 -0.16255714 -0.20342876
-0.11687274 -0.03931935 -0.20132044
0.08865782 0.029643534 0.24447723
-0.13315101 -0.0038635384 -0.21801057
-0.21024747 -0.0008302906 -0.1969242
-0.24345595 -0.05570338 -0.13124941
-0.05580694 0.016604489 -0.269764
0.025640743 -0.08891705 -0.27645695
0.124242574 0.15954295 0.2943546
0.04809277 0.1039432 0.33365297
0.20999412 0.14298183 0.1636875
0.17264067 0.18012112 0.13510592
-0.05205933 -0.0728437 -0.2556472
0.030823547 -0.24102645 -0.14836292
0.05330852 -0.02261276 0.0022764537
0.04182969 0.2596092 0.16852964
0.21910898 0.12839256 0.24606436
0.0977706 0.096831046 0.08523299
-0.029371055 -0.23188628 -0.22131994
0.057061125 -0.15238838 -0.22432071
-0.101591714 -0.1868991 -0.2862897
0.03472432 0.01424248 0.14189622
-0.20021197 -0.051277615 -0.1543858
0.02419668 -0.03827734 -0.29155004
-0.018791106 -0.04763192 -0.24124049
0.021677993 -0.052360334 -0.07589379
0.13451904 0.02453733 0.23557322
-0.008740225 -0.0522153 -0.13242376
0.01929959 0.2264176 0.2556358
0.19750719 0.21490689 0.21976292
0.10091822 0.23501068 0.113126315
0.055931065 0.2558783 0.26371828
0.2247887 0.1617823 0.20687403
0.07718911 0.2610583 0.12894996
0.020497633 0.12634684 0.1884417
0.17820223 0.17701605 0.11297886
0.047925822 0.1688219 0.13874975
-0.044452153 -0.21500959 -0.11478493
0.056776423 0.07487174 0.22242014
0.19481438 0.057881724 0.22266558
0.1271784 0.21451826 0.25749606
0.053518243 0.17844945 0.1499314
-0.021080678 -0.08224062 -0.17657964
-0.0069642877 0.07026374 0.13885464
0.017696792 -0.16529717 -0.21262841
0.07591784 0.108162 0.35484353
-0.0004883313 -0.23980114 -0.17500494
-0.014535187 0.22148818 0.18557231
0.17831008 0.15051991 0.1326857
0.036252093 0.04464016 0.17830066
0.00012008606 0.05189094 0.27889183
0.032448594 0.15940508 0.18034005
0.19701202 0.053790443 0.17811695
-0.012961432 -0.13030002 -0.13409251
0.145039 0.103894316 0.1674566
-0.009244318 -0.21055795 -0.21196982
-0.020557903 0.20862226 0.17503926
0.023618616 0.07156924 0.2884873
-0.15333974 -0.03864335 -0.26457718
0.079672165 0.07271327 0.050041445
-0.11586744 0.011121617 -0.23630118
-0.003748128 0.09612812 0.07930287
0.006060756 0.053617984 -0.034855492
-0.14673953 -0.20176482 -0.23641634
0.12656027 0.24576832 0.22387677
0.06333827 -0.012959364 0.026931114
0.15083587 0.040221896 0.27055392
0.061729793 0.087273754 0.3245765
0.023116771 -0.17283784 -0.17505918
-0.20575655 -0.049836818 -0.21078391
-0.062208824 -0.2531934 -0.19873214
-0.14268366 -0.1858996 -0.303045
0.007906587 0.10873318 0.07642494
0.020651944 0.13046236 0.13777341
-0.0025406943 -0.10511869 -0.09308294
0.16722496 0.057335388 0.18899624
-0.06959258 0.017275035 -0.28799883
0.00934745 -0.07540045 -0.099453725
0.040221743 -0.17658022 -0.19908702
0.12119847 0.20105854 0.27257514
0.016557617 -0.20397896 -0.15070155
-0.0039152447 -0.06465982 0.026071556
0.051006094 -0.19358055 -0.17383493
-0.024291055 -0.19791077 -0.13585919
-0.0071643693 -0.22351716 -0.18012644
-0.008778615 0.16879371 0.20959224
0.07079714 0.27234894 0.19941792
-0.0040046074 -0.27077794 -0.1358694
0.09317321 0.09073346 0.33835778
0.0125874635 0.07364763 -0.0053419136
0.09492511 0.09775718 0.08670346
-0.041787732 -0.09137937 -0.19153044
0.009597624 -0.26480874 -0.12390482
0.02640144 0.10600189 0.21868116
-0.05549157 -0.088967055 -0.025919858
0.03428712 0.06970638 -0.0039205556
0.16052958 0.07343337 0.2701587
0.031183256 0.2527519 0.19824825
0.10237843 0.22713022 0.24898969
-0.030465793 -0.19925721 -0.2818808
-0.19042109 -0.030206103 -0.1733559
-0.16628101 0.009534793 -0.21177308
0.043495923 -0.101033464 -0.23366593
-0.19315353 -0.038317364 -0.19411026
-0.060913235 -0.24428676 -0.23691224
-0.018964015 -0.053808007 0.042349584
0.041216977 0.099419646 0.2985867
-0.06053706 -0.064161286 -0.2074477
-0.051853582 -0.14300418 -0.29853773
-0.09282638 -0.018316118 -0.28341457
0.07117774 0.044585664 0.0159902
0.087267965 0.12142832 0.269716
0.050405834 0.09788104 0.3027356
-0.14097108 -0.2169375 -0.21839873
0.01932814 -0.060834583 0.0014399892
-0.107546344 -0.1010686 -0.29181895
0.062228788 0.08656495 0.041673627
0.08289538 0.12923528 0.10431987
0.13913964 0.16049717 0.29198548
0.18006977 0.042731788 0.25218984
-0.20629606 -0.04562964 -0.20452015
0.050976515 0.03866657 0.17760377
0.0020730544 0.07420299 0.16394512
-0.04925942 -0.0736294 -0.1923632
-0.0072155423 0.08601255 0.27938566
0.09515877 0.08332864 0.31173155
0.031268533 0.2625126 0.18583655
-0.19154207 0.016257025 -0.23123544
0.005937344 0.20562628 0.3089004
0.13699311 0.005847936 0.23945247
0.045200076 -0.02659567 -0.019963298
0.12969801 0.23222305 0.24159864
-0.03482671 -0.14258538 -0.14760949
0.009872552 -0.26777238 -0.13940746
0.04896327 0.04942671 0.3034937
0.0035004355 0.10129598 0.036011156
0.03176213 0.055387095 -0.0035781714
-0.0038805478 -0.24709399 -0.17590405
-0.08160263 0.030776884 -0.2656821
-0.119505875 -0.07443882 -0.16166286
-0.0048750583 -0.08030364 -0.13972157
-0.027194325 -0.20899524 -0.26868245
-0.0998179 -0.00060545077 -0.2792388
0.21419199 0.12849353 0.1578149
0.034140732 0.075813845 0.30438775
0.1759694 0.18232445 0.1438928
0.0032006404 0.1591781 0.21051733
0.21740459 0.16084427 0.23525433
-0.035014465 -0.10104649 -0.2932275
0.16297103 0.19664201 0.14263056
0.015854364 0.09543742 0.19300441
0.065724105 0.13766155 0.33015573
-0.06714383 0.004312686 -0.076048575
0.18525177 0.08205199 0.17841764
-0.0060938606 -0.03020241 -0.28057632
0.0035814582 -0.23932539 -0.12048314
0.10636891 0.09620748 0.09176862
0.044392414 0.17948817 0.30164647
0.049420517 0.25502044 0.21973379
0.07825997 0.20847276 0.18721801
0.044422563 0.054792453 -0.0048897113
0.15481783 0.22209701 0.24254736
0.17356922 0.25550827 0.19977976
0.018481057 0.22376847 0.28455162
-0.091089934 -0.18713127 -0.11217311
-0.09869996 -0.0099311955 -0.28338364
0.032683223 0.24895854 0.259558
-0.20469855 -0.14696525 -0.122136354
-0.03745824 -0.22793707 -0.10919184
-0.065623894 0.011477037 -0.003928125
0.04223059 0.023783937 -0.021326715
0.0107894875 0.11465166 0.11463635
-0.0076276655 -0.12159134 -0.2842445
0.11754662 0.18950558 0.28217793
-0.014482321 -0.26028368 -0.13453573
0.035791073 -0.2386683 -0.14503054
-0.073781095 -0.25207397 -0.07578655
0.1535428 0.022100091 0.22623588
-0.18329427 -0.04395119 -0.24278185
0.018556014 0.14837457 0.30284637
-0.21656613 -0.16015401 -0.15789393
-0.063830525 0.007303537 0.004043931
0.059355114 0.11159765 0.3223698
-0.04562771 0.040163066 -0.01417977
0.023114966 -0.22307326 -0.20128441
0.12560491 0.07753743 0.16152103
-0.16289608 -0.17718217 -0.29961115
-0.14567463 -0.0009461364 -0.21418363
-0.0096114315 -0.030910214 -0.25695014
-0.046777066 -0.12554131 -0.2990354
-0.05562268 -0.17166026 -0.27863452
0.029653447 0.035814077 0.16357514
0.06489921 0.2462206 0.14357601
0.024117494 -0.039577346 -0.28911775
0.108978204 0.039562188 0.2413273
0.13696595 0.24359326 0.2254532
-0.032986294 -0.067156315 -0.29620025
-0.19653323 -0.19652124 -0.20653203
-0.0662906 -0.22332428 -0.23688173
-0.08645787 -0.031163393 -0.12806031
0.05011188 0.11301362 0.303976
0.040623654 -0.008262546 -0.04495191
0.06319293 -0.21627629 -0.17286475
0.0707439 0.2511991 0.21203442
-0.058574658 -0.16072518 -0.14086117
0.19027615 0.041268982 0.21890862
-0.07168521 -0.22399837 -0.23769937
-0.011247307 -0.054327775 -0.13547459
0.17827165 0.13991627 0.28391704
-0.058354195 -0.21103142 -0.11104268
-0.013908241 -0.083184466 -0.0010904381
0.01238424 -0.0009733128 0.118872255
-0.06645979 -0.094764754 -0.046023432
-0.028957445 -0.03472597 -0.2941651
-0.13189547 -0.20271204 -0.23462659
-0.074495904 -0.090899445 -0.040013134
-0.03924168 0.13405399 0.23370166
0.007122368 -0.0018391964 0.112360515
0.035135698 -0.040968016 -0.041871496
-0.14263998 -0.06282106 -0.17325845
-0.17686644 -0.034120552 -0.17698114
-0.046986755 -0.09965104 -0.024957273
-0.051527973 -0.24163619 -0.15748246
-0.05130622 -0.07110306 -0.2100617
-0.16497838 -0.13974234 -0.26005447
-0.0070927744 0.08218132 0.007993598
-0.19099152 -0.1763646 -0.20663428
-0.19733663 -0.06507597 -0.14628197
-0.17415412 -0.11534434 -0.272481
0.0058434564 -0.097826816 -0.096553035
-0.0060190163 0.09606761 0.058094066
-0.14447607 -0.13369836 -0.27372274
0.09803294 0.13736609 0.3100643
-0.19007069 -0.12028377 -0.11188606
-0.24026035 -0.139599 -0.1288371
-0.17589965 0.0096395165 -0.21807273
-0.19953425 -0.19348532 -0.12902492
0.09416431 0.03371368 0.25735524
-0.033855006 -0.1871358 -0.2765478
0.12099003 0.15891218 0.14105614
0.0531978 -0.03406037 0.008859943
-0.027906664 0.05559004 -0.030776782
-0.23607697 -0.055540767 -0.13479201
-0.13391502 -0.22815038 -0.14156389
0.20509242 0.17172794 0.25182873
0.00046463858 -0.07685923 -0.28667444
0.04420022 0.05588201 -0.0032648684
-0.020903096 -0.2565804 -0.14827655
0.07889275 0.16217984 0.31365177
0.1918894 0.07121499 0.2506715
0.04729122 -0.03307935 -0.0096888775
-0.08803836 -0.024622127 -0.22478485
-0.0339749 -0.12967323 -0.28266782
-0.008138157 0.026676347 0.107923836
-0.028353842 -0.115353175 -0.07222414
-0.0027737913 0.029327821 -0.070615984
0.19173846 0.13316855 0.28360525
-0.20944268 -0.17467086 -0.06728858
0.09165033 0.055601936 0.23266551
-0.08258682 -0.008533328 -0.2669312
-0.0033623944 -0.24960993 -0.110217586
-0.039573632 0.011625229 -0.27212173
0.10394593 0.066237286 0.10251207
-0.015145791 0.2207018 0.18419005
0.03384882 0.15105233 0.3450261
0.06002545 0.012382638 0.108755924
