# .PCD v0.7 - Point Cloud Data file format
VERSION 0.7
FIELDS x y z
SIZE 4 4 4
TYPE F F F
COUNT 1 1 1
WIDTH 1000
HEIGHT 1
VIEWPOINT 0 0 0 1 0 0 0
POINTS 1000
DATA ascii
-0.12380762 0.10867634 0.010885499
-0.10669286 -0.084489055 0.25263256
-0.17826314 -0.08819116 0.1899121
-0.28998244 -0.05849777 -0.05148997
0.28185385 0.067499 0.27252817
0.026593862 -0.0074721677 -0.27371764
-0.31755581 -0.044559974 -0.1500207
-0.092747144 0.006316842 -0.10720156
0.121446006 -0.034655124 0.10700154
-0.19975139 -0.10276854 0.16974743
-0.2711808 0.0029772376 -0.012899272
-0.066368714 -0.062095277 0.25379378
0.07719493 0.0018584247 -0.33133867
-0.261331 0.012854218 -0.09441224
-0.07438441 0.008879822 -0.16093232
-0.15208194 0.03772046 0.12480732
-0.23181596 -0.0688716 -0.24222235
-0.28119913 -0.03065739 0.04957248
-0.09009832 0.14758036 -0.09026422
0.09828427 -0.0742601 0.25351918
-0.06620439 -0.0134802945 -0.30283025
-0.093460694 0.06991504 -0.087166436
0.058660794 0.101871155 0.026442025
0.1011808 0.03402028 0.18403089
-0.19904798 0.03729369 -0.038240857
-0.0016506698 0.067832574 -0.24115464
-0.27951863 -0.0643793 0.020870768
-0.11895643 -0.06552306 0.19276796
-0.029451173 -0.007719385 -0.12633552
0.20973842 0.06543419 0.33824176
0.2066656 -0.014752968 -0.017764539
0.05289725 -0.03491039 0.28113112
0.30864197 0.040828742 0.26611838
0.11266213 -0.042064678 0.28816903
0.05428746 0.049059898 0.22969928
-0.020648433 -0.047332425 0.0990547
0.08092179 0.006199137 0.021916596
0.08566755 0.017959297 -0.09721676
0.14789729 0.040360693 0.023492476
-0.12338127 0.15011255 -0.0667671
-0.12529582 -0.03248651 -0.16148177
0.15867348 0.0011582456 -0.23311852
-0.13637434 -0.06961642 0.2181228
-0.12349878 0.03700606 0.15916505
0.09992796 -0.020279936 -0.065818734
-0.2948697 -0.08311803 -0.0031693908
0.17174733 0.07454706 0.32851377
-0.10311365 0.11278615 -0.0944892
-0.1278456 -0.00015699056 -0.11898317
-0.07140948 0.021760644 -0.2936306
-0.19395304 0.0027015866 -0.2740061
-0.05674629 0.044329014 -0.27021646
0.10667773 -0.030392645 0.047407772
-0.041159216 -0.04689687 0.074049175
0.06012546 -0.009416003 -0.21986206
0.058154196 0.04998594 -0.25757253
0.15814477 -0.012244385 -0.092490904
0.17371286 0.08616738 0.23271939
0.024566354 -0.041402787 0.08161923
0.26005584 -0.0014880985 -0.14673418
-0.11294602 0.021860614 -0.2636571
0.23550788 -0.028910452 0.33844513
-0.19961213 -0.05708855 0.02363713
0.2787531 -0.040168703 -0.06385174
-0.08337539 -0.029642226 -0.14970616
0.059507508 0.137748 -0.06613848
0.00017839996 -0.083066955 0.25548917
-0.12547307 -0.0018248776 -0.09905652
-0.08019729 0.11549297 -0.11182292
-0.21872972 -0.0668531 0.17866175
0.18443221 -0.02825598 0.102315545
-0.0069637266 -0.07030783 0.25707227
-0.13628434 -0.05570317 0.072092846
-0.13148168 -0.010613543 -0.012473784
-0.06528836 0.11261364 -0.118772484
0.0064080902 0.045913603 0.21139859
-0.2380929 -0.036018215 0.14894752
-0.3159895 -0.020667797 -0.14264694
-0.08685583 -0.071837775 0.24961141
0.24445556 0.031015953 -0.07664501
0.2216887 0.013266999 0.08761934
0.11129102 0.06714202 0.2845029
-0.017627092 0.046383105 0.17938308
-0.08368948 0.0048162965 -0.12740001
0.026230369 0.08436564 0.058913663
0.07533335 -0.015338685 -0.14234617
0.18764094 -0.054701198 0.3051474
0.1948977 0.09508916 0.26836368
-0.2169884 0.044551067 -0.116686404
0.25007212 0.03553092 -0.15061943
0.24723913 -0.042129025 0.116113104
0.071489826 0.08086192 -0.0038220333
0.12308748 -0.04022093 0.28699523
-0.14846455 -0.042828746 -0.07562542
-0.15451944 -0.045977898 -0.3023748
-0.13032162 0.1298652 -0.03961685
0.24080108 -0.0006800789 -0.1867099
0.28217602 0.08296757 0.33798018
0.16372044 -0.0094596 -0.11627092
-0.30707666 -0.06400718 0.01778544
0.13934633 -0.032734323 0.10459225
0.28279665 -0.026891816 -0.06480793
0.15233532 -0.010251302 -0.11926524
-0.21679688 0.0005021875 -0.19153062
0.27795875 -0.0040230635 -0.07638145
-0.13994448 -0.1064095 0.21695267
-0.20611867 -0.031856395 -0.26738858
-0.07376624 -0.029847842 0.2475595
0.23337011 -0.03210896 -0.19391683
-0.016619017 0.015578535 -0.17397389
-0.104211725 0.011483591 0.024558377
0.18409 -0.007936181 -0.112032965
0.15502308 0.011357807 0.11590344
-0.0725571 -0.08364432 0.2504843
-0.15444386 0.008109459 -0.09295444
-0.09827629 0.13079655 -0.082489826
-0.08279005 0.040475573 0.1355357
0.18612513 0.0848049 0.23438208
0.13214792 0.08398746 0.27981758
0.2856567 -0.031361286 0.3272397
-0.09006813 -0.057191327 0.1337776
-0.11224675 -0.02815201 -0.19414222
0.13378802 -0.04068842 0.3117288
0.147007 -0.038920365 0.17737521
0.2334226 0.03376719 0.3637432
0.093012385 0.02691132 0.13437556
-0.10986977 0.07042275 0.028367814
-0.0015917845 0.10126694 -0.12292877
0.27113563 -0.019137159 0.2742097
0.14027922 0.023511719 -0.056111798
-0.0841565 -0.036247466 -0.32879874
0.077548765 0.027708065 -0.018609874
-0.14253415 -0.034960337 -0.15258971
-0.09179271 0.021325972 0.20239209
0.22961234 0.037639063 -0.16117573
-0.21355833 -0.108846255 0.169331
-0.108270645 0.05511776 -0.18988487
0.16872372 -0.003072504 0.35012
-0.09567765 0.06049993 -0.20879875
-0.13148026 -0.022962248 -0.26795122
-0.31450042 -0.024979861 -0.17606352
0.052027203 -0.006673728 0.28350154
0.13851029 0.06722944 -0.17721868
0.27890694 0.006419588 -0.020687655
-0.021719031 -0.068110175 0.2573678
-0.17771801 -0.10609047 0.2038036
-0.03362752 -0.05742429 0.19242176
-0.13311622 -0.043470696 -0.053583946
0.18723893 0.080934785 0.22859573
0.21809267 -0.005333544 -0.1055925
-0.22537363 -0.015885033 0.121941365
0.19176866 0.044114374 -0.13526934
0.09060434 0.053707987 -0.23928629
-0.20116529 -0.027202202 -0.27130854
0.09062048 -0.016781393 -0.111932814
-0.005577549 -0.022731971 -0.1450293
0.24631354 -0.022046698 -0.18337886
-0.121820986 0.12552868 0.020495867
-0.16671759 -0.059141524 0.24096224
0.07593481 -0.04549605 0.17586918
0.093254425 -0.019130025 -0.30167556
0.19168235 0.07284196 0.33102405
0.09715976 -0.010469327 -0.17189983
-0.26852006 -0.0037300074 -0.08407465
-0.24208163 -0.053211764 0.15614903
0.06371013 0.052418683 -0.1746664
-0.15691961 -0.037938826 -0.13554083
-0.07884881 -0.06685972 0.2512493
0.27225393 -0.035089675 -0.12381496
-0.0075473767 -0.05297394 0.17151397
0.2722046 -0.040991705 -0.06170459
0.059573233 0.118200175 0.022199878
0.12645517 0.032180883 -0.32246947
0.11107408 -0.0010584597 -0.25716218
0.11277934 -0.033149805 0.082519
-0.29714555 -0.021544449 -0.062280312
0.07799161 -0.0022111153 -0.27795696
0.1772773 0.074626856 0.32910585
-0.09446189 -0.05319929 0.087357916
-0.104261674 -0.06761702 0.229451
0.20135124 0.048845503 -0.03190363
-0.037412554 -0.0145777725 -0.26260576
-0.03876465 -0.045205668 0.058622077
-0.11449626 -0.058927163 0.127741
-0.12405269 -0.043408573 -0.045215182
-0.1179685 0.012493051 -0.314879
0.20388632 -0.014470623 -0.023505047
0.016716946 0.032976713 0.061067335
0.16588175 0.09296582 0.24968512
0.1574855 0.036287528 -0.2187519
0.067598455 0.046419397 0.2720512
-0.05892451 0.0585628 -0.25413164
-0.21695179 -0.043514922 -0.13658112
0.2808672 -0.008503041 -0.03338633
0.19080698 0.0025669592 -0.23112524
-0.16516167 -0.029392378 -0.23375808
-0.0022142509 0.120012335 -0.12070713
0.047959305 0.018180324 -0.1370855
0.1552704 0.06362435 -0.1650512
0.20425798 0.033633187 -0.14423193
0.10247404 -0.018414829 0.30131388
-0.019569179 -0.011940158 -0.27262163
0.110487685 -0.008073427 -0.18386286
-0.061972372 0.0065790205 -0.114206165
0.17516358 0.057691824 -0.036808196
-0.047720894 -0.017288882 -0.24431527
-0.3031247 -0.080264956 -0.10714892
0.21192615 -0.0076100943 -0.08775473
0.18242784 -0.013586159 -0.054183174
0.19298036 0.055973265 -0.093700945
0.031427562 -0.015258181 -0.18690482
-0.12439961 -0.015034746 0.041138552
0.110259235 -0.043664522 0.19075303
0.009681073 0.028742105 -0.28642935
-0.09357877 -0.020608563 -0.2550061
-0.13659383 -0.06781466 0.19934224
-0.0037597886 0.06299544 -0.25522926
-0.2766387 -0.032580096 0.07436306
0.060216494 -0.011407581 -0.19879636
-0.10704045 -0.042590063 -0.03689893
0.209639 -0.05490142 0.1370987
0.022651952 0.1380782 0.05118742
0.23717731 0.08222821 0.27824074
-0.064023934 -0.068511344 0.2534579
0.27396542 -0.014457268 0.3689883
0.22149508 -0.020527886 0.057824157
0.01050169 -0.018377878 0.26478213
0.013361355 -0.049664985 0.15748008
-0.03852412 0.041598275 0.15198663
-0.022132955 -0.07911739 0.25627467
-0.31416398 -0.041303158 -0.022815818
-0.11185273 -0.010915014 -0.31967196
-0.16457665 -0.04778756 -0.039438806
0.12820373 -0.008815532 -0.32879287
0.27311367 0.016628556 0.25472048
-0.018018696 0.16611773 -0.10855495
-0.09793881 -0.009687906 0.21699175
-0.015498319 -0.052391384 0.15746254
0.18155725 0.07952039 0.32381633
0.070215434 -0.03972909 0.10943878
-0.1393717 -0.03884132 -0.10856779
0.05014933 0.168512 -0.06590796
0.11318411 0.037924066 -0.28009245
-0.1286049 0.03756623 0.11319722
0.28092837 -0.02387569 0.10092766
-0.13704039 -0.06532154 0.17263994
0.063759595 0.07636437 -0.032642014
0.05662075 0.16039994 -0.012553474
0.25405872 -0.04378927 0.05466573
-0.14909819 0.05584361 -0.19602409
-0.3010684 -0.10167935 0.006726468
0.07016549 0.020272857 -0.08271718
0.2792241 -0.044124484 -0.02172091
0.082695656 0.03608521 0.29617205
-0.28758365 -0.064814456 -0.114043355
-0.30033183 -0.051027723 -0.18774568
0.050986677 -0.008892485 -0.32794958
0.2761134 -0.033736993 0.022001706
-0.14487937 -0.024248747 -0.26774013
-0.10476572 0.01618836 -0.26815304
0.2038025 0.046074346 -0.024467759
0.0991279 0.028903201 -0.3374378
-0.14736639 -0.036359385 -0.14266802
0.0588372 0.16625173 -0.033452984
0.09229284 -0.029532462 0.02402804
-0.25380653 -0.0305065 0.07525551
-0.07309042 -0.0118653625 0.05919524
-0.0807532 -0.08203214 0.24911848
0.010321644 -0.05525875 0.2133679
0.062030736 -0.03661173 -0.31707436
0.029333273 -0.014389274 -0.19814076
0.009576042 0.10286425 0.068192564
0.107865594 -0.022293087 -0.036713984
-0.11653903 -0.10517377 0.2575054
-0.2551003 0.020190699 -0.100038156
-0.18361832 0.036724444 0.065125
0.09439828 0.01877729 -0.0971426
-0.3090097 -0.06782606 0.0040937928
0.030433543 0.13292968 -0.10261806
0.10049138 0.015369726 0.30926234
-0.25624797 -0.03429843 0.112761594
-0.13733032 -0.040567603 -0.31065577
0.05929436 -0.050527684 0.21229702
0.22693661 0.001978938 -0.17380112
-0.29102343 -0.092649624 0.014588535
0.11833555 0.049098186 0.19064029
0.3078266 -0.012025715 0.2850777
-0.111277334 -0.045174636 -0.013897902
0.26803675 -0.018431071 -0.05477614
0.080962956 -0.02971817 0.014703886
-0.10769416 -0.007514691 -0.018713728
0.30456612 -0.036105122 0.31078738
0.13389383 0.018963473 -0.30394098
-0.0748749 -0.05446862 0.12022723
-0.22954197 0.030040404 0.049486533
0.0070755156 0.017167328 -0.16711843
0.13491297 -0.029339384 -0.32110685
-0.23832905 0.03710434 -0.05249712
-0.19649473 -0.07709742 0.19516958
0.220798 0.07815711 0.24167041
0.19167449 0.0044044447 0.35337806
-0.053389575 0.032875657 0.20823088
0.15858288 -0.017172761 -0.04015
-0.22721249 -0.07048133 -0.24720772
-0.24548185 -0.06471619 -0.22575322
0.01960192 -0.020179095 -0.14685053
0.24333158 -0.028983384 -0.19156653
-0.026519358 -0.05008443 0.122196436
-0.09941646 -0.05928202 0.1464911
0.13852528 -0.017273054 -0.05906125
0.13510546 0.04200043 0.18937708
0.07378259 0.030626751 0.17246336
0.15933177 0.0036768792 0.12654212
0.2646509 0.032649025 0.37024948
0.004333217 0.1412335 0.061193895
-0.14669085 -0.050142325 0.26415056
-0.0584503 -0.025387865 -0.16969784
-0.004468813 -0.046838645 0.2591261
0.076639414 -0.032586254 0.040607996
-0.10796404 -0.040408183 -0.06079806
0.21134762 -0.040430058 0.15483755
0.005730585 0.13753238 -0.10566328
-0.12943536 0.12945068 -0.0443431
-0.13702857 0.039124373 -0.24328542
0.063875504 -0.0067927106 -0.24375719
-0.11163986 -0.0438728 -0.02796971
-0.30614415 -0.08548372 -0.16889761
-0.12823226 -0.06428284 0.17047215
-0.008690415 -0.023586381 -0.33641
-0.20996387 -0.027442945 -0.2642884
0.061261483 -0.03785725 0.2831727
0.018501326 -0.03308552 0.26668105
-0.24560009 -0.107878864 0.12724185
0.10274975 -0.0011281843 -0.2647136
-0.19030815 -0.00083510333 -0.27854502
0.063088104 0.043169953 -0.25957063
0.18161978 -0.017690588 -0.2616519
-0.1225931 0.017223995 -0.29680997
0.21928784 -0.04161536 0.3185651
0.25440428 -0.005855345 -0.06394589
-0.2006696 -0.05264216 0.19626477
-0.21427193 -0.04511105 -0.11710384
0.21205206 -0.03317178 0.33217108
0.05501147 -0.08563535 0.24768625
-0.31380606 -0.032818273 -0.061602786
0.14925444 -0.017247714 -0.2888922
0.14298521 0.031450417 0.00544246
-0.013521017 -0.074806444 0.25686833
0.17110066 -0.0246854 0.051436853
-0.16656779 0.011679549 -0.28219637
0.0039742757 0.10227013 -0.12090096
-0.0068992903 -0.04427753 0.2594941
-0.045312226 0.07421252 -0.12714976
0.28834906 0.08149088 0.29892832
0.18911122 0.029809117 -0.24526808
0.06741173 0.05308381 0.012206085
0.095324524 0.077813 0.23302558
-0.11852339 0.09979648 -0.027159054
0.19611704 0.033819553 0.35397696
0.27771196 0.084356174 0.3277814
0.06781626 0.03338397 -0.03679129
-0.18537585 -0.03472914 -0.19767632
-0.204928 -0.060418952 0.05342082
0.27231532 0.029702745 -0.07702332
-0.20083694 -0.027739495 -0.2715868
0.2012598 0.03397926 -0.11786388
0.13122576 0.0197414 0.3373795
-0.21677555 0.040069185 -0.029256612
-0.1752015 0.042811304 -0.114673816
0.08693308 0.023746135 0.115598254
0.09745792 0.027377298 0.11175874
-0.16575103 -0.038239658 -0.28094652
0.022692561 -0.020141881 -0.14416353
0.06447349 -0.017220274 -0.13333885
-0.005195118 -0.015942464 -0.33542427
0.12514259 -0.018139668 -0.06325707
0.08399824 -0.072172515 0.22650625
-0.3066103 -0.07411204 -0.13161612
-0.09067707 -0.0051139356 -0.3248922
-0.03345457 0.033858977 0.06899417
0.001288442 -0.041446436 -0.32662776
-0.28639898 -0.033002727 0.06909787
0.14069502 -0.05887511 0.22166052
-0.14220561 0.012701759 -0.26870626
0.094431296 0.070367225 0.21592933
-0.18195575 0.041316137 -0.20287888
-0.20709515 0.0018264358 -0.21876954
-0.21056132 -0.05314941 -0.028747914
-0.07099721 -0.030026756 -0.3177287
-0.08281557 0.022138119 -0.30896276
0.202627 0.017024208 0.3556816
-0.12591988 -0.10258422 0.26043475
-0.24539503 -0.052306887 -0.0723018
0.07268433 -0.030615758 0.015913822
0.23009339 0.07530621 0.32845572
-0.11793313 -0.039929517 -0.07576364
0.18056668 0.020971907 0.18973051
0.07093755 -0.04630995 0.17946756
0.021936757 0.019030813 -0.3301472
-0.22007635 -0.03409987 0.14668058
-0.17911795 -0.051274057 -0.017196141
0.16765729 0.060643557 -0.0687961
0.22017574 0.010186996 0.11855228
0.13828042 0.05848173 0.20311095
0.25088173 -0.016369062 0.24393545
0.19583933 -0.00399895 -0.1418011
-0.28138447 -0.08598259 -0.13899417
-0.053485326 0.004949769 -0.33185512
-0.18642297 -0.08265591 0.20130217
-0.26707324 -0.06521604 0.12014309
0.062645726 0.019736169 0.15547596
-0.11635537 0.01240653 -0.0012913354
-0.21794578 -0.051394273 -0.05458686
-0.1491202 0.006037814 -0.30284455
0.260281 -0.011932204 0.0059046648
0.2737051 0.04621981 0.37564301
-0.07642763 0.02058355 -0.2862308
0.22615226 -0.014353792 -0.2130555
-0.061997995 0.010243427 -0.12905242
0.09827522 -0.044829965 0.2884115
0.06817113 0.021238726 0.15159664
0.085147984 0.042852733 0.2941437
-0.21002273 -0.00038481472 -0.26194316
0.19443543 -0.004913402 -0.1335714
-0.02802587 0.0790756 -0.12928657
0.26453212 0.010418082 0.09417758
0.12464555 -0.0039488976 -0.2132091
0.025317533 -0.03120984 0.042595975
0.30283386 0.044514764 0.26495135
0.057544142 0.16331086 -0.0037670874
0.09927137 -0.032920957 0.29475358
0.13926676 -0.030617557 0.08222216
0.03904813 -0.08748723 0.23767552
0.039256256 0.13658631 0.049192738
-0.07686843 -0.046795882 0.037433907
0.055027485 0.16251308 0.0015979202
0.17068288 0.06367685 -0.091015086
-0.06974279 0.04181251 0.17725731
0.06745526 0.14307421 -0.0076098857
-0.21742253 -0.05365383 0.18111616
-0.11882066 0.026668815 0.09058527
0.13733871 0.038116615 -0.25807235
-0.19665238 -0.0383441 -0.17083205
0.09648143 -0.011814962 -0.15840265
-0.06448054 0.0651602 0.064615674
0.03471419 0.06810579 -0.21054493
-0.06369979 -0.026133332 -0.1670709
-0.20350774 -0.04386528 -0.11950808
-0.3153255 -0.047711153 -0.17327194
0.21891496 -0.011867527 -0.035955768
0.077811174 0.03712097 -0.04444243
0.031363737 -0.04650553 0.14212596
-0.045163944 0.038072288 0.13992831
0.17864665 -0.0002661924 -0.19823116
-0.08659389 -0.021817105 -0.09375579
-0.24952771 -0.032377854 0.099224396
-0.05250365 -0.015355475 0.23746353
-0.05647994 -0.049850937 0.08990733
-0.032178465 0.1582276 -0.11120616
-0.031047763 -0.04484515 0.06250626
0.071192175 -0.007771415 -0.22616844
-0.11360207 -0.010035357 0.012203591
0.060859285 0.06502364 -0.082790874
-0.18810153 -0.043658964 -0.106342845
-0.25154155 -0.055502176 -0.044768907
0.20008539 0.010406629 0.3552113
-0.20523727 0.04558707 -0.151348
0.12255344 -0.0025538811 0.15554848
0.03219879 0.014953222 -0.32855076
-0.067748286 0.060324956 -0.24779157
0.007825388 0.06868088 -0.22504708
-0.0767758 -0.07053967 0.23749377
0.29990235 0.07597779 0.31045857
0.27385682 0.03311751 0.37638494
0.10398613 -0.020045597 -0.06424767
-0.2686707 -0.066530414 0.11732658
-0.30742192 -0.044476308 -0.10113014
0.045846384 0.03155653 -0.10747415
-0.27912214 -0.022366736 -0.035679687
-0.12490307 0.14621177 -0.005316984
-0.076397955 -0.026213361 -0.17887187
0.26949197 -0.05163786 0.08836142
0.25962508 0.012228386 0.37565416
0.014084378 -0.01845577 -0.33448914
-0.2377271 -0.0039158664 0.09722867
-0.23312907 -0.052428845 -0.05880635
0.23620097 -0.0041851606 -0.16822135
-0.16175888 -0.10686155 0.19999759
0.15102 -0.009698118 -0.12639937
0.22350073 -0.021670226 -0.21841937
0.24643093 -0.032701913 0.07328887
-0.004870738 -0.022277359 0.25776088
-0.012597012 0.10388994 0.0747777
0.27030012 0.016973045 0.25334448
0.2927773 0.0032112466 0.2673721
-0.20056105 -0.026138011 -0.271779
0.05506501 0.044075172 -0.173779
0.14426363 0.062339157 -0.11044763
-0.27048355 0.0052137375 -0.021988802
0.11919378 0.04520926 0.31340152
-0.01001623 0.038317338 -0.18987729
-0.15457693 -0.036022272 -0.15339555
0.025094232 0.033927172 -0.2729945
0.26205269 -0.057542045 0.10249584
-0.045875274 -0.03035825 -0.32202083
-0.26746017 -0.051020417 -0.107821055
-0.22899894 -0.013310993 0.115603
0.0541228 0.11467589 -0.08126511
-0.2792905 -0.014759346 -0.11596161
-0.12389592 0.04404189 -0.039443
-0.10565926 -0.03155946 -0.15169534
0.17672719 -0.028205192 0.09410944
0.10072564 -0.07312582 0.2583842
0.08183221 0.009793877 -0.0017416342
0.038858797 0.019826708 -0.16348626
-0.08503032 0.014495593 -0.09617989
0.26603732 -0.02596383 -0.14021201
-0.29891697 -0.10147506 0.0067171543
0.03892013 0.045479704 0.18645407
-0.08714656 0.040126573 -0.17865865
-0.084322736 -0.06137948 0.18360722
-0.2979276 -0.08140472 -0.1640516
0.13905944 -0.014423959 -0.088537015
0.17137925 -0.06928753 0.1930753
-0.22742003 -0.037483294 -0.21052924
-0.10284238 0.11330407 0.031122752
-0.057522517 0.009982251 -0.15575859
0.07208207 -0.008374831 -0.023534084
-0.100305095 0.03008987 0.032406848
-0.09574699 -0.02727101 -0.18699656
0.02293058 -0.07168298 0.25489315
-0.16184823 0.035058834 0.12924837
-0.13622266 -0.0072561195 0.19809687
0.2169812 -0.012900949 -0.026998783
-0.09850884 -0.02082844 -0.2575986
0.24373977 -0.037826486 0.11832749
0.068629175 0.03231228 -0.028658425
-0.06773936 0.043634597 0.16406646
0.09520996 0.020029457 0.09900926
-0.26019657 0.0055690114 0.034326952
-0.08828621 0.0062696747 -0.1472842
0.051080953 0.04620532 0.23725499
-0.11147789 0.053180177 0.021475699
-0.25029716 0.011415683 -0.13170196
-0.06119863 -0.029008502 -0.13429752
-0.29979366 -0.02355364 -0.043754622
-0.19404995 -0.031949136 -0.23558947
0.25612098 -0.012006382 0.24607295
-0.042644884 -0.021132616 -0.1236717
0.14151612 0.05563782 -0.097976826
-0.0046164696 -0.013259774 -0.24383353
0.21378674 -0.053052984 0.13184631
0.040018786 0.063446485 -0.24760611
0.088370785 -0.03392177 -0.31918287
-0.0645086 -0.04935387 0.07668125
0.11464353 -0.009936538 -0.16010383
0.27187383 -0.028198527 -0.123426214
-0.014218239 -0.024734147 -0.13254438
-0.2844507 -0.07902164 0.04264202
0.05448348 -0.008635253 -0.23370294
-0.12475917 0.042365376 -0.03455338
-0.22772637 0.03925295 -0.027113896
0.21432437 -0.01251756 -0.033685725
-0.112498656 0.12545271 0.015303775
0.08099245 0.006826404 0.015380629
0.23943642 0.00034570496 -0.14415647
0.02053354 -0.002175875 0.06331978
-0.22383696 0.03623044 -0.14928076
-0.037362434 -0.01065306 0.08164366
-0.055595737 -0.013745457 -0.2894732
0.040159836 0.16803133 -0.07079163
0.17792557 0.054841474 -0.015163879
-0.2573495 -0.07806574 -0.19844623
-0.05899397 -0.060983814 0.2046552
0.06765813 0.1349405 -0.04220756
-0.31010526 -0.062889285 -0.18195137
0.21317714 0.022652477 -0.013963173
0.1402083 -0.024932759 0.023286115
-0.12425883 0.08435881 -0.055756986
-0.31274793 -0.054656893 -0.022836646
-0.1069613 0.001686098 0.20935246
0.087651595 -0.05161528 0.2851357
0.23954262 -0.030325668 0.24632005
0.1780117 0.06080684 0.34088972
0.1714551 0.062427554 -0.13926353
-0.13327767 -0.052277572 0.039009035
-0.28204182 -0.009632785 -0.17406583
0.14750676 -0.03427485 0.12894346
0.01743131 -0.029937917 0.26651627
-0.08706731 0.08156659 -0.10900058
-0.04879068 0.020146685 -0.33028883
0.07000028 0.111389585 -0.04617132
0.254064 -0.0036856967 -0.087134995
0.006212822 0.015525693 -0.15068668
0.21874085 -0.030025732 0.3159189
-0.23747359 -0.06902354 0.11163922
-0.11012374 0.036908783 0.11747563
-0.19916953 0.037201937 0.024955051
0.15099686 -0.04930637 0.30530196
-0.2823205 -0.06191171 0.0915768
-0.020755854 0.14011261 0.07926554
-0.17847727 -0.039414637 -0.14146444
-0.05683378 -0.04963513 0.0872834
-0.28123188 -0.03862943 0.09406487
-0.16931911 -0.04879338 -0.29407185
0.17669651 0.054202106 -0.009650707
-0.12020395 -0.097461306 0.22604907
0.22574735 0.03376208 0.21158993
0.07201635 0.05467132 0.27126917
-0.17383681 -0.03288018 0.1798702
0.04392463 0.028378205 0.15851189
0.049032968 -0.045878 0.15311077
0.2947247 -0.03065521 0.33518994
-0.09320324 0.13918695 0.05805062
-0.109961785 0.050633155 -0.08177764
-0.2500224 -0.053974215 -0.05934915
-0.11777919 -0.053750873 0.26026052
0.26075488 0.0172399 0.24067265
0.2728294 -0.010078069 0.045671884
0.21602418 0.009782204 -0.2189737
0.13683662 0.03934724 -0.2715334
0.012406049 -0.0876593 0.2543863
0.10772632 -0.038017984 0.1287607
-0.09959692 0.09182548 -0.080308475
-0.18733037 -0.06345601 -0.28260577
-0.19546132 -0.06600171 -0.2593094
0.15163544 0.07264474 0.32112983
-0.27915627 -0.020884369 -0.0513227
0.13029751 -0.010382442 -0.3267179
-0.09325184 0.057916943 -0.24188034
-0.2362682 -0.038330052 -0.21041803
-0.14487165 -0.032971147 -0.1758672
0.098046176 0.02350894 0.14197695
-0.3040403 -0.08533202 -0.12681651
-0.17964213 -0.04852482 -0.04667432
-0.26618898 -0.031305723 0.07134508
-0.050100815 0.042857323 0.15309927
-0.07704288 -0.02648323 -0.17667061
-0.30507952 -0.055560254 -0.117091745
0.16171046 -0.031350426 -0.27324694
0.0919127 -0.023713276 -0.03763815
0.24684519 -0.023842005 -0.15030308
-0.08405393 0.00854662 -0.16705234
-0.20610549 0.037437476 0.025502585
0.055084825 0.00039200543 0.057350703
0.10812588 -0.033068452 0.29389697
0.22736841 0.031018747 -0.09368468
-0.14915238 0.032191277 0.15093249
0.021141367 -0.035561856 0.26734886
-0.058478 -0.058031138 0.17407218
0.23886484 0.0016867833 -0.15885055
0.21632168 -0.01693856 0.014867972
-0.032703314 -0.046131995 0.07441149
0.19060867 -0.00880908 -0.09634907
0.035306554 -0.0037259418 -0.30449888
0.18027215 0.05674243 -0.13692692
0.090887405 0.027224286 0.12949389
-0.23204681 -0.018914545 -0.24343272
-0.17454714 -0.01449966 -0.2892412
0.0562388 0.0329836 -0.28475058
0.20771512 0.014026591 0.34583953
-0.10503751 -0.049038738 -0.3098771
-0.029277042 0.031270143 0.06922418
0.041409902 0.055638067 0.047185842
0.15338893 0.03976999 -0.25950596
-0.1523125 -0.03305946 0.20318502
-0.048517965 0.12252693 -0.12292435
-0.09425485 0.044047434 -0.17868355
-0.21808305 -0.0007314307 -0.25434425
-0.20607546 -0.045289792 -0.10706128
0.1319951 -0.03784493 0.2933151
0.0610642 -0.035765696 0.28411475
-0.25510538 0.0012506912 0.057378575
0.0140001485 0.033578213 0.15374658
0.07225441 0.01875666 0.12219518
-0.2126967 -0.019531628 0.13785364
0.081848666 -0.033269916 -0.33253908
-0.12544857 0.12822753 0.012883031
-0.17801844 0.049981214 -0.18629377
0.21992542 -0.010530299 -0.04903658
-0.16245885 -0.06363756 0.12959948
-0.086323984 -0.007998861 -0.32624996
0.07089805 0.031399287 0.17214648
-0.11753896 0.09205827 -0.03048572
0.2553651 0.041441713 0.371617
-0.26205987 -0.07652672 0.12466039
0.10321277 0.053610448 -0.14581108
-0.17259097 -0.10849191 0.20638669
-0.04593796 0.044808827 0.17282778
-0.30896574 -0.027790835 -0.0889147
0.087548696 0.035463832 -0.33312267
-0.28799108 -0.080165856 0.076029025
0.17852487 -0.05731095 0.24928644
-0.09579622 0.061753497 -0.22169766
-0.2541433 -0.045960132 -0.14785363
0.1946503 0.05371969 0.20539701
0.09961746 -0.006425347 -0.29734454
0.1916258 -0.05034382 0.3129492
0.015557592 -0.007037021 -0.28928563
-0.25624067 -0.08546109 0.13086495
0.28232935 -0.044150487 -0.018357145
-0.022938827 0.16398838 -0.119589016
-0.18983784 0.030149234 -0.20786345
-0.115398616 -0.041994285 -0.051494252
-0.021642275 -0.06592134 0.2575805
0.24876676 0.037012197 0.36989167
0.2603869 -0.04677384 0.035928838
0.05050531 0.055511273 -0.09802024
0.06450646 -0.040444646 0.11129203
-0.31071275 -0.04518968 0.010407663
-0.091337435 0.13537012 0.046430577
0.03336688 0.009529853 -0.3289302
0.03236982 0.107000105 0.041309554
0.15494946 -0.012743978 -0.09041034
-0.15175533 -0.05779366 0.07870938
-0.1599532 -0.07467048 0.2496024
-0.0772842 0.026611544 0.20417976
0.011744561 -0.038877286 0.2620435
-0.17278075 0.022899332 -0.22866
-0.21502268 -0.021616297 0.13488977
0.2789054 0.021363974 -0.039404817
0.07292456 0.086347654 -0.037580036
-0.24608049 0.013496565 0.059070934
-0.08435987 -0.06318937 0.20263115
0.2217711 0.0638662 0.3410302
0.22066344 -0.04712905 0.14372623
-0.13247676 0.12901026 -0.010034983
-0.14310926 -0.029248947 -0.21331526
0.06291632 0.0774944 0.020294735
-0.14246756 -0.047010873 -0.025608059
0.13355875 -0.015800478 -0.07951311
0.01203667 -0.010691366 -0.25430456
-0.29239306 -0.03480457 0.06461939
0.097010955 -0.02898188 -0.342818
-0.08978043 0.016540745 -0.3229877
0.1662944 -0.013922701 -0.06670141
0.14414313 -0.021962665 0.33117926
-0.14031701 -0.05128535 0.021549838
0.037228715 0.03185673 0.049511217
0.01156226 0.061683778 -0.2553568
0.055872187 0.06708814 -0.2361508
-0.16782466 -0.08214951 0.22602476
0.2680115 -0.043191563 0.0020288134
-0.065678336 0.16183335 -0.11088242
0.089261316 -0.022187168 -0.33827478
-0.07572648 0.049218867 0.056257024
0.2996787 0.014637056 0.2673484
-0.2607632 -0.047013763 -0.1433494
-0.16621296 -0.045150917 -0.068839274
0.07362671 0.037737366 -0.31750518
0.23410565 0.024974111 -0.023317466
0.25637883 0.027304867 -0.025691617
-0.009280471 0.015677135 -0.13742524
0.21886012 -0.009791975 -0.057872932
-0.19779801 0.004782708 -0.24064827
-0.04170514 0.1607587 -0.11082417
0.17052752 -0.018467763 -0.014617505
0.02986969 0.10809093 0.043861926
-0.2267844 -0.047595587 -0.22902264
0.16646734 0.049462352 0.34552154
-0.26897636 -0.010488776 0.018180497
-0.23466745 -0.083763465 0.15842079
-0.15499453 0.03642515 0.13112618
-0.14940439 -0.02553708 -0.25867727
-0.15357234 -0.06433654 0.14580679
0.09479768 0.04831327 -0.14825423
0.16148557 0.06351318 -0.09460684
-0.15632252 0.034123488 0.13956317
-0.06627345 -0.012742711 0.074866876
0.30760378 0.04830165 0.26827088
0.06843995 -0.0020027724 0.2912522
-0.28892478 -0.08239842 0.07285176
-0.26837045 -0.060674936 -0.0070442213
-0.056781005 -0.09310927 0.25208247
-0.22644591 0.035742022 -0.14502704
-0.18411647 0.047916565 -0.12707193
0.11146944 -0.0038852275 0.3110635
-0.14761117 -0.069063134 0.26160535
0.31686 -0.015093227 0.28466022
0.008660243 -0.017277531 -0.18830349
-0.10737968 -0.0028219558 -0.055986278
-0.23915146 -0.107029535 0.12651722
-0.20870462 -0.039704584 0.18740663
-0.055418063 0.13343494 -0.109579325
0.25363237 -0.03507871 -0.14246784
0.15214033 0.06384359 -0.16914886
0.10281716 0.0426977 0.30273435
-0.14351481 -0.06448502 0.1573845
0.2928155 -0.03349261 0.29599196
0.28554603 -0.05442727 0.0930825
-0.25929645 -0.007833633 -0.16900145
-0.27466035 -0.020673674 -0.049062144
0.2449525 0.025532281 -0.018396879
0.026373558 0.029792547 0.15316114
-0.23124664 -0.0060579227 -0.24427363
-0.12978788 -0.029408367 -0.19837312
0.26093754 0.06356152 0.36066124
0.09276136 -0.007459879 -0.20797557
0.2339929 0.018720476 0.042433623
0.25698158 0.014952878 -0.14765614
0.058767874 0.1328333 -0.023277286
0.120893896 -0.022431543 -0.33860034
-0.19455564 -0.015430625 0.15723294
0.09196818 -0.036252793 0.09448375
0.27070394 0.024425551 -0.103646375
0.15621957 -0.026261996 0.05322541
0.17315558 0.0013843523 0.16444851
0.20710601 -0.047344137 0.24053635
-0.24367028 -0.07727616 0.12716568
-0.09369522 -0.05992497 0.15895806
0.24981292 -0.037910156 0.28263113
0.05768421 0.121236846 -0.073839426
-0.08508556 0.12785742 -0.10841941
-0.15454714 -0.03348656 0.20545435
-0.06428451 0.062099807 -0.24463905
0.25369492 0.011415789 0.3729184
0.2904874 -0.038270555 0.31346697
0.07851301 0.06407917 -0.17965282
-0.061229058 0.12354818 -0.11942659
-0.22071259 0.029934222 0.06712912
-0.20311598 -0.036427323 -0.19745353
-0.203998 -0.075357385 0.18991329
-0.3147479 -0.06126969 -0.14683354
-0.2077237 0.038034722 -0.17310481
0.03238947 -0.025818573 -0.33271745
-0.03733149 -0.012715397 -0.28213948
-0.2729894 -0.0042508086 -0.03117999
0.27381676 0.070141025 0.2867191
0.26772302 -0.03148112 0.3453892
-0.29691896 -0.06355319 -0.1895272
0.13501672 -0.020674825 -0.026726818
0.16136137 0.05221875 -0.034570068
0.22892347 0.029962111 -0.08100936
0.28124014 -0.030388499 0.35210636
0.24192281 0.0077306298 0.36699265
-0.107630484 0.09188634 -0.08884196
0.2394058 -0.03444857 0.25293165
0.03646943 -0.057175886 0.2405029
-0.10996505 0.03462442 0.11131963
-0.20870532 -0.007935415 -0.2650067
-0.052367613 0.06239534 -0.24788056
0.18617228 -0.007857928 0.18020202
0.0920515 0.032775212 -0.14432192
0.14743653 -0.025018599 0.031389132
0.114605404 0.041755885 -0.31955838
-0.2946936 -0.05462817 0.06667665
-0.24809836 -0.053302933 -0.2022652
-0.1818692 -0.04958191 -0.03775747
-0.20125109 0.037330035 0.027750518
-0.20798543 -0.04881282 -0.07185748
-0.09349308 -0.10046969 0.24778292
-0.18438663 0.049567334 -0.14026205
0.2641871 -0.008661911 -0.08298506
0.086679086 -0.041804165 0.14768231
-0.2886472 -0.08727978 -0.13256407
-0.29319215 -0.06664211 0.018183855
-0.023902219 0.04398474 0.19916445
-0.19591746 -0.0035888033 0.15122837
0.12471412 0.010320329 0.022106163
0.080308065 -0.026997223 -0.33425242
0.105626814 0.017953329 -0.077277206
0.2591848 -0.011015769 -0.0048373486
-0.10923121 0.10484827 -0.0869859
-0.0029923194 -0.041893136 0.05934739
-0.30430278 -0.08622987 0.018291239
0.1481068 0.03929154 0.0058586644
0.08484618 -0.040176168 0.12871434
0.14020732 0.06203768 -0.117054924
-0.21553321 -0.020950234 -0.259777
0.104775704 0.010800418 0.31058565
-0.114075735 0.0344797 -0.1595869
-0.00085168215 0.03032193 0.06649338
0.15108708 -0.029099748 0.07800323
0.11607047 -0.027755478 0.028985457
-0.020588843 -0.0355118 -0.33761507
0.08744292 -0.026158277 -0.016337803
0.00022261194 0.036240242 -0.2765433
-0.12849568 0.08640695 -0.027612982
-0.010457401 0.034925055 0.06913185
-0.25570384 -0.059699144 -0.0047110207
0.13560875 0.011556418 0.019939652
0.009146435 0.030203193 -0.32531834
-0.20059612 -0.016195042 -0.2715496
0.20375507 -0.00782321 -0.21854018
-0.11202668 -0.05361267 0.07422617
0.061740912 0.03326939 -0.2822813
0.11337819 0.037803497 -0.23490034
0.16474645 0.018479455 -0.26890534
0.042176615 0.019724797 0.14976539
0.12122452 0.066916 -0.15229368
-0.30877218 -0.09160261 -0.057328016
0.2947756 0.007205322 0.2585369
-0.13898526 0.030460577 0.16345607
-0.035621606 -0.046590455 0.07633379
0.02408048 0.01191276 -0.11397906
-0.15434876 -0.061370432 0.25944293
-0.023201972 0.0100585595 -0.33353776
-0.19069242 -0.04077192 -0.13932799
0.12314794 -0.073163874 0.25078395
-0.21265748 -0.00012150782 -0.20378962
0.065306924 0.03321702 -0.27818245
-0.03987409 0.12539439 0.07792274
0.087499745 -0.033127032 -0.32841966
0.28251854 -0.054032404 0.085908666
0.0006681526 0.040673014 0.2234037
-0.15930715 -0.03493796 0.21600606
0.13181615 0.035791326 -0.23907797
0.26704264 0.010907457 0.3785182
0.013502093 0.12765822 -0.11413011
0.24835017 -0.011145218 -0.014260958
0.0055421945 0.08104321 -0.123122536
-0.030295106 0.061139658 -0.13059218
-0.02226503 0.04991051 0.071078785
-0.28780627 -0.024271945 -0.024253855
-0.15531328 -0.10665982 0.20429067
-0.18656658 -0.054841794 0.012962016
0.116439685 0.044365235 0.18818866
0.23589005 0.08140536 0.27115694
0.15809104 -0.00067479454 -0.2143936
-0.24689059 -3.6923775e-05 0.07778178
-0.11691013 -0.059483416 0.13119434
0.21882191 -0.0047693285 0.14557876
0.24318308 -0.019941028 -0.1890623
0.095174454 0.03443344 -0.28963217
-0.05125481 0.09191286 -0.12433577
-0.07806778 0.02103049 -0.29257178
-0.24995738 -0.052081097 -0.079223804
0.05622227 -0.03481135 0.0437116
0.29002637 0.0035452025 0.26601166
0.20418358 -0.0271675 0.33891985
-0.220024 -0.10932011 0.16788399
0.20803362 0.0059852153 0.35488087
0.21395193 -0.0038031046 -0.12583578
-0.11311096 -0.045369804 -0.013665814
0.30539992 -0.0120421015 0.27325186
0.08010545 -0.034734137 0.066676974
0.0062707122 -0.043280948 0.083186306
0.013791596 -0.018981652 -0.16524538
-0.29682165 -0.01763106 -0.18634614
-0.075081415 -0.030771423 -0.12955664
0.12223456 0.024227206 0.062541395
0.23461261 -0.008449434 0.12564133
0.20036313 -0.020289214 0.034268036
-0.23660532 -0.07949735 0.15707222
0.07862306 -0.010656919 -0.18837652
-0.021412268 0.059219163 -0.20679441
-0.23838522 -0.08425072 0.15407325
-0.19837809 -0.10720661 0.18830079
-0.10419023 -0.02195172 -0.06318087
0.26632565 0.020657867 -0.122401185
0.26101476 0.061680187 0.36243737
-0.22334975 -0.045126613 -0.12597542
0.025953088 -0.038229574 0.049582217
0.19080712 -0.00787085 -0.25053087
0.09197027 -0.034758076 0.078742914
0.083490215 -0.03615139 0.29176593
-0.11491272 -0.06157577 0.15521963
-0.011221117 0.16635135 -0.11773809
0.25439826 0.026284862 -0.016919645
-0.12990375 0.02539092 -0.140727
-0.08999098 -0.034684267 -0.10318948
-0.09250497 0.12921308 0.056989584
0.08740472 0.020632418 -0.3062896
0.2498185 0.04598283 0.36767423
0.24425848 0.057492927 0.35809895
-0.2427087 -0.039927695 -0.21043049
0.12153609 0.015683684 -0.03753798
-0.14755528 0.028311731 0.0709116
0.23253499 -0.040360752 0.2548867
0.18281148 0.06173526 -0.0836453
0.07115192 -0.03541688 0.06495494
-0.01792031 0.14741522 0.07931296
-0.29611096 -0.098756716 0.04433215
-0.22790748 -0.048929006 -0.09046787
-0.09220007 -0.085121214 0.24897903
-0.24395844 -0.10480638 0.14248858
-0.15984592 0.01085113 -0.2667762
-0.2999195 -0.09294618 0.032219272
0.17743123 -0.019084223 -0.26529405
0.2992245 -0.03158619 0.32619283
-0.004925684 -0.047942244 0.12113125
0.08172165 -0.015164429 -0.13781932
-0.14472899 -0.052534115 0.030311285
0.10372779 -0.023780629 0.29890028
0.2664147 0.0005787201 0.36652085
0.0942753 -0.034078196 0.07387587
0.2079901 -0.03149228 0.30938578
0.26784903 -0.0027303335 -0.12729421
-0.30999058 -0.01690919 -0.17884423
-0.18879636 0.034326974 0.016459117
0.19193709 -0.05848108 0.17553069
0.29432994 0.033600267 0.25723407
-0.14860964 -0.032833908 -0.18103401
-0.106372535 0.1056721 -0.071614526
0.11088684 0.013190077 0.1487992
0.078405134 -0.019840138 -0.09188046
0.12424074 -0.015785975 -0.33384898
-0.015253265 0.03457342 0.22582568
0.0815571 0.06948962 -0.2162415
0.20013 0.05785517 0.3260569
