# .PCD v0.7 - Point Cloud Data file format
VERSION 0.7
FIELDS x y z
SIZE 4 4 4
TYPE F F F
COUNT 1 1 1
WIDTH 1000
HEIGHT 1
VIEWPOINT 0 0 0 1 0 0 0
POINTS 1000
DATA ascii
0.06993139 -0.099593915 -0.21409264
0.113371864 0.16215034 0.12755463
-0.086327635 -0.13167325 -0.3452456
-0.0066094636 0.06351057 0.073679484
0.013487002 -0.034919746 0.019034602
-0.102523156 -0.070624374 -0.20060943
0.0244562 0.051963076 0.0375494
-0.17220943 -0.08387098 -0.1850444
-0.08708312 -0.07749352 -0.29363072
-0.08607855 0.0011794294 -0.23212694
0.130363 0.0051660333 -0.2787694
-0.086276904 -0.19297306 -0.2721858
-0.12637487 -0.006120535 -0.22327217
0.03319997 0.027568523 0.3370837
0.16092405 -0.043833263 0.20411073
0.06964301 -0.16971016 -0.20128267
0.017617619 -0.03810998 -0.33157897
0.14180684 -0.117862426 -0.23286016
0.08263934 -0.09020279 0.23580986
0.01890621 0.12919919 0.15473337
0.013673135 -0.0685776 -0.1932482
-0.113797806 -0.07146933 -0.33690795
0.039254453 -0.12610604 -0.19885635
0.12003975 -0.120429285 -0.228635
-0.046850514 0.18029137 0.2302351
-0.100039236 0.06402571 -0.2555644
0.06366227 0.21624205 0.12855555
0.10939803 -0.043516897 -0.25826082
-0.17185591 -0.043357737 -0.24967831
0.15536343 0.1322717 0.27417725
0.028267788 -0.022694793 -0.31605148
0.026820894 -0.021569522 -0.23941989
-0.024207268 0.042169802 0.35039628
-0.08856293 0.060438983 0.19833283
-0.023469621 -0.19371168 -0.31364304
-0.12866284 -0.037505217 -0.22587262
-0.16367234 -0.026146214 -0.23142253
0.15554026 0.040338233 0.2986919
0.020633325 0.069797225 0.3451288
0.014892547 0.01629423 -0.26868567
-0.043512166 0.18148561 0.22190939
0.19027579 0.10979959 0.2602788
-0.0543986 -0.04645427 -0.116140425
0.029199064 -0.04499865 -0.26251763
0.01991213 -0.025253799 -0.2369151
-0.090795405 0.22065695 0.22088993
0.030920312 -0.10736449 -0.2052351
0.18406147 0.05968149 0.22738127
0.13484824 -0.18000042 -0.19099015
0.1593203 0.10296127 0.3088803
-0.16217904 -0.1894842 -0.15935218
-0.2238764 -0.094495304 -0.17989685
-0.12489706 0.1614268 0.16277076
-0.014715602 -0.094615944 -0.12083973
0.06820761 -0.11802463 -0.23214537
-0.097976275 0.17678057 0.15254112
-0.07537524 -0.053680986 -0.21145047
0.057105895 0.08655158 0.15156318
0.09247067 0.1814215 0.27770516
0.02032338 -0.064889915 -0.13085309
-0.02418359 0.003210311 0.27325243
-0.07414644 0.2055438 0.22272836
-0.09055175 0.047917496 -0.25042182
0.12842709 0.15358247 0.2866374
0.08689843 -0.21273479 -0.17070363
-0.02293596 0.20972605 0.28868315
-0.112439744 0.0843935 -0.26200807
-0.0154859675 -0.031227503 -0.2862807
0.030441903 0.026652293 -0.005318018
-0.0025835366 0.2057664 0.26899797
-0.014615406 0.03832103 0.010231316
-0.12055513 0.068501145 -0.27003714
-0.22526464 -0.080907725 -0.19227692
0.041573662 -0.096737005 -0.32970822
0.0058930838 0.2518842 0.19961254
0.010187431 0.055868875 -0.28404227
0.1781443 0.17016266 0.20451528
0.12530899 -0.14952789 -0.2176084
-0.10572306 0.080902286 0.20820646
-0.08042553 0.12229476 0.2695592
0.045915093 -0.16701594 -0.20673415
0.13668501 0.14513645 0.22685537
-0.060522523 0.029928982 0.20660058
-0.100694664 -0.010896274 0.24468848
0.07328882 0.054865126 0.25698262
-0.084867746 0.0740362 -0.26184243
-0.06229886 -0.062333606 0.25748247
-0.11138352 0.1832216 0.16319305
-0.030696915 0.017098723 0.055392202
0.006283866 -0.08934665 -0.13137573
-0.108566865 0.07351163 0.21161896
0.023767376 0.09119872 0.12246472
0.14657962 -0.0074202344 0.20710586
0.013567935 0.18802606 0.13166359
-0.047383953 0.03496553 -0.26714477
0.12040706 0.1052154 0.14960873
-0.022571165 0.15862176 0.28079897
-0.016140975 -0.093229495 -0.117596254
-0.0881281 0.21075046 0.23420691
-0.17038298 -0.11939372 -0.17090954
0.0032426002 -0.070351034 0.23792937
-0.2123933 -0.10488386 -0.18630588
0.00403737 0.028683577 0.3057304
-0.11986976 0.055410765 -0.27765295
-0.21373044 -0.067282185 -0.1856963
-0.14854142 -0.23156995 -0.16880108
-0.15001011 0.08229522 0.20410155
0.0139120305 -0.09082317 -0.3075981
0.049467176 -0.24329643 -0.16849639
0.008051465 -0.09406028 -0.15942745
-0.009397948 -0.055071253 -0.028053308
0.1787607 0.16703129 0.20811392
-0.031006001 0.21242332 0.12829305
0.088538416 0.052649986 -0.28808507
8.105233e-07 0.007160597 0.3189104
0.058601018 -0.011150686 0.29458666
0.040508296 0.053692844 0.061937213
-0.08490243 0.15798432 0.15824917
-0.017844193 0.028999012 0.121890515
0.027599411 0.023249524 -0.016633894
0.13803214 -0.029045964 -0.25265735
0.02160612 -0.05042355 -0.14349008
0.16546232 -0.008544161 0.28530815
-0.18897653 -0.113766775 -0.19670476
-0.00034762823 0.0046876958 -0.2460908
-0.057288535 -0.04423997 -0.34849632
0.11254398 0.11026319 0.22179908
0.06831463 0.17119451 0.2987966
-0.13628599 -0.14276172 -0.25953466
-0.05451487 -0.14954698 -0.17563501
-0.17322083 -0.13252842 -0.21163757
0.12350843 0.11006497 0.31022128
0.0017882416 -0.05294997 -0.01986136
0.10212451 0.14664643 0.26102465
0.10056975 8.44502e-05 0.1951344
0.16062848 0.04592955 0.30073875
0.0125637865 0.20057246 0.24002278
0.03521753 0.1654914 0.30933064
-0.018722583 -0.038996097 0.3334443
-0.10454253 -0.07660142 -0.34271482
0.019362004 -0.001138544 -0.07576898
-0.066138506 -0.086761765 -0.28691173
-0.18192247 -0.18838644 -0.14231865
0.09010482 0.18718216 0.27924004
0.0037663828 0.19797476 0.26272234
-0.06052918 -0.26584876 -0.14326157
-0.029461311 0.017406097 -0.24698837
0.053366553 0.13970259 0.14543356
0.13262269 0.08133788 0.15750246
0.11233195 -0.053784434 0.21525396
0.033646706 0.016430914 -0.015837152
-0.09219499 -0.049436785 -0.3159137
0.049900845 -0.12868637 -0.22985683
0.0021185568 -0.06052414 -0.042272605
0.13044573 -0.15026319 -0.20240228
0.054854576 0.030041346 0.11501741
-0.012635406 -0.06610371 -0.054780718
0.09652032 0.1583011 0.3025685
-0.100478776 -0.1498234 -0.16879866
0.0046823528 0.11804668 0.31576344
-0.12668303 0.014836149 -0.2317236
-0.03201853 0.14330244 0.3170993
-0.1400631 -0.040517695 -0.20732392
0.18219717 0.08752382 0.14774233
-0.0015675686 0.0024249577 -0.26752248
0.12343623 0.07262561 0.24130331
-0.18959208 -0.11110427 -0.19444452
0.03131393 -0.25540882 -0.14527063
-0.10919897 0.05827528 -0.2518931
0.1004509 0.017983796 0.18789473
0.20685615 0.06813467 0.16765541
-0.019201564 -0.08344219 -0.09774828
-0.12413437 0.09060083 0.19130789
-0.014423995 -0.08135897 -0.08998931
-0.09177627 -0.20953561 -0.14586236
0.15091476 0.11284022 0.266824
0.045424595 -0.15419874 -0.25022727
0.14394204 0.13027883 0.13600394
-0.08525309 0.20451777 0.1396662
0.16466449 -0.009881645 0.28393805
-0.06569598 0.02593114 -0.26080316
0.052477594 0.1536516 0.22458598
-0.033262927 0.1968379 0.13494256
0.055002254 0.16700275 0.13412613
-0.033607043 0.015248596 0.019778272
-0.01968871 0.0559634 0.09275468
0.12396457 0.12723573 0.1401603
0.027920872 -0.23954123 -0.16686706
0.103174865 0.099282496 0.22563194
-0.09460823 -0.16155316 -0.31066865
0.0017690551 -0.2504374 -0.15862343
0.12819983 -0.06504927 0.23315915
-0.12972195 -0.15278478 -0.17897995
0.10819483 0.07166445 0.29617634
0.021143708 0.16667569 0.29222396
0.019548124 -0.05257189 -0.04064834
-0.011528602 0.075143054 0.18110204
0.11845753 -0.070131354 0.23664495
-0.053970266 -0.26311556 -0.15507458
-0.13288654 -0.123654105 -0.3234316
-0.06370717 -0.05655963 -0.36121365
-0.04740753 0.038119946 0.33914328
0.16306446 -0.04440442 0.21004143
-0.17551576 -0.05960203 -0.25544918
0.10485548 -0.13057542 -0.22230028
-0.05584079 -0.054831393 -0.19863509
0.12985532 0.009409162 -0.27422875
-0.12658045 0.064271 0.20234075
0.072601855 -0.06557355 0.3124872
-0.033497106 0.16608518 0.19113678
-0.16722696 0.04329724 -0.2373316
0.00831356 -0.23858626 -0.16438557
0.04964234 0.23688284 0.11483929
0.047713567 -0.14950901 -0.24973921
0.0047135185 -0.103137806 -0.27867556
0.08962364 0.020026349 0.18865022
0.17520022 0.14085655 0.12714309
-0.2018628 -0.16970195 -0.15801635
0.059841435 0.017510975 -0.26009488
-0.0057372623 -0.15327525 -0.27843463
-0.10678974 0.0032682067 0.22417817
0.013471586 -0.031072438 -0.14071466
-0.08243313 0.21058065 0.23557436
-0.025508584 0.022102723 -0.24947083
0.10933216 0.027410561 0.26822898
0.059507195 0.03853959 0.34647214
-0.011261465 0.043819558 0.16289546
0.10610488 0.20485245 0.27025667
0.16723911 0.1847213 0.22746165
0.114945196 0.14525083 0.15555854
-0.06945474 0.04987409 -0.25430134
0.05403587 -0.17402068 -0.1972516
-0.09711681 -0.002806707 -0.22889596
-0.06513297 -0.04381777 0.25283405
-0.083610184 -0.01426469 -0.28381917
-0.14595331 -0.17870043 -0.15043886
0.05166739 0.044027686 0.2975459
0.031544805 -0.09292028 -0.35660386
0.027577588 -0.15296547 -0.3369829
-0.015574596 -0.044560835 -0.0045503457
0.10486571 0.07770474 0.33126718
-0.03721368 0.072016805 -0.267995
0.025491463 0.011700137 0.3400742
0.023818504 0.04321225 -0.26524514
0.050503716 -0.05060335 -0.2581251
-0.13514319 -0.1750813 -0.1534873
0.14473127 0.12061962 0.18264814
0.06124822 -0.15663813 -0.18969499
-0.13085505 0.15020275 0.1688153
0.0015054871 -0.10061853 -0.2962135
0.11913614 -0.04406084 -0.25946525
-0.04665071 0.06318373 0.19108862
0.02535142 -0.1317314 -0.2422872
-0.07072298 0.19132799 0.2601016
0.026691291 0.19855207 0.296971
0.14394104 -0.1672792 -0.2354192
-0.049912274 -0.19628179 -0.23265743
-0.040131904 0.14441445 0.32068315
-0.006661986 -0.07851401 0.25834665
-0.0654193 -0.035553865 0.24952514
-0.043921612 0.071854696 0.22791196
-0.0884418 -0.15726641 -0.1974801
-0.02977176 -0.038682558 0.2299194
0.11447626 0.19691892 0.11329665
0.08980259 -0.13194226 -0.20388426
-0.023360401 0.09370023 -0.2910752
0.016127018 -0.12005356 -0.19792667
-0.17892496 -0.15635741 -0.17033312
-0.04245846 0.09524888 -0.2864558
0.07052444 -0.05782316 -0.24677412
-0.1918257 -0.1687992 -0.16340132
0.084518835 0.23229505 0.22434922
-0.051222954 0.09136264 -0.27378926
0.17078258 0.009804136 0.1809221
0.07583513 0.16811424 0.29294735
-0.028838793 -0.115050696 -0.36009106
-0.1845652 -0.0606522 -0.192651
-0.09449978 -0.17214282 -0.29546347
0.10126433 -0.07931472 0.24288347
-0.061789095 0.05931751 -0.25925174
-0.13110036 0.051540576 -0.26161784
0.079580136 0.055138607 0.31861243
-0.114028044 -0.20122027 -0.21103577
0.12600197 0.1497235 0.2338238
0.07623561 0.0010595251 0.31430146
-0.09013835 -0.21571577 -0.15925574
-0.024971578 0.06416759 -0.31044054
0.031883165 0.22846562 0.27768826
-0.16493472 -0.08192606 -0.20255704
0.018680312 -0.038466934 -0.13480762
-0.04540969 -0.049915656 -0.20867524
0.086482465 0.15367101 0.17974877
0.07115454 -0.016339045 -0.2480258
0.051002976 -0.027763786 0.21367621
-0.023921963 -0.05860657 0.2528012
-0.029999612 0.06933297 -0.2679625
-0.22154172 -0.10709857 -0.1748834
0.046097945 -0.15296867 -0.23963557
0.09131408 0.08745955 0.1610635
-0.010350933 0.14484291 0.15267107
-0.08684533 -0.20978975 -0.16213974
-0.032035798 -0.11395863 -0.36560515
0.14449938 -0.050849695 0.20935835
0.14041162 0.046280194 0.17057677
0.111295216 0.067013554 0.16643007
-0.12966737 0.12615412 0.24406421
-0.06865968 -0.26175886 -0.12807138
0.02402981 0.1534824 0.18409708
-0.10869793 0.122182414 0.29051277
0.077680446 -0.057670858 -0.23222314
0.124904506 0.16822319 0.29473466
-0.07861615 0.040334973 -0.24909349
-0.020645395 0.053556163 0.10300282
0.071305156 0.17759155 0.12744798
0.039699934 -0.04743913 0.23896578
0.096317366 0.008509988 0.32837224
-0.06030842 -0.0723337 -0.15561372
0.030968042 0.17257044 0.19437145
0.12960987 0.17525247 0.24557607
0.1274466 -0.0007953325 0.19155946
-0.035557006 -0.07954096 -0.29091954
0.051263075 -0.01923427 0.28324553
-0.13145955 0.05364848 0.20736112
0.024783298 0.19186755 0.16470212
-0.14607745 -0.027016727 -0.2366544
-0.20435275 -0.053117108 -0.20847024
0.14246 -0.01026802 0.26379666
-0.012748395 0.072874136 0.26531085
0.002910008 -0.09763037 -0.3596302
-0.045512702 -0.023395525 -0.22809765
0.122561805 0.055751782 0.33695745
-0.0034403363 0.008916955 0.31111437
0.12407836 0.13987412 0.23194644
0.13777792 0.03179645 0.28802145
-0.03848121 0.0008079891 -0.048535675
0.01843225 -0.075367905 0.25340036
0.0087923575 0.24110349 0.19989933
0.017416758 0.00020132745 0.23084342
-0.10455825 -0.19919267 -0.23210289
-0.08379191 0.04441175 0.27209982
0.19059448 0.08360378 0.1481034
-0.043151487 -0.032010548 0.27920777
0.035122782 -0.019893076 -0.037770923
-0.093605 0.017856214 -0.2377867
0.10369655 0.051242147 0.17393595
0.02507569 0.22649923 0.2828695
0.03127595 0.08095472 -0.28163818
0.025731906 0.036001187 0.0031108344
0.15893869 0.0039806366 0.28348994
-0.015290008 0.16129926 0.24275549
0.0037789794 0.065116756 0.06569882
0.19658378 0.12886801 0.14320114
0.03759712 0.027681086 0.193158
0.024536995 -0.14716175 -0.22940756
-0.031593192 -0.041541304 0.31688878
0.108856484 -0.08145374 -0.25571802
0.15439533 -0.045749318 0.2454822
0.13118616 0.03302943 0.28188047
-0.120001875 0.13193572 0.18960403
-0.19925109 -0.1677292 -0.1627491
0.090284444 0.09490975 0.32737976
0.15051937 -0.003986236 0.2775674
0.065391 -0.046179667 -0.250744
-0.032200012 -0.2129999 -0.2530365
0.028877415 0.150117 0.31704748
-0.014987238 0.026980175 -0.0222709
0.036422603 -0.1462852 -0.19026046
-0.093530536 -0.18580605 -0.26499507
-0.16318592 0.03677226 -0.23527752
0.010643595 0.19072333 0.2655528
-0.22487323 -0.07711115 -0.19213368
-0.04641862 -0.056768335 0.25534645
0.00080776616 0.04624714 0.018516278
-0.01896699 0.0853676 0.34705514
0.047841497 0.019807717 0.12756588
-0.0150505565 0.069056705 0.1413101
0.03554027 0.0010883794 -0.24988154
-0.14585333 -0.22871846 -0.17373168
-0.08137764 -0.24917224 -0.1313138
0.10008416 0.06736793 0.1679264
-0.032953124 -0.2271089 -0.22917937
-0.0014799613 0.11237785 0.3208317
0.11701198 -0.14091094 -0.2042287
0.08033504 0.01673259 -0.2953006
-0.055402037 -0.043006536 -0.13156882
0.13803035 0.13848159 0.13354343
-0.087182075 -0.18532312 -0.2782287
0.07753901 0.1849407 0.12355653
-0.07627343 -0.056148604 0.24954851
-0.14700171 0.09765694 0.19179234
-0.03246584 0.123259835 0.23191948
0.12814 -0.0075249746 0.25795728
0.1415794 0.18707912 0.24533744
0.05650825 0.06869805 0.33779323
0.08978772 0.10973994 0.31236362
-0.0664062 -0.0651854 -0.32807794
0.011042489 0.008498276 0.23567222
0.08882363 0.1913138 0.11932189
0.026219225 -0.040874954 -0.023401147
0.026645748 -0.0070599103 -0.068460606
0.06451398 0.03992369 0.18425666
-0.046860617 0.21941805 0.12777668
-0.05274873 -0.058254868 -0.11168306
0.047529116 0.083562165 0.12880975
-0.07365714 0.041387375 0.31352434
-0.009459807 0.04958968 0.17611729
0.037670903 -0.010498712 0.049192525
0.020539831 -0.19912715 -0.22610521
0.11453882 0.08263999 0.29971147
0.011579656 -0.25998542 -0.15618768
-0.10565228 0.11854564 0.17727455
0.013189707 0.03521512 -0.26044783
-0.17412288 -0.10627319 -0.20038408
0.028631777 -0.20407826 -0.23410015
-0.05591041 0.10778719 0.1743595
-0.0052622235 -0.004760092 0.090626
-0.11559907 -0.21018499 -0.15777367
0.057948098 0.05143143 0.33849624
-0.08356656 0.046143215 -0.2663833
0.033967357 -0.1527806 -0.3271983
-0.10137797 0.10898672 0.18052489
0.09038818 0.21745864 0.108493246
-0.008491378 0.055287883 0.34211946
-0.093384065 -0.09796343 -0.33807123
0.15390468 0.071848854 0.3058827
0.13268885 0.11853109 0.20093432
0.01817645 0.019199528 0.32953253
-0.15602235 -0.15391263 -0.15901525
-0.025606217 0.084236525 -0.27464736
-0.06294034 0.09154188 0.33578286
-0.06297293 -0.18635803 -0.2937029
-0.12719591 0.052122295 -0.24676584
-0.03306043 -0.24178699 -0.15703575
0.130979 -0.1724697 -0.19347696
0.15356961 0.07095935 0.17430536
0.15395035 -0.046763126 0.24335688
-0.037518762 -0.007903037 -0.2639578
0.12176479 0.123623155 0.28148282
-0.0055676275 -0.20755342 -0.15927766
-0.10627399 -0.1580075 -0.21020366
-0.069261976 0.06315285 -0.27537242
-0.05809287 0.021978138 -0.260313
-0.042838115 -0.16787893 -0.32569763
0.044421308 0.085229665 0.12620953
-0.03913277 0.1093287 0.3141102
-0.012331769 0.15107182 0.18839476
-0.036798082 0.01804492 -0.24617392
0.020003777 -0.054879252 -0.31624305
-0.13574365 0.10495023 0.20284808
0.068478316 -0.035135623 0.30642995
0.019601554 -0.25487202 -0.1437749
-0.09850858 -0.10902268 -0.3539673
-0.11904554 0.02806572 0.26304263
0.05275316 0.052492887 -0.27324125
0.02142983 0.0067676865 -0.26577896
0.035069603 -0.1717646 -0.1797323
0.084723406 -0.23185687 -0.16263275
-0.2253546 -0.07990856 -0.19405857
0.10657887 0.13139951 0.291151
-0.06746376 -0.08321766 -0.19838607
0.17565101 -0.031349745 0.20493972
-0.02833548 0.15887189 0.27560228
0.1659454 0.15572937 0.12246685
-0.12200211 -0.23598716 -0.13071649
0.06571833 0.13952518 0.14369881
-0.022133457 -0.19200201 -0.31506735
-0.04747713 0.0151376575 0.21068902
0.116626464 -0.074827194 -0.23096491
-0.01659097 0.0653911 -0.30260742
-0.040516026 0.092512086 0.3396105
-0.08890645 -0.11529022 -0.18449257
-0.03913345 -0.1797914 -0.32763705
0.11153204 0.11845326 0.28460798
-0.051570293 -0.1031897 -0.17168333
0.15252577 -0.035977602 0.21781419
-0.10638433 -0.06698715 -0.2382818
-0.12223941 0.14596424 0.16858453
0.10435404 0.041435566 0.32628167
-0.026621737 0.1695033 0.24110198
0.037565175 -0.045853365 -0.26081017
-0.21903004 -0.11642866 -0.16847429
-0.025753958 0.054617435 0.24000807
0.047186635 0.07787916 -0.28271896
0.06940903 -0.15455854 -0.23693582
0.13393725 0.048824977 0.29331434
-0.07992709 -0.036640972 -0.2994337
-0.17964275 -0.13294926 -0.21486887
-0.109127596 -0.19349103 -0.22485036
0.0449264 0.03658511 0.04831602
-0.06294443 -0.2418299 -0.13698709
0.06735089 0.043913946 0.2507281
0.09225234 -0.15955497 -0.231959
0.015586702 -0.090125 0.2597816
-0.08710854 -0.20475684 -0.28018957
0.02826312 -0.10309139 -0.20657898
-0.21436404 -0.09433477 -0.19029437
-0.0632487 0.05035099 -0.2554024
0.17273116 0.033896305 0.18652879
0.05752113 -0.0021398128 -0.2517884
-0.028189622 0.058517087 -0.311428
-0.0005875872 -0.06509469 -0.05225921
0.114871986 -0.04897815 0.22859307
0.16102833 0.15738527 0.12251501
-0.023051275 -0.2278926 -0.1484741
0.048204802 0.13971944 0.14618257
-0.06320192 -0.09958528 -0.19152175
0.064937085 -0.14784071 -0.19380106
-0.041003425 0.112316936 0.30617929
-0.048439525 -0.038284466 -0.16459937
-0.02810053 0.15233974 0.3049912
-0.03959961 0.16550964 0.14857057
-0.06401005 0.18789805 0.15872395
0.03259817 -0.051290553 0.22590716
0.089922555 0.22902401 0.21815743
-0.08238896 0.1360255 0.16678455
-0.028108139 -0.15505378 -0.24689706
-2.5226034e-05 -0.0625388 0.2508989
-0.05580383 -0.051786095 -0.35047957
-0.18926176 -0.031953078 -0.23815058
-0.21392003 -0.15154128 -0.19848585
-0.08329786 0.047302388 -0.25123346
-0.1222065 -0.06789896 -0.27373448
-0.13254048 -0.13409643 -0.25921202
-0.10774537 -0.10968923 -0.34273657
0.19356978 0.027008088 0.17061314
0.012841624 -0.1436452 -0.3510774
-0.1497 -0.09959853 -0.2082672
0.12223213 0.09307447 0.30285653
0.15390459 -0.16270754 -0.21644814
0.028444976 0.0139605235 0.14211228
-0.052024715 -0.18748854 -0.2609164
0.08000485 -0.062273286 -0.23069742
-0.1650881 -0.038097996 -0.24633282
-0.11457889 0.034240887 0.27054167
0.0076893875 0.0010060009 0.20834838
-0.024993947 -0.021924548 0.02378687
0.019754082 0.072244234 0.34309086
0.034896098 0.14596282 0.31785128
-0.025182597 -0.034989692 -0.3127804
-0.09006775 -0.12131961 -0.1818781
0.02607373 -0.034032773 -0.10827443
0.045418058 0.015756391 0.019501902
-0.02047738 -0.2615463 -0.13520627
0.07200565 0.17053838 0.295965
-0.1168266 -0.069155835 -0.19911216
0.056286927 0.075030945 0.13409151
-0.13951313 0.07109613 -0.25295737
0.060209066 0.10339807 0.33140522
-0.20799473 -0.14448625 -0.20205434
0.06562405 0.07132744 0.15712537
0.06968639 0.14613542 0.16953439
0.17552002 -0.025943909 0.19472241
-0.043997407 0.17879152 0.22048602
0.09864666 -0.07455665 -0.2847402
0.033794295 0.012309049 -0.02011219
-0.11463493 -0.14475952 -0.19431269
0.0052156528 -0.034513023 -0.1618964
-0.20677246 -0.08251182 -0.18053932
-0.059299257 -0.20972298 -0.15053739
0.035929102 0.018059624 -0.0057116975
-0.16754471 -0.06619378 -0.2601651
0.037930463 0.000354501 0.09327824
-0.09747638 0.043936048 0.22198707
0.11915084 -0.007721757 -0.27420038
-0.091016255 -0.0050807553 0.24091476
-0.049894128 -0.21753727 -0.18999586
-0.11707911 -0.16406025 -0.19504753
0.07080403 0.056587998 0.26685867
0.11490581 -0.06928475 0.23682143
-0.08589504 0.043700382 -0.26505256
0.011461666 -0.0019956343 0.10396962
0.109547436 -0.15587346 -0.19707082
0.0475122 0.20379521 0.27419004
-0.023075676 -0.07794528 -0.08393449
0.05753157 -0.08362775 -0.21875182
0.18854496 0.04216303 0.20422444
0.03557415 0.071642704 -0.2784916
-0.18170679 -0.14292009 -0.21547839
0.07880393 0.20963919 0.11335787
0.049969286 -0.06502411 0.22893374
0.01622068 0.19571401 0.23807196
-0.051574714 0.012394829 0.2124011
-0.07387176 0.16632515 0.15325405
0.109386876 0.20370679 0.16388316
-0.042238038 -0.04903982 0.3092516
0.04867636 -0.090731956 -0.32137036
-0.14733012 0.0018417866 -0.22343478
-0.102490075 -0.0916353 -0.31522518
0.044620253 -0.16501851 -0.18386438
0.007637891 0.11481091 0.2981455
-0.14823464 0.099124044 0.20510994
0.038293056 0.085415274 0.12120887
0.18769234 0.102543585 0.2597063
0.06857914 0.16817516 0.2990726
0.019322617 -0.10336085 -0.2647234
-0.018918864 -0.06028451 -0.041817155
-0.020950163 -0.005472846 0.29254997
-0.11783976 -0.19723444 -0.14703706
0.10023432 -0.03701747 0.22588505
0.16169344 0.10199285 0.26201555
-0.011255389 -0.07574717 -0.075402945
0.020318672 0.08307553 0.10305894
0.04588093 -0.10546458 -0.28783038
-0.13031057 0.12806676 0.2611528
-0.006863679 0.07375357 0.10629677
-0.052401315 -0.06822953 0.26014608
-0.13317414 -0.030325366 -0.23627694
-0.05427541 -0.08000084 -0.13651247
0.032960404 0.16841002 0.18899654
-0.11464054 -0.071906835 -0.19831675
-0.018545546 -0.013055048 0.21788704
-0.15337326 -0.118280165 -0.22293001
0.09191313 -0.045092452 -0.23940508
0.01158281 -0.06971238 -0.20210607
0.0072771627 -0.09777649 -0.2861857
0.014578731 0.1768637 0.13604157
0.007397739 0.04831137 0.35696918
0.00510009 -0.09753676 -0.27639344
0.0704546 0.23173504 0.11063345
0.1412079 0.07753652 0.30484125
0.07760198 0.17113645 0.29123124
0.02042291 -0.22648393 -0.17106399
0.04492969 -0.032758597 -0.2870142
0.038847595 0.032527305 -0.2787712
0.12115297 -0.099281 -0.22171272
-0.0041780104 -0.058095295 -0.35344034
0.04066291 0.0942391 0.33785242
0.11588219 0.21658295 0.11837571
-0.14827146 -0.14717527 -0.2509823
-0.05046102 0.2081803 0.14851916
-0.07245255 0.11114091 0.17541951
0.068348244 0.16954409 0.13114333
0.052913126 -0.15473261 -0.24614409
-0.037381478 -0.27536353 -0.1687519
-0.14619322 0.08859134 0.19534992
-0.08650236 0.04558421 0.2040541
-0.19883926 0.009088824 -0.22282566
-0.045291126 -0.26169813 -0.16756901
-0.14923601 0.09045916 0.20376748
-0.068971485 -0.19718349 -0.15420637
0.11926971 0.19311582 0.26249436
-0.07954498 -0.016420648 0.24383447
-0.11204647 0.06545397 -0.2700465
0.111631215 -0.06083411 0.23387401
-0.14457002 0.043992046 0.21319434
-0.050914224 -0.04704589 -0.1894603
0.10653562 0.09563252 0.21214658
0.08550243 -0.08208285 0.23065202
0.053906154 -0.004153589 0.28801492
0.030894287 0.21596806 0.117800646
0.14682057 0.1881142 0.242048
-0.121016644 -0.0916532 -0.30012938
-0.11451019 0.085078694 -0.26198345
0.16886103 0.18371373 0.22208355
0.030327395 0.22745937 0.27962574
-0.0144309485 0.04369376 0.15012367
-0.04207928 -0.005156641 -0.05232548
0.16734754 0.004540979 0.19921795
0.11638341 0.18165638 0.119205646
-0.012739915 -0.051399473 -0.2984877
0.026155518 -0.047923055 -0.09916348
-0.21009429 -0.008030232 -0.21997963
-0.018355357 -0.02843629 0.023993654
0.1688411 0.009662906 0.29341683
-0.131944 -0.11254352 -0.3150293
0.08662473 -0.09382185 -0.23453425
0.013286121 0.11852777 0.31252754
-0.025758909 0.20583378 0.1301971
0.12288116 0.15508586 0.28912058
-0.0092033995 0.12094163 0.3005856
0.14489046 -0.04959067 -0.26099125
0.15531227 0.08807886 0.24908027
0.09920113 -0.06697418 -0.24725899
0.14833595 0.018888162 0.28785995
0.09517636 0.026624043 -0.2936049
0.15582415 0.120560594 0.27257615
-0.13002762 -0.020962654 -0.23237991
-0.12037027 0.14568397 0.18408397
0.04086559 0.102360554 0.33465543
-0.058289316 0.12233061 0.2668658
-0.015557406 0.16209824 0.14643651
-0.12186258 -0.19906682 -0.1457055
-0.03369979 -0.01313632 -0.116057284
0.0908389 -0.00929905 -0.26941925
-0.21578737 -0.0279468 -0.2083115
0.032424238 0.15412764 0.31490228
-0.019030284 0.05877925 0.10451814
0.017845469 -0.04561519 -0.012784623
0.0066297743 -0.14706035 -0.35100928
-0.043216627 -0.20319177 -0.28828454
-0.080912255 -0.035955958 -0.29945078
0.14946586 0.051809993 0.29994032
-0.14546855 0.111649595 0.2015546
-0.146252 -0.12756722 -0.18678485
-0.06043849 -0.16500466 -0.34075424
0.07328394 -0.18277937 -0.18085684
-0.038340364 -0.024937436 -0.32165444
-0.19043456 -0.061168984 -0.19158274
-0.02599479 -0.12124024 -0.33610797
0.05274086 -0.19146766 -0.17432916
-0.14580388 0.07035806 0.21834461
-0.0065251417 -0.0467378 -0.20288073
-0.12688819 -0.21223089 -0.1396331
-0.13934462 0.023804566 0.22594474
-0.060117994 0.05674182 0.19567056
-0.0029023285 -0.080139324 -0.09248593
-0.018085057 -0.2739742 -0.14375842
0.00055888627 -0.016787766 0.06685834
0.090877876 0.13392009 0.3002515
-0.0011752299 -0.002264736 0.09921038
0.018814856 0.022783896 -0.031239826
-0.04222628 -0.03408947 0.29511184
0.12289009 -0.11979066 -0.21365148
-0.08718048 -0.044964086 0.25507706
-0.15952277 0.041326165 -0.25331897
0.009178554 -0.031586517 -0.23277798
0.025697248 0.005595952 0.34446397
-0.0926197 0.021345915 -0.23934598
0.14178848 -0.16117464 -0.1996377
0.050914362 0.10732345 0.15892029
0.01267082 0.023069277 0.31852284
0.09377981 0.029842168 0.32197285
0.04575688 -0.031295437 0.21587521
0.04424855 0.03174737 0.19053616
0.017635934 -0.12583244 -0.3569169
-0.06353616 0.1768382 0.2857598
-0.012230619 0.056194037 0.18888727
-0.09060753 0.024107749 -0.24076022
0.056364387 -0.1640429 -0.18597814
-0.10792343 -0.015154504 0.23181318
-0.09828257 -0.25167656 -0.13000023
0.14156516 0.023115244 0.2823536
-0.13250636 0.07504015 -0.25946835
0.15477845 -0.07921803 -0.2504253
0.049975663 -0.13318071 -0.19755615
0.09431029 0.22211927 0.106263146
0.10512546 0.13548838 0.25309983
0.14330494 -0.015937902 0.19537868
0.039073538 -0.01525633 -0.31545568
-0.12357527 0.035569664 -0.2405845
-0.036621343 0.05131405 -0.31243062
0.04463952 0.003365663 0.07407824
-0.0008047186 0.23781773 0.23102483
-0.0040610274 0.26305833 0.20882964
0.15374103 0.15626787 0.2189221
-0.2003861 -0.1697936 -0.16174571
0.09668804 0.22560012 0.11607473
0.077547304 -0.14276591 -0.19770342
-0.20177542 -0.07433485 -0.18458575
-0.11729968 -0.15318209 -0.29947025
-0.08284345 0.12835357 0.18562025
0.109517924 0.036228526 -0.27989465
-0.050238047 -0.04738902 -0.09023283
-0.009696229 0.22555047 0.25881124
0.015669886 -0.2426216 -0.14816657
-0.16333748 -0.08719087 -0.18499622
0.023260355 -0.049553834 -0.13169605
0.14242399 0.031091377 0.19209975
0.0787424 -0.031878795 0.22694577
-0.06043619 -0.17031741 -0.22927205
0.117926516 0.12530467 0.14182675
0.07698534 -0.22440071 -0.18018295
-0.07549291 0.015217715 -0.23936723
0.16241693 0.17378606 0.11937093
0.07226257 0.16046055 0.25633818
0.18948278 0.10096932 0.25828373
0.04188384 0.018130528 0.3497097
-0.02827073 -0.027927982 0.006970171
0.00049383915 0.20875724 0.26116964
-0.066072166 -0.18442479 -0.30651423
-0.04841585 -0.046105858 -0.19394337
-0.16235004 -0.029657401 -0.22412619
0.012777394 0.21218358 0.12198537
0.15896729 0.1198421 0.13803716
-0.090017565 0.2190117 0.2240176
0.011707172 0.08165723 0.10615431
-0.00028601656 0.12780307 0.3282337
0.10896285 0.1807866 0.12064394
0.08291649 0.21603924 0.22701544
0.08031252 0.07229278 0.16882174
-0.1790985 -0.01945366 -0.23576638
-0.18097332 -0.08469369 -0.18342873
-0.10555328 -0.13395096 -0.33505958
0.102434054 0.15070784 0.29941106
0.19630659 0.14569037 0.1681992
-0.16347885 -0.20465286 -0.13735244
-0.09114724 -0.20217757 -0.2585809
0.1296065 -0.091566764 -0.2417364
0.007927789 0.25435027 0.18078503
-0.067655705 0.049828336 -0.27020505
-0.19914557 -0.08625082 -0.19579852
-0.021952784 0.027084239 0.20211156
0.05508646 0.23831253 0.120094225
-0.043071657 -0.09880891 -0.14835714
0.08021333 0.10813699 0.32572478
-0.08395741 0.045052674 0.21955651
0.11281231 0.21466334 0.1651801
0.06603924 0.025160635 0.35584426
0.02864029 0.045852333 -0.28268006
0.017167695 0.13301606 0.15344056
-0.061106678 -0.06517956 -0.16028568
0.038857132 0.044642087 0.33341914
-0.0513669 -0.20474821 -0.31593353
0.0034993794 -0.14676769 -0.18524855
-0.093603685 -0.014866916 0.24526104
-0.119840726 0.03128388 -0.25505242
0.14353083 -0.18135656 -0.20203483
0.04094269 -0.085607864 0.25425896
-0.14295048 -0.08645998 -0.27882105
-0.042501613 -0.031646404 -0.15912758
0.09811276 0.0010717412 0.23277879
0.14469096 0.13969967 0.28222218
-0.10815638 -0.039836865 -0.21226759
-0.09963764 0.104444906 0.19777094
0.12502047 0.14813551 0.13153248
-0.18162784 -0.06045874 -0.19315897
0.004560632 0.15296283 0.17958722
0.07647383 0.16250959 0.24111345
0.09639075 0.22509906 0.20699254
0.106040776 -0.020839075 0.20281707
-0.018626532 -0.030079884 0.32557625
-0.20926109 -0.014131304 -0.22355859
0.12798679 -0.026983581 0.20209791
0.08540889 -0.027116321 -0.24574174
-0.070391655 -0.2258111 -0.15805165
0.07106224 0.036577944 0.35557705
0.08472938 0.23860437 0.2265067
0.016919654 -0.07330909 0.2527867
0.110678315 0.034524903 0.3346071
-0.034808382 0.07548064 0.18437071
-0.0021180185 0.011868367 0.2350558
0.16193515 0.051624276 0.16526133
-0.033705655 0.0158777 -0.31313786
0.072430156 0.039524417 0.18326078
0.020973919 -0.014469224 0.06945966
-0.019675478 0.025924454 -0.019629007
0.04913295 0.042608783 0.2949545
-0.0889243 -0.22538726 -0.1398528
0.0285735 -0.23234336 -0.1698811
-0.032287933 0.029805556 0.20252025
0.004234122 -0.04635664 -0.34335428
-0.0064463695 -0.0519875 -0.21454516
-0.13657525 0.039071195 -0.2837096
0.07652289 -0.100604676 -0.23358582
-0.028167747 -0.09392813 -0.36642268
0.051968828 0.020764066 0.11159526
0.13891774 -0.031199792 0.24685447
0.15130381 -0.10812203 -0.23819873
0.029948689 -0.018946007 0.04997402
-0.021445047 -0.0660287 0.255448
-0.10547609 -0.053750746 -0.3225164
0.022904051 -0.011365724 0.23462752
0.015311745 0.019389927 0.19977969
0.12049715 -0.011027862 -0.27305722
0.20098442 0.061765816 0.22623762
0.0050372374 -0.14904189 -0.35288978
-0.026181031 0.10561147 0.32383254
0.021771733 -0.05168978 -0.04749728
-0.002553032 0.072878905 0.09596333
0.02038412 0.08027486 0.09484085
-0.07088879 -0.0253898 0.23054527
-0.006879326 0.054269787 0.34384182
-0.07399732 0.1994731 0.17838229
-0.1012608 -0.1251227 -0.3148005
-0.005726641 0.2191574 0.25942016
-0.08225166 0.063493185 0.19617113
-0.07288099 -0.1587209 -0.34061977
-0.15491107 -0.06042598 -0.26081637
0.057722215 -0.1984145 -0.17224123
0.12406098 -0.18649913 -0.20243613
-0.14102437 -0.20626989 -0.17347915
-0.064567685 -0.17937122 -0.16207246
0.037484106 0.08706019 0.3412043
-0.016603634 0.058324806 0.08800384
-0.027521273 0.08831773 -0.2760221
0.06532105 0.054423336 -0.29152125
-0.19315389 -0.07927788 -0.1995023
-0.1998224 -0.050423454 -0.19456579
0.1192525 -0.07777069 -0.25596732
-0.011325377 0.1511397 0.29401228
0.08841005 0.15889788 0.19387893
0.12503046 0.048607163 0.29004553
-0.119309954 -0.09730125 -0.3087069
-0.022790734 0.041090902 0.10060738
0.063501604 0.17324184 0.30245388
-0.06286031 0.02205608 0.22806896
0.06379285 -0.25632834 -0.16530837
0.11913767 0.10198536 0.15110348
0.029061891 0.06684427 -0.2912528
-0.051402826 -0.06305933 -0.10640444
-0.026242804 -0.15770683 -0.3235844
-0.069413245 -0.064891845 -0.20777734
-0.07911443 -0.15624502 -0.33434457
0.09675729 -0.1841955 -0.18371636
-0.025521059 -0.17448492 -0.16976601
-0.21198899 -0.10685004 -0.16990864
0.0025703465 0.04832027 0.3543177
-0.1562014 -0.0017413013 -0.23634383
-0.052500006 -0.20131326 -0.20198925
0.05363162 0.029803203 0.34809935
-0.031514667 0.042127848 0.34666464
0.026911952 0.027657911 -0.2593916
-0.032087654 -0.040894058 0.32074383
0.0012190505 0.1811416 0.15488583
0.08983403 -0.043013453 0.22983761
-0.05784529 -0.02956968 -0.33627993
0.14066127 0.19717126 0.11777058
0.08631891 0.084896185 0.3256155
0.059323385 -0.17639682 -0.18140212
-0.012491602 -0.031865716 0.33454138
-0.066935174 -0.2545572 -0.14690238
0.0192118 -0.050073795 -0.028624838
-0.028136019 -0.012770977 -0.30953002
0.01577787 -0.009017718 -0.2673315
-0.12495747 -0.1699313 -0.29026106
0.15203626 0.13984646 0.20179838
-0.12282935 0.12739664 0.26666766
0.18507561 0.00022247393 0.19837534
0.11677442 -0.21685773 -0.1758743
-0.036301978 -0.27315012 -0.14128499
0.10384701 0.15565707 0.2995109
-0.04621042 -0.018545862 -0.09273945
-0.11290978 -0.1851795 -0.16830511
-0.0573866 -0.05522066 -0.13037905
0.11837965 -0.07722375 -0.25892645
-0.08720727 -0.1996275 -0.2660713
0.0141575625 -0.020512767 -0.12032334
-0.043741502 -0.1413987 -0.32568145
0.01988789 0.022160899 -0.27179423
0.08987742 -0.09399933 -0.2349385
-0.123132974 0.16628167 0.17453033
-0.008760261 0.056153327 0.34114182
-0.021893634 -0.22768621 -0.14872709
-0.039428554 -0.048471007 -0.21175908
-0.005401019 -0.07347645 -0.27856722
-0.11591065 -0.13122953 -0.28310004
-0.033577207 0.0023546875 -0.06530459
0.1626192 0.1566559 0.12257793
0.19426286 0.16026372 0.18146904
-0.021012641 0.046984658 -0.2969874
0.10455027 0.1269223 0.24119641
0.026192542 -0.042043574 -0.10378745
-0.030098854 -0.06830025 0.25763422
0.13384818 0.17159185 0.12073128
-0.061291296 -0.032726344 0.24777526
0.03414745 0.06058592 -0.2894592
0.04706552 0.020662704 0.031159975
-0.011351105 0.14046372 0.31631386
-0.22029777 -0.05979455 -0.20343046
-0.11609776 -0.17569165 -0.20144865
0.1629971 0.14521907 0.19513252
0.010413229 -0.19346786 -0.31055406
-0.09272325 0.0832963 0.1896744
-0.19595726 -0.07912022 -0.19915621
0.00581457 -0.16786444 -0.21077934
-0.036682382 0.19273768 0.13710487
0.06648197 -0.0005831199 -0.29017636
0.07962586 0.18850301 0.121806644
0.19972192 0.090036295 0.2524252
-0.036702216 0.06802071 -0.31342784
0.10016845 0.21398571 0.10847032
0.082114846 0.049586277 0.17776443
0.036659412 0.19063932 0.2930925
-0.060187794 0.05237611 0.2987361
0.15699333 0.14023575 0.28010273
0.037022773 -0.10306953 -0.32696924
0.013239822 0.10100622 0.15846755
0.020415036 -0.11979476 -0.35479313
-0.13519925 -0.06646442 -0.21750204
-0.076676644 0.0804258 -0.2812909
-0.0033437635 0.023936577 -0.27289394
-0.12071613 -0.11615051 -0.25474003
0.09713654 0.22073501 0.106484324
-0.0022183042 0.08834053 0.1452026
0.087533444 -0.18174264 -0.19902135
0.008378881 0.16296057 0.30923063
0.08093165 0.016145593 -0.2938626
0.041323848 0.08690209 0.12649983
-0.17396668 -0.07316166 -0.18912923
0.12830848 0.13848086 0.15062556
0.014387685 0.07014293 0.07270068
-0.01801362 0.15425502 0.18781953
0.035112802 0.16917482 0.26082158
-0.09856156 -0.19852723 -0.24295211
-0.030651316 0.011188307 -0.24429327
-0.19903211 -0.15974993 -0.16601631
-0.045888077 -0.07651235 -0.11302125
-0.031601533 -0.21833451 -0.2582421
0.03559878 0.12917061 0.15230314
0.028951282 -0.15113117 -0.18720286
0.15278977 -0.018967744 0.27058133
0.10259557 -0.08136791 -0.26745456
-0.076636106 -0.022585409 0.23024888
0.020129317 -0.025098344 0.04276714
0.14801462 -0.0032621652 0.27640003
0.14108247 0.119447015 0.3128345
-0.14991961 0.0033063223 -0.2236497
0.12683076 -0.032154303 -0.24975847
0.09950295 0.09486093 0.32699552
0.03538043 -0.04564465 -0.23091091
