# .PCD v0.7 - Point Cloud Data file format
VERSION 0.7
FIELDS x y z
SIZE 4 4 4
TYPE F F F
COUNT 1 1 1
WIDTH 1000
HEIGHT 1
VIEWPOINT 0 0 0 1 0 0 0
POINTS 1000
DATA ascii
-0.13407794 0.013038109 0.18262427
-0.17494056 -0.07574818 0.15889321
-0.0524936 -0.10567602 -0.2747879
0.15921725 0.17104033 -0.23577268
0.08381662 0.026017683 -0.23054372
0.037496544 -0.008658096 0.19851631
0.058013767 0.032943886 -0.16397083
0.0563496 0.17780879 -0.27592126
0.07105776 0.021827104 -0.35546052
0.110764384 -0.11545846 0.24221627
0.06969876 -0.07960324 -0.2902974
0.22109404 0.06852515 -0.24456361
-0.08329241 -0.08798765 0.27246305
-0.102804735 -0.059045453 -0.31655914
-0.19304195 -0.03291769 0.27739263
-0.04393845 0.018112933 -0.24748486
-0.09483095 0.20875815 -0.22833048
0.05887378 0.1532905 -0.29179573
0.044591825 -0.15418427 -0.27786782
0.09083918 0.22584666 -0.18728043
-0.06715721 0.08195684 -0.23670484
-0.03627526 0.1999695 -0.26104677
-0.017894572 -0.010184369 -0.28916904
0.05669332 0.19405606 -0.2638143
0.111796625 -0.057406068 0.19704367
0.03128508 0.056334462 -0.39802152
-0.0764852 -0.018432975 0.2627522
0.12370613 0.17658406 -0.1938125
0.033792704 0.14257298 -0.21177489
-0.13881108 -0.022667231 0.32319486
0.0798041 0.07150112 -0.22136687
-0.02698173 -0.17407785 0.2676457
-0.13701358 0.037328117 0.20266989
-0.18832225 0.001073546 0.24398729
-0.036221832 -0.12484483 0.3309686
0.07351404 0.10331929 0.23827164
0.06518884 0.078050785 0.30916563
-0.058674496 0.03288358 0.32227758
0.021356938 -0.006140797 -0.19052213
-0.028283184 -0.013102417 -0.078030355
-0.01650567 -0.055021178 -0.25973424
-0.15767373 -0.00881824 -0.2820304
-0.13038658 0.04913213 -0.28804472
0.0824828 0.076923154 -0.33101374
-0.045751613 -0.018673934 0.013386075
0.056942463 0.001326254 0.34856793
0.08083329 -0.023698244 0.3049545
-0.14883329 0.12008205 -0.2383688
-0.12469787 -0.19023305 0.14058961
0.043253664 0.0024077739 0.3541426
-0.008901609 0.1843701 -0.23086052
0.14626703 -0.009509208 0.2113305
0.086310975 0.08442977 -0.36894202
0.061459783 -0.13293166 -0.2822002
-0.109954156 0.005394865 0.3034434
-0.017669648 0.03355065 -0.0052407286
-0.19806398 -0.009356164 0.18546487
0.0466272 -0.16752379 0.16587938
-0.058703363 -0.10454834 0.33430347
-0.005373852 -0.051955678 -0.25775322
0.10476699 -0.11371347 0.25762844
-0.031188771 0.017864482 -0.10944309
0.121829875 0.058744114 0.22748107
0.084858514 -0.011114097 0.21889332
-0.16492316 -0.1442368 0.14554921
0.085676976 0.04369025 -0.22656965
0.10877187 0.054306734 0.23563927
0.06469273 -0.011333252 0.33073968
0.0151972845 0.0037643749 0.30167434
-0.018999651 -0.066512026 0.34712225
0.15087251 -0.04649167 -0.25589386
-0.06334706 0.012560664 0.23454039
0.051339537 0.02320651 -0.11045959
-0.008326148 -0.00083817757 -0.3920322
0.038088147 -0.16633134 0.25094607
-0.048593074 -0.114585124 0.32486916
0.014640968 -0.14318128 -0.28996956
-0.051575854 -0.042891245 0.33727646
-0.039538596 -0.018866135 0.34633705
0.045813113 -0.1208065 0.32813042
0.13974941 -0.0025583822 -0.22992776
-0.1338752 0.016176172 0.1833146
0.028660757 -0.09766818 -0.2786319
-0.113143764 0.18963332 -0.23457856
-0.011486268 0.007531305 -0.3878575
0.13166253 0.09531716 -0.33890906
-0.08763315 -0.19449036 0.14411435
0.0663025 0.21880758 -0.23959221
-0.012094454 0.14523931 -0.33262816
0.148817 0.16591099 -0.24641824
0.16886659 -0.031304464 -0.24779248
-0.037965227 0.014004714 -0.026781263
0.0818725 -0.0056973984 0.33166224
-0.17312182 -0.015867598 0.26132816
-0.17060982 0.017454414 -0.27799812
0.008023141 -0.12501526 -0.28690338
0.005323609 -0.09655437 0.17601196
-0.19463626 -0.098008744 0.21245001
-0.05369597 0.105321266 -0.3506134
-0.011530268 0.012984524 0.10157937
0.10721612 0.17702861 -0.21092789
0.17599368 -0.058614675 -0.26353914
0.042277016 0.07249383 0.23155618
-0.041657884 -0.16469082 0.2358565
-0.109178364 -0.18742393 0.25646284
0.11045304 -0.10540504 0.18669277
0.09344162 -0.08586117 0.3180203
-0.09945736 -0.0906492 0.3242839
-0.024046374 0.03881963 -0.073878825
-0.086007275 0.025243469 -0.26623645
-0.030596824 0.13562724 0.22452833
0.14857471 0.15505826 -0.24536999
0.17837839 0.045412257 -0.24528284
0.021278009 -0.04408658 0.048226144
-0.13240732 0.03661105 0.3017377
0.14254735 0.20712508 -0.19501638
0.064009495 0.23406997 -0.23445943
-0.017973742 -0.16949256 0.28791177
-0.13912523 -0.1332016 0.15097445
0.11663441 0.1390838 -0.28756833
-0.090125814 -0.0987855 0.30411378
-0.19852066 0.0026910284 0.24529374
0.035513785 -0.1660019 0.24371815
-0.09230067 -0.06891726 0.3331009
0.089179866 -0.12159091 -0.29078436
0.13456471 -0.0033825596 -0.30270416
-0.12885097 0.0008266866 -0.26129952
-0.024568034 -0.16132782 0.28387788
-0.054215662 0.16756377 -0.23222384
-0.05713826 -0.020145273 -0.33200467
-0.07580956 0.1327991 -0.26545173
0.06207406 0.2162262 -0.24532993
-0.02591937 0.026370881 -0.15259776
0.005981596 -0.16221096 0.31596875
0.030491162 0.22898062 -0.19382498
-0.067029186 0.010378079 0.2683307
-0.07927437 -0.18758321 0.16181907
0.014359539 -0.0367375 0.18935777
-0.17309214 -0.14190209 0.14506915
0.029922033 0.1890382 -0.21761268
-0.096095935 0.16869967 -0.236986
-0.019564155 0.03210264 0.35149968
0.039059132 0.108848564 -0.21830504
0.060867906 -0.18872632 0.2583271
-0.18748534 -0.091461144 0.15405823
-0.04401575 -0.17263654 0.21964267
0.1261591 0.08221888 -0.33013508
-0.038681816 -0.004322008 -0.34383252
0.027925348 0.06861875 0.2290186
0.08611352 0.08394263 0.27180356
-0.109486975 0.15618241 -0.24289522
0.14550424 0.08016989 -0.30353948
0.012640833 0.1384695 -0.30800024
-0.084935725 0.09031506 -0.23705436
0.07188161 -0.067542754 -0.25183275
-0.01066362 -0.16788974 0.29706633
-0.07212965 0.14068311 -0.24007092
0.15026195 0.117659606 -0.2031497
0.108546175 0.1367909 -0.20407175
0.007909146 -0.13599987 0.23158358
-0.13304383 -0.18704797 0.22145434
-0.043713268 0.050007947 -0.28258774
-0.046279985 -0.15795287 0.3136462
0.12012256 0.11714299 -0.26078382
0.057509847 -0.08692422 0.1842911
0.081792094 0.081682295 0.2894926
0.08930118 0.026268872 -0.37473798
0.1344111 -0.07576785 0.19584724
0.022967003 -0.005786588 0.092391364
-0.009515069 -0.12596045 0.25210094
0.07211322 0.17554794 -0.20019639
-0.069170564 -0.030504432 -0.2608212
-0.101482324 -0.015695572 0.3116927
-0.040308125 0.034098607 0.3592172
-0.035115734 0.076145254 0.29266298
0.056369048 0.019215537 0.20668869
0.063235775 -0.089431755 -0.25751278
-0.061210185 -0.007313238 0.2588441
0.044253714 0.002726498 -0.19469002
-0.10506943 0.112773746 0.20726404
-0.082707986 -0.007800575 -0.27285835
0.087309346 0.20999287 -0.19106816
-0.14417784 -0.10183399 0.31759906
-0.12643024 0.054654438 0.28267124
0.034989752 -0.15660727 0.25280556
0.027419576 -0.22015701 0.15942648
0.03710323 0.056257665 -0.13416977
-0.061665792 -0.051759586 0.3451571
0.07825562 -0.064297676 0.34255123
0.049239643 0.05175433 -0.1565832
0.15070802 -0.06233535 0.20064607
-0.067383796 -0.08753727 -0.2879557
0.12118779 0.12377693 -0.26695672
0.028227316 0.007583795 0.3604708
-0.11774645 0.037694715 -0.31210366
-0.045280106 -0.03161754 -0.2771706
-0.05471151 0.066034675 -0.3094247
0.21802068 0.04441046 -0.23401177
0.090103574 0.06833289 0.23638684
0.10943647 0.07292644 -0.35885057
0.20106764 0.015872158 -0.23392935
-0.11308772 0.08867165 0.23932226
-0.13318591 0.07423481 0.27518174
-0.03268657 0.10351639 -0.36846867
-0.05963256 0.13997819 -0.23872718
-0.0809326 0.085369654 -0.23762621
0.14686625 -0.11681838 -0.26080707
0.05115659 0.080097176 -0.3867927
-0.18554087 -0.099490985 0.22613224
0.11158699 0.07067736 -0.35827968
0.04117189 -0.0077243494 -0.08371258
-0.013111772 0.022297634 -0.22763512
-0.024669563 0.017193066 0.34633216
0.08046373 0.09855569 0.2366636
0.15822983 0.088619776 -0.22360262
-0.021717152 0.04113117 -0.19466956
0.13579217 0.08874012 -0.22625764
-0.0884684 -0.11123941 0.18512355
-0.13529474 -0.026057541 0.32631096
0.09346503 -0.18561798 0.16763371
0.038687006 0.11597917 -0.2168361
-0.09458946 -0.14344831 0.15411912
-0.1249841 0.027968101 -0.25507525
0.16072133 -0.079345986 -0.24372505
-0.0036473859 0.035909962 -0.0047105704
0.14035583 0.19969994 -0.20215546
0.033996467 0.017092122 -0.33237582
-0.16419291 -0.035006072 0.2771145
-0.01801494 0.051150355 -0.19095102
-0.09820226 -0.021273902 -0.27756935
0.1147501 0.11029004 -0.20895667
0.0809152 -0.07500366 -0.2523376
0.045768715 -0.075191356 0.3246876
0.085650206 0.081076205 -0.2703385
0.05053746 -0.12870216 0.32354444
0.06717908 -0.085174315 -0.28360718
-0.05043085 -0.03179757 0.05788376
0.041890115 0.0016886584 -0.3538498
0.14944725 -0.043630127 -0.252729
0.024397843 -0.09677051 -0.2789508
-0.0148249455 -0.0015444185 -0.3847093
0.05330636 -0.18682937 0.24074164
0.05298889 0.012104029 0.2276351
0.037087563 0.0588785 0.3271044
0.010431617 -0.17558151 0.31384176
0.119968794 0.12937093 -0.26337725
0.014405121 0.04504737 -0.38737726
-0.068875894 -0.11464864 0.3265415
-0.07823356 0.01175347 0.18902329
0.09295892 -0.0030067032 0.32658926
0.021876464 -0.0048711933 0.2830752
0.06952586 0.035492893 -0.38817638
-0.10756969 0.05107288 -0.29561028
-0.093986705 -0.10742072 0.23251946
0.07913021 0.09924582 0.23771141
0.028799966 -0.10979135 -0.28118962
-0.011296441 0.02788104 0.34441608
0.15560041 0.13168141 -0.22359426
0.20542824 -0.049793504 -0.23636623
-0.16890462 -0.11238207 0.253913
0.040267464 0.09803507 0.2367385
0.016441472 0.016149445 -0.4029459
-0.0679404 -0.15692124 0.29521954
0.031848185 -0.060372677 0.3434161
0.06484785 -0.04013677 0.19510108
-0.12195076 -0.044842888 -0.2701709
0.0031281677 -0.05859793 0.05963198
-0.03487197 -0.19492862 0.24000557
-0.04618443 0.0718563 -0.30923462
-0.024758177 0.1657293 -0.30021542
-0.014717338 0.1012775 -0.22633764
-0.1416271 0.049114518 -0.27780503
0.04290915 -0.1743233 0.22500014
-0.16073057 -0.09801976 0.24289897
0.15879974 0.15394123 -0.19442679
0.08876907 -0.14582482 -0.27882862
0.03229963 -0.06686207 0.2599121
-0.11510689 -0.16156848 0.14782108
-0.02716053 0.04854819 0.28163156
0.11628296 -0.051997818 0.19872807
-0.06263329 -0.031575006 0.14790124
0.017947564 0.08891507 -0.39269817
0.22154866 0.045960627 -0.22509433
0.1344146 0.18082492 -0.2068724
-0.053150613 -0.050851565 -0.2632268
0.15985432 0.039254844 -0.21864925
0.1280882 -0.12854812 -0.25806957
0.15917532 -0.08123696 -0.25955075
-0.026474487 0.030505765 -0.020128602
-0.05150702 -0.1090636 0.32638332
0.0825785 -0.021536855 -0.34013402
-0.0079624215 -0.11141987 0.33794937
-0.19358818 -0.02775202 0.1820944
-0.033514395 0.18570085 -0.27268606
-0.06557165 -0.20378174 0.14477707
0.057286378 -0.11808561 0.3342027
-0.046206027 -0.07840886 0.34896645
0.043591104 0.04805967 0.30352107
-0.033951435 -0.16093987 0.3240576
-0.13266443 -0.0017343382 0.31472746
-0.18086228 -0.0023503315 0.17376804
0.16017434 -0.056598075 -0.2389607
-0.2040522 -0.006277634 0.25635087
0.12994161 0.124407955 -0.21938376
0.05048175 0.011722708 -0.12999044
-0.054169506 -0.037896305 0.08857336
-0.15786493 -0.08235546 0.15953007
0.15309085 -0.006448416 0.21663442
-0.020117158 -0.04727353 0.013437988
-0.18856154 -0.10046572 0.1520177
0.0459109 -0.13728698 0.3111752
-0.013629493 -0.17604314 0.2890688
0.11754438 0.0877703 -0.35376817
-0.05172225 0.0678939 0.31563923
0.054178864 0.1570806 -0.2996186
-0.19199266 -0.0041507673 0.1720558
0.11201274 0.15297183 -0.20022236
0.0061112046 -0.025550844 -0.10371594
0.060175974 -0.14489852 -0.284894
0.05971142 0.057402834 -0.21283257
-0.009400832 -0.14395393 -0.29300615
-0.14083406 -0.01114773 -0.28051302
-0.00068734447 -0.0074728997 -0.17237894
0.030635135 -0.14445207 0.28294772
0.12648848 -0.14949791 0.1895871
-0.06794004 -0.074492626 0.339581
0.10052878 0.049203686 0.23357129
-0.1660946 0.013831495 -0.26298803
-0.0632265 -0.041187827 -0.26237896
0.03586555 -0.09019819 -0.26094556
0.06022488 -0.056116004 -0.29713035
0.11037663 -0.12134924 0.19853851
-0.07155108 -0.038935713 -0.27813524
-0.041265693 -0.0031028364 0.34625378
-0.10412713 0.08908512 -0.23960796
0.053293884 -0.00067808625 0.34921512
0.16632916 -0.02090964 -0.28824663
0.17783391 -0.033207674 -0.23188491
0.090441674 0.0038303172 -0.38152042
-0.090420276 -0.038010303 0.32276022
0.14039554 -0.052190073 0.20156789
-0.10095592 0.14859557 -0.25035593
-0.056664735 -0.049462765 0.34624258
0.011694346 0.07983169 -0.21965909
0.09723268 0.02348758 -0.22947802
-0.05435987 0.07861176 0.2060698
0.000725609 0.01164444 0.24223684
0.1563325 -0.08305384 0.19691986
0.064042464 -0.036781944 0.279098
-0.033987127 0.009071783 -0.3422363
-0.029932821 0.0655599 0.20621711
-0.007148154 -0.19715813 0.15316346
-0.108193584 0.09532303 0.21842563
-0.061464805 -0.040804483 0.14820896
-0.040677693 0.093442805 0.22609316
0.0002857147 -0.06890872 0.11902679
0.0044005057 -0.016503721 0.18812339
-0.13101658 -0.10625469 0.3222935
0.07868469 -0.023378382 -0.34066233
-0.13317667 -0.15430263 0.1472049
-0.013570186 0.014980964 0.2691401
0.17254981 0.07182424 -0.21021774
0.1729204 0.14126077 -0.2106719
-0.16546674 0.056647014 -0.26906306
0.12419414 0.0063043297 -0.25476342
-0.1918599 -0.0944074 0.20708533
-0.20796351 -0.07075427 0.16277969
-0.04903598 -0.06495613 0.34386438
-0.0141197 -0.18533865 0.17007978
-0.20899932 -0.04268923 0.16616327
0.03915471 -0.018004585 0.19672956
0.02323138 -0.12512122 0.30740052
-0.040889755 0.012097573 0.010407024
-0.08012823 -0.031002145 -0.26223585
0.0086355675 0.09814252 0.23298211
-0.06870626 -0.20352475 0.15969709
-0.038266107 -0.09270599 0.33925968
0.15025766 -0.053602472 0.21768592
-0.0024264872 0.02246637 0.23518604
-0.16924025 -0.008118478 -0.27217457
-0.02192922 0.042144068 -0.3239466
-0.04414596 -0.16932297 0.18987992
-0.05489117 0.09933997 -0.23154883
-0.05282364 -0.023878494 0.07529904
0.05329848 -0.016812524 0.33095607
-0.14877507 0.013241985 -0.26104409
-0.12283037 -0.05904688 -0.27329162
0.11192416 0.07086419 -0.35578626
-0.13484411 -0.060330395 0.29823777
-0.03182736 0.108531475 -0.22684184
-0.050224945 -0.03866136 0.06963521
0.05153793 0.11521467 0.23849314
-0.066145964 -0.17724334 0.2990465
0.10184054 0.09418027 -0.2984591
-0.0458746 0.070821956 0.30947983
-0.1355326 -0.10500091 0.26832345
-0.07801798 0.12735814 -0.24360341
0.040348854 0.24527636 -0.20065351
-0.08146396 -0.12894417 0.31449756
-0.04429246 -0.17616801 0.21022929
0.060857754 0.08453608 -0.33043817
-0.039076533 0.015964145 0.01730784
-0.057827182 -0.0020593703 0.25260678
-0.1533093 -0.07849093 0.30822518
-0.07489369 -0.20733528 0.14290889
0.015188215 -0.13676643 0.1987253
0.1839247 -0.030203303 -0.2457597
0.13723873 0.07407848 -0.22919773
0.056354653 -0.13376297 -0.28298664
-0.03989502 0.11887689 -0.28511754
-0.035672497 -0.2320346 0.21881774
-0.0974017 0.1450284 -0.2516503
0.0358644 -0.016042672 -0.010621039
-0.027105205 0.11134792 0.28420016
0.04981896 0.17387302 -0.21845528
-0.1354032 0.016529959 0.31107858
-0.1281686 -0.040690746 0.3262484
-0.17165923 0.06589771 0.19018391
-0.043854896 -0.078143016 -0.2831503
-0.017771693 -0.20925882 0.14932546
0.13170226 -0.08405992 0.20900264
0.007776029 -0.06802745 0.16022906
0.04825588 -0.019489042 0.33076635
-0.0889674 -0.09110781 0.3011721
-0.028831806 0.069784515 -0.383142
-0.029570496 -0.13610394 0.29516602
-0.02923672 -0.072470345 0.12489362
0.1205367 -0.14990535 0.19368973
-0.11700494 0.030306894 0.29324192
0.041815553 0.1315712 -0.24740689
0.08699093 0.09649052 0.22719131
-0.023853177 0.004225992 -0.14044987
0.10225188 0.0073270886 0.22488594
-0.035455994 -0.21560872 0.2307335
-0.12816447 -0.07972748 0.24513832
0.08629993 -0.090874664 -0.2975581
-0.053828087 0.22034828 -0.25145108
-0.11929289 -0.09326939 0.31930283
-0.007206269 -0.018400807 -0.30751488
-0.15197752 -0.011260455 -0.2818684
0.13956517 0.18784122 -0.20476726
-0.0028516422 -0.034723796 -0.2537939
0.08534673 0.0648987 0.23508917
0.05011694 0.03895815 0.2811734
0.00902876 -0.05568297 0.06516375
0.05047515 0.015802402 -0.3968275
0.080585435 -0.20100856 0.2641048
-0.14142556 0.0634183 0.2899574
-0.13441643 0.07864124 0.27781737
-0.028964935 0.0168646 -0.123963766
-0.029418807 -0.013184987 -0.35685298
0.11770972 0.21375425 -0.20187753
0.06839409 -0.040767394 -0.24656506
0.11045929 -0.17043498 0.17770173
-0.112417296 0.09023309 0.23691766
0.03046073 0.07104009 -0.16969414
-0.14525236 0.06472547 0.29550454
0.01659822 -0.034177653 -0.055688467
0.22442238 0.016804025 -0.23094086
-0.010917005 -0.023935325 -0.0942964
0.13573836 -0.002260943 -0.3037725
-0.110622056 -0.01010992 -0.26144361
0.034895126 0.002677295 0.009638195
-0.038013488 0.01843621 0.3529184
-0.036583748 -0.18567272 0.24065243
0.017066728 -0.15355696 0.1881726
-0.021431975 0.042189483 -0.17820403
-0.0025709507 -0.044706583 0.30547214
0.028878862 0.16034286 -0.20858952
-0.039837915 -0.11472219 0.30563414
0.070552796 0.061029475 0.21726048
0.08658819 -0.030481396 0.27827466
-0.0601711 -0.12793739 -0.29567078
-0.1419381 0.088672884 0.2790498
-0.069009684 -0.00012849404 -0.25435308
0.07667393 -0.015925337 0.31614068
-0.12769492 0.052774873 -0.2811007
0.13666843 -0.012726604 0.267121
-0.0122563 -0.004899837 -0.29048818
0.1459586 -0.053943604 -0.2553355
-0.009667158 -0.030373544 -0.066689
0.018181173 0.054176513 0.33403215
-0.102310814 -0.10851589 0.16061325
0.20736593 0.068445235 -0.22201487
0.17699358 -0.029920759 -0.28351933
0.05082799 0.2200044 -0.19330119
-0.074176505 -0.009733982 -0.2570096
-0.011325204 0.2090714 -0.21828738
0.06487507 0.105793506 -0.38350844
0.13121799 0.045464028 0.22275774
-0.07727228 -0.18109651 0.28754628
-0.08097259 -0.01339594 0.2560616
0.07478617 0.0263435 -0.3631243
0.05075868 0.06797865 0.32098043
0.01615074 0.019593308 0.3120081
0.15765111 0.19099209 -0.18925521
-0.0407688 -0.14454973 0.3233219
0.1879877 0.11707911 -0.19876537
0.10676814 0.14417562 -0.3060412
-0.12128352 0.07410349 0.26727587
0.13780265 -0.03219442 -0.26520312
-0.15545395 0.09895311 -0.24364492
-0.060715046 0.11274913 -0.2530505
0.04266841 0.040876593 0.29441425
-0.1019671 -0.0036932807 0.18290855
-0.037983287 -0.08995025 -0.28495574
0.21766981 0.037583668 -0.2120963
-0.08027766 -0.19292463 0.1453253
-0.0048551876 0.08781252 -0.3868217
-0.0048553324 0.04274401 0.34717053
0.09898934 0.027689122 -0.36235046
0.14165461 -0.08363888 0.19504137
-0.19589554 -0.024800826 0.2704006
-0.1745873 0.031089121 0.18161683
-0.05374261 -0.109750375 0.33379203
-0.1355579 -0.13660383 0.29027435
0.019200122 0.018793585 -0.40302753
-0.0884933 0.16876414 -0.2208241
-0.090971075 -0.019084098 0.3102078
-0.10340791 0.08238509 0.21625079
0.09169745 -0.08053364 -0.3005824
-0.041664965 -0.10090671 -0.27248156
0.06912065 0.06935744 0.28499848
-0.0363456 -0.15068111 0.15954262
-0.011795275 -0.0047351182 0.33005902
-0.009440342 -0.13016891 0.2002499
0.014447647 -0.14311598 0.19007671
0.014165991 -0.09842841 0.27879405
-0.19703455 -0.10689854 0.22282389
0.06862804 -0.025364818 -0.24326707
-0.085312404 0.120982915 -0.30150613
0.08170287 -0.003199029 -0.36609688
0.21820253 0.028285116 -0.22924702
-0.021696903 0.24106811 -0.20170458
-0.107294485 -0.12811278 0.18943618
0.10504849 0.06759681 -0.38208535
-0.058519196 0.021570958 0.3220985
-0.0116309365 -0.17378978 0.2926074
-0.15886563 0.06580754 0.20610566
-0.018007688 0.015292508 0.09146379
0.013012148 0.012649149 -0.38127747
-0.136871 -0.1443084 0.29357508
0.012052489 -0.113817304 0.22032653
-0.011640962 0.19118114 -0.2232754
0.031859778 -0.007993219 -0.38174808
-0.07184252 0.061915245 0.20043635
-0.061965536 -0.055599555 0.15809494
0.048505716 0.009133476 -0.11192312
0.08774124 0.21077499 -0.19085024
0.016736459 0.13635105 -0.21513379
0.03457452 0.10861113 -0.21889207
0.045828875 -0.08578719 0.21497393
0.1413696 0.022243522 0.22532544
-0.14862835 -0.053005718 0.2938756
0.039679326 0.014175836 0.25800192
-0.06068854 -0.13391605 -0.28195012
0.097866334 0.057293624 -0.2222251
-0.08726177 -0.104154974 0.309762
0.036144633 -0.005184246 -0.39029148
0.17229669 -0.030207181 -0.28297573
0.13752022 0.1878135 -0.18977791
0.00011770462 0.14429894 -0.33657166
0.060926605 0.13415003 -0.21032171
0.022630451 -0.018160544 -0.1343421
-0.03574084 -0.06910224 0.11811859
0.040484216 0.034245454 -0.07807261
0.18896654 0.06519531 -0.25939074
0.16923563 0.17311156 -0.20434941
-0.12013492 -0.10024981 0.27681392
0.15645799 -0.07865369 0.20375815
0.20421192 0.13363777 -0.20855182
0.0145192705 -0.055881057 0.11218325
-0.13838673 0.04941014 0.18983118
-0.1257558 -0.016578443 0.17733075
-0.15685128 -0.09428497 0.24171875
0.14112087 0.066320576 -0.23038097
-0.059144072 -0.034639996 -0.3323505
0.13924798 -0.1084729 -0.25247386
0.074423514 0.04496905 -0.22764295
-0.20174275 -0.004251313 0.25078744
0.097640425 -0.107460335 0.26412138
0.10479297 0.055005454 0.23531201
-0.027431065 0.031803403 -0.11856608
-0.013484359 0.11647862 0.25462452
0.02566205 -0.009525769 -0.17698365
-0.12858553 0.13405457 -0.23298302
-0.0520048 0.18888853 -0.22743289
0.06972205 0.10481476 -0.3799352
-0.085491 -0.07897284 -0.28830054
0.037307423 0.039124478 -0.3831374
0.06276947 -0.05213681 0.21516484
0.01972555 -0.07196555 0.32991096
-0.09321138 -0.12400539 0.24294224
-0.05397091 -0.055808946 0.34521675
0.11619584 0.043094624 0.23414545
0.05548729 0.109835565 0.22582197
-0.14408813 -0.03114549 0.32961294
-0.019553946 0.06510734 0.2653427
-0.1337392 -0.0022994853 0.21808809
-0.13096549 -0.18389009 0.22225279
0.12194565 0.06864427 -0.31853184
-0.0517808 -0.031883076 0.35007644
0.0014272688 0.23640971 -0.21095979
0.22292838 0.062205695 -0.22148071
0.007741203 -0.053589225 0.039309934
0.06527571 0.075115725 0.30655733
-0.076625116 -0.09718173 0.23682186
-0.16912547 0.10305938 -0.24603051
-0.020872017 0.035548314 0.34771544
0.16538224 0.015425414 -0.22304781
-0.14645372 0.11014841 -0.24019326
-0.07406665 -0.1852506 0.16293664
0.14057404 -0.12749441 0.18575622
-0.019675499 -0.08722424 -0.29650941
0.104693994 0.18544686 -0.19420218
-0.19865964 -0.071553335 0.15694967
-0.0142747825 0.16857192 -0.2725168
-0.023746027 0.014980372 -0.16476236
0.030820524 0.033868358 -0.042189267
-0.07647194 0.07962351 0.20364265
-0.07959479 -0.10156095 0.16480383
-0.038830534 0.0099943895 -0.05181031
-0.025099732 0.04071477 -0.10265326
0.17174415 -0.09350112 -0.25035784
-0.042611737 -0.050173316 0.07300682
-0.011822994 -0.14387599 0.3060785
-0.05778849 -0.11858801 0.25662813
-0.0044454806 0.10933342 -0.30462983
0.06573945 0.14509207 -0.20742357
0.1199403 0.09253349 -0.36361971
-0.16790374 0.107620284 -0.24409541
-0.037199266 -0.22275014 0.2218509
-0.15431738 -0.038273532 0.16931263
-0.11482991 -0.05114982 -0.29663473
0.09778187 0.012434873 0.2254367
-0.050139207 0.07703132 0.20623778
-0.19881268 -0.009263452 0.25902745
0.09884514 0.03253244 -0.2273653
-0.08690048 -0.04197213 -0.31203085
0.032736223 -0.16435987 0.22638285
-0.016965156 -0.009641743 -0.12814651
-0.14690535 -0.19010913 0.17997423
0.13830689 -0.11732616 0.18748993
0.035449736 0.13645664 -0.37006322
3.793213e-05 -0.014384199 -0.1425248
0.11801058 0.20733342 -0.18796459
-0.011467268 -0.19834316 0.16763586
-0.022524618 0.11395898 -0.32281914
-0.09723642 0.13467327 -0.22910658
0.024371924 0.03649443 0.31875846
-0.028548382 0.074785106 -0.36436862
0.013763648 0.19362506 -0.21856926
0.06413396 -0.005409317 0.33775806
-0.13525166 -0.20413065 0.22302456
0.01848296 -0.09071538 0.34590203
-0.062756866 -0.051313803 0.15840779
0.17324267 0.054933835 -0.21372068
-0.063931 -0.06484979 0.34210697
0.02817603 -0.03724574 0.3194882
0.105785355 0.00016361492 0.2237875
0.056363016 0.14456573 -0.3389716
-0.024595752 0.113554835 -0.3249516
-0.20012307 -0.009000127 0.18529521
-0.10755428 0.06812673 0.19748865
-0.09597957 -0.15403055 0.3170222
0.15727015 0.018185915 -0.23867069
0.005174136 -0.09627966 0.28912517
-0.06582242 0.123651564 -0.2661173
-0.08805276 -0.11425634 -0.2877687
0.017661443 -0.025987202 -0.0980843
0.006145145 -0.13897772 0.3319922
-0.13908786 0.03037793 -0.27148864
-0.0044000396 -0.08927115 0.17639628
-0.09494305 -0.030600453 -0.28956378
-0.008263373 0.018042378 -0.24323773
0.03569919 -0.01177383 0.34339464
-0.10638662 0.11877879 0.22027095
-0.097766116 -0.039582565 0.17579095
-0.1398469 0.0075017125 0.31629965
-0.045561243 0.1329588 0.2321531
0.041981116 -0.07314359 0.3270349
0.047786452 0.045774706 0.29300663
-0.005226323 -0.091090895 -0.3140155
0.0030139368 0.06660546 -0.37784192
0.013170041 0.18758139 -0.21992323
0.037334383 0.0043159663 0.35119805
-0.12591821 0.018094247 0.3057431
-0.027638134 -0.12488494 -0.302583
-0.13931103 0.15747195 -0.24453326
0.19613405 0.120818466 -0.21223839
0.032121416 -0.13624722 0.17078656
0.019014068 -0.11478096 0.31859875
-0.006393379 0.054831125 -0.33609498
-0.1304652 -0.038193293 -0.2850162
0.121673144 0.14630324 -0.28084028
-0.082877085 0.0025576707 -0.25543922
-0.18805276 -0.028128918 0.16743608
-0.047330707 -0.05591046 -0.2788456
0.1678639 0.07746426 -0.2769558
0.02461557 0.14805834 -0.21170713
-0.0184697 0.018085059 0.2747802
0.02276831 -0.035067484 0.12599528
-0.19594038 -0.017730406 0.2687644
0.11646293 -0.0380179 0.2017174
-0.023614498 -0.22456019 0.24370807
0.051943198 5.2741456e-05 -0.23986377
0.07304963 -0.03502396 -0.3170215
0.17017321 0.021796936 -0.22112246
0.09680953 -0.026214663 0.28119257
0.07130114 -0.10271219 -0.25936884
0.09276486 -0.10474723 -0.29805556
0.12933429 0.20277944 -0.20281827
-0.042586543 -0.1913046 0.1947444
0.013395086 0.1544825 -0.21168344
0.11310851 0.19757356 -0.19062239
0.039297305 -0.09971732 0.17939934
0.046671655 0.17563066 -0.21845801
-0.20720746 -0.01601594 0.16771905
0.1001855 -0.012481662 0.20519407
-0.09472826 -0.08049742 0.3162835
0.028808802 0.017611403 0.29271808
-0.16909343 0.102714196 -0.24834788
0.1097549 0.20254211 -0.20520811
-0.06248085 0.06225193 -0.29036948
-0.030766977 -0.03463318 0.33820128
0.12779534 -0.01892557 0.27203313
0.13612133 0.059929356 -0.21709535
-0.17550877 0.07021563 -0.25214198
0.083657525 -0.0998116 -0.29325008
0.04142409 -0.106084764 0.33880132
-0.032081302 -0.0039005985 -0.08897975
0.05727632 -0.15216246 -0.28018993
0.14183752 0.071493395 -0.29736286
0.06487206 0.033092 -0.3104044
-0.007989286 0.05508927 -0.38110742
-0.11306339 -0.07759529 0.25826028
-0.06995571 -0.06053567 0.17466551
-0.08475432 -0.12150625 0.3101405
0.13105048 -0.03105851 0.2049377
-0.06273669 -0.07345901 -0.26917192
-0.029538788 -0.22177964 0.1452612
-0.008171686 -0.20199297 0.28346446
-0.06672627 -0.05106907 0.17706047
-0.06540287 -0.06786397 -0.2683026
0.016266933 0.18624145 -0.21983786
-0.041856725 0.14867958 -0.21951644
0.1387785 -0.0025503126 0.21191324
-0.018896399 0.005093657 -0.29192916
-0.03198913 -0.0003871544 -0.09496944
-0.02179368 0.038671736 -0.05803823
0.0057821106 0.10945788 -0.22215232
0.09681458 0.09788283 -0.37395492
0.06612022 0.06768863 -0.3914494
0.029506871 0.14645879 -0.23834245
-0.102477305 -0.14409856 0.23787947
-0.1337518 -0.101371 0.31896955
-0.13356562 0.036894195 0.18775004
0.166147 -0.04508848 -0.23580372
-0.053335126 0.013125921 -0.24966644
0.14925702 -0.0052264975 0.2278368
-0.045969006 0.00022489298 -0.31622365
0.09733407 -0.11544611 -0.29029286
-0.13094254 -0.025093595 0.32497245
0.0040068617 -0.014445336 -0.14948769
0.10941192 -0.0008466471 -0.23318912
0.12856914 -0.0055091893 0.30307633
0.17740901 0.059898295 -0.2594149
-0.12289168 -0.06077454 -0.3029862
0.019342262 0.0030431272 -0.3783808
-0.07975858 -0.09442889 0.24041624
-0.014291636 -0.030286347 -0.06449363
-0.051884037 0.18080132 -0.22913495
-0.024082482 0.03704498 -0.17086823
-0.13416216 0.10230292 0.21553797
0.08310321 -0.034790765 0.24107946
0.021214956 0.030794043 -0.011405793
-0.025422033 -0.008764779 -0.35984275
-0.057711318 0.0045117047 0.18993759
0.06345227 0.19248958 -0.24997585
0.05048039 0.0037188514 -0.36902377
0.12176182 -0.05197361 -0.2425679
-0.087876596 -0.024702199 0.18013154
-0.0028080759 -0.14066371 -0.2762796
0.06269509 0.21559241 -0.23591858
-0.029183846 -0.05158692 0.040712312
-0.16403736 0.117111534 -0.24081565
-0.040722292 -0.18202269 0.21307358
0.11437047 0.12421773 -0.28241998
0.010551747 -0.05784105 -0.27930143
0.047398247 -0.044837456 0.35863706
-0.07227375 0.10450718 -0.23252833
-0.07366871 0.15545557 -0.2218786
-0.12503469 -0.14211597 0.29822978
0.124515034 -0.10493134 -0.25348216
0.105461024 0.07061146 0.22346549
-0.03806622 0.12591617 -0.22389628
0.11458231 0.04244342 0.23381475
0.038342528 -0.111529745 0.33166838
0.08944914 0.048953254 0.23219417
-0.07477625 -0.16286127 0.15236513
0.097120434 -0.06938957 0.19274618
0.14437236 -0.050287176 0.21768682
-0.035178587 0.09321808 -0.23049347
0.11919497 -0.00566532 0.3074799
0.080762684 -0.01511813 -0.3466202
0.047359418 0.008812538 -0.22542594
-0.04308883 0.0035763949 -0.0012861745
0.053599168 0.013906819 -0.20322405
-0.050254546 0.0808974 -0.26892444
-0.053263877 -0.026364863 0.07934541
0.08276459 -0.15831871 0.17215092
0.16761768 -0.043249432 -0.25047746
-0.15592751 -0.1000825 0.31317294
0.035913687 0.03781686 -0.3543185
0.21419626 -0.010795564 -0.22278248
0.100114375 0.089546785 -0.29197556
-0.007646728 -0.02179145 -0.10554695
0.10332929 -0.10001994 0.2948199
0.08492977 0.20361307 -0.2098333
0.008101801 -0.1336504 -0.28872758
0.18751538 0.06373217 -0.2586759
-0.091862515 0.016384251 0.18837881
0.06327362 -0.057407882 0.34540948
0.20632233 0.119906604 -0.21121468
-0.040906087 -0.057969704 0.08774468
-0.17762236 -0.09463907 0.15456177
-0.026650155 -0.04760858 0.34806818
0.10512823 -0.029123109 0.2348119
0.031071614 0.05289024 -0.11081581
0.0028869968 0.109969646 -0.33279508
-0.001288979 -0.074200645 0.15305293
-0.10260936 -0.07633132 0.3154374
-0.07291407 0.15913498 -0.23624699
0.10610681 0.20372024 -0.19015372
-0.062195152 0.06357812 -0.308222
-0.017461682 -0.041459892 0.34741285
0.025005933 0.060395863 -0.120526716
0.057020687 0.1401529 -0.31925946
-0.16956067 0.053520747 -0.27021563
0.030785589 -0.077719755 0.18305252
0.1132557 -0.043466512 0.2154176
-0.13408478 0.002038366 0.31610742
0.09610343 0.0935035 -0.37263536
0.029651163 -0.0100896945 0.25818223
0.11882171 0.011139238 0.22767498
0.08975193 0.0820071 -0.34863868
-0.0737679 -0.020530244 0.33845976
-0.13429832 -0.11043595 0.15638387
-0.10873685 -0.06643272 -0.31801367
-0.069874674 0.14636701 -0.22335467
0.05577657 -0.13787313 0.31747562
-0.12312103 -0.022055568 0.32185256
0.08997401 -0.08849916 0.31444418
0.05355087 -0.098131955 0.209409
-0.17194895 -0.12097025 0.16488907
-0.0034060813 -0.009177669 -0.32269642
0.18402867 0.050224267 -0.24727675
0.16579705 -0.08092099 -0.25869247
-0.040458035 0.13480969 0.22492655
-0.08454407 -0.18218319 0.16233583
-0.087136246 -0.18634953 0.27860376
-0.047991987 -0.1314355 0.2424562
0.037956133 0.007946073 -0.015523244
0.013012925 -0.036374155 -0.047871795
0.09151785 0.18926786 -0.21020512
-0.06299796 -0.04361878 0.16089013
-0.1262514 0.004060659 0.18165348
-0.11943455 -0.0029028037 0.21958569
0.037990175 0.056554765 0.3208727
-0.1575189 -0.0026384725 -0.28070018
-0.13308726 0.09208792 0.26112488
0.10659459 -0.11133565 0.26013166
-0.10114581 -0.04597225 0.32896286
0.025389122 0.027221559 0.22754699
0.12148667 0.15111029 -0.27255136
-0.08662949 -0.15255198 0.1531376
-0.11780235 0.09199384 0.2361217
-0.0447876 0.034893483 0.30712008
-0.037489053 0.018061176 0.1952301
-0.009110132 0.118956424 -0.37155247
-0.05203049 0.23095073 -0.2185055
-0.16402638 -0.121314585 0.16576251
-0.12262392 0.085444964 0.2529806
-0.112464264 -0.007947355 -0.26120406
-0.01606555 0.14938198 -0.32304907
0.0953528 -0.1437403 -0.27730778
0.14622709 -0.09549137 0.19307101
0.017831767 -0.046071507 0.14367
-0.10311787 -0.15542293 0.16579783
0.00065635605 0.063287534 -0.14359333
-0.035232216 0.11323623 -0.3291399
-0.0117116505 0.14938985 -0.3343728
0.18603739 -0.035636894 -0.2807243
0.066925265 -0.07552901 -0.28222132
0.21568766 0.035131775 -0.22809383
-0.06078763 0.00087952474 0.27998078
0.054291476 0.09860869 0.23853604
-0.12448296 0.1050125 0.24048048
0.15142485 -0.051092908 0.20311847
-0.053816564 -0.058120165 0.13473555
0.103591464 -0.046395272 -0.25879508
0.106124155 -0.10975575 0.266167
0.0022965358 -0.06251848 -0.3204644
0.043234624 0.022435552 0.20580325
0.08685332 -0.08875643 0.3124624
-0.116816424 0.0705554 0.2656575
-0.124647416 0.07290228 0.21170025
-0.086788006 0.07084799 -0.24140868
-0.041741822 0.028690258 0.35623518
-0.03481265 0.11808896 -0.283134
-0.18544754 -0.018709581 0.16974692
0.1067129 -0.014116173 0.2056269
0.024825238 -0.17935303 0.17600343
-0.06739626 0.05406628 -0.32939842
0.0056044026 0.11979657 -0.3820517
0.015860751 -0.106788106 0.32742614
-0.13934161 -0.043599777 0.32969958
0.13130866 0.19473739 -0.20428951
-0.011358191 0.08983663 -0.35896656
0.05695542 0.08248807 0.32202357
0.099722475 0.067260504 -0.26293927
0.0046389936 0.0025809545 0.122750185
-0.03507765 -0.07914669 0.1601154
0.01401919 -0.1341878 -0.27289453
0.20880622 -0.02048241 -0.24072303
-0.011724353 0.012507218 0.103906654
0.1453569 0.20294592 -0.18985173
-0.023083355 0.1772732 -0.26415133
0.12905332 -0.09150313 -0.25008932
-0.09206843 0.03792407 0.3407154
0.07396842 0.08011796 0.2979118
-0.0026920866 -0.17721923 0.30072466
-0.12137727 -0.1104507 0.32464913
0.004675856 0.10967072 0.23495644
0.028773205 -0.12864085 0.17200124
-0.024988128 0.10289813 0.2729317
0.1236806 -0.036160577 0.21821342
-0.099181354 0.064102456 -0.2615807
-0.0605526 0.083797984 -0.23552482
-0.19549179 -0.015271638 0.26045632
0.16385244 0.064528406 -0.21280566
0.096732594 0.14433156 -0.3351881
0.036525533 0.025790717 -0.0411335
0.19032653 0.064539276 -0.20964056
-0.10415918 -0.06565018 0.2572648
-0.09246968 -0.1342021 0.31374907
0.016573919 -0.048982076 0.15307942
-0.05729772 -0.019877292 -0.25714672
0.0799533 0.20778996 -0.2178093
0.069453955 0.12112449 -0.29143083
-0.0047079846 -0.07679044 -0.31176656
0.22602314 0.05028289 -0.20992345
0.0016931926 0.23750637 -0.21069506
-0.019437611 0.04919776 -0.23795852
-0.16844063 -0.07895384 0.20105784
-0.05853267 0.06485855 0.20265153
-0.10094471 -0.021868253 0.17917217
-0.06177508 -0.020612873 -0.32184863
-0.11196308 -0.07930868 0.3138366
-0.017803788 0.16150089 -0.31153646
-0.064002566 0.108680785 -0.2541625
-0.103800185 -0.13300546 0.17763501
-0.041260157 0.069396526 -0.27888197
-0.14405176 -0.18840751 0.1891283
0.11564442 0.07593396 -0.34012583
0.023836488 0.028781781 -0.008728667
0.055929344 -0.0016503318 0.22506595
0.14821188 0.19725 -0.18649729
-0.07786634 -0.020501172 0.1822195
0.09220352 -0.14118701 0.19215564
-0.12763305 -0.16408429 0.18785149
-0.042054474 -0.035282347 0.33989778
0.030506415 0.08236663 0.23224556
-0.025890594 -0.11836963 0.1676511
0.029477483 0.18273805 -0.20376346
-0.0015637751 0.026162697 0.330263
0.09978093 -0.025027193 0.2686026
-0.042658735 -0.13613136 -0.29531798
-0.014232461 0.11976641 0.25827107
-0.18446237 0.0100295935 0.23109297
-0.0023927174 0.037409846 0.34113368
-0.03327654 -0.01027173 -0.36008325
-0.09059735 0.03704012 0.34255663
0.13269076 0.026152233 0.23251934
0.13465397 -0.06568341 0.2132567
-0.12920643 0.04614225 0.29397345
-0.09323084 -0.048705775 0.25969395
0.040771313 0.0605354 -0.1566036
-0.17428035 -0.02926737 0.2731795
-0.0425384 -0.0062811133 -0.0100345705
0.032596875 -0.01818177 0.023869704
-0.024213167 0.08087744 -0.3887071
-0.049994078 -0.065831766 -0.2812699
0.062326193 0.051623836 0.22952075
0.0775965 -0.018366078 -0.27375805
-0.062652394 -0.013918376 0.2781659
-0.016777271 0.047619257 -0.23466764
-0.06679056 -0.047032107 0.17791049
0.20052822 0.040384013 -0.21355017
0.14838138 0.006026087 0.21692711
