# .PCD v0.7 - Point Cloud Data file format
VERSION 0.7
FIELDS x y z
SIZE 4 4 4
TYPE F F F
COUNT 1 1 1
WIDTH 1000
HEIGHT 1
VIEWPOINT 0 0 0 1 0 0 0
POINTS 1000
DATA ascii
-0.150509 -0.06818657 -0.14065091
0.41576 -0.03272086 -0.11282497
0.007905129 0.073771566 -0.071311794
0.13693859 -0.033580154 -0.08809052
-0.14140551 -0.040948063 -0.14549954
-0.21629186 -0.019507352 -0.029757941
0.45302668 -0.019519055 -0.12631308
0.020738954 0.083871864 0.020297576
0.007863698 0.097978 -0.059608106
0.5018727 -0.0057793264 -0.10911325
-0.07603929 -0.06958127 0.057855744
0.10365624 0.133966 0.31788367
-0.16877738 -0.08842258 0.060239468
-0.14938147 0.037538595 0.0069976863
-0.09701888 -0.12042399 -0.12562147
-0.1666591 -0.0015223004 0.052983843
0.49011514 -0.019197883 -0.107288666
-0.20709807 0.006099327 -0.08210855
-0.028874332 0.050725706 -0.04756743
0.040866956 0.109069735 0.06892514
-0.18830514 0.043499608 -0.03537007
-0.093041465 0.05129709 -0.037421
0.2527708 -0.03220341 -0.07619569
-0.095887706 0.06326911 -0.0013850833
-0.11246324 0.05001814 -0.0012087772
0.41817212 -0.025102723 -0.124389656
0.06085723 0.06571171 0.29208842
-0.090591624 -0.07119058 0.077698745
0.022424748 -0.01066376 -0.13628462
-0.19402409 -0.009568208 0.013390001
0.02495115 0.024978388 0.039105024
0.31197444 -0.039245367 -0.0996978
-0.07193814 -0.10710529 -0.13421749
0.00022789107 -0.07689219 -0.14415658
0.04921718 0.13543929 0.2163972
-0.04556187 -0.14813328 -0.06455177
0.10893561 0.07301217 0.2964898
-0.15314494 -0.15750663 -0.05782512
-0.070328236 -0.15385713 -0.05931081
0.062409017 0.12752746 0.24828555
-0.05998893 -0.13497919 -0.1065915
-0.07653671 -0.098299176 -0.14086337
-0.1492219 -0.12830043 -0.11154267
0.07532097 -0.047637273 -0.08087739
0.4483241 -0.01150136 -0.12614924
0.11880146 0.12979908 0.30277237
0.39701554 -0.033747606 -0.10105523
-0.1899668 -0.06340715 0.018683227
0.034793902 0.13633195 0.1564813
-0.047898613 -0.14821446 -0.05222686
0.056353822 0.081036255 0.31505314
-0.10492566 -0.072006755 -0.1472082
-0.20731072 -0.022747967 -0.098129235
0.011139173 -0.07317234 -0.13704248
-0.12496 0.045343522 -0.121325776
0.028001694 0.058575775 0.07990207
-0.08565233 -0.15000787 -0.087925225
-0.20367691 -0.04099456 -0.07849083
-0.15784852 -0.14110786 0.017684214
-0.15102537 -0.079203926 -0.14072111
0.28225875 -0.039158147 -0.09953234
0.04208076 0.03924566 0.04380789
-0.15545034 0.02657773 -0.10456472
0.4215571 -0.029212497 -0.11933657
-0.12228645 -0.154721 -0.07797604
-0.089430526 -0.1731156 -0.0220404
-0.07369312 -0.08696624 -0.14268145
0.04264034 0.020516576 0.03891969
-0.08773257 0.02791966 -0.11672343
0.027521247 -0.05740457 -0.119253784
-0.09674949 0.05361011 -0.05520212
-0.15528145 -0.109740995 0.051410608
-0.18647498 -0.06851643 0.0437299
-0.00916471 -0.100535564 -0.13296483
0.06227327 0.06580038 0.29190862
0.39935228 -0.032150738 -0.113693364
-0.18280086 0.020905323 -0.104100935
0.02360244 0.04050168 -0.1015498
-0.07991721 -0.14933471 0.019111048
-0.18361261 -0.044268083 0.009538077
0.05152765 0.06676512 0.13211851
-0.11245421 -0.06298207 -0.16842447
0.056498118 0.13027446 0.20295309
0.054571204 -0.05204771 -0.055294067
0.4754285 -0.027434347 -0.10941558
-0.22538105 0.0044493545 -0.025191689
-0.0238351 -0.020501854 0.042212326
0.010005578 0.057642408 -0.12997675
0.035503414 0.048875142 0.13434567
-0.1414744 -0.13482767 -0.105988756
0.021039126 0.20738211 -0.038853876
0.036515854 0.10265886 0.16907714
0.06461155 0.09018498 0.24712396
0.13519429 0.10782545 0.31304607
-0.19501692 0.03609621 -0.009664349
-0.1863689 -0.10808788 -0.123422906
0.0018118315 0.21785332 -0.04783647
0.041284215 -0.0133318845 0.011383105
-0.16386399 0.02448081 0.026550027
0.042141736 -0.061500635 -0.005784461
0.3654951 -0.008808693 -0.10205142
-0.1752225 0.019393373 0.032604214
0.20148793 -0.023310978 -0.07360283
0.03141618 -0.08425969 -0.10182947
-0.17441453 -0.0068925926 -0.12913303
-0.07458158 0.04345316 -0.09315471
-0.008415598 0.04019662 -0.09624296
-0.15138479 -0.11004568 -0.12701058
-0.09437877 -0.10306498 0.06557404
0.0076069 -0.13548006 -0.08572042
0.059906796 0.101593226 0.31671742
0.111440666 -0.044646803 -0.060241994
0.005184135 -0.12935255 -0.09714263
-0.17828818 -0.14837007 -0.07452208
0.060910285 0.12182659 0.23361145
-0.12340048 -0.023556763 0.056856636
0.046028353 0.10102819 0.24341665
-0.124548204 -0.1518471 -0.08285397
0.13030484 0.08545014 0.31261715
-0.123656616 -0.15283102 -0.081216335
0.10197659 0.10784545 0.31573611
0.37715423 -0.019529575 -0.089297175
-0.2365303 0.02275876 -0.030922938
0.038669284 0.13419403 0.18225928
-0.0051154285 0.19241822 -0.11520546
0.11409616 0.13487987 0.3122007
0.09976131 -0.053871356 -0.07049363
-0.1200425 -0.10706926 0.047197923
-0.1306342 -0.09417985 -0.13833992
0.12470789 0.096420534 0.31283203
-0.121711105 0.05114942 -0.11362416
0.044440124 0.010389721 0.048104562
0.4159575 -0.031940293 -0.11426231
-0.17020841 -0.12874795 0.033360846
0.05570428 0.08832274 0.1758312
0.21471153 -0.037643526 -0.09785434
0.0023732886 -0.1304469 -0.09606262
0.05997194 0.12867457 0.22960083
-0.13568643 -0.020689089 -0.14071998
0.14551204 0.02313888 0.30208126
0.012697284 0.20001836 -0.108416565
-0.100007355 0.05385665 -0.038610008
-0.13715483 -0.1374183 0.018986277
-0.09981128 0.0633772 -0.032328226
0.41024476 -0.0108339265 -0.098820016
0.0040865582 0.2064661 -0.035524778
-0.07780052 -0.13514495 0.04504609
0.03780046 0.0874985 0.17168991
-0.07112665 0.03066292 -0.11208324
0.12501182 0.048917897 0.30816886
-0.055777773 -0.14668836 -0.07905602
0.48723722 -0.019171363 -0.13162734
-0.0057198377 0.25529894 -0.0964399
0.023116779 0.087596744 -0.08197828
0.05678137 0.10071649 0.31705117
-0.138409 -0.00088806654 -0.13273112
-0.10586474 0.026048182 -0.11874742
-0.09459422 -0.13495128 0.04802432
0.022690743 0.06296286 -0.09758656
0.10914903 0.10554127 0.31668642
0.20051922 -0.04479361 -0.088279895
0.13308609 0.072627656 0.30994162
0.42332917 -0.0038028 -0.11382156
-0.09890534 -0.16134094 -0.105541386
0.03668972 0.06688464 0.014955972
-0.1764119 -0.016317204 0.058242362
0.011452074 0.11125221 -0.03530054
-0.01186961 -0.09353899 -0.13673434
-0.1620688 0.048077703 -0.02025498
0.40321988 -0.0040718135 -0.11117038
-0.1687898 -0.018280115 0.058084052
-0.19808489 0.01563526 -0.104063824
-0.16729335 0.0428142 -0.010524369
-0.12887275 0.0054617664 -0.15299419
-0.069529265 -0.15475553 -0.040148444
0.05352472 0.054196622 0.27309054
-0.06759256 -0.11265104 0.034043297
-0.22394933 -0.048520267 -0.03855915
0.066962674 0.13457607 0.30850488
0.023503488 0.09534744 -0.075070746
0.14028013 0.095420495 0.31168967
0.119639955 0.11848615 0.31510064
-0.1828359 -0.09786927 -0.1309875
-0.036984958 0.051949773 -0.057196148
-0.20589915 0.029736169 -0.06088934
0.06577855 0.11627378 0.2693127
0.05224578 0.12002825 0.16426678
0.042332828 -0.019872738 0.016416669
0.004825974 0.06734418 -0.09883264
0.22622764 -0.046629816 -0.08518753
-0.03353507 -0.038265284 0.04707281
0.2700673 -0.019011173 -0.082256444
-0.15654063 0.014157153 0.037346695
0.3873114 -0.010831752 -0.09857266
0.013511396 0.2194981 -0.02659538
-0.14335583 -0.1596846 -0.034302864
-0.18631935 0.015784506 -0.108442314
0.24423923 -0.044163972 -0.089916624
-0.009615225 -0.05001219 -0.15017489
-0.18828218 -0.07735711 0.025058622
0.0338456 0.007184641 -0.03718596
0.065021165 0.050451703 0.24643779
0.0052433885 0.26095742 -0.038150582
0.18526226 -0.048229057 -0.08179966
0.15508345 -0.048055165 -0.08178859
-0.16478182 0.028805155 -0.09832758
-0.006397648 0.021944596 0.012499397
0.039069686 -0.0972479 -0.001929561
0.049666353 0.13550098 0.23512705
-0.20799896 -0.046518907 -0.029725911
0.11716562 0.1185131 0.31624448
0.060390312 0.07771862 0.20758094
-0.1585149 -0.014893067 -0.05752973
-0.11918967 -0.13033965 0.0278647
0.016306303 0.111462235 -0.12391989
0.02846282 -0.061390217 -0.11379454
-0.1503633 -0.13168082 -0.10531766
0.04647889 0.057168663 0.087463066
0.27916545 -0.026634345 -0.10622851
0.053304452 0.05844707 0.14202286
0.04857324 0.119697325 0.27280235
0.48315698 -0.02503922 -0.12768061
0.12199882 0.08784967 0.2977456
0.48198807 -0.006661439 -0.1289268
0.02012461 0.081544705 -0.108624905
0.06925135 0.08345971 0.31785265
-0.20339276 -0.010421431 -0.061048415
-0.16267192 0.030747978 0.015783057
0.19546694 -0.042394776 -0.07749551
0.01702281 0.21747717 -0.026366992
0.03189358 0.047092423 -0.032772228
0.03422873 0.07399288 -0.0009527346
-0.08374321 -0.17049381 -0.008676036
-0.11070301 -0.09906912 0.050056543
-0.1861051 -0.15291326 -0.06415356
0.04808132 0.057776146 0.100423954
0.015249554 0.069850884 -0.12956272
0.041569017 0.04228008 0.041272607
-0.0038936834 -0.039661568 -0.14955689
0.013128619 0.17634073 -0.116776705
0.0007840797 0.25385737 -0.03805994
-0.19585474 0.0069464752 0.0071360334
0.13124095 0.093584806 0.29770616
-0.20467357 0.022443628 -0.08922739
-0.11922852 -0.1101446 -0.1342625
0.021078128 0.06371217 -0.109955795
-0.13563657 -0.048652153 0.06461549
0.3825134 -0.016610907 -0.092317104
0.018086614 0.24952379 -0.041232772
0.050206617 0.081863746 0.12918581
0.14039217 0.04344169 0.29043534
-0.18874432 -0.13466081 -0.0070749694
0.019296458 0.08292254 0.02205773
-0.004826566 0.20086795 -0.108722866
0.32119554 -0.035278782 -0.10708848
0.047574177 0.01594226 0.07562619
0.00089330494 0.1701604 -0.0787966
-0.23584157 0.0141266845 -0.029773314
0.030969266 0.026161734 -0.050477393
-0.19588836 -0.083031625 -0.06783251
-0.1439585 0.0510422 -0.02956939
0.054663602 0.07651536 0.29945356
0.039274164 0.03775712 0.020895926
-0.13278902 0.047125712 -0.018825611
0.509126 -0.0029884244 -0.12632734
0.40577215 -0.029011138 -0.099069335
-0.19887137 -0.12735943 -0.09865994
-0.074244276 -0.04428558 0.057953686
0.01569269 0.13842334 -0.11536746
-0.20060006 -0.1113262 -0.08913824
0.035878953 0.09246655 0.1589776
0.02098112 -0.04926907 -0.140299
0.41060385 -0.034502033 -0.109495685
-0.1168439 0.06791287 -0.07760379
0.043098364 0.012117071 0.03836407
-0.046181876 -0.05693706 0.0501887
-0.005473598 0.22817162 -0.10026121
0.05188482 0.050103694 0.19286892
0.29855552 -0.035374053 -0.08528955
0.01537503 -0.027197948 -0.13838439
0.03920045 0.14907011 0.07564124
0.043464616 0.04983749 0.16349162
-0.14289095 0.04284983 -0.079966486
-0.19899413 -0.118972875 -0.08025229
0.5053583 -0.0040459367 -0.13126084
0.03961796 0.07587791 0.042560447
0.1199724 0.019111095 0.30487895
-0.10392063 0.077047005 -0.04174547
-0.05049892 -0.067199126 0.05099701
0.09222926 0.07671346 0.3035096
0.030729948 0.10347308 0.123771496
-0.055277575 -0.03513892 0.053030733
0.46757504 -0.010411356 -0.13105169
-0.0035872161 0.21941765 -0.08971197
0.012702651 0.23132238 -0.05197764
0.05324458 0.10037276 0.16238983
0.0055895667 -0.13691266 -0.08162861
-0.12321557 -0.0024563265 -0.15831625
-0.052536864 0.042702325 -0.093709014
0.06681821 -0.037844446 -0.07913476
-0.06486365 -0.15377368 -0.05749905
0.016148347 0.13872342 -0.11161777
0.039376035 0.13187261 0.20619294
-0.05006922 0.028290818 0.013719768
0.022984786 0.092439115 0.057099108
-0.044910524 0.019813213 0.02321335
-0.23204671 -0.049167346 -0.03125264
0.042787485 0.099521846 0.0793515
-0.17325535 -0.08408846 -0.06613839
-0.053417634 -0.104843356 0.03409215
0.18008173 -0.041514974 -0.069577515
-0.00011304023 0.2417239 -0.051178105
-0.12441016 -0.07546466 -0.14570126
-0.12727079 -0.048560914 0.06401472
0.38292268 -0.005581079 -0.10885904
-0.02772725 0.02598945 -0.120223045
0.052705545 -0.03169408 -0.056566454
-0.1757356 -0.08285014 -0.06838699
0.38946235 -0.036682375 -0.10525688
0.01988039 0.21461147 -0.044414416
-0.14758427 -0.02274858 0.058102947
-0.12110029 -0.10788006 -0.15401539
0.09502999 0.11888368 0.31765652
0.0023954937 -0.13703412 -0.046431467
-0.12349522 -0.03672675 0.06294927
-0.013554271 -0.11257385 0.015820622
-0.18950723 -0.0588621 -0.13706915
-0.09177826 0.04332168 -0.09374092
-0.16991408 -0.11791188 -0.11960676
-0.06935736 -0.080069214 0.052354526
0.016784852 0.17827417 -0.08693028
0.00492609 0.110590704 -0.07654647
-0.06678363 -0.14840437 -0.030292869
0.00059788814 0.17451799 -0.078964576
-0.11065651 0.07165218 -0.077837095
-0.043379102 0.049807232 -0.07552177
-0.09198048 -0.07903918 -0.14510731
0.0037358576 -0.13224493 -0.092518084
-0.09965336 -0.13398968 0.01834722
-0.12526007 0.04133828 -0.12621528
0.13189457 0.12337561 0.316213
0.030940592 0.00023698383 -0.06358947
-0.14971466 0.035760053 0.010055064
0.036606442 -0.0032405318 -0.020556351
0.09779408 -0.030610375 -0.07710802
-0.18469037 -0.009630115 0.047518946
0.38271087 -0.012260565 -0.11385201
-0.1939219 -0.12991829 -0.04562168
0.009443137 0.050538573 -0.07070874
0.031710606 0.15135679 0.07995563
-0.010363805 -0.065242566 0.040574275
-0.15320858 -0.033116058 -0.14233682
0.111975886 0.10139625 0.31548902
-0.12682366 0.017313918 0.03319883
0.05555264 0.09284174 0.31459206
0.032753456 -0.009968603 -0.054339316
0.031860687 0.07309327 -0.020108629
-0.14061995 -0.09548165 -0.13583778
0.0368584 0.071541555 0.018604184
-0.20354667 -0.024145786 -0.069084525
-0.00998382 0.029470257 0.003840968
-0.20134601 -0.0851341 -0.08201267
0.10656944 -0.02537399 -0.073769
0.03392054 0.022636345 -0.028913803
0.34884223 -0.017893333 -0.086784475
0.14388093 -0.051345102 -0.07407528
-0.034450773 -0.12634571 0.009339881
-0.19171265 -0.15058132 -0.038438942
0.13329889 -0.04692671 -0.06996444
-0.18340717 -0.049307276 0.061522484
0.055357847 0.07389529 0.30363435
-0.09817398 0.004821591 -0.13262883
0.12528475 -0.028450696 -0.0633223
0.0050487476 0.1592721 -0.05138164
0.014292737 0.26471463 -0.04025307
0.50409704 -0.030550411 -0.117782295
0.01139229 -0.065747686 0.034743454
-0.19256689 -0.0540873 -0.13636708
-0.11257147 -0.010589423 0.052078243
0.20749512 -0.018607562 -0.0863168
0.014443006 0.05717601 -0.027910052
-0.082747996 -0.010681814 -0.1410555
0.046612762 0.08390124 0.23952202
0.017156018 -0.034212664 0.033444613
-0.16264485 0.043132756 -0.0060531124
-0.187329 -0.080333866 0.031110339
0.016409572 0.25605738 -0.05123473
0.05539913 0.050472766 0.17532256
-0.19099084 -0.012029871 0.036129285
-0.07368772 -0.11173166 0.036356766
-0.14056374 -0.15691191 -0.022944173
-0.0035445495 0.2422822 -0.078010015
0.024070472 0.14128399 0.08995483
0.2944288 -0.0381164 -0.08710448
-0.16878998 -0.1587188 -0.0373706
0.0654681 0.09460378 0.31936425
-0.0035033326 0.2119237 -0.092775136
0.07535252 0.0862004 0.31729427
-0.019399446 -0.02002006 0.040988404
-0.029959457 0.049331866 -0.07651921
0.04006239 0.046471514 0.031456053
-0.17594494 0.00041997372 -0.12344962
0.04568246 0.13421828 0.11946866
-0.058470476 0.025441157 -0.120514125
-0.18422954 -0.09641095 -0.04337229
-0.07857172 -0.08823428 0.060112227
0.18386883 -0.041165207 -0.09476631
0.06140216 0.080618925 0.2170158
0.11340318 0.111868896 0.31675583
0.2317032 -0.023205994 -0.07412657
0.010654479 0.08097681 -0.046010774
-0.095385075 -0.17890151 -0.05656734
-0.1195775 -0.022905594 -0.1681212
0.03938643 0.084406435 0.044970807
0.06320181 0.109894216 0.24578476
-0.10829802 0.04885685 -0.10659277
0.35318166 -0.03836966 -0.101758555
-0.18901443 0.02017544 0.024582092
0.05179071 0.13493507 0.30466706
-0.0122721465 0.02009062 0.017017255
0.027114134 0.04872099 0.06799144
0.0011021848 0.11094164 -0.123963244
-0.1464473 -0.15749826 -0.0398583
-0.19285083 -0.019871637 0.01753719
0.38988006 -0.023573244 -0.12007715
-0.16549815 -0.15955195 -0.035875697
-0.1895607 -0.13679565 -0.014585784
0.060446337 0.06996024 0.20416847
0.005176765 0.24046865 -0.03199285
-0.0065882024 0.0133705605 -0.13138816
-0.15863001 -0.006005428 -0.13234536
0.037637766 0.064104855 0.15877701
0.16268492 -0.030117635 -0.0903454
0.027914982 0.09605536 -0.039866433
0.118966 -0.051679395 -0.07473253
-0.079041876 -0.13983984 0.03074783
-0.07244819 0.05154382 -0.03435733
-0.18908887 0.010864602 -0.11067855
0.061263632 0.08123062 0.31469032
-0.19056323 -0.079707615 0.0058696885
-0.04495166 -0.14512995 -0.08064228
0.09396971 0.12028847 0.3179241
0.14541501 0.02620929 0.3061617
-0.15732247 0.041663233 -0.002183377
-0.11503394 0.029965764 -0.14195934
-0.22063473 0.028307037 -0.027638834
-0.009632843 -0.0049477513 -0.14181925
0.0067461077 0.085105285 -0.074835025
-0.15636724 -0.13698953 -0.10231252
-0.13529998 -0.0061037443 0.052626546
0.015637377 -0.11564815 0.0014217069
-0.10536193 0.0660342 0.00029206526
-0.032853805 -0.06632643 0.046240706
-0.21579054 -0.04553553 -0.03786259
0.014784054 0.09144225 -0.12754229
0.031752218 0.05659905 0.10854889
0.02062871 -0.1038169 0.011328227
0.0070638075 -0.013055777 0.031446345
-0.16797696 -0.11000569 -0.12690218
-0.019334754 -0.023354353 0.042432074
0.012794012 0.111676306 -0.035964534
-0.10473458 -0.078146346 0.057931527
0.039608497 -0.0965106 -0.043197744
0.40728083 -0.028799752 -0.11993853
0.12644432 -0.05306078 -0.072275124
-0.14620447 -0.09137457 0.05640812
-0.19651975 -0.12329941 -0.06285442
-0.12486869 -0.15845013 -0.03347833
0.044887677 0.06635038 0.079455756
-0.14779806 -0.07173694 0.062189627
0.044360023 0.048468214 0.06640006
-0.10760064 0.069073886 -0.019036122
-0.033724375 -0.044279028 -0.15016022
0.039668523 0.13126034 0.20820084
-0.15727848 0.024325574 -0.10726916
-0.087266326 -0.17202045 -0.050220594
-0.0006050737 0.1856202 -0.082953006
-0.09831899 0.06420218 -0.020129088
0.03788027 0.058791753 0.02033853
0.37724137 -0.03528306 -0.1076948
0.051252756 0.133859 0.16329497
0.027787896 -0.06836984 -0.12259471
0.02366474 0.14364289 0.087921716
-0.0016017274 -0.005167 -0.1423991
0.022888029 -0.11240561 -0.10652707
-0.1621415 -0.11865085 -0.12024211
0.039084878 -0.06665694 0.026947003
0.10121854 0.08034974 0.31388688
-0.10729773 -0.10080412 -0.16380556
0.032395687 0.102415584 0.1364048
0.027764592 0.06829223 -0.05485297
-0.09493997 0.05200009 -0.029647477
0.027634684 -0.06601736 -0.12263793
0.20369963 -0.036456764 -0.07061964
-0.10008976 -0.16336161 -0.00951298
-0.024407435 -0.010917728 0.0379177
-0.049134452 -0.093766086 -0.14067766
0.028191645 -0.031994462 -0.10132731
0.06927378 0.08652315 0.28213838
-0.019155074 -0.03819837 -0.14905494
0.0047631264 0.20651503 -0.030155692
0.02261112 0.14851996 0.0820212
-0.029895427 -0.07484004 0.043479726
-0.20516929 -0.015801976 -0.077760115
0.027005028 0.1301126 0.10758507
-0.105728455 0.0504151 -0.08551788
0.0012998844 -0.08603927 0.028094042
-0.036925964 -0.07016008 -0.14738171
-0.08758745 -0.13029784 -0.11044412
0.010292625 0.09638901 -0.041208662
-0.07737537 -0.12377676 0.051897306
0.021315034 0.06478876 0.030164529
0.04267839 -0.041863356 -0.07387982
0.0010085236 -0.12591828 -0.008537801
-0.006927213 -0.029621799 0.040069778
0.037679065 0.11972292 0.18674836
0.03426296 0.07570576 0.13788113
-0.07888432 -0.11205402 -0.13220102
-0.08022567 -0.09969042 0.069630995
-0.095625624 -0.14357576 -0.10212414
0.03801378 0.06540084 0.02467824
0.03891052 -0.032290798 -0.016794138
-0.02476873 0.030270053 -0.11561468
0.012360102 -0.007999533 0.027676722
0.31911623 -0.037231855 -0.10347645
-0.021674993 -0.04959586 0.04315292
0.24431805 -0.034379862 -0.104849055
-0.018217532 -0.13986611 -0.03391323
0.032090507 0.11243542 0.13897243
-0.20451175 -0.02115421 -0.07522299
-0.2023857 -0.073041216 -0.08421682
-0.013298164 -0.14185694 -0.05964645
0.14285599 0.059122697 0.30871743
-0.1715863 -0.1400368 0.020394003
-0.08807033 -0.17659548 -0.05884798
-0.20586033 -0.015241058 -0.08293954
0.002638324 0.05003171 -0.053441457
0.069104835 0.098416954 0.31922922
-0.06639966 -0.08390787 -0.14356533
0.13739486 0.086259075 0.31098652
0.004694505 -0.116753854 0.0049722358
-0.07357504 -0.14572568 -0.09183454
-0.09658449 -0.045089208 0.07696425
0.06551157 0.088590726 0.31881282
-0.08228438 -0.14453726 0.0027960814
0.0016303001 -0.12324035 -0.0048527047
-0.027930913 0.04520584 -0.027624367
0.08644825 -0.031779755 -0.056778576
0.49956113 -0.01673207 -0.13571498
0.4842613 -0.0049867937 -0.11037663
-0.20650196 -0.046995956 -0.12792124
-0.042389784 -0.08567852 -0.141777
0.14095879 0.10185463 0.30523416
0.013127428 0.05522548 -0.039273694
-0.19247921 -0.043771308 -0.13564213
-0.13613035 -0.15450998 -0.07024436
-0.22785997 -0.0064154207 -0.039796323
-0.18997286 -0.050281566 0.025158057
0.045292575 0.03483618 0.121607125
0.36789533 -0.012133108 -0.1085915
0.13439608 0.030200837 0.29003817
0.120164484 0.07106625 0.2966578
0.0064671873 -0.040911846 -0.1396738
-0.088728815 0.008135935 -0.13150829
-0.1951343 -0.13369028 -0.057075176
0.0084352605 0.048888743 -0.0744593
0.12824182 0.09559245 0.29746485
0.011901993 -0.08536002 0.025313623
0.05452475 0.07221731 0.29621968
-0.09612979 0.013506158 0.065413065
0.037237488 0.06573513 0.15642542
-0.1638589 -0.051311538 -0.14162025
-0.20875226 0.010561583 -0.09296118
-0.0053306385 -0.114587896 0.010714947
-0.12081553 -0.10000512 -0.14176102
0.005909247 -0.13291095 -0.09071113
-0.06961796 -0.024385016 0.05401464
-0.10253056 0.07566158 -0.035488043
0.0922788 0.083515994 0.31481174
-0.1604909 0.036173962 0.006737069
0.009312893 -0.102298066 0.016836474
-0.1902225 -0.12646906 -0.014682206
0.043345172 0.06382682 0.20372948
0.029445678 -0.093537554 -0.1220087
0.12931882 0.04780381 0.3077262
-0.04547574 0.040390242 -0.005107
0.02390239 0.028272232 -0.1052587
0.027681844 0.09551835 -0.012979336
-0.057111703 -0.07257482 0.052662916
0.03717809 0.041877855 0.006383715
0.025239198 0.012466063 -0.10255289
-0.13124968 -0.031345725 0.059641164
-0.13107757 -0.061056666 0.061882213
0.14138006 0.093321435 0.3043223
0.02249102 -0.0017557583 -0.13133287
0.0007656116 0.2517532 -0.039251406
0.018026376 0.07666719 -0.1276256
-0.020676576 0.05038152 -0.043221634
-0.2042567 -0.031040536 -0.078122094
0.064664975 0.06798302 0.23651306
0.039986312 0.057983615 0.17428721
0.32182613 -0.0114176925 -0.09677817
-0.1137118 0.058520034 -0.006846547
0.10662699 -0.030592848 -0.081585996
-0.061148893 -0.06982219 0.053819347
-0.14220244 -0.016722737 -0.06275844
-0.07203551 -0.064279206 0.056984417
0.47078574 -0.027665403 -0.12271952
0.017992442 0.19633874 -0.06841383
-0.11665066 -0.012234454 -0.16470243
-0.07422906 -0.046300706 -0.15059333
0.116470486 -0.051917344 -0.0699778
-0.059243895 -0.14568809 -0.01856175
-0.18157837 0.031994883 0.00951586
-0.08405168 -0.15490793 -0.016320542
-0.074651025 -0.03803963 -0.14857866
-0.19441739 -0.007118491 0.011500631
-0.10925885 -0.12039884 -0.153202
0.15288709 -0.036957905 -0.0660466
0.12707844 0.11437473 0.31616372
-0.20422108 -0.0984364 -0.11134036
0.015292876 0.26551887 -0.055353694
0.12669697 -0.049314387 -0.07916326
-0.20969155 -0.01699374 -0.114077136
-0.19621539 -0.12143058 -0.059521995
-0.045542654 -0.14278796 -0.018663
-0.20677929 -0.029569259 -0.09731996
-0.13486962 -0.14767683 -0.08796761
-0.09997123 -0.01031656 0.06749178
0.0026993249 0.081824444 -0.108437195
-0.00011929696 0.16436587 -0.08967791
0.13410044 0.10854455 0.31144893
-0.20187223 -0.054728266 -0.07678462
-0.021540321 -0.0834553 -0.14187574
0.10205736 0.12652941 0.30248967
-0.05194694 -0.012602527 -0.14299367
0.019942427 0.23504251 -0.033770368
-0.1630755 -0.15450077 -0.011594377
0.01631708 0.11993747 -0.1196228
-0.21521375 -0.060050346 -0.03763118
-0.12162403 0.031398546 -0.13754629
0.12899476 0.04413982 0.29193565
0.0065953466 0.0012644076 0.024582718
0.06164883 -0.048407223 -0.054281626
0.04404074 -0.07821066 0.000912996
0.093048625 -0.05001782 -0.06517407
0.063987635 -0.033715624 -0.052974246
-0.0034275833 0.21220909 -0.09203403
0.03447663 0.09335553 0.14834271
0.01674084 -0.1358493 -0.06553646
0.036757924 -0.11365874 -0.07424116
-0.047195423 0.035212547 -0.10422156
0.44968978 -0.03202465 -0.11447698
-0.003659997 -0.06930294 -0.1474536
0.35012603 -0.02272858 -0.0875836
-0.19761175 0.00402876 -0.008193552
0.0368111 0.0009014398 -0.016880885
0.049524892 0.040334713 0.10316157
0.050070215 0.060959566 0.117719844
-0.19006531 0.042665567 -0.060307253
-0.19762544 0.015359497 -0.002670224
0.02100757 0.15149549 0.07083161
0.12193773 0.11752432 0.31516066
-0.09601437 -0.08629166 0.060990125
0.05064054 0.09670971 0.27770662
0.023195224 0.046253376 0.03580528
0.017880142 0.03426648 -0.012142622
-0.20347069 -0.061224166 -0.023580465
-0.16872239 0.043673385 -0.012087611
-0.0029325378 0.25475293 -0.06697737
-0.11855192 0.02646697 0.026707638
0.44228402 -0.007630197 -0.12290348
-0.19036227 -0.1355928 -0.020320376
0.134601 0.039584856 0.30649266
0.026326843 0.014542588 -0.092928186
0.04015021 0.12567891 0.07151811
-0.10037915 -0.16177908 -0.011013917
0.1057054 -0.038233534 -0.081241466
-0.0043317326 -0.103618406 0.020171145
0.05062107 0.123613015 0.15321289
0.26308218 -0.01717072 -0.09739682
-0.055105716 -0.1006294 0.036894474
0.2716258 -0.042928245 -0.09248749
-0.115462504 -0.10070633 0.049929883
0.049317155 0.12022848 0.2789442
0.046886627 0.07759946 0.100840434
0.04676914 0.016464613 0.069526404
-0.18503675 -0.05862214 0.06000971
-0.06821378 -0.066710584 -0.14854409
0.019821735 0.10157665 -0.021517487
-0.094954886 -0.15415783 0.028087212
-0.063681945 -0.13187093 0.015021898
-0.11964042 0.060626507 -0.052638967
0.037098393 0.10524549 0.17496361
0.29305473 -0.021755392 -0.080312304
-0.1307349 -0.06409806 0.06107496
0.0111789955 0.24956176 -0.09578548
-0.003173763 0.1744466 -0.10879704
-0.17217754 -0.10014878 -0.12691513
-0.092078455 -0.13720223 0.04517473
-0.16431218 -0.03762761 -0.14082502
-0.06494504 -0.15290262 -0.054249022
0.06272021 0.07237784 0.22333117
0.4309622 -0.032810055 -0.11282801
0.01011731 0.09217828 -0.04468754
0.028975425 0.057566386 -0.05061893
-0.07064051 -0.064371616 0.056595325
0.027816134 0.045357965 -0.06584816
0.1134845 0.09063464 0.30046725
0.043454222 0.050354786 0.06018265
-0.15691882 -0.11002852 -0.12698197
0.038849838 0.12459422 0.1984192
-0.17429821 -0.15369855 -0.06542151
0.20709682 -0.047547005 -0.08175138
-0.20315205 0.010253755 -0.048870165
-0.20312834 -0.074902326 -0.09100896
0.116547756 0.055825323 0.29607177
0.01357588 0.16478655 -0.11898625
0.053636786 0.05050112 0.15946871
0.4081663 -0.018292874 -0.12231604
-0.0036123162 0.17418407 -0.11239173
0.34035188 -0.023249766 -0.111348964
0.48363683 -0.022103611 -0.10783044
0.28978106 -0.017883422 -0.104122885
0.036501445 -0.107009746 -0.014378152
-0.15629241 0.047702767 -0.055740744
-0.11478419 -0.022326484 -0.16871935
-0.1984321 -0.11868417 -0.07566948
-0.07424643 -0.14030413 0.0010308209
0.43242723 -0.021284182 -0.12537803
0.0398692 0.07995033 0.18428169
0.02689181 0.0900019 0.086754315
-0.13116957 0.013459298 -0.12354504
-0.19760866 -0.11742066 -0.107683815
0.019431757 0.026254663 -0.000118160395
0.044681698 -0.07146546 0.009329659
0.039898302 0.1086707 0.19878618
-0.1621584 -0.094015144 0.05703031
-0.22256707 0.02589194 -0.026235985
0.040960137 0.09698152 0.20136425
0.016581496 0.25071725 -0.052529223
0.08132485 -0.050265234 -0.0769189
-0.20233858 -0.007320544 -0.051180035
-0.10987245 0.045366816 -0.12076534
0.03972761 0.0653379 0.03818686
0.084784366 -0.05187588 -0.06485769
0.037216816 -0.117683336 -0.072617285
0.48234603 -0.0068132016 -0.1290672
0.26136568 -0.026478544 -0.074743785
0.014695648 0.26826388 -0.041362155
-0.16399787 0.04856958 -0.021137632
0.10828541 0.073215924 0.30976152
0.063932 0.09475113 0.2440248
-0.15666476 0.0080193095 0.03982796
-0.0919494 0.04891987 -0.08055732
0.4628037 -0.013698771 -0.099897556
-0.18550509 -0.14424787 -0.08183746
0.0754019 0.07719321 0.3164705
0.061808515 0.10009799 0.22990768
-0.18485919 -0.10829043 0.036725707
-0.12022855 -0.12290269 0.035504512
0.3159695 -0.010395058 -0.09929102
0.00058040814 0.14103556 -0.09574677
0.03010774 -0.003435897 0.06571811
0.039911594 0.019776652 0.016994739
0.00029313366 0.09336015 -0.12545137
0.49493548 -0.022581639 -0.10990853
-0.024951035 -0.121983975 0.011226682
0.04189798 -0.10805577 -0.017068103
0.034011908 -0.07090205 -0.07468311
0.04042605 0.083483316 0.19043724
0.022194402 0.02015837 0.01492906
0.19229703 -0.040854055 -0.07118233
-0.020498347 -0.12724417 4.117475e-05
0.023941759 0.11811915 -0.06029093
-0.043353703 -0.12979648 -0.1084892
0.09596831 0.09079011 0.31498358
0.19001336 -0.046450004 -0.08512099
-0.06560319 -0.030230423 0.054938078
0.5120205 -0.004519368 -0.121273935
0.040432867 0.061457813 0.1795418
-0.17562261 -0.00863293 0.05585062
-0.1618058 -0.053085882 -0.045699947
-0.06838198 -0.13197242 0.017098967
-0.15475164 -0.085847184 -0.010097815
-0.08609862 -0.063011386 0.08204145
-0.16138987 -0.13411957 -0.102186866
0.37406707 -0.02861645 -0.11937847
-0.09153758 0.046077006 -0.017386744
-0.15935773 -0.15285745 -0.071202844
-0.062952586 -0.017296398 -0.1452297
-0.2366869 0.030768957 -0.028179508
-0.17168175 0.032260414 -0.08918814
-0.20067015 -0.06311074 -0.032165863
-0.12096654 -0.11446069 -0.15013789
-0.0704054 0.04031852 -0.097509556
0.041629422 0.09176099 0.06634518
-0.19050996 -0.10442484 -0.0059962575
-0.14096835 0.046350796 -0.017311867
-0.1517374 -0.061544154 -0.14391732
-0.032606453 -0.11805301 0.016754929
0.24992311 -0.034096897 -0.103071764
0.4217041 -0.006409677 -0.107076384
0.014470545 0.03578948 -0.016793529
0.02428187 0.027679272 0.035159312
0.028688757 -0.07243304 0.027380899
-0.13228065 -0.054796875 -0.003298749
0.38019213 -0.011775227 -0.09676098
-0.10968008 -0.092479736 -0.16627339
0.051709168 0.11412513 0.15709332
-0.11069349 -0.11609015 0.03978962
-0.103823446 -0.16925564 -0.0419395
0.041325636 0.049756486 0.15757686
-0.18794468 -0.059708614 -0.038557734
-0.18947329 0.037164744 0.000101256606
0.16760732 -0.028422121 -0.09021305
-0.115077004 -0.1393855 -0.1159995
-0.19616601 -0.14110228 -0.068909265
0.006713918 0.20932028 -0.024074012
-0.18831243 -0.033828836 0.046455014
0.059896667 0.13646083 0.23637035
0.11893973 -0.037046343 -0.062268835
0.043140646 -0.049262684 0.04261401
-0.049008053 -0.13466221 -0.10389696
0.031164527 0.08019997 -0.022075742
-0.112256646 -0.071353935 0.0582956
-0.08669076 -0.14878023 0.034732442
-0.104216814 -0.15791576 -0.035425868
-0.0038325402 -0.13995497 -0.061082784
0.041691754 0.09801285 0.20765711
0.035148136 -0.03457227 -0.047650468
-0.20356111 -0.108020574 -0.11088886
-0.015594348 -0.11842319 0.0103892125
0.02507658 0.003959543 -0.10806656
0.060864147 0.07926893 0.2630455
-0.025992675 -0.12896915 -0.0013907272
0.26512522 -0.043738667 -0.090926826
-0.09256864 0.048565358 -0.013719655
-0.07834633 -0.11835941 0.0469187
-0.021883054 -0.13478921 -0.09565098
-0.007012188 -0.14021027 -0.057909872
-0.19841456 -0.032139692 -0.1317259
0.07014771 -0.029168006 -0.06139983
-0.12328435 -0.092826724 -0.1576976
0.034128446 0.041484967 -0.01790238
-0.15979202 -0.1177716 0.044807646
-0.16728172 -0.14753142 0.011470972
0.04032795 0.08236685 0.18910576
0.24986975 -0.03605578 -0.10312656
0.021509128 0.15450875 -0.06142042
-0.15268306 -0.13781068 0.020196361
0.041324183 0.13427442 0.2125419
0.04641084 0.097063094 0.106755264
-0.09409163 -0.10494529 0.066907726
-0.1475259 0.020624671 0.030037897
0.17542462 -0.025663974 -0.089967154
0.1458895 0.01574936 0.30138856
0.014902815 -0.12016605 -0.11031892
-0.03019004 -0.106704876 -0.12982285
0.0643593 0.08816259 0.24412689
-0.1912253 -0.13476314 -0.026727784
-0.00023591807 0.2683742 -0.06483005
-0.023343138 0.024436647 0.01074517
0.3189297 -0.037223674 -0.091145396
0.021912461 0.094559565 0.04968059
0.015590679 0.035095282 -0.13276123
0.03979969 0.07291313 0.18023524
0.03096415 -0.027448585 -0.0771644
0.054680258 0.09645382 0.30949485
0.00037262862 0.008597992 0.020468073
-0.032865588 -0.11841342 0.016330844
-0.18093273 0.03733587 -0.07843701
-0.14673959 0.042069744 -0.00035869924
-0.17433032 -0.13977927 0.021139277
-0.10991694 -0.14800547 0.0049822126
-0.1851323 -0.10039452 -0.12632161
0.053945467 0.13541806 0.29843423
-0.12133745 -0.0735482 0.05988376
-0.16409 -0.13209103 -0.10441343
-0.16672511 -0.0042310148 0.053220343
-0.15501642 -0.11468297 0.046975393
-0.22377539 -0.053238586 -0.03678691
-0.0947371 -0.16354689 0.0080803335
0.003865609 0.20630866 -0.037349448
-0.17203933 -0.018837957 -0.06029924
0.51177996 -0.01306722 -0.12742361
-0.16375813 -0.0015505463 0.05291316
0.03233719 -0.06112476 -0.083055556
-0.11040738 0.04972847 0.014888715
0.07776364 0.12556617 0.320547
0.0023803222 0.24907424 -0.10593391
0.16338615 -0.0349121 -0.06825552
-0.1003645 0.034688637 -0.10620044
-0.16850951 -0.013264463 -0.051899944
0.036772557 0.11104056 0.17527193
0.12737136 0.12687415 0.30468285
-0.1572916 -0.090561 -0.054417983
-0.03248544 0.050677698 -0.042309836
0.033978812 -0.077544905 -0.07824708
0.044917252 -0.078593075 0.007647687
0.058201015 0.08934458 0.19606525
0.025488086 -0.023664068 -0.118545435
0.002107477 0.17566806 -0.06646804
-0.13673505 0.051774666 -0.050038606
0.061152346 0.0669156 0.2082307
0.0011971878 0.10669004 -0.124361604
-0.18521051 -0.11536782 0.030433342
0.035742026 0.115339175 0.04410723
0.00045547204 -0.13101172 -0.09564314
-0.11801024 0.047429565 -0.019546147
0.012333478 -0.13445754 -0.035675045
0.055917814 0.06944771 0.16813643
0.060953233 0.069396175 0.29740426
0.029493289 0.14352882 0.11909451
0.028374825 0.02717794 0.06724385
0.013782904 0.052535545 -0.035432506
0.0007293312 0.108030915 -0.110974036
0.061429527 0.13218164 0.24286148
0.040928952 0.083076485 0.05649409
-0.19392024 -0.11980199 -0.04058012
-0.18830308 -0.08046127 0.023349492
0.020892816 0.21418501 -0.03662817
0.25542307 -0.030929413 -0.10074388
0.010229488 0.21411513 -0.11580987
-0.08253447 -0.15155686 -0.0842965
0.041717097 -0.037586145 0.0027473092
0.0019315076 0.092373036 -0.12575762
-0.17046371 0.017227717 0.036532313
0.046441544 0.07466947 0.23357986
0.0070778956 0.08628574 -0.07162707
0.054399446 0.079814285 0.16129331
0.0035649582 0.20657016 -0.03959408
0.42633095 -0.030108007 -0.104220964
-0.043193568 -0.1476503 -0.054331638
-0.06855968 -0.14822486 -0.076100424
-0.0879783 -0.16720991 -0.053456996
0.021067979 0.12097425 -0.08157527
0.03626653 0.13161308 0.18149951
-0.07595795 -0.12314483 -0.11815793
0.01554813 0.24012566 -0.065959744
0.5114999 -0.014625357 -0.130411
-0.1859726 -0.07681818 0.04357269
-0.025791956 0.029486703 -0.116696
-0.0818684 -0.0317269 0.062153775
0.038678013 0.101724915 0.047980253
-0.002728314 -0.053618506 0.040708818
0.37838373 -0.011828034 -0.11470009
0.04601622 0.010529104 0.098525584
-0.19758016 -0.12670371 -0.07292283
0.016673539 -0.13442962 -0.04619047
0.10142947 -0.052133054 -0.07370658
-0.097044 -0.05054478 0.07062395
0.0429675 0.07571961 0.20665573
-0.11839921 0.055491623 -0.045380782
-0.07791944 -0.15006854 -0.0253941
-0.1084303 -0.06393764 -0.16370144
-0.15795127 -0.14688528 0.012263241
-0.19043256 -0.1331672 -0.019669946
0.026860619 0.11003965 -0.041245088
0.03259005 0.01106922 -0.04517261
-0.18475436 -0.11748095 0.03298616
-0.0111551955 -0.12505126 -0.00022489156
-0.0050175306 -0.10767089 0.017236952
0.03735974 0.11754332 0.18314107
-0.12288461 -0.15903361 -0.035820767
0.014498014 0.26700965 -0.060892127
0.36066052 -0.022701222 -0.08837246
0.06832383 0.1319154 0.29719505
-0.16568245 0.04770531 -0.019530874
-0.09456359 0.059228405 0.01268173
0.04466071 0.13673007 0.15635873
0.03617141 0.13377991 0.17946704
-0.014917293 -0.14149484 -0.07558041
0.13050011 -0.0023656471 0.29386762
-0.08852718 -0.17107888 -0.059714943
-0.20326802 0.00849722 -0.10395322
-0.14002246 -0.042879943 0.06513185
0.061227467 0.085742265 0.31510454
-0.13407473 -0.15705214 -0.0565684
0.003983391 0.04147564 -0.1183488
0.050899718 0.049041357 0.13397469
0.07077775 -0.033913754 -0.07762912
0.12659605 0.01679089 0.3048059
-0.01908938 -0.14114703 -0.083506055
-0.07928411 -0.0575169 0.06975198
0.025421424 -0.055434547 -0.13486171
0.02739865 -0.123445526 -0.06823183
-0.17862213 0.023998192 0.024178978
-0.12749657 -0.08080238 -0.14497694
0.020410256 0.100635305 -0.096879214
0.05187598 0.050468743 0.15065165
-0.091580935 -0.12852888 0.053655453
0.09805567 -0.054840576 -0.06860872
-0.07881953 -0.14387505 0.030497454
-0.15291104 0.013733183 -0.11720435
0.023851633 -0.098266326 0.014716081
0.060950547 0.10847752 0.22729583
-0.08660468 -0.012618655 -0.14199783
0.04350843 -0.03299387 -0.072740555
0.046744805 0.10678396 0.114225574
