# .PCD v0.7 - Point Cloud Data file format
VERSION 0.7
FIELDS x y z
SIZE 4 4 4
TYPE F F F
COUNT 1 1 1
WIDTH 1000
HEIGHT 1
VIEWPOINT 0 0 0 1 0 0 0
POINTS 1000
DATA ascii
-0.04266478 0.043443903 -0.16778474
0.23982546 -0.30112642 -0.18681455
-0.0066781915 0.12641671 -0.20359609
0.0730655 -0.08181957 -0.00060120743
0.0014688966 0.042948827 0.23938772
0.077089705 -0.028336948 0.02124145
-0.037848502 -0.10581608 0.04590186
-0.19718389 -0.108697735 -0.12031348
0.039432425 -0.10351062 0.12385076
0.004930133 0.07913899 0.24739607
-0.025216067 0.10242164 0.2068941
-0.09247688 -0.12598112 -0.0018417111
0.016294818 0.16766934 -0.2646719
-0.14592063 0.072937585 0.12083288
0.075526536 -0.055753466 0.14664532
-0.003657653 0.0925074 -0.16061695
0.11672811 -0.1287552 -0.012722391
-0.05947018 0.012888931 -0.14594564
0.045635495 0.14398447 -0.21110031
0.18291762 -0.21772721 -0.088624656
0.06580062 0.13023327 0.093322836
-0.09407104 0.13715175 0.10599771
0.05309213 -0.11200966 0.1035481
-0.061449204 -0.1152015 0.004826272
0.10613488 0.16029029 -0.3055322
-0.0060298145 0.119108826 -0.22617258
0.04034023 0.08660523 0.21147789
0.054501776 0.17784889 -0.24374494
-0.07432295 0.0341808 0.24529184
0.059120357 0.047347933 -0.052561007
0.033739973 0.1428159 0.111775406
0.087190896 0.045298114 0.15347794
-0.045671094 -0.023640342 -0.0009443471
-0.09259461 -0.10523994 -0.033970494
-0.05274092 0.117808945 0.045229353
0.037271973 0.09138205 -0.15571406
-0.12820312 0.12019326 0.09666444
0.07245727 0.16967909 -0.32991806
0.020959854 -0.004294153 0.21468623
-0.02111932 0.058049116 0.18029065
-0.13411687 0.11594179 0.1602846
0.22563764 -0.3100181 -0.18235628
0.28344092 -0.34737733 -0.20595168
-0.027279975 -0.032236014 -0.06438612
0.032222565 0.06935316 0.009940679
0.07525062 0.015250749 0.21025546
0.051188726 0.14440493 -0.20679772
-0.026003018 0.104121536 0.12293811
0.10738509 -0.0395224 0.12764674
-0.11941578 0.017931325 0.20113806
-0.074660696 0.009360092 0.025500305
-0.0062530087 0.11474603 -0.18933514
-0.0015733262 0.04291531 0.24163619
0.09442799 -0.023423383 0.030388251
0.0017340499 0.14501709 -0.25029996
-0.07464677 -0.10539551 -0.018262135
0.107595444 -0.017738897 0.12727793
0.09588538 0.061865363 0.086529724
-0.13946433 -0.09785952 -0.08329407
-0.1081425 -0.12823386 -0.020045208
0.08312337 -0.09452246 0.022598846
-0.06800365 -0.096334234 -0.023303837
-0.1737732 -0.08491093 -0.10342829
-0.13286212 0.024739735 0.17818706
0.06314366 0.21735165 -0.27306494
-0.086146735 -0.12403644 -0.006017811
0.036327526 0.17931929 -0.2531806
-0.04301901 0.08661096 -0.19385944
0.16264288 -0.19550958 -0.06685494
-0.00077296776 0.022854978 -0.107042246
-0.12908718 0.07249903 0.15267687
0.06265961 0.1524486 -0.20241742
-0.009649568 0.025971347 0.24068582
-0.033042125 0.10420442 -0.19995607
-0.11034889 -0.1113075 -0.042102985
-0.144654 -0.12831755 -0.05152441
-0.044472948 -0.05696115 -0.04982264
0.064963795 0.20200977 -0.2527222
-0.038545355 0.03688514 -0.15641363
0.01957471 0.058588225 -0.13198154
0.014980165 0.11669266 -0.20512538
-0.0023275607 -0.012645694 -0.06612572
-0.09924522 0.049518 0.01804478
-0.1664922 -0.070761345 -0.13541532
-0.017941989 0.112058684 -0.22808287
0.06919847 -0.08290022 0.07937048
0.07172286 -0.062307358 0.017641183
-0.14439029 -0.11524927 -0.035016637
-0.06952296 -0.065551125 0.17891721
-0.104465656 0.13030787 0.10515459
0.026586365 -0.022344545 0.20029832
-0.1620533 -0.07851722 -0.12585664
0.27210635 -0.37975648 -0.22353058
-0.09235337 -0.0632497 -0.0519116
-0.19569872 -0.11300414 -0.11390229
-0.2072718 -0.13184705 -0.086050265
0.017798197 -0.002822731 0.21363148
0.0109233735 0.14309417 -0.24006286
0.08134379 0.08668708 0.158605
0.0759103 0.15978448 -0.3226475
-0.002090225 0.05292808 0.24571411
-0.010840872 0.15592039 0.15564032
0.019282734 -0.06361909 0.013245068
0.00075509585 0.023966275 -0.10704331
-0.009610982 0.010102494 -0.099505484
0.02901155 0.03231929 0.22297616
-0.20963305 -0.08742166 -0.15277074
0.08380625 0.07875467 0.17017797
-0.0028000488 0.11735223 -0.18945158
-0.014354778 0.016119404 0.23461217
-0.028107177 -0.11919949 0.03842286
0.024277305 0.21644676 -0.29632846
0.027809888 0.10365871 0.22590892
-0.119310774 0.0719535 0.16178174
-0.12342109 -0.019585943 0.108014554
-0.017196752 0.16227464 0.14257924
0.04470595 0.039273746 0.21447004
0.0063351644 0.14206702 -0.2109716
-0.10606893 0.12859811 0.08091224
0.2665978 -0.36622906 -0.20534958
-0.024181906 -0.08797164 0.0046429248
0.080428496 0.18028142 -0.3117381
-0.07251556 -0.06283184 0.08882556
-0.0013169773 0.16905455 0.1482424
0.054092165 0.121675804 0.14920849
-0.06960322 -0.051670685 0.14399593
0.026404843 -0.101021335 0.06393042
0.19998291 -0.25971976 -0.11379479
0.019917054 0.10984275 0.04473787
-0.06878333 -0.06007945 0.18755737
0.27568945 -0.38755456 -0.2389572
0.09901621 -0.025180966 0.036448848
-0.07908774 0.115514904 0.1924691
0.059840817 -0.08276963 0.009058962
-0.04743519 0.09480861 0.005719102
0.21973735 -0.3105979 -0.17202307
0.04837128 0.12916832 0.16515948
0.28662798 -0.35750842 -0.22953807
-0.057925932 0.13205975 0.057197087
0.010848389 0.16878556 0.15908457
0.014974796 0.08269543 0.016057337
-0.14280325 0.03793342 0.14727898
-0.04582046 0.0036676072 0.22826749
0.033302363 0.0012874419 0.21871635
-0.08754816 -0.095015466 -0.041777756
-0.07345433 0.10963826 0.1887998
0.057621974 0.020591903 -0.053842347
0.06494475 0.21749663 -0.2659923
0.03575952 -0.024599683 0.21982129
0.047356024 0.122485034 0.18342844
-0.12683235 0.0020274364 0.06571909
0.15041164 -0.19130357 -0.09091862
0.06418706 0.19436033 -0.30255085
-0.025694586 0.15395898 0.14512894
0.016280552 0.041737687 -0.11477109
-0.1951714 -0.10719597 -0.12036078
-0.1484496 0.11775502 0.14572957
0.037532378 0.14563453 0.15699445
0.16817783 -0.20381416 -0.10495998
-0.022841617 0.13419765 -0.22992623
0.103110306 -0.05725242 0.12351315
0.06399682 0.15173289 -0.20423631
0.00091791264 -0.1170519 0.1001269
0.025654957 0.0836145 -0.12467819
0.00039895598 -0.058081087 0.173037
-0.22330275 -0.0919288 -0.13266492
0.03894962 0.090498984 0.21366751
0.21857186 -0.2768123 -0.16728464
0.080456726 0.0345568 0.18805875
0.054839347 0.16266191 -0.19353713
0.06816205 -0.09771244 0.113017105
-0.024266222 0.052211855 0.0011587652
-0.058991168 -0.031475127 0.192184
-0.056063782 -0.12185693 0.027220448
0.042264108 0.12446325 -0.1907775
-0.03247774 -0.119845174 0.035411246
0.035578243 -0.014665225 -0.030937076
0.14241032 -0.17981082 -0.047032945
-0.017060783 0.1262979 -0.23764111
0.117879346 0.0109819155 0.09352616
0.10336235 -0.012715153 0.13463287
0.01805557 0.1633358 0.12721379
-0.13935001 0.053632114 0.16626056
0.2971272 -0.40087867 -0.23482089
0.062469132 0.012562479 -0.040091548
-0.12694901 -0.10625428 -0.06247619
0.19768208 -0.23235434 -0.11980648
0.245014 -0.32795876 -0.20219332
-0.11814974 0.014062912 0.0406805
0.10123404 0.09294822 0.14583911
0.08826122 0.018537303 -0.024896665
0.09779712 0.059523128 0.0920395
0.09961611 -0.14048699 -0.019409005
0.23467013 -0.33383226 -0.19512245
-0.11134447 0.047697682 0.038363077
0.05462747 0.16495857 -0.19645427
-0.14114988 -0.12703419 -0.050020996
-0.03866515 0.049676307 0.25250974
0.16985157 -0.21540053 -0.11261382
-0.01276099 0.12856719 0.027358161
0.023041809 -0.108445786 0.11750141
0.12450217 -0.02958013 0.0637282
-0.17950232 -0.09149198 -0.09549834
0.07700933 0.12240616 0.08070017
0.029521616 0.061515436 -0.09502645
-0.06972334 0.034811318 -0.16368496
0.0080031445 0.008707254 -0.08261007
0.059684556 -0.082669236 0.07086664
-0.025578028 0.11680882 0.043682735
0.044772472 -0.097853415 0.12764348
0.0125185065 0.18991317 -0.2625815
-0.14320505 0.042223215 0.17205486
0.0064734747 -0.117144704 0.07402314
-0.025259579 0.028619329 0.24456798
-0.00071550725 0.08555964 -0.14980146
-0.026725395 -0.01147926 -0.01323923
-0.13849549 0.075255305 0.10053164
-0.12976183 0.069211826 0.08939705
0.019846568 0.18929777 -0.2873476
-0.13916111 0.028773436 0.15015619
0.043763604 0.07276917 -0.100733705
0.06376667 0.19869165 -0.22870702
-0.02855383 0.018424839 -0.007809711
-0.1990007 -0.11538639 -0.113922596
-0.03271253 -0.008516907 -0.083515376
0.052760802 0.12478406 -0.18208043
-0.1190736 -0.07892132 -0.056365527
-0.14916936 -0.09188247 -0.098802924
-0.19279315 -0.11608546 -0.107721455
0.032890137 0.082242094 0.022575995
0.008169934 0.08500145 -0.17328858
0.24238278 -0.31701246 -0.16250443
-0.027649427 0.05312294 0.18375097
0.010592143 -0.01865336 0.22281273
0.11043288 0.029442932 0.048795342
-0.0023104353 0.18293801 -0.274071
-0.04493885 0.1327934 0.059195034
0.030285751 -0.09447369 0.059492614
0.08924135 0.04222038 0.15856868
0.030995477 -0.019770904 -0.028822714
-0.1167492 0.014956482 0.07266501
-0.18605001 -0.13351086 -0.07250048
-0.055653337 0.05098332 0.18896887
-0.11837341 0.037951514 0.20306973
0.18712154 -0.23523073 -0.0969294
0.0980871 -0.06735666 0.123458676
-0.02139665 0.17132965 0.10650863
0.058506172 -0.050088927 0.16321678
0.018397951 -0.06688768 0.16276121
-0.038641762 0.08215051 0.20955564
0.023109185 0.07661761 0.23419863
0.038122825 -0.08863676 0.059322048
0.0023135405 -0.05293923 -0.014145039
-0.028688837 -0.094104655 0.008045735
0.19040766 -0.22504698 -0.11822227
-0.037541933 0.056287576 -0.1786431
-0.012081973 0.06870807 0.0074904826
0.087188914 0.17985345 -0.28153345
0.06749254 0.17529187 -0.302721
-0.14190266 -0.07190373 -0.08446446
0.08208083 0.08416357 0.09802014
-0.07740624 -0.113608874 -0.0108714085
-0.095628984 0.12597059 0.18163416
-0.1416225 0.0739841 0.11208011
-0.11998227 0.08264143 0.14847775
0.014551926 0.15646285 0.17695703
-0.1118719 0.031489644 0.21638556
0.034719218 0.1455836 0.18002746
-0.05191162 0.04279369 -0.14317133
-0.112967774 0.048385993 0.032926213
0.011380163 0.069684684 0.24025853
-0.027496839 -0.057490993 0.20453227
0.21483684 -0.27151012 -0.12842482
0.04182703 0.20503396 -0.25523233
0.04333962 0.13832183 0.14931218
-0.064333834 0.0003704892 0.21881269
-0.033788625 -0.04855058 -0.0105803255
0.04094095 0.03942918 -0.09069433
-0.006995428 -0.0684618 -0.0037175277
-0.06734286 0.1113481 0.12721978
-0.013485458 -0.061751127 -0.017319469
-0.011436013 -0.0063716527 -0.08147231
-0.015817521 0.08090549 0.2406363
-0.06799605 0.018857699 -0.16042478
0.0010937122 0.041307595 -0.09555753
-0.04727685 0.13551715 0.14491557
0.2355128 -0.33214584 -0.1804828
-0.12482049 0.04946274 0.18379037
0.13036759 -0.16364506 -0.03322969
0.058547102 0.010813632 0.22150594
0.03704725 0.14439258 0.13040723
-0.08418764 -0.08611029 -0.049471837
0.23084211 -0.28222194 -0.14360356
0.04462901 -0.008425965 0.19585092
0.06444465 0.18991607 -0.24951029
0.03448939 0.17688856 -0.32358426
0.047667176 -0.09287424 0.07262129
-0.021384506 0.036395513 -0.10915165
-0.02046969 0.11011956 0.011967805
0.010686118 -0.10904741 0.11056811
0.090894304 0.052436646 0.04614626
-0.08502868 -0.058945425 -0.056935433
-0.075193465 -0.064773366 -0.035255965
-0.017067421 -0.0054900646 0.2229552
0.14755099 0.18222167 -0.24806382
-0.034008976 -0.08641633 0.11549475
0.057863493 0.12938857 0.08746343
0.016214354 0.027940346 -0.09840368
0.03272974 0.12642962 -0.16952768
0.108150445 -0.03618694 0.057451017
-0.039435636 -0.022252863 0.20679
0.26104707 -0.35730246 -0.22286955
0.0016167444 0.17099498 -0.27920285
-0.13007396 0.115503944 0.09575844
-0.09893295 0.105967216 0.1389156
-0.07206158 -0.095249064 -0.028105145
-0.022087134 0.075693995 0.24141775
0.0073400126 0.15086691 -0.2205782
0.09308894 -0.100907356 0.013230983
-0.09915109 0.09987657 0.06261839
0.023672257 0.024131201 0.2248741
0.027518205 0.21317622 -0.2773011
-0.033690915 -0.100510806 0.072248586
0.2502919 -0.31613517 -0.2026819
0.0015355372 0.004048603 -0.05082095
-0.04981507 0.0064666877 -0.10661294
-0.00038186126 0.1517672 0.16963036
0.060494494 -0.00493972 -0.020964395
0.07157966 -0.0486191 0.1527074
0.18059504 -0.20936486 -0.101385035
0.052609667 0.10695503 0.1879382
0.043351803 0.18385029 -0.22869618
-0.080227874 0.14098708 0.1134048
0.2833854 -0.39362818 -0.23240004
-0.009512042 -0.11461124 0.08088012
0.14415918 0.18034641 -0.27068007
0.038752656 0.20021093 -0.28398666
-0.116166644 0.091440074 0.14130352
-0.013188272 -0.0056706555 0.22458653
-0.17387284 -0.13017213 -0.074587695
0.03633889 0.094816595 -0.16060977
-0.07558272 0.02285815 0.23737276
-0.09065146 -0.0025904952 0.20503032
-0.035595536 -0.08774239 0.106294334
0.07558094 0.003688374 0.17899029
0.024755739 0.100884005 0.038275484
0.2894696 -0.3573663 -0.21594599
-0.003607829 0.17460063 -0.2583004
-0.1682423 -0.108798504 -0.063325144
-0.0001941527 0.14699402 -0.2543205
0.011582967 0.15779041 -0.2251502
0.049547993 0.058768515 -0.074435264
-0.038057394 -0.09579429 0.07538591
-0.054077044 0.053636484 -0.15795167
0.008258048 0.19497809 -0.2951439
0.3025101 -0.3784253 -0.24552013
-0.01802131 -0.0008570787 0.22703871
0.04080977 0.14255995 0.15587619
-0.15211593 -0.06795421 -0.12983648
0.025867626 0.15936275 0.14978091
0.01647001 0.122344345 0.028211765
-0.023007236 -0.03207052 -0.060887497
0.060292363 -0.08574255 0.011652439
-0.06498814 -0.055579424 0.193574
-0.21313192 -0.1282368 -0.09051927
-0.0650395 0.08672267 0.03195519
0.035658848 -0.015105134 0.22443612
-0.12348326 0.013545455 0.1885559
0.011847059 0.0015774244 -0.03896124
0.09948455 0.056349143 0.08487321
0.018454773 0.12624303 0.21630745
-0.030033218 0.07065376 0.24054538
-0.063476436 0.11086459 0.18166052
-0.03365464 -0.028893908 -0.010087362
0.13706523 -0.19090061 -0.07582364
0.0415586 -0.011554946 0.22608213
-0.19826151 -0.0761581 -0.14211963
-0.02475998 0.11379778 0.03456235
-0.13982652 -0.12446011 -0.05194114
0.017654698 0.14719988 -0.23912838
-0.049420822 -0.040313713 -0.042082846
-0.13041353 0.013982873 0.14533047
0.08803773 0.07777522 0.14316685
0.08212594 0.061440997 0.18933547
0.027993584 0.020673035 -0.02297431
-0.061718628 -0.041792393 -0.05095924
-0.070414245 0.042519484 -0.1588478
0.236466 -0.29310095 -0.1510284
-0.099916995 0.109472424 0.1780944
0.21276712 -0.2883828 -0.16632278
-0.0806246 -0.06437762 -0.061791122
0.03873148 0.07600808 -0.1258501
0.1420573 -0.16850394 -0.07160297
0.08611254 0.093337215 0.15481302
-0.17650679 -0.075554356 -0.11220602
0.27528027 -0.33973786 -0.21098702
-0.075534046 -0.046841532 0.052443624
0.013421833 0.16855633 0.16030298
0.03148001 -0.06363846 0.16413309
-0.17679213 -0.13204883 -0.06456862
0.20444775 -0.23815085 -0.11875645
-0.14597082 0.112399876 0.13833041
-0.113343365 0.034881156 0.03407044
-0.10044103 -0.019469058 0.0745864
0.08303521 -0.07414651 0.0137837315
0.15967204 -0.17856245 -0.06278505
-0.029055906 -0.014249552 -0.0873339
-0.0606723 -0.030607073 0.19222048
-0.08805997 0.1124557 0.18598883
0.09344927 -0.103347436 0.012243351
-0.05318003 -0.093269005 0.017705398
-0.055510342 0.1042182 0.11623027
-0.011839551 -0.009737357 0.22167009
0.06246681 0.1958702 -0.22647256
0.04880972 0.026518414 -0.020624228
-0.18577397 -0.06936432 -0.13535291
-0.029134486 -0.060648568 -0.032166943
-0.1597757 -0.07515084 -0.12789446
0.1791519 -0.24757405 -0.121319644
0.09934746 0.08469651 0.15843973
0.031740595 0.03696889 0.22208543
-0.12016023 -0.08955695 -0.07648128
-0.1511719 -0.075020805 -0.12060781
0.0050268145 0.09178453 0.2405691
0.0649176 0.042801816 -0.07397193
-0.068140164 -0.029415326 0.026252402
0.07754751 -0.10829009 0.010704304
0.06929258 0.076762915 0.17649496
0.23180117 -0.29034936 -0.14671351
-0.10207827 0.045117356 0.018880513
-0.20847237 -0.096445926 -0.14466175
-0.08354687 -0.10944445 -0.021139724
-0.20732425 -0.10560779 -0.13276212
0.031426907 -0.012127642 0.20122692
0.11568419 -0.013102498 0.109420516
-0.12604961 -0.096657805 -0.07312259
-0.009329729 0.16901736 -0.25660288
0.05576276 -0.053978324 0.020587716
-0.14742482 0.09956412 0.1528752
0.251603 -0.33811188 -0.2101302
0.10088947 0.040083252 0.044028126
-0.05325293 0.03564946 -0.16766322
0.18574753 -0.24369296 -0.098384075
0.023319053 0.10494788 0.042757202
0.05921774 0.13194335 0.06353799
-0.0039004511 0.041524917 -0.005863672
0.003268332 0.058444228 -0.0009164019
-0.09313194 0.10877285 0.13434832
-0.018004699 0.04404084 -0.0043503186
-0.03162445 -0.019657634 0.21222946
0.27258974 -0.37556443 -0.23691323
-0.035174146 -0.007951003 -0.06828665
-0.034695104 0.06442538 -0.15403156
0.089979805 0.06634465 0.12760393
0.028621893 0.09329507 -0.13738133
-0.06676499 0.030144718 -0.14095956
-0.21346657 -0.09082601 -0.12383481
0.21780425 -0.27157307 -0.1615233
-0.12057882 -0.088876925 -0.045816056
0.103351325 0.03661781 0.042734373
-0.05601333 0.07362274 0.21454056
-0.08902002 -0.12394084 0.003080065
-0.028396036 0.030706182 -0.14027992
0.09194326 0.01561917 0.1561711
0.11165041 -0.028651267 0.120474614
-0.099282965 -0.0038476211 0.19199249
-0.019935502 0.030405074 0.24507272
-0.060744233 0.056202237 0.23118703
-0.04429196 0.079399355 -0.1924585
-0.15452148 0.11561294 0.14156158
0.06513154 0.17211376 -0.2277242
0.026788363 -0.06437332 0.16619146
-0.024086922 0.04629835 0.25254554
-0.11720088 -0.027938066 0.12333723
-0.07782001 0.017789338 0.23149222
-0.21287109 -0.084254794 -0.1501676
-0.20382103 -0.105831124 -0.09762947
0.006052756 0.059761032 -0.14507282
-0.057550475 0.118678175 0.046781622
0.024183476 0.2179097 -0.28581983
0.05495541 -0.013917074 0.18816467
0.049662586 -0.059290618 0.023610976
0.10317874 -0.12586136 -0.0016875506
-0.028200896 -0.017005766 -0.05147637
-0.06344969 0.099205874 0.0139123285
-0.05442845 0.14601858 0.070632964
-0.11598038 0.05863219 0.18052033
-0.2177625 -0.122816086 -0.106979795
0.0065113 0.15616857 -0.25944293
0.1578792 -0.194705 -0.063037895
0.080465205 0.025542619 0.20868067
-0.007889843 0.17099805 0.14024395
0.018398346 0.04895558 0.23237775
-0.08070373 0.03372009 0.24068747
-0.015557342 0.104571335 0.12456429
-0.13285065 0.08799309 0.13097695
0.042600427 0.18028472 -0.2251013
-0.2139059 -0.12172559 -0.118579134
-0.15773797 -0.12518944 -0.04319315
-0.20373054 -0.12305291 -0.077049814
0.12214637 -0.12651989 -0.02763544
0.0612485 0.11410042 0.15387441
-0.00030378133 0.1222438 -0.19311559
0.110297866 0.03449932 0.07190997
-0.106112495 0.011750515 0.053844485
0.015032118 0.17557612 -0.2481068
0.027122864 0.13777998 0.08843981
-0.014624145 0.086635634 0.016596783
-0.052981656 -0.05576838 0.01821037
-0.1344694 0.07243114 0.14810267
-0.12002996 -0.090832554 -0.043013442
-0.097638525 0.12648669 0.073955536
-0.1304384 0.067425296 0.15754811
0.09369325 0.053708877 0.05419045
-0.1832951 -0.093704306 -0.094312996
-0.017236449 0.069648884 -0.17698653
0.035149943 0.011909704 -0.06294311
-0.13454048 -0.079676196 -0.10068127
-0.054727238 -0.054548 -0.029727578
-0.030125726 0.130623 0.15655062
0.092562735 -0.11022327 -0.02360518
-0.03778322 -0.104456 0.012502801
-0.046739127 -0.0010091854 -0.11835239
0.13440338 -0.17818902 -0.049910694
-0.12830706 0.047143593 0.18353567
-0.075087845 -0.056421097 0.11158165
0.07567103 0.047254384 0.012168027
-0.033697013 -0.0043868213 -0.071252
-0.09418396 0.114123866 0.13331318
0.067101665 -0.036596928 0.022436118
-0.21668696 -0.11550834 -0.11477435
-0.055453546 0.046196092 -0.15028465
0.025829943 0.044454034 -0.109745696
-0.06007295 0.018129596 -0.15270548
0.012700055 0.07336888 -0.15552272
-0.058983978 0.15920363 0.08291912
-0.14195496 -0.1328229 -0.042956155
-0.16972667 -0.059384882 -0.12555254
-0.056300316 -0.09154609 -0.01888143
0.007920067 0.040918358 -0.12102681
-0.09383699 0.033699065 0.22935353
-0.075754695 0.053942684 0.025203954
-0.026274538 0.06473315 -0.17895171
-0.007955386 0.058831755 0.0026085256
0.117662 -0.004188036 0.027585037
0.008410812 0.05733948 -0.10831398
-0.024157735 0.05398808 -0.16432974
0.087719396 0.074226536 0.08659248
-0.028381854 -0.010524491 0.2194963
0.06070681 0.024466341 -0.023949701
0.16444102 -0.18876597 -0.06622437
0.08352188 0.07992508 0.08125653
0.0046591195 0.112746686 0.22044186
0.028648976 0.15909646 -0.24217278
-0.032213073 0.109705955 -0.20949268
0.12738931 -0.17783204 -0.06526504
-0.12008358 0.12807545 0.09430407
0.23317146 -0.32848242 -0.17095046
-0.016289387 0.071346015 0.010864035
0.08861783 -0.112427935 -0.021288149
-0.19704244 -0.08643417 -0.11485757
-0.2023953 -0.13385725 -0.08271927
-0.035019286 -0.014106469 -0.060824756
-0.0044943336 0.15987357 0.1564236
-0.075727224 -0.01931352 0.19644445
-0.08432982 -0.04057699 0.166813
-0.003067564 0.1465255 0.17354806
-0.0053940397 0.16392863 -0.26596245
-0.042878874 -0.10681978 0.010909643
0.088236 -0.011185829 0.1584461
0.046777442 0.13445237 0.12791179
-0.06628534 -0.05493613 -0.067417756
-0.112637475 0.023115505 0.034671165
-0.14740266 0.053334318 0.12781328
0.0561876 0.14895476 -0.20789056
0.13754171 -0.19230178 -0.06228694
-0.11290769 0.11818655 0.17595617
0.13917953 -0.17308922 -0.042628974
-0.16762102 -0.11103086 -0.06013033
-0.07883381 0.15177262 0.08585241
-0.10686206 0.010712361 0.20582254
0.22172774 -0.30042294 -0.14871499
-0.117568985 0.030350188 0.21181925
0.048470452 -0.033087753 0.002144309
-0.14240167 0.0868804 0.1082666
0.029197508 0.07722051 -0.14583942
0.07301834 -0.08576796 0.08608817
-0.0100092245 0.017801318 -0.015770199
-0.07358287 0.010209362 -0.15224911
-0.018193265 0.14757615 -0.24021731
0.009014126 0.04495666 -0.12488775
0.12048466 0.18238567 -0.2831436
-0.09195502 0.14225048 0.10175808
-0.21808809 -0.08253225 -0.13770497
0.034854498 0.21900599 -0.28197935
-0.14665964 0.10157599 0.1557526
-0.08193353 -0.041942026 0.063392825
-0.00022441747 0.05362403 0.24468051
0.037771765 0.022331703 -0.07308186
-0.035348155 -0.08687424 -0.0063212905
-0.21385019 -0.12610464 -0.11400656
-0.121060245 -0.08780992 -0.047503076
0.045972425 -0.107244246 0.10732886
0.06260856 0.19959466 -0.27414167
0.08855624 -0.07171932 0.12952568
0.2501988 -0.30485687 -0.18107937
-0.09142484 -0.056885652 0.14825413
0.25037065 -0.3377779 -0.18038069
-0.074624814 0.09364898 0.039942212
0.030417677 -0.0914898 0.1370074
-0.08444663 0.07743869 0.039305873
-0.16685736 -0.10017544 -0.072392896
0.046761863 0.1257017 0.098760836
-0.12293013 0.013953982 0.044025104
0.04105065 0.13865452 0.1572564
-0.0024893621 0.13593963 0.18664949
-0.09976139 0.09802717 0.062358916
-0.12435213 0.104661435 0.087618314
-0.0072089415 0.098941594 -0.20318468
0.06113492 0.1876253 -0.28961903
-0.008754788 -0.048494805 -0.029008588
-0.043646097 -0.005980519 0.22122356
0.24265225 -0.33927527 -0.18962449
0.014993869 0.009646836 -0.04584543
0.023032399 0.032984275 -0.09851137
-0.045920316 0.073000245 0.2240113
-0.026267182 -0.0016385447 -0.012077971
0.061553307 0.1023642 0.17401072
-0.012266224 -0.10804706 0.038847227
-0.12746288 0.04228605 0.19004822
-0.08565729 0.13223435 0.11912847
0.066838555 0.19531675 -0.23251265
-0.10243157 -0.1012893 -0.04718127
0.08168697 0.06306185 0.046719607
0.29523063 -0.36739862 -0.2345606
0.03699629 0.20280904 -0.256762
-0.03565199 -0.050201435 0.18148209
0.094854824 -0.03950602 0.04990275
0.09675047 0.026238125 0.010290583
-0.09186915 -0.1175152 0.009659291
-0.013368063 -0.110735334 0.08620138
-0.17483266 -0.12900093 -0.0592971
0.09775565 -0.07381252 0.093251064
-0.1841504 -0.12875958 -0.08515814
-0.03551339 -0.019981561 -0.07397709
-0.114029735 -0.019424377 0.11594474
-0.01863319 0.0008003472 -0.06439849
0.058274984 0.042927794 0.0009983642
0.22969204 -0.30244765 -0.14868441
0.14529106 0.18322836 -0.26570156
-0.021685112 0.07703583 -0.18962793
-0.14591308 -0.06894891 -0.09145091
-0.12933317 0.0011594979 0.078205414
-0.043040402 -0.0643704 -0.039763212
0.02780597 0.048583746 0.22650279
-0.080734596 0.07599044 0.12689199
0.19431913 -0.26556957 -0.12275526
0.06915664 -0.06614939 0.017771685
-0.034330226 -0.05366765 0.20558217
0.041537214 0.040829543 0.21669404
0.005817528 0.120068714 0.21272779
-0.07202499 0.15883112 0.08179657
0.09772331 0.046382517 0.049055442
0.021848945 0.017318267 0.22229482
0.029021678 0.022503387 -0.08085426
0.06898849 -0.08954703 0.118938245
-0.016965095 0.10887003 0.015333595
-0.056441505 0.14736113 0.12638986
0.07386445 0.17999071 -0.29220235
0.023727937 0.20366423 -0.26925588
0.04366645 0.06956188 0.019755911
0.08835128 0.18499386 -0.30001816
-0.03178191 0.005784972 -0.11354112
0.032338567 0.09847822 0.040815886
-0.022089822 -0.033205833 -0.058742404
0.077280246 0.09357938 0.14821702
-0.02840891 0.078504995 -0.1653555
-0.18095222 -0.10047601 -0.084225506
0.057166155 0.010043001 0.22231728
0.039268848 0.15988152 -0.235531
0.13478611 -0.14785601 -0.052310754
0.07785729 0.071355954 0.05403187
0.024884954 0.03763716 -0.10244793
-0.068599515 -0.013198343 0.2071314
-0.066565 0.019307451 0.014780244
-0.00824711 0.16098402 -0.2603122
-0.048746318 -0.086009614 0.012897955
-0.10341498 0.053528216 0.19746417
0.21304967 -0.25644588 -0.1449939
-0.18736699 -0.11181621 -0.07627387
-0.0067898245 0.05039325 -0.1450287
-0.10845911 0.016794363 0.21310064
-0.100821085 0.10001269 0.14437123
0.01847665 -0.02594422 -0.032300998
0.13307016 0.17576265 -0.2852553
-0.13998893 0.040508498 0.1150072
0.018406946 0.15321732 -0.21380424
-0.13763255 -0.0769014 -0.10665888
-0.100748815 0.035579458 0.22113724
-0.023066692 -0.119250745 0.042843215
-0.111141026 0.045764867 0.20002353
-0.14008345 0.03815924 0.17020985
0.030297745 -0.055356253 0.17232247
0.015484681 -0.048174582 -0.008425256
0.0600588 -0.00065812323 0.19170961
-0.13281074 0.018842578 0.14063561
0.06440929 0.16908817 -0.22474694
-0.027672734 -0.10379768 0.08387934
0.00092304393 0.18648218 -0.28050074
-0.07168147 -0.065168254 -0.031748496
-0.09378307 0.007766582 0.048794523
-0.043203164 -0.123792656 0.030834103
-0.145391 0.11692538 0.14552772
0.077114314 -0.0014767568 0.17505118
-0.17061663 -0.10938192 -0.064684376
0.11901315 -0.008596468 0.05631541
-0.045190625 0.03449263 0.17430705
0.030212296 -0.07080046 0.15765353
-0.11374355 -0.011399051 0.13128778
-0.05570326 -0.040851228 0.014003426
-0.08781335 -0.124335885 0.0033457146
0.14184788 0.16961923 -0.28574923
0.16345364 -0.21663147 -0.07543303
0.039952617 -0.013298112 -0.028781127
0.10748839 0.034966312 0.098215766
0.025924513 0.031789526 0.22479269
0.0010576583 0.0011102958 -0.047736548
-0.047993615 0.049156886 -0.17919382
0.28187904 -0.34647745 -0.21270356
0.062809214 -0.091892 0.12863664
0.07884021 -0.00417814 -0.006003651
0.22146268 -0.26043177 -0.13014878
-0.12070864 -0.099778354 -0.06478787
0.25942257 -0.31277984 -0.17969966
0.06243934 0.19662255 -0.22739197
-0.044363424 0.106302805 0.02652951
0.010864132 -0.029865695 -0.034216575
-0.1527641 -0.09032285 -0.10376871
0.047166273 0.16579302 -0.23573765
0.029485742 -0.07925117 0.14859584
0.11870588 0.015631199 0.07040433
-0.09400467 0.09225169 0.054559983
-0.14676547 0.06993094 0.12967114
-0.044077955 0.01682228 -0.13731529
-0.05177427 0.08068916 0.018774481
-0.085025825 -0.050251927 0.10644775
0.09040751 -0.11499119 0.0076269624
0.03582928 0.14730617 0.13954447
-0.040973958 0.1354737 0.14887215
-0.067750886 -0.05331333 0.14311619
0.07347132 0.031643476 0.21641164
0.035338454 -0.026523983 -0.017027428
0.037391517 -0.023446914 -0.018914316
0.10301625 -0.057877287 0.11040121
-0.026905892 -0.053404775 -0.038862664
0.21075563 -0.2488007 -0.12803131
-0.01629447 0.09595922 -0.20749255
-0.068141125 -0.09437844 -0.025750676
0.019854467 -0.06819823 0.019190943
0.032076348 0.08030893 0.22733638
-0.002610846 0.028368529 0.2381401
0.05355841 0.12896028 -0.18316893
-0.001986278 0.14974403 0.1706516
0.091356464 0.02549613 -0.002776889
-0.078443535 -0.05131459 0.1238257
0.03843132 0.026679415 -0.045850508
0.10206017 0.16313398 -0.29344922
-0.06923832 -0.07326462 -0.051833954
0.19951421 -0.25485677 -0.11201312
0.05230956 0.1683216 -0.20246255
0.044727314 0.11074813 0.058213785
0.03915738 -0.021940831 0.19033201
-0.013195045 0.12418283 0.032202184
0.036935773 0.077032894 -0.13591477
0.059393805 0.21601799 -0.25921044
-0.07468467 0.11799943 0.13429894
0.1997422 -0.24732734 -0.14446463
-0.012968186 0.06510631 -0.16788723
0.054458003 0.036002073 -0.074923806
-0.16162975 -0.128143 -0.06641452
-0.052747943 0.06438951 0.22835658
-0.043802634 0.013721134 0.23785478
-0.13931948 0.09642417 0.0964466
0.032768182 -0.06989182 0.032376137
-0.20540762 -0.11916803 -0.08312515
0.038665704 -0.007837804 0.22923522
-0.09680459 0.02154657 0.22533521
-0.21972348 -0.1201445 -0.10456783
0.009567879 -0.118613586 0.07031038
0.108536206 0.018312817 0.11365779
-0.05271246 -0.06858679 0.12891188
-0.074351825 0.038745828 -0.15776056
-0.052630056 -0.008833888 0.21438926
-0.11229326 -0.1246518 -0.0129696755
0.012253202 0.09955006 -0.15523955
0.0848243 0.19201161 -0.29290888
0.07089647 0.066830926 0.031540237
0.1037707 0.047600713 0.08165343
-0.040582117 0.060169347 0.013751015
0.2389048 -0.28937018 -0.16816905
-0.19750367 -0.09998931 -0.13095707
0.016790498 0.055176515 -0.09849141
0.020918826 -0.026977222 0.20981635
-0.038415357 -0.051016465 0.21109271
-0.106136896 -0.0135116875 0.16224001
-0.037422333 0.009093355 -0.090521276
0.08950695 -0.12760185 -0.014919068
0.020649767 0.13706116 0.04614382
0.023219006 0.12620103 -0.17748144
-0.022498824 0.09461385 -0.21125723
-0.12732342 -0.0036370293 0.08565353
0.040167782 0.13258485 0.046092298
0.2962242 -0.39768603 -0.2409725
-0.04079575 0.03864046 -0.16044912
0.18899702 -0.2173067 -0.10195706
-0.050541777 0.033495776 -0.16275436
-0.039604075 0.08475809 0.10404841
0.03828671 0.13462172 0.04758938
0.027117226 0.13711742 0.08640037
0.08402374 -0.05385222 0.05761318
-0.116256215 -0.041213192 0.108120725
0.09760611 -0.004069209 0.0100971265
-0.17447895 -0.107805744 -0.10173804
-0.032804612 0.17394158 0.1151914
0.06435205 0.1723838 -0.20976856
-0.13159226 0.040897496 0.18812954
-0.09866098 -0.08069655 -0.055164434
-0.13203198 0.045415357 0.18237105
-0.11616298 -0.03601616 0.13385142
0.099407256 0.04747358 0.11899232
-0.034390535 -0.021496007 0.21040112
-0.11255216 -0.042847462 0.113269836
-0.19456863 -0.11251884 -0.08166579
0.039798442 0.088041425 0.21230727
0.13516934 -0.18995526 -0.0618627
-0.15570468 -0.06016116 -0.12095755
0.07738638 -0.048944145 0.15035251
-0.039560225 0.121657245 0.13723308
0.048765812 0.0672716 -0.094874814
0.07262156 0.040246405 -0.032429814
-0.12745279 0.03820877 0.09341096
0.23896305 -0.2934662 -0.17837086
-0.11352488 0.033429697 0.21264607
-0.12495589 0.005438008 0.13722722
0.22235785 -0.28584388 -0.17278479
-0.08939245 0.06563392 0.015376583
-0.029900925 -0.059756976 0.16910852
-0.031265214 -0.102381706 0.08219475
-0.03749206 0.13084665 0.056699596
0.10922483 -0.12686794 -0.04102131
0.016818808 -0.034309946 0.1960339
0.043369293 0.18704045 -0.23247878
-0.021102937 -0.06363317 0.16721806
-0.20680071 -0.13152555 -0.08414672
-0.028551498 0.009393184 -0.08320562
-0.04863896 -0.078598075 0.108893245
0.03940125 0.14375597 -0.21622004
-0.13092794 0.11558321 0.14755115
0.10996087 0.030447772 0.09509391
0.045971997 -0.076836966 0.14759086
-0.03176017 -0.104887724 0.018225908
0.059979938 0.03455236 -0.0072928783
0.020253284 0.022300335 -0.08819652
0.07065434 0.027884645 0.21742392
0.0004111334 0.05560483 -0.11316763
-0.06198639 0.014227939 0.2344491
0.029591236 0.19683626 -0.3217739
-0.07668185 0.09852986 0.046300624
-0.04685824 0.016161762 0.002659378
0.06511835 0.017714895 -0.043934066
0.05244228 0.083180815 0.2013751
-0.040695433 0.07578872 0.2252107
0.0053049778 0.074498914 -0.1632641
0.06766183 0.17879963 -0.23349485
-0.07963837 0.02052753 0.2338024
0.0076177777 0.1024601 0.23524599
-0.039850652 -0.12249393 0.036915693
0.020146271 0.16413489 0.1500449
-0.1528321 -0.06436619 -0.10289066
0.0123846615 0.15173022 -0.24907938
-0.082519814 0.083970286 0.040431086
-0.0422334 -0.027218705 -0.051455125
-0.20281166 -0.11662587 -0.083906226
0.039933927 0.13546042 0.10756653
-0.2216855 -0.083616994 -0.13952483
-0.058769733 -0.0058950037 0.011616059
-0.100681394 0.13614322 0.079081
0.08963634 -0.11669041 0.001551263
0.10293599 0.020205973 0.124732524
0.03817812 -0.068091184 0.15805125
-0.06858804 -0.055739556 -0.06624633
-0.04205401 0.17207883 0.102554165
0.014131196 0.13024002 0.06577251
-0.116565935 0.104730956 0.12513646
0.09915055 -0.035461195 0.13773875
-0.047925547 -0.06710161 -0.04073718
-0.029486215 0.05554138 -0.17078736
-0.05131571 0.07125223 -0.17653364
0.07919204 0.03444157 -0.051673513
-0.0537905 -0.07867633 0.08950755
0.05871883 0.1771672 -0.3043111
-0.026228897 -0.09599174 0.10205071
0.045534696 0.026930932 0.21184754
0.059765182 0.031616513 0.20549911
0.028909326 0.15568161 0.14963035
-0.10489589 -0.11952231 -0.027607827
-0.095971815 -0.11496347 -0.025316307
0.10928015 0.03219884 0.09002665
-0.10080951 -0.075200275 -0.044998847
0.037025508 -0.091135725 0.06134776
0.061501943 0.052772265 -0.084173605
0.014656066 -0.08117339 0.030141251
0.03355829 0.08280854 -0.122555256
-0.077808104 0.019208884 0.23274772
0.08951594 -0.08984226 0.10609008
0.08686291 0.059553746 0.19213177
0.1016775 -0.02723406 0.13537672
-0.03971606 -0.062430907 0.0016633165
0.10348412 -0.015264479 0.1345163
0.019936578 0.0700815 0.0076808264
-0.17519581 -0.068136424 -0.117744684
-0.09955435 -0.10434427 -0.009219472
0.05729352 -0.07998359 0.02329046
0.25795764 -0.32358792 -0.1761436
0.19082727 -0.25152704 -0.10450495
-0.12454796 -0.005009658 0.08968769
0.24528661 -0.31314912 -0.19804482
0.039946057 0.10342699 -0.15670541
0.10048183 0.09575265 0.14158638
-0.13588537 -0.11031053 -0.0653764
0.016520398 -0.021234868 -0.039599303
-0.049117252 -0.10163955 -0.0006530024
-0.040626474 -0.052055355 0.17613445
-0.01789533 0.052848283 -0.12571965
-0.02225962 -0.030875979 -0.018696228
-0.060547255 0.048454724 0.24058014
-0.1391735 0.07995796 0.13507399
0.25337324 -0.3265165 -0.17355876
-0.16656877 -0.103648014 -0.09984564
0.012927714 0.113766134 -0.20341595
0.10231309 0.014574993 0.019454125
-0.02527109 -0.022349184 -0.015678994
0.034468673 0.14090967 -0.18526104
0.018238269 0.21638943 -0.3008617
0.007220663 0.022224667 -0.06754147
0.26425824 -0.33759964 -0.18499812
0.009869775 -0.057515293 0.17353123
-0.040023077 -0.07740643 -0.021635445
-0.009885191 0.11011116 0.21100001
0.009372033 0.14173809 -0.23979011
0.02560487 0.20899391 -0.30841285
-0.12717976 -0.028273068 0.11507315
0.15157866 -0.2037114 -0.071683995
-0.014256101 -0.030611422 0.21555659
8.282012e-05 0.028566256 -0.11310058
-0.100960225 0.141513 0.09484731
0.27974048 -0.39144915 -0.23534822
0.015338904 0.1711153 -0.2377639
0.002305398 0.15641493 -0.23153709
0.10302622 -0.10196223 -0.010088221
0.018127158 0.21795246 -0.29460353
-0.06702914 0.014144996 -0.12712727
0.08377124 0.061416015 0.04797619
0.03410527 0.06612142 -0.09654506
-0.059440568 -0.06653403 -0.019535651
-0.065324426 -0.12053076 0.02294478
-0.1444924 -0.0772197 -0.080376536
-0.019647758 0.12613264 0.01941762
0.0767674 0.003812359 -0.017308943
0.030387336 0.15241568 0.1546676
-0.044231955 -0.10695661 0.009901861
0.2915923 -0.37261873 -0.21583655
0.12743038 -0.13708818 -0.042182382
0.13308729 -0.1447461 -0.032430813
0.08779111 0.08579317 0.16524556
0.08314515 0.0846391 0.12567906
-0.0154647175 0.17293173 0.13139057
0.085784376 -0.03683638 0.03887982
0.15133159 -0.19396426 -0.057898857
0.12522991 -0.13432074 -0.040297665
0.1015028 -0.013382839 0.024554718
-0.067825325 -0.12441755 0.016221544
-0.1254594 -0.09539711 -0.0741127
0.026080614 -0.039645605 0.18840393
0.022589777 0.08538119 0.019677667
0.26077375 -0.34203443 -0.21817617
0.022762524 0.029880675 -0.09505003
0.004906002 -0.03549454 0.20140731
0.10253211 0.027159616 0.12347276
0.1262156 0.17415015 -0.29209343
0.29407567 -0.36426303 -0.21524662
-0.08109456 -0.023388466 0.04450621
0.08507232 0.11179437 0.13194147
0.064228974 0.04113127 -0.040741798
0.0005834121 0.13299201 0.060310103
-0.1719286 -0.08381871 -0.096250385
-0.055590436 0.13664442 0.13988353
0.031758115 -0.064795665 0.025436237
-0.021555813 0.056262247 -0.13294955
-0.18423836 -0.113112904 -0.07202421
