# .PCD v0.7 - Point Cloud Data file format
VERSION 0.7
FIELDS x y z
SIZE 4 4 4
TYPE F F F
COUNT 1 1 1
WIDTH 1000
HEIGHT 1
VIEWPOINT 0 0 0 1 0 0 0
POINTS 1000
DATA ascii
-0.13947722 -0.16442116 -0.08386475
0.108105734 -0.069742456 -0.10695682
0.06621037 0.13580996 0.15575252
-0.06717485 -0.023166629 0.20418006
0.045631897 0.1975382 0.42401832
-0.048084635 0.113353126 0.080190144
-0.13208292 -0.16881205 -0.08872906
-0.06502649 0.04820035 0.44671613
-0.015242613 0.10531816 -0.010843335
0.16659307 -0.13166802 -0.1129307
0.09584786 -0.1993567 -0.16255635
0.1076081 0.14898309 0.33417526
0.093257025 0.06828331 0.007976981
-0.09926132 0.08514286 -0.2914917
0.08596541 0.052943647 -0.30988416
-0.068452306 0.12840836 -0.20760581
-0.118654124 0.07822194 -0.25255495
-0.02832371 -0.20950708 -0.21946067
0.10927968 0.019170178 -0.033717696
0.036171276 0.17220816 0.2503058
0.108194746 -0.01573323 0.12638652
-0.08886448 0.03211233 0.24529095
0.10826437 0.060224038 0.06819289
-0.05598164 0.18015465 0.41387358
0.10405134 0.034085732 0.4249995
0.138779 0.07963347 -0.24312486
-0.058868032 -0.23350284 -0.21546982
-0.17530034 -0.056469206 -0.2742016
0.11229892 -0.17617948 -0.11742952
0.18173502 -0.14749362 -0.23922159
-0.0802116 0.0066740094 0.2392213
0.10743842 0.025404185 0.3573213
-0.1050978 -0.16966632 -0.22648056
-0.08481001 0.1135281 0.427424
0.16283324 0.03420232 -0.2890374
-0.08542619 0.08770221 0.40185654
0.114002146 0.0032509416 0.15668188
-0.08887192 0.0789748 0.3265057
0.04566976 0.110301234 0.025871092
-0.15436034 -0.11379299 -0.24605031
0.12737134 0.016396886 -0.28508446
-0.08071802 0.06502664 0.0022594105
0.11451996 0.083220266 0.17685415
0.13255759 -0.13324748 -0.09183277
0.068714574 -0.06643994 -0.25963992
-0.079862006 0.11853623 0.28389972
0.08849265 0.04266614 -0.09663563
-0.04141063 0.17142828 0.31658584
0.108624235 -0.039195303 -0.045371655
0.119139604 -0.19931404 -0.24668019
0.07929314 0.09174788 -0.2898712
-0.16928282 -0.005301963 -0.28742045
0.07634386 -0.09285545 -0.039304342
-0.099074855 0.025329866 0.051444713
0.12729691 -0.19079049 -0.2377116
0.16484098 -0.16199453 -0.2527495
-0.036265638 0.13355301 -0.30088902
-0.12435461 -0.016587663 -0.11109799
0.10511032 0.17316484 0.40193465
-0.0697663 0.10699358 0.13750678
-0.039921496 0.10943795 0.04173687
0.0067155655 -0.25890005 -0.20813046
-0.094137415 0.057831906 0.15965503
-0.08021407 0.0647024 -0.0029259683
0.04701872 0.121202625 0.06843578
-0.0826621 -0.0011902107 0.20060827
-0.08494689 0.09719267 -0.2888879
0.0336773 -0.24026929 -0.23598513
0.0676142 -0.19830264 -0.22615515
-0.08821448 0.08635171 0.34544945
-0.062311575 0.065563075 -0.13442363
-0.051540688 0.08229354 0.45714667
-0.137156 0.06908671 -0.22683215
-0.053220008 -0.016437113 0.27528164
0.18175276 -0.13647734 -0.18952897
0.10311757 -0.021410083 -0.2724413
-0.1826563 -0.025571251 -0.12836437
0.11568582 0.021163177 0.052422818
-0.121732265 0.03328436 -0.29840973
0.05794539 -0.11207084 -0.062213212
-0.12203889 -0.16877307 -0.07315069
0.11182431 -0.010929617 0.09899567
0.0901107 0.083234414 -0.30461875
-0.05927508 0.11448807 0.44929382
-0.07524975 0.08473189 -0.31402898
0.07493054 0.120211154 -0.15379453
-0.15668868 0.03945293 -0.124011785
-0.08105067 -0.004413026 0.20015904
-0.11035519 -0.044501282 -0.2580106
0.10441326 -0.04407959 0.006650574
-0.084817305 -0.04870962 0.041996848
0.054576244 0.14065847 0.15113851
0.06226606 0.10219666 0.025844645
-0.02652765 0.106107056 -0.31945133
-0.08976545 0.07857608 0.18909557
-0.08985843 0.08600907 0.25111845
-0.05962567 0.102593824 0.06949731
-0.08192274 0.10417296 0.22485375
-0.058931287 -0.16532952 -0.22943462
0.15433061 -0.14738192 -0.13951606
-0.046966318 0.033121936 -0.28024137
-0.17695677 0.05307871 -0.1550577
0.096470244 0.062999964 0.0077223317
-0.07902698 0.06391298 -0.015255952
0.051543977 -0.22747989 -0.12919481
0.06953641 -0.09650361 -0.027535625
-0.17180605 0.018747112 -0.118154064
-0.020312874 0.070889704 0.4587844
0.09466458 0.14968494 0.43418536
-0.11071145 0.055142604 -0.12983702
-0.0030751536 0.12521161 0.06057649
0.081269726 -0.084969506 -0.0246016
0.04329062 0.19136235 0.32843778
-0.09436352 -0.192514 -0.11835944
0.10762607 0.05832741 0.05839159
0.058073092 -0.19999988 -0.22534257
0.098830216 -0.05404246 0.012345656
0.019083053 -0.08495918 0.1049897
-0.17392921 -0.038586568 -0.10352814
-0.027714435 -0.09880749 0.029860206
-0.0058338423 -0.0027463573 0.41647488
-0.16909415 -0.15924186 -0.17579119
0.0641795 0.076926894 0.4538593
-0.04741474 0.15148649 -0.17952693
0.07099705 0.013450338 -0.27999112
0.0987612 0.017446155 -0.119254686
-0.17031005 -0.119183585 -0.12270357
0.06211092 -0.03933286 -0.26624855
-0.07769563 -0.20246877 -0.12953581
-0.053142697 0.07301647 -0.08276358
-0.0089959605 0.17681667 0.43146762
0.07517948 -0.08701116 -0.0069371816
-0.18583924 -0.04638852 -0.20875861
-0.066908374 -0.06592065 0.061720602
-0.06686058 0.064223714 -0.07663854
0.008404576 0.17705055 0.4307088
-0.09094645 0.07798594 0.23900096
-0.09587294 0.047671743 0.10759301
-0.04227758 0.13187976 0.14483605
-0.08834039 0.09325569 0.31703866
-0.07070535 -0.13403745 -0.2368976
-0.19111885 0.03363556 -0.14076921
-0.11270294 -0.088450655 -0.24677058
-0.08496145 -0.043551523 0.057457417
0.08453809 0.1850879 0.3756135
0.1022068 0.07420601 0.07204609
-0.017023357 -0.22238335 -0.10989132
-0.017997961 -0.0043202625 0.3962985
0.045170933 -0.21775076 -0.24215737
-0.10458085 -0.061653584 -0.25389197
0.020439884 0.08875272 0.452618
-0.100315884 -0.02955169 -0.016320325
-0.15335277 -0.133744 -0.25548726
-0.053093832 0.11996517 0.123990595
0.1457106 -0.16559875 -0.19058806
0.0043895715 0.12628976 0.0630314
-0.0993235 0.06359148 -0.30770087
-0.04026565 0.07829932 -0.08924394
-0.0059174197 -0.082852624 0.11051934
-0.08030717 0.08327396 0.45200792
0.08381172 0.19832374 0.41993544
-0.0956569 0.047832504 0.1262765
0.04037923 0.11381312 0.033155452
0.079042934 0.18593815 0.36326742
0.026922677 0.1776377 0.2663985
-0.069710724 0.00052121497 0.27327475
-0.17773262 -0.11524335 -0.2178548
0.14005877 -0.12381015 -0.24795611
0.0772904 -0.0013300773 -0.27649507
0.0029395574 -0.24717817 -0.17116554
-0.08782393 0.06559798 0.07040816
-0.17772783 -0.052079346 -0.10706765
-0.13207234 0.09210818 -0.14125805
-0.17359644 -0.08575009 -0.10928622
-0.118323565 -0.19984907 -0.18235669
-0.08847949 0.05829417 0.3073367
0.17459294 -0.096874304 -0.10274632
0.09279343 -0.21673091 -0.22997344
0.056865584 0.1350275 0.13502489
0.117295966 0.13203229 0.33524832
0.01576562 0.13923381 0.11228818
-0.17560296 -0.100770205 -0.16320351
-0.016575625 0.14116572 -0.2551121
0.09557654 0.102321066 -0.22572948
0.06427533 0.077796035 -0.0565847
-0.016494593 -0.22779113 -0.12906618
-0.081106536 0.12917805 0.37198904
-0.055009272 -0.044457354 0.17217703
0.049165774 0.18796138 0.3222258
-0.02342556 0.14706759 -0.24385767
0.11355829 -0.13155288 -0.24492864
0.06929368 -0.05173666 0.17045642
0.11998913 0.100821204 -0.19364433
0.025799744 0.14351815 -0.18110296
0.086982265 0.08327751 0.033032484
0.10933165 -0.012701357 -0.10203314
-0.031794567 0.109167665 -0.31803125
0.023995938 0.094170436 -0.05732192
0.07030808 0.17075908 0.429818
-0.006728588 0.12026018 0.041888
0.106180996 0.08217581 0.11725054
-0.09795168 0.03281578 0.03282903
0.030864704 0.050727908 -0.28783312
0.12262558 0.055385593 0.21943398
0.08755982 0.1482793 0.25515282
0.09904848 -0.1882801 -0.124115214
-0.04158243 0.0050344123 0.38292047
0.1516088 -0.1396384 -0.094687276
0.17087087 -0.0026840582 -0.24264266
0.025944384 -0.23017222 -0.07265967
0.12117639 -0.16183777 -0.084786706
0.12885462 0.024903337 -0.30705422
-0.06799351 0.018571548 0.33864847
0.14164397 -0.16896068 -0.2584053
-0.102523774 -0.030702496 -0.2618249
-0.05592999 0.14330724 -0.18564555
0.03595934 -0.2512505 -0.18014315
0.12559241 0.1207045 0.36909485
-0.12523822 0.08018792 -0.21983773
-0.07938707 0.119343914 0.44886932
-0.025407199 -0.17150113 -0.075787336
0.07198565 0.044534035 0.46176156
-0.092805415 0.08744682 -0.3044542
0.14265613 0.08382943 -0.2215366
-0.16653472 -0.13007566 -0.08989377
-0.18939708 0.028330266 -0.22180271
-0.08641328 0.10685812 0.3490161
-0.17833434 -0.11316856 -0.25970143
-0.080320604 0.085383885 0.45652536
-0.06913895 -0.005057278 -0.2696694
-0.044606194 0.11020147 0.44979104
0.12299255 0.049762234 0.2982279
0.020895433 0.18053216 0.27497482
0.118423924 0.02791074 -0.30739766
-0.092498526 -0.047181018 0.0016928017
0.07471166 -0.21385615 -0.1515293
-0.1765117 0.030048694 -0.260686
-0.1787209 -0.12743333 -0.25352493
0.07832228 0.18089786 0.34360743
0.046652682 0.010789011 0.4713355
0.08825139 0.07678583 0.45292774
0.1144115 0.012631785 0.020385662
-0.01936488 0.20599273 0.41307396
-0.0797533 -0.08323202 -0.04405411
-0.070243865 0.14295365 0.32266542
-0.072283156 -0.20928456 -0.14640881
-0.013734598 -0.20737083 -0.22058813
0.10590136 0.009572876 0.2880781
-0.09580267 0.047706034 0.11382073
-0.081360005 0.082801335 0.43943143
0.075657584 0.003879854 0.3969262
-0.086371765 0.037688047 0.28490984
-0.116371945 0.05674423 -0.30528003
-0.08849031 -0.2104855 -0.23863153
-0.023385083 -0.1624737 -0.07815757
0.08549618 -0.2231852 -0.24223366
-0.17695427 -0.13048005 -0.23452519
0.021173945 0.033389032 0.46662807
-0.10433003 0.08677284 -0.26578245
0.032500427 -0.14361133 -0.08518689
-0.03937681 -0.10206618 0.0010490679
0.050174654 0.17764047 0.28449485
-0.0772487 0.13954473 0.37476203
0.06497853 -0.048901577 0.19558047
0.0873714 0.07526271 0.0075905374
0.17451096 -0.08507537 -0.2809981
0.022451952 -0.1781102 -0.22946265
-0.031521183 0.171539 0.28917757
0.14524011 -0.0023342653 -0.30080557
-0.04094997 0.12580623 0.44568655
0.12365039 0.12169711 0.35087442
0.120077014 0.047452033 0.3544896
-0.090048805 -0.19661199 -0.23328565
-0.03223218 0.18515548 0.35021397
0.09959748 0.12870067 0.23227885
0.06821408 0.06706191 -0.29985446
0.006096099 0.116879165 0.025135681
-0.17039539 -0.10344951 -0.09629914
-0.07226176 0.021210244 0.32524157
0.1261289 0.074243285 0.30472133
0.106368616 -0.1769399 -0.239691
-0.080131665 0.10654997 0.4521436
0.021358998 0.13166806 -0.15454777
-0.06418232 0.0019134199 0.2994399
-0.1173352 0.08587906 -0.22274002
-0.17595889 0.03537651 -0.23862553
0.07629119 0.053054746 -0.10806569
0.13915695 -0.15212275 -0.105994284
0.12645999 0.016014246 -0.29142544
-0.07370974 0.10179788 0.13893352
-0.07065733 -0.18542188 -0.22386771
-0.15128376 -0.021146305 -0.2622899
0.042336565 0.19094245 0.32586524
0.0044658505 0.10120199 -0.03689594
0.08941866 -0.067800276 0.01266934
0.017557414 -0.0007927369 0.43961984
0.07232931 -0.06317811 0.111148104
0.024924861 0.14969707 0.43698165
-0.10128872 -0.04955702 -0.07115797
0.02489574 0.104151584 -0.14771262
0.034508534 -0.0070404243 0.4114855
0.14539783 -0.11485992 -0.2515304
0.08107481 -0.0944378 -0.25303605
0.07462889 0.1289437 0.15138416
0.11800804 0.018346068 0.17456587
0.049926106 0.103712864 -0.29079401
-0.028277965 -0.028462213 -0.26537502
0.039486498 -0.041802417 0.26530704
-0.035232823 -0.0048882836 0.36339596
-0.07832574 0.1264637 -0.18064857
0.07324816 0.134836 0.16816777
0.02418488 -0.26256293 -0.19512512
-0.0378531 0.13996279 -0.15427324
-0.0065503456 0.15599687 0.18832713
-0.028312558 0.114183195 -0.31700006
-0.04923452 0.14483243 0.22227675
-0.02810086 -0.22585852 -0.13976026
-0.08258496 -0.035528272 0.094712965
-0.06963558 0.012468565 -0.27409336
-0.033544093 0.07339379 -0.121980414
0.14028643 0.0019489732 -0.3016914
-0.08704047 -0.016209753 0.12762482
0.10532013 -0.0010799778 -0.27768472
0.17651644 -0.040709797 -0.1170662
-0.088330284 -0.06571787 -0.029228652
-0.03960808 0.13986006 -0.2602994
-0.07554567 0.045314763 0.38227132
-0.019163024 -0.25179607 -0.22220598
-0.038529966 0.1392627 -0.26690316
0.02580181 0.09968905 -0.03507083
0.17809363 -0.064507514 -0.252575
-0.10480057 -0.011920198 -0.07881641
-0.11634508 0.062433463 -0.3067229
-0.18885459 -0.025841022 -0.21277373
0.1419952 0.090634696 -0.19735283
-0.015973264 -0.008612163 0.38254765
-0.047841888 -0.027503537 0.2515265
-0.07360141 0.09522741 0.45475274
0.11059789 -0.006234035 0.15375204
0.08235007 0.11925858 -0.18355292
0.060022846 0.1327353 -0.1681862
0.08882331 -0.0032665888 0.32159492
0.040156778 0.16028668 0.20790583
-0.13658448 0.06101844 -0.26534414
0.03099637 0.067905545 -0.29219463
-0.0713881 -0.09175724 -0.04160223
0.0947346 0.18244997 0.39481366
-0.02580822 -0.104612514 -0.24616197
-0.09560756 -0.062224634 -0.062620975
-0.15060358 -0.1963494 -0.22950827
0.12607005 -0.10126561 -0.099683695
0.030000389 -0.101572916 0.029633535
-0.08747261 -0.03105662 0.08228783
-0.091415636 0.0420508 -0.023997935
0.17153542 0.04535046 -0.14909926
0.10303123 -0.06438641 -0.103377126
0.118673444 0.025939649 0.21836239
0.16506584 0.077743955 -0.18087624
-0.053151906 0.13387358 0.1860684
-0.061350983 0.16892329 0.43557197
0.11475325 0.10846066 -0.1735008
-0.023327459 -0.10630774 0.0068218326
-0.0667922 -0.09106256 -0.023875823
0.044870514 0.0074709067 0.4620428
0.011804518 0.08250083 -0.10878429
-0.027498193 0.14900649 0.18676858
0.048873298 0.0076697515 -0.27763635
0.016107298 0.08793418 -0.31851014
0.042619802 0.16791369 0.23938854
0.08981273 0.088721804 -0.28483498
-0.17893623 -0.051164486 -0.12207717
0.14850962 0.016051171 -0.13033497
0.16981417 -0.03970669 -0.117051296
0.09826663 -0.07304651 -0.09006198
0.05987042 0.19582905 0.36386675
-0.11126831 -0.14066152 -0.23358828
-0.008703407 -0.24564813 -0.1832816
0.08430199 -0.027360713 0.22973147
0.1828995 -0.047483414 -0.115604825
-0.10280511 -0.021789907 -0.030641142
-0.081895605 0.12588432 0.36590114
0.07318857 0.080349155 -0.022788897
0.17961633 -0.08451139 -0.26901948
-0.14045474 -0.16206115 -0.24882378
-0.07132344 -0.20142345 -0.11587801
0.08432159 0.073208496 -0.010626174
0.04031303 0.13127986 0.098857574
-0.007851794 0.019389056 0.4713445
-0.16197245 -0.16817585 -0.13230428
-0.09360659 -0.1968159 -0.13309614
-0.043640967 0.09502421 -0.012539185
-0.08093063 0.13303691 0.398441
-0.14481403 -0.054370668 -0.2541242
0.038845133 0.14232647 0.1388014
-0.050767474 0.18660331 0.42060578
0.11103799 -0.14395858 -0.24168117
0.12304706 0.06285919 0.4019572
-0.07526186 0.016259726 0.2944627
0.04680677 0.18063925 0.29200545
-0.15754382 0.0059330235 -0.29074073
-0.02682203 0.12061841 0.06559037
0.11428961 0.0736239 0.14787999
0.0962619 -0.0072901268 0.26971838
-0.1281273 0.045505743 -0.30195767
-0.0053412234 -0.23086938 -0.123362765
0.0075702425 0.09628966 -0.057223048
-0.03869432 -0.21860534 -0.12923676
0.036430374 -0.08444054 0.09345091
0.14706184 -0.04216145 -0.26894397
-0.055414837 -0.13204587 -0.08458828
0.00041783325 0.1907015 0.42756864
0.11424171 0.06887729 0.45388994
0.12628146 0.09377172 -0.20998412
-0.13498817 -0.03122807 -0.26038688
0.16388011 -0.15700005 -0.25602505
0.10643326 0.025406748 -0.04376777
-0.09460676 0.020230059 0.15615298
-0.08737898 0.099767365 0.33605272
-0.07163465 -0.19840197 -0.10518895
-0.016757755 -0.057104 -0.2585739
0.0041350145 0.12925498 0.07490349
-0.08018105 0.015681924 0.2658217
-0.18224107 -0.09589384 -0.26392522
0.097801596 0.05306294 -0.01669894
0.03207462 0.19140875 0.4261172
0.07355284 -0.054752078 -0.26279828
-0.09386015 0.05767085 0.1268673
-0.07459956 0.07219795 -0.004462519
0.17353544 -0.10414314 -0.27527884
0.18877825 -0.12752414 -0.2174665
0.112480804 0.034601524 0.035116367
-0.17488182 -0.11835752 -0.18410762
0.05697134 0.09310819 -0.017368186
0.045461744 0.10551977 0.007636044
0.011858943 -0.14277512 -0.23799738
0.08001814 -0.031533934 0.22809434
0.02653401 0.15266335 0.43616533
-0.1703042 0.048225574 -0.20106044
-0.09095672 0.07049281 0.27832556
-0.0614164 -0.07665962 0.041544817
-0.16640241 -0.13324936 -0.09362728
0.043701842 0.191667 0.42558438
-0.07974156 0.08702305 0.10659714
0.12817228 0.08100069 0.41542757
-0.11190956 -0.20811757 -0.20310357
-0.19249953 0.02791655 -0.16949569
0.063776724 0.12981465 -0.1731892
0.07143979 -0.039422337 0.2184421
-0.025613217 0.0931179 -0.05045292
0.05841895 0.106927924 -0.26597187
0.117016956 0.13883097 0.35273257
-0.19161838 0.020658106 -0.1703754
-0.036166895 0.098405845 -0.3190662
0.12604548 0.06774922 0.35039794
-0.036651358 -0.038118638 0.23949015
0.012041246 -0.1101482 -0.24627896
0.02422209 -0.051937852 -0.2615302
0.025977535 0.10713522 -0.31583145
-0.058979083 0.15908574 0.32927895
-0.023525596 -0.004424504 0.38679478
0.07449754 0.14235446 0.19797748
0.12165059 -0.19028783 -0.21500003
-0.17152752 -0.14353834 -0.1825588
-0.0101634 -0.21364273 -0.067043796
0.076236576 0.060386352 -0.08366871
0.17279688 0.038944535 -0.14311844
0.16513924 0.033588383 -0.2578979
-0.09201853 -0.14732806 -0.07924205
-0.07540506 0.15112032 0.42029795
-0.07447925 0.12503801 0.26183397
-0.04783063 0.10649548 -0.31672442
-0.100026555 -0.00023882912 0.041755024
-0.07481274 0.117605545 -0.14711903
0.11947254 0.13077842 0.34663886
-0.17362322 -0.057479423 -0.2740134
0.07958642 0.13755697 0.43786556
-0.067357704 0.13338165 0.2540027
0.034351014 -0.016818056 -0.27084267
0.015580736 -0.11991959 -0.033370692
0.11328254 0.07487964 0.14453131
-0.03747328 -0.06550015 0.13803218
-0.14497276 -0.09345061 -0.09077801
0.099872045 -0.21117179 -0.24602263
0.16781615 -0.12910827 -0.10579439
-0.10006789 -0.0027619142 0.038920216
0.08919949 0.12154008 -0.15470463
-0.08604209 0.017921485 0.23190162
-0.07262808 -0.2182749 -0.18016912
-0.054232445 -0.097297974 -0.010686099
-0.032791376 0.14343596 -0.1553575
-0.08476429 0.09504163 0.4208602
-0.15519023 -0.14176787 -0.25337854
0.083348766 -0.013304065 0.29868305
-0.1507205 -0.1754218 -0.24394166
0.021663157 -0.103983745 -0.24822952
0.009249407 0.13261981 0.087042496
-0.029654315 -0.011012093 0.35139018
-0.15412197 0.054470915 -0.12792315
0.052698497 -0.07473365 0.10969409
-0.02335603 0.14536574 0.16398855
0.17237101 0.001264475 -0.21519338
0.17056465 0.008031311 -0.2279956
-0.00029667388 0.080567695 0.45552716
0.008318347 0.09988092 -0.3212276
-0.041470423 -0.06923214 0.11700077
-0.118873194 -0.084684394 -0.24747764
-0.04635945 -0.1136091 -0.24305505
-0.05369029 -0.2278255 -0.2356317
0.011987201 -0.12573443 -0.24232535
0.09065861 -0.04769244 0.10561604
-0.080057316 0.048535988 0.36043584
0.11860671 0.045374572 0.35911536
0.109344035 0.08934987 0.15874396
-0.07449567 0.039635964 0.3717167
0.06013366 0.12670141 -0.19030102
0.027850635 -0.081109665 0.11575492
-0.046697926 0.07557659 -0.08927341
-0.027210247 0.07849591 -0.108838
-0.029254394 0.13067226 0.112425916
0.17756939 5.73632e-05 -0.14626136
0.03956374 -0.2357702 -0.12327533
0.06743181 0.16018233 0.24681044
-0.17673275 0.02464082 -0.2843141
-0.0010610962 -0.25838926 -0.2184787
0.04126831 -0.11471611 -0.24629438
-0.19449091 -0.011856095 -0.2656308
0.038445745 0.20574991 0.3809726
0.081825614 -0.15397575 -0.08453865
-0.0057623824 -0.121652566 -0.03916802
0.12328818 0.09973975 0.29714257
-0.10478946 0.05334289 -0.12961908
-0.09956236 -0.1576224 -0.076328464
-0.13664289 -0.1630435 -0.24872819
-0.046925116 0.13662887 0.17936718
0.163506 0.039739877 -0.26990128
0.10660308 0.014987427 -0.07146302
0.01967216 -0.15858145 -0.08087462
-0.014406145 0.08484077 -0.09569959
-0.032199584 -0.06569513 -0.2557757
-0.05401131 -0.16983879 -0.07506043
-0.08786191 0.09347245 0.3581409
-0.09362859 0.11437059 -0.17987396
0.122755386 0.04992686 0.23561952
-0.08312127 -0.10759876 -0.089675315
-0.09366821 0.027998738 -0.07911013
0.09481729 -0.057403516 0.02731633
0.1305764 0.12643227 0.4346887
-0.17180368 -0.11689576 -0.1392295
0.009494287 0.13578776 0.44112897
-0.018457744 0.16607387 0.43457103
-0.18880813 -0.0030134935 -0.17357206
0.025804082 -0.14789273 -0.08383101
0.12203042 0.043738365 0.23552743
-0.07181962 -0.20798314 -0.23674886
0.0027419035 0.11394227 0.014266608
-0.047783148 0.097019374 0.0073284325
0.17895418 -0.06498464 -0.24127889
0.038112164 0.07851419 -0.10230586
-0.18899076 0.016945487 -0.14094903
0.16834131 -0.15985069 -0.25214702
-0.1380592 0.06130637 -0.2587056
0.036889456 0.10403437 -0.31031227
-0.033724327 0.1569732 0.43749213
0.013099287 0.15135193 0.43703857
-0.040037498 -0.117478214 -0.05642311
0.006961998 0.16578463 0.2196801
0.07952968 0.1718599 0.3153294
-0.105539754 0.048661094 -0.29926348
-0.016237114 -0.04784779 0.23480424
-0.06511944 0.14750521 0.30967715
-0.08288293 0.11005999 0.26932737
-0.08475101 -0.11456427 -0.08784338
-0.1312013 0.0578671 -0.29906285
-0.05432838 -0.044084463 0.17538033
0.12281089 0.049934622 0.3042887
-0.022487069 -0.15425345 -0.23370767
-0.04526555 -0.24186654 -0.22552535
0.015281501 0.15519135 0.1754428
0.11119915 0.17125043 0.4223069
-0.16917522 -0.15938132 -0.17715183
0.052398514 0.20450972 0.388168
0.04445106 0.10771824 -0.14940214
0.13915406 -0.062272858 -0.11009742
-0.07774335 -0.15381883 -0.2315977
0.16430041 -0.15131338 -0.19336185
-0.047640156 0.18321475 0.39090502
0.1189815 0.030904932 0.25026634
0.012193597 -0.10715234 0.018305013
0.006855461 -0.1735971 -0.07655187
-0.18175638 -0.063135125 -0.18184191
0.022501482 -0.045805056 0.26007077
0.03792335 0.09674303 -0.3216201
-0.10103463 -0.20690283 -0.1817946
-0.018745618 0.030322833 0.4690092
-0.051931452 -0.14412904 -0.081663534
0.1293472 0.0014901747 -0.12587349
-0.06477442 0.035338107 0.40763408
0.15152152 -0.14591703 -0.12272997
-0.13788222 0.06542711 -0.13135363
0.06126826 -0.18202542 -0.07659984
0.07172519 -0.03801483 0.22380953
0.16739221 -0.04441101 -0.29102448
-0.15427478 -0.17799199 -0.15667534
0.17968214 -0.015347779 -0.1444586
-0.007567878 0.12984382 -0.28306055
0.12306598 0.026462479 -0.1319538
-0.029193882 -0.21671788 -0.10765795
-0.03780014 -0.10129383 0.006792303
0.15079139 0.0893582 -0.14901738
0.09242057 0.18622783 0.4015853
0.06289129 0.1897589 0.34578747
-0.13700588 -0.19674934 -0.19942275
-0.037509944 -0.034493152 0.25112894
-0.059554607 0.0839653 -0.31446487
0.00599297 -0.16069382 -0.2332176
0.056254353 -0.23985744 -0.20215854
-0.18868336 0.015261999 -0.13965894
-0.008220525 -0.096191384 0.05782087
-0.17977597 -0.053725906 -0.2747181
0.16960461 0.029386105 -0.20356515
-0.08281917 -0.15550926 -0.0775372
0.010300395 -0.07838961 0.13331573
0.13917896 0.10325129 -0.15510172
0.07724178 -0.0070380424 -0.27504662
-0.010174692 0.13973553 -0.25056633
-0.015887965 -0.2315084 -0.14195782
-0.1822239 -0.08370075 -0.22431332
-0.0015504091 -0.10678418 0.02044555
0.15129365 -0.12239354 -0.27060145
0.11809509 0.059086695 0.14998502
-0.035558876 -0.095314294 0.032772522
-0.06287411 -0.017858699 0.23795496
-0.11297718 -0.10998768 -0.24129817
-0.034928773 0.08872996 -0.05469786
0.06442802 -0.13775033 -0.24138321
0.11997083 0.064590834 0.45375362
0.098361276 0.06876622 0.45455503
-0.049140476 -0.10100045 -0.013164954
-0.006133489 0.20024098 0.4254129
0.16968067 -0.13009064 -0.11698137
-0.1645779 -0.17613846 -0.23552307
0.12768915 -0.013949111 -0.121891186
0.07039113 -0.09598717 -0.027761899
0.15783946 -0.16148253 -0.2159045
0.09836333 0.04483745 -0.30378735
-0.066420555 -0.17005889 -0.074506305
-0.111622766 -0.1281864 -0.08330971
0.10120459 -0.016469598 0.18940616
-0.042436868 0.13616695 0.16419752
-0.0013948558 -0.030378582 0.31544203
0.045014895 -0.2401159 -0.23591694
-0.104131065 -0.005424938 -0.08743909
0.11945951 0.04594335 0.14694929
-0.088096455 -0.012994373 0.12954049
0.011672785 -0.0015180219 0.4337231
0.17535236 -0.01161639 -0.19709003
-0.078272894 -0.043662515 -0.25951153
0.09948634 0.09086412 0.11050084
0.17019534 -0.0034052283 -0.25314552
-0.053677175 0.1320033 -0.24485847
-0.076266736 0.07770147 0.035072897
-0.023100443 -0.0020759723 -0.27227432
-0.062160872 -0.221776 -0.1770214
-0.08915204 -0.04323288 0.03598041
0.19008741 -0.10920292 -0.16729374
0.05370149 -0.09462708 0.023826165
-0.010191526 0.18537068 0.31250796
0.02697527 0.1371739 -0.20272195
0.08126695 -0.13314234 -0.08979981
0.16421989 0.09127165 -0.16077776
-0.114176355 0.070180625 -0.30507958
-0.067291476 0.10456435 0.11284116
-0.11098782 0.08951094 -0.22931404
0.055117194 0.12995806 -0.18600635
0.08463125 -0.05292746 0.10939703
0.15232867 0.08314574 -0.20925073
-0.09647292 -0.1635228 -0.0749569
-0.077285 0.116695344 0.24442223
0.03994772 -0.029015612 0.31730488
0.029765975 -0.091827735 -0.25163698
0.0134123275 0.08840294 -0.14325781
-0.10597183 -0.19993404 -0.16362722
0.11809777 0.16204461 0.42847446
0.10013587 -0.11892912 -0.0941626
0.045528773 -0.023762623 0.33323535
0.14968759 0.08501243 -0.20638847
-0.106228456 -0.027440265 -0.10308933
0.0023243574 0.15036538 -0.19199227
0.15628521 -0.161575 -0.25735664
0.14485918 -0.14015378 -0.09057562
0.08438548 -0.19984812 -0.12328089
-0.04766098 -0.1078633 -0.035466436
-0.12236921 0.09823869 -0.14029828
-0.056712065 -0.103481926 -0.039253827
0.10032012 0.054788224 0.0015174528
-0.019837396 -0.020847477 0.33204243
-0.032713924 -0.004201764 0.37057143
0.004498653 0.204745 0.37720397
0.075049214 -0.019694254 0.2948155
0.0031856073 0.11428804 0.015535197
-0.16382685 0.051987752 -0.20751797
0.1780225 -0.0066384384 -0.15183958
-0.090109244 0.040020768 -0.050288744
-0.07031618 0.060388017 0.45808247
0.013127822 -0.011392422 -0.27136743
-0.07176499 -0.1957518 -0.095594175
-0.14306906 -0.03107517 -0.10667256
0.09554611 0.03154922 0.4534991
0.082105346 0.092367895 0.449224
0.024600808 -0.06014725 0.20243832
-0.045015197 -0.23417933 -0.19668476
-0.09917776 0.08229622 -0.3046549
0.11105806 -0.026324978 -0.028931057
-0.00037708544 -0.009077568 0.39820173
-0.14376694 0.06542715 -0.21943101
0.06256008 -0.22862409 -0.17424686
0.057261795 -0.11962347 -0.092263706
-0.089106604 0.08584598 0.32665318
-0.11636176 -0.068450846 -0.25169644
0.03375289 0.09767475 -0.035047863
-0.06664595 -0.21804462 -0.17012109
0.081206664 0.046094913 0.4609942
-0.15585881 -0.17367153 -0.14315704
0.09625685 -0.060819976 -6.778905e-05
-0.041238982 0.093862355 -0.021740727
-0.079009734 0.07788426 -0.3121411
0.06439943 0.19504873 0.42389518
0.18267454 -0.079428226 -0.21690601
-0.022256367 0.11785253 0.047646474
0.11697295 -0.17522688 -0.1300413
-0.09509841 -0.21356012 -0.19727921
-0.031612884 0.18094522 0.3298469
0.11168986 -0.045637902 -0.26664063
-0.10420637 0.09367248 -0.23506704
-0.03949225 0.07064375 -0.12298102
0.112292096 0.040982004 0.4019904
-0.17595537 -0.09328862 -0.1549332
-0.116957955 0.07958301 -0.2525453
0.13609381 -0.11410673 -0.25025752
-0.109532125 -0.13683857 -0.08119937
0.099751815 0.17532317 0.38928032
0.07657808 -0.2148483 -0.16276845
0.039594527 0.18889989 0.31653464
-0.1283455 0.090552285 -0.16177608
-0.061225355 -0.07184558 0.058934376
-0.12795593 -0.049949292 -0.2559212
0.106611885 0.16039515 0.4309877
-0.002022826 0.0485222 0.46372187
-0.09760114 0.029317923 -0.0043014637
-0.09446873 -0.1955288 -0.12966467
0.16334844 0.007931978 -0.2998069
0.12965862 -0.15628457 -0.09040917
-0.05835703 0.13746312 0.2259667
-0.18923941 -0.032805223 -0.23102891
-0.040158253 -0.008526981 -0.26995283
-0.15779558 -0.15853691 -0.24902098
-0.12549758 -0.18208034 -0.24434792
-0.05684117 0.09458178 0.023098681
-0.10646949 -0.12347133 -0.08471175
-0.07683893 0.09589297 0.13105936
0.11673405 0.008783089 0.12053209
-0.18662013 0.0026314498 -0.13343596
0.115543716 -0.08657918 -0.25641346
-0.11123076 0.09141144 -0.21985506
-0.08483066 0.10992145 -0.23181434
-0.085241444 0.11483374 -0.20814364
-0.15214977 -0.07172585 -0.24942817
-0.003924911 -0.095191315 0.06394228
-0.042372737 0.17965207 0.35564172
0.09387114 0.16356514 0.3279942
-0.14503211 0.0586253 -0.24557592
0.1141701 0.11847561 0.27506182
0.0077897552 0.024759501 0.46935418
0.10466105 0.053412084 0.02396788
-0.101443976 -0.03045088 -0.03065771
0.14456162 -0.17934445 -0.24851276
-0.18220972 -0.07690232 -0.21220352
0.1199317 0.031556044 0.1713657
0.16430621 0.040326346 -0.25780323
-0.06751734 -0.085009135 -0.004702166
-0.08740274 0.061397 0.041626666
-0.09115181 0.06858387 0.2729304
-0.070768714 -0.19975738 -0.10886862
-0.018812086 0.16525868 -0.16956007
-0.10097657 0.015847381 -0.024017535
0.092725396 0.06602426 -0.3160314
0.1226141 0.10915479 0.31143427
-0.1746405 -0.08503473 -0.122389026
0.056626566 0.08576278 -0.31958747
0.108166486 -0.043187905 -0.065607525
0.10787181 -0.04337289 -0.059502292
0.10410245 0.10292067 0.44566506
0.11015515 -0.001870991 0.18368216
-0.13296363 -0.16276586 -0.24894567
0.17601004 -0.007013534 -0.18000211
-0.041845642 0.120426364 0.09310067
0.0080712605 0.18171065 0.28282782
0.0076399483 0.0010891636 0.44166496
-0.012473975 -0.054192066 -0.25948456
0.042346854 0.125679 0.08004715
0.06630981 -0.10123388 -0.038936283
0.038105737 -0.08002707 0.10987008
0.11227886 -0.20250891 -0.2362737
0.020180099 0.06100209 0.4596655
-0.17815971 -0.069069475 -0.14278646
-0.038903605 -0.23239636 -0.1806528
0.17620601 0.013783673 -0.14076477
0.109783776 -0.021139951 -0.27277705
0.11004734 -0.027714223 -0.09591641
-0.03930289 0.1550479 0.23822993
0.012872789 0.19015108 0.4272078
0.120014824 0.04626387 0.3469117
0.18028867 -0.04006464 -0.1796318
0.053883772 -0.0010038903 -0.27563792
-0.08188104 0.082539625 0.43314445
0.13017678 0.068243496 -0.29866517
0.07171537 -0.0068583274 0.36113992
-0.15941921 -0.033008292 -0.10552606
0.17312217 -0.010405993 -0.22545572
-0.08300437 -0.19262598 -0.10131705
0.15001118 0.009280907 -0.3039429
-0.007850072 -0.06786568 0.16735083
-0.17297752 -0.13833076 -0.19355398
-0.16261627 0.03879904 -0.27147183
-0.15329191 -0.18000436 -0.23935312
0.102423005 -0.04300646 0.035143822
-0.046961617 0.188104 0.41061094
-0.01804753 -0.034281384 0.28365973
0.08910748 -0.20850916 -0.17949536
-0.09244647 0.04147094 0.22553386
0.10150255 0.10781927 0.17395605
-0.035353135 -0.027285744 0.28143123
0.08021579 0.05378288 -0.09105038
0.11439186 0.005630298 0.16573362
-0.051417097 -0.114851765 -0.06793803
-0.07757517 0.13207951 0.3357065
-0.012984566 0.0955788 0.4522291
0.041368112 -0.09977577 0.024094146
0.16471785 -0.023528729 -0.2962125
0.055219706 0.12791446 0.105980344
-0.0014600174 -0.08227768 -0.2528049
-0.022814427 0.11162426 0.022653172
-0.00641851 -0.21590713 -0.06965669
-0.07590865 0.13876337 0.35522974
-0.059266612 0.1783704 0.4246246
0.058711246 0.03546108 -0.28507978
-0.067560285 0.103089646 0.10719136
-0.019006021 0.14286539 0.14699486
0.028771164 -0.12004516 -0.044918522
-0.02931305 0.13217607 0.11888805
0.17892201 -0.013577229 -0.15174663
-0.00028428258 -0.17237678 -0.07657462
-0.09955423 0.022704706 0.035113756
0.09547198 -0.027244668 -0.27065367
-0.09516059 -0.04910363 -0.022099223
0.17004682 -0.1592958 -0.25021747
-0.15440328 -0.17136358 -0.13239177
0.10020246 0.012104731 0.3408991
0.014530094 -0.026762987 -0.26752475
-0.11750391 -0.19314799 -0.24186264
0.0949229 -0.060210664 -0.2622719
0.14944296 -0.11124144 -0.0980922
-0.062160287 0.1440434 -0.15976746
-0.052822463 0.17061397 0.3554272
0.05215704 0.18801853 0.42617014
-0.08161097 0.073260255 0.4156139
0.10570407 0.102315135 -0.2101415
-0.03665227 0.09810073 -0.012016954
-0.11704201 0.04787333 -0.12773953
0.060863204 0.05105846 0.46055394
-0.10697094 -0.1895659 -0.12684044
-0.04870479 0.13034855 -0.27033457
-0.06377205 -0.09500161 -0.029248528
0.08880735 -0.07780068 -0.03359645
0.11008856 -0.19324581 -0.1865064
0.08602666 -0.19089028 -0.08876579
-0.010204844 -0.10399732 0.02664655
0.09184129 0.15838644 0.3030837
-0.089469776 -0.05235514 0.0069146757
-0.0031976658 0.17689839 0.43121335
0.13221794 0.07667541 -0.26418623
0.010714187 0.14670578 -0.19257586
0.11067163 0.10681468 0.21771818
-0.081495725 -0.12456712 -0.23886536
-0.001035931 -0.21560585 -0.21901073
0.0077460376 -0.21354856 -0.21988446
0.009014991 -0.07121767 0.16219118
0.039659612 0.18087952 0.2856126
0.15430358 -0.1313432 -0.26845318
-0.18100616 -0.038465723 -0.27853912
0.12442313 -0.057728656 -0.11065777
0.08865883 -0.041343544 0.14529084
0.047152236 -0.109130114 -0.2479469
-0.17148422 -0.09487794 -0.09623798
-0.07737451 -0.21503285 -0.17548117
-0.05417508 -0.17676577 -0.073296964
-0.13514073 0.017611071 -0.29379448
0.108197056 0.11130902 0.21893378
-0.19297142 -0.00472741 -0.23252161
-0.033466537 -0.22836703 -0.15730561
-0.060715575 0.014310652 0.35390526
-0.030838858 0.17107445 0.28599805
0.043160174 0.09152751 -0.32050827
-0.01772303 0.16582642 -0.16578276
-0.09699402 -0.04934803 -0.03541402
0.08308138 -0.023433944 0.25343072
-0.03036951 -0.19712614 -0.069089755
-0.038050752 -0.05087779 0.19032669
0.12299533 -0.17041951 -0.13013081
0.11566889 0.10261892 0.44527626
0.048612192 -0.23233323 -0.14050993
0.12997817 0.018539533 -0.30548593
0.1927541 -0.10431314 -0.12246657
0.034636553 -0.10669933 0.0039338
0.13515471 -0.14025633 -0.25713053
-0.059274804 0.06148955 -0.1156132
-0.16142824 -0.02997786 -0.28147706
0.020043613 -0.11207782 -0.24611081
0.046107154 0.11057214 -0.2714657
0.07953577 0.05880837 -0.30539978
0.026681341 -0.06317851 0.18985368
0.02579847 0.2078076 0.38238683
0.082001574 -0.1711819 -0.08018182
0.047930364 0.1836912 0.42743683
-0.112054795 -0.2125854 -0.21995963
0.12500562 0.07489635 0.44807276
-0.07518634 0.146351 0.39054677
0.020892436 -0.04972179 0.24487068
0.117241174 0.022313295 0.22619198
0.012702844 -0.09698208 0.05868434
-0.12859567 -0.14474748 -0.23185635
-0.056425054 0.16478044 0.34436387
-0.08529854 0.07383394 0.37649232
0.092650495 0.17329818 0.35695493
0.08134553 -0.07402432 -0.25822413
-0.0115121445 -0.05649848 0.20783328
0.076630555 -0.05307718 0.14307198
0.10919052 0.08275959 -0.27691063
0.16579014 0.06509984 -0.19273949
0.014423969 -0.2532414 -0.22598943
0.044519894 -0.08174749 -0.25478604
-0.03536934 0.17547211 0.31672168
-0.15760653 -0.011173835 -0.28639928
0.08933748 0.12337692 0.44107005
0.1142455 0.048363823 0.4251942
-0.12562244 -0.19815826 -0.1874758
0.03510425 0.108332336 -0.2970286
-0.06651007 0.105635464 0.114338055
0.13112445 -0.054771714 -0.26510528
-0.016241452 -0.14797884 -0.08212018
0.016363848 0.15042889 -0.15910539
0.004933135 -0.18202035 -0.074338846
-0.087159365 0.114990436 -0.20049356
-0.08846836 0.046686143 -0.030575352
0.068231344 -0.04414687 0.2070135
0.109919675 -0.03412654 -0.050307784
0.03011619 -0.04630872 -0.2631939
0.00016259025 0.19997317 0.3619919
-0.09431742 0.04154573 0.1884841
0.10605282 0.14676565 0.31931594
-0.06506372 0.1398455 0.27057165
-0.11931478 0.07334721 -0.27217722
-0.17360042 -0.1334735 -0.19333108
0.17980807 -0.014024549 -0.14041984
0.124747515 -0.18735373 -0.25306213
-0.07606736 -0.0032667334 0.22908205
0.033772238 0.14328556 0.43825302
-0.0252841 0.13895789 0.14034948
0.1831421 -0.09276655 -0.23503493
0.16324043 -0.032453552 -0.29388946
0.0563063 0.14197104 0.1592294
-0.06957074 0.10429275 -0.31248406
0.012175181 0.17066121 0.2378132
-0.08531566 0.114044055 0.37351
0.086447924 0.14834177 0.4348553
0.11364204 0.041913208 0.0639846
-0.12199574 0.051986236 -0.12858349
-0.07741106 -0.19494298 -0.101283945
-0.089527056 -0.12165985 -0.08585189
-0.09527786 0.034130055 0.16347872
0.0070471233 -0.24148776 -0.23460716
-0.121092156 0.082085766 -0.22627607
0.02342335 -0.18654099 -0.07393461
-0.14530179 -0.15516835 -0.25037786
-0.087425515 -0.21568392 -0.1933323
-0.18320172 0.036367092 -0.20792979
0.03629203 0.11658719 -0.26431578
0.11303677 0.009595001 -0.010444998
-0.14646639 0.041554607 -0.29926166
0.019917905 -0.21428478 -0.06675802
-0.1484965 -0.11802166 -0.23783356
-0.09755639 0.05357671 -0.30517054
-0.022911431 0.09383771 0.45307004
0.0657294 -0.02985467 0.27608153
-0.18306807 0.029153839 -0.24099323
-0.07653722 -0.04098184 0.10832825
-0.03038879 0.1595611 -0.20469041
-0.10327535 -0.034685932 -0.060076073
0.11523922 0.100164734 0.23015596
0.060209244 0.12993538 0.122882135
