# .PCD v0.7 - Point Cloud Data file format
VERSION 0.7
FIELDS x y z
SIZE 4 4 4
TYPE F F F
COUNT 1 1 1
WIDTH 1000
HEIGHT 1
VIEWPOINT 0 0 0 1 0 0 0
POINTS 1000
DATA ascii
0.103459805 -0.05526389 -0.06905895
0.030277016 -0.17330675 -0.26921958
0.008749029 0.27443084 0.06730219
0.013756113 0.050612796 0.26981515
-0.08345085 0.074615434 -0.008559862
-0.18595476 0.1045939 0.067521274
-0.011909871 -0.25117153 -0.32193673
-0.12887225 0.12744817 0.01689827
0.03936948 0.058259193 0.28366184
-0.019618679 -0.26320535 -0.100364715
0.04051746 -0.24934536 -0.08110563
-0.010043981 -0.19629733 -0.28013116
0.08900426 -0.31591454 -0.16229433
-0.16762328 0.057734694 0.09745983
0.07387118 0.050537504 0.237059
-0.14840531 0.12042689 0.25427184
-0.080343306 0.22098756 -0.030972833
0.118214786 0.10825339 0.06810562
0.07723783 -0.026200347 0.05826887
0.0028427127 -0.21681865 -0.30154642
-0.03926164 -0.3182952 -0.16752906
0.08929673 -0.1500048 -0.21141545
-0.00866219 -0.20017007 -0.040039737
0.12613226 0.1088932 0.20801796
0.024148652 0.12877479 0.24434009
-0.18709941 0.15978225 0.13355348
0.053026963 -0.031721823 0.08188386
0.062007476 -0.24147251 -0.08441074
-0.016642617 0.28504026 0.020826189
0.022654021 -0.24815607 -0.33113974
-0.0053300424 -0.23297235 -0.31127766
-0.027316637 -0.1530967 -0.23663796
0.07776036 0.16181956 0.21067247
-0.11315913 0.097603515 0.27430946
-0.054277554 0.2136702 -0.051041678
-0.0900606 0.042687647 0.1037517
-0.054544456 0.13807052 0.22420141
0.04850578 -0.22712894 -0.06596036
0.13964176 0.08852062 0.1755715
0.092256434 0.034543067 -0.0117397355
0.020434532 -0.34587118 -0.15809526
0.1407089 0.12125981 0.055012062
-0.16005144 0.18300918 0.17360602
-0.08657199 -0.07253575 -0.08777238
0.06205026 0.14847808 0.22493976
0.0302221 0.1746676 0.1898017
0.10925527 0.041543946 0.18328105
-0.06347762 -0.19011882 -0.079859965
-0.015487757 -0.07779906 0.062922694
0.068684414 -0.14885564 -0.23233336
-0.07141109 -0.19897832 -0.10775725
-0.14551602 0.10846349 0.03785102
0.05797281 0.11951498 0.28938463
0.10835556 -0.16260277 -0.096153595
-0.18969765 0.1116554 0.058153808
-0.037507083 0.06473777 -0.061722077
0.05546827 0.039200548 0.25384572
0.06921923 -0.35835525 -0.19836852
0.03093123 -0.17515874 -0.018720658
-0.05188995 -0.24857445 -0.27872655
-0.023543509 -0.19005696 -0.0376156
0.012069349 -0.29107654 -0.113087416
0.0324795 -0.16418208 -0.010341855
0.04293167 0.19465677 0.16719249
0.02070327 0.13399932 0.2376609
0.08175066 -0.10545312 -0.1794447
-0.04901913 0.29308498 0.018487027
0.016205512 0.29777393 0.06907721
-0.14231922 0.17505316 0.020025995
0.10616608 -0.24806298 -0.14013185
-0.037533723 0.08705906 0.28658742
-0.06777578 -0.22616066 -0.2307371
-0.039370682 0.15050778 0.21095999
-0.15215647 0.046379786 0.11181027
-0.14333165 0.07559249 0.07765818
-0.12341547 0.13668591 0.0064020143
-0.013008246 -0.32916272 -0.24285355
0.05910405 -0.12840196 0.003963569
-0.022255393 -0.36740008 -0.19788949
-0.04038872 0.09488041 -0.036657207
-0.07961343 0.16091266 0.1938605
0.107935965 -0.1558322 -0.09131391
-0.17944784 0.20090313 0.08804561
0.029725812 -0.3200632 -0.2489425
0.07725703 0.0074522183 0.08101297
-0.01681922 0.23905021 -0.018655306
0.056748264 0.019294238 -0.08983941
0.11731182 0.27561113 0.082348734
0.10261863 -0.14020297 -0.17706622
0.03561401 0.102409646 -0.029768202
0.0072370963 0.24324477 -0.008235352
-0.12230549 0.010540498 0.19710532
0.13186201 0.21951643 0.17751005
0.062194295 0.21891214 0.1401944
-0.0806145 -0.17117767 -0.116549626
0.040887963 -0.07674909 0.05545127
0.007901468 0.26766762 0.07534459
0.073993094 -0.3153686 -0.14919923
0.04305919 -0.3625262 -0.1963246
0.14054485 0.1991831 0.09815597
0.08354942 0.06670289 0.2354488
0.007905236 0.043101918 -0.08974118
0.07857414 0.041308094 0.22425953
0.13467233 0.19682755 0.06599623
-0.15453427 0.039911874 0.13915479
-0.04949599 -0.13404356 -0.006926438
-0.09914778 0.048301257 0.018371055
-0.02834611 -0.0069554253 0.2086086
-0.039984234 -0.19118649 -0.050120834
-0.027504971 -0.19843934 -0.04772528
-0.07159746 -0.12953204 -0.16349941
0.11459896 0.07432499 0.19917108
0.1309388 0.18867216 0.03690321
0.10274704 -0.24695045 -0.28548166
-0.116237774 0.26542127 0.04852772
0.039521866 -0.31472772 -0.2542494
-0.07720555 -0.03630341 0.04970017
-0.0013255605 -0.20789255 -0.29317382
0.089981675 0.022559125 0.060830858
-0.073777296 0.26922032 -0.00586455
-0.013057459 -0.05631795 -0.16796719
0.06384728 -0.13096051 -0.21956441
-0.19192064 0.16487174 0.07945402
-0.05505221 -0.32403743 -0.25380468
0.10949894 0.12769362 0.0437195
-0.0726767 -0.2151115 -0.20774202
0.121179864 0.20491 0.009651612
-0.18688722 0.20822017 0.103114
0.14904441 0.18019475 0.11559381
0.02309215 -0.24356163 -0.07323543
0.12620032 -0.2997886 -0.26236764
0.08391693 0.23575613 0.122395106
0.054419436 -0.36472625 -0.17784375
-0.04757184 -0.3538344 -0.21497789
-0.008766612 -0.15455559 -0.24816348
0.036042508 -0.14717244 0.00230662
0.0032653136 0.15462628 0.21085313
0.08558071 0.050940968 0.09056885
0.044974618 -0.24482451 -0.07875212
0.030059949 -0.3074326 -0.1263809
0.09713833 0.2906924 0.08203089
0.11344924 -0.15310226 -0.12784201
0.0510406 -0.35954693 -0.19900247
-0.17646071 0.08239478 0.06570447
-0.1458269 0.21675694 0.054073874
0.06865211 -0.36511204 -0.1903015
-0.02699525 0.19526686 0.15850319
-0.10398825 0.29234764 0.05098416
-0.049714565 -0.114313126 -0.18757664
0.09105993 -0.024427034 0.03235879
-0.009742708 -0.08264723 0.059762504
-0.09205666 0.09029807 0.27415627
0.08636958 -0.1417385 -0.034819692
0.07923154 -0.24998344 -0.10388281
0.065468945 -0.10589311 0.015962835
0.114433855 0.15708481 0.008909872
-0.007075522 -0.19498663 -0.03489348
-0.15757011 0.10242105 0.043752167
-0.12123752 0.20673212 0.01396988
0.00057784555 -0.12397105 -0.22626382
-0.06354249 -0.15806302 -0.04810504
0.10449825 -0.06297843 -0.043364417
0.02210036 0.15797392 -0.0026636377
-0.1791954 0.12956762 0.1334572
0.037190095 0.13410498 0.23940961
-0.16599353 0.07445908 0.12726408
0.07549438 0.17318937 -0.014899148
0.116319336 0.26722223 0.11833231
0.08458105 0.02539847 0.2050151
0.045265738 0.018222263 0.12578468
0.097626 -0.042247284 -0.08229362
0.0033701938 0.061542764 0.27621666
0.020696715 -0.35148197 -0.21215923
0.085361674 -0.065812714 0.018210307
-0.15225266 0.115179464 0.029002918
0.095283836 -0.3092381 -0.2545126
0.04587198 -0.13016681 -0.22837007
0.017090095 -0.2440529 -0.073178954
0.041741222 0.06821143 -0.05625185
0.01813998 0.0064815963 0.13095817
0.08924043 -0.099610195 -0.16241018
-0.16767056 0.13591103 0.19880189
0.16801126 0.16205475 0.18599576
-0.047972914 -0.35394195 -0.21594983
0.04258299 0.26826814 0.07856704
-0.059652325 -0.29383433 -0.29067424
0.0736667 -0.029570846 -0.11760609
-0.17520902 0.18561716 0.183374
-0.07519867 0.081590295 0.2712901
0.07647736 -0.29219967 -0.27715644
0.09208569 -0.18064803 -0.23704208
-0.022052022 0.109246664 -0.03230161
-0.0074819042 0.05473688 -0.07933193
0.105842754 0.28867763 0.080228925
0.06503527 0.113947116 0.008962349
0.09355005 0.2531282 0.024805417
0.056224316 -0.18221165 -0.26938275
-0.019542467 -0.3324883 -0.16226079
-0.034001186 -0.02426772 -0.13304305
0.10890551 -0.13141672 -0.0853499
-0.17205958 0.16157107 0.21039554
-0.076542586 -0.2201562 -0.17785251
-0.13164487 0.16945212 0.0017376655
-0.12183021 0.110707365 0.037846133
0.13394831 0.23690477 0.11448384
0.0822844 -0.091101736 -0.1646568
-0.0052805347 -0.038064692 0.098211974
-0.040011756 -0.11277946 -0.19612212
0.03729357 -0.30982485 -0.12890743
-0.16761775 0.17702836 0.05543674
0.0708194 0.059064973 -0.035740383
-0.069649816 0.093700245 -0.014407931
-0.06890924 0.08287136 -0.023075256
-0.06262501 0.10706006 0.2907194
-0.0028805784 -0.2515843 -0.32711425
-0.060175482 -0.22082397 -0.10451724
0.0069025345 -0.15100358 -0.24980944
-0.10088675 0.20491223 0.13849048
0.11685098 -0.25396454 -0.26103026
-0.008638502 -0.12354863 0.025321629
0.030784115 0.020743128 0.13694094
-0.057301912 -0.1682893 -0.21548088
-0.00038082 -0.003545005 0.21941862
0.15884809 0.11574272 0.08042107
-0.076322116 0.19137903 -0.05406009
-0.00026293224 -0.34711435 -0.16450265
-0.15295506 0.20507877 0.05544199
-0.0047310363 -0.15568395 -0.0012386603
0.11855789 0.22660449 0.02484496
-0.10618262 0.1239547 0.26543343
0.01070381 -0.24113713 -0.32335156
-0.17272691 0.20344947 0.16219735
0.10808665 -0.2851269 -0.16743149
0.16221613 0.12091397 0.10382905
0.05543089 -0.22364499 -0.30574945
0.0049288156 0.09717797 -0.044415943
-0.17129199 0.10571317 0.14162183
0.030333009 -0.034567893 -0.15152901
-0.15635763 0.20667717 0.0611524
0.14896333 0.1669543 0.09798475
0.14632016 0.16882159 0.087320164
0.11428799 0.05544375 0.18630803
0.15479235 0.073005445 0.11468529
0.09318391 0.07250671 0.10827701
0.11371109 -0.25886527 -0.27593884
0.10335318 0.16664417 -0.0038540128
0.066447005 -0.17662431 -0.25865665
0.0047395 0.23304097 0.11665555
-0.09930541 0.27784994 0.03451174
0.1098956 -0.13081126 -0.13736401
0.059935067 0.18477127 -0.030607777
-0.054072514 -0.15800378 -0.21362504
-0.034661002 -0.2712346 -0.31502882
0.028653322 -0.35747716 -0.16749394
-0.120817505 0.17341591 -0.0100289835
0.075622 -0.3615014 -0.19385436
-0.102666914 0.08091787 0.04862132
-0.034047056 -0.009319661 -0.121357545
0.007940294 -0.15833682 -0.25600216
0.030959573 0.14361489 0.22725694
-0.08202073 -0.14409932 -0.133853
0.102046296 -0.2324111 -0.12175209
-0.008774017 -0.3205095 -0.14497048
-0.08196523 0.06084572 -0.020295076
-0.09851896 0.20327766 0.14072728
-0.14467086 0.25617445 0.10193799
0.0041680825 0.13971756 0.22889799
0.010841684 -0.25729853 -0.08469592
-0.124985196 0.08601732 0.067200065
-0.10990515 0.15340981 -0.012187211
-0.06173597 -0.19309536 -0.22483955
0.05328548 -0.24809873 -0.3279029
0.09947554 -0.1539052 -0.19799589
-0.006154209 0.28977424 0.05745433
-0.08950103 -0.07751498 -0.06996039
-0.05596507 -0.3384271 -0.23659107
0.1475332 0.16796231 0.22088006
-0.039581686 -0.32985148 -0.24504803
-0.075162336 -0.23546459 -0.18680668
-0.092435315 -0.05196938 -0.038418528
-0.06169161 -0.29831862 -0.18913282
0.102395765 0.024705257 0.16684979
0.10264282 -0.25358194 -0.29209992
-0.13037762 0.056344178 0.1022956
-0.07200099 -0.11223205 -0.15184937
0.15244502 0.1508974 0.09437511
-0.06813772 -0.3010584 -0.22291866
-0.17514448 0.20315856 0.083931215
0.04722491 -0.13372074 -0.23090512
0.057310175 -0.34584525 -0.16349673
0.075423025 0.070347734 0.24891046
0.014097392 -0.33191723 -0.14732507
0.09357656 0.07738544 0.102449946
0.08502078 -0.04160102 -0.11229262
0.104433805 -0.24724807 -0.28321612
-0.043835707 0.21646444 -0.045683593
-0.012308586 0.23068358 0.11755272
0.08950039 -0.0032274912 -0.06361136
-0.053523377 -0.29991075 -0.2826657
-0.007390654 -0.24271017 -0.07656937
-0.06882314 -0.28710204 -0.20635764
-0.02994739 -0.13151318 -0.21823636
0.056239914 0.049387198 0.25998893
0.08767696 0.120534845 0.26777688
-0.08965844 -0.052791543 -0.0020814233
-0.078123 -0.2035247 -0.16358434
-0.016070347 -0.20562993 -0.28417066
-0.18490194 0.15722157 0.14111987
-0.03169143 0.055626154 -0.0719581
-0.16342363 0.055431873 0.11527343
-0.057493582 -0.28651598 -0.29232273
0.03658008 -0.31326786 -0.13168836
-0.15671669 0.10262609 0.20982368
0.121776246 -0.2410597 -0.20168534
-0.02759445 -0.32611233 -0.2481836
0.05994306 -0.22712219 -0.07210542
-0.07347445 -0.03867421 -0.10153189
0.07504875 -0.30488268 -0.2620561
0.009095779 0.010283913 0.17359126
-0.042555712 -0.29261413 -0.14738876
0.10153552 -0.025719391 -0.029216342
-0.037959337 0.1343808 -0.007148413
-0.004442313 0.016018089 0.14269538
0.060863227 0.041543584 -0.064860515
-0.07252185 -0.23662168 -0.21617031
0.10976604 0.24182175 0.11804801
-0.075036384 -0.21956234 -0.14889535
-0.073741816 -0.17311116 -0.08585632
-0.02997904 0.2796491 0.012462725
-0.09334881 0.15351544 -0.010430889
-0.07066098 -0.077408075 0.019681562
-0.13384295 0.09887917 0.26956603
-0.0261702 0.20190868 0.15060528
0.050262958 0.012703506 0.24216056
0.023031732 0.2441959 -0.0029384887
-0.022198547 -0.01540029 0.20310545
0.07055106 -0.015389058 0.07608352
0.06745255 0.2777004 0.08401881
0.08537343 0.2946829 0.08029856
0.055363752 0.08890065 -0.026575208
0.046115033 0.20761001 0.15196674
0.11771865 0.26082844 0.06515785
0.0770013 -0.17089628 -0.24550407
-0.16399613 0.22231352 0.082256585
0.089677125 0.06892466 0.019219732
0.09504197 -0.18677251 -0.079441644
0.09698718 -0.089822 -0.13707101
0.021249425 0.23108132 0.12089227
-0.03385813 -0.060858916 -0.16166571
-0.11613623 0.19713773 0.00036369616
-0.030823784 0.26080033 0.079203635
-0.05166325 -0.341978 -0.23182894
-0.07497571 -0.12106564 -0.033168275
-0.068938434 0.108125806 0.26608723
-0.09485241 -0.024256349 0.002796601
-0.19293594 0.1913775 0.14569199
-0.043825053 0.03724524 0.24212338
0.09989781 -0.14824675 -0.06419098
0.095639855 0.036586992 0.014015361
0.12004253 -0.30468357 -0.20796992
0.05866736 -0.30385134 -0.2651601
-0.18176532 0.1174344 0.03252444
0.16420232 0.13967268 0.13804269
-0.010018065 0.06987755 -0.06666623
0.105210066 -0.32212123 -0.18762928
-0.036778003 0.11213023 0.287558
-0.07642798 -0.06694464 0.019680396
0.030172037 -0.32780665 -0.23957455
0.08748695 0.08001363 0.09805613
-0.037656985 0.3111196 0.037192106
0.03557246 0.30697876 0.06130244
-0.09345326 0.09649669 0.025402995
0.02387392 -0.34076136 -0.15335797
0.10107459 -0.020337261 -0.027442303
0.11785033 0.14984 0.24811684
-0.012605993 -0.20120849 -0.28258488
-0.0758506 0.16265674 -0.019441137
0.1683529 0.07818803 0.10999101
0.044887926 -0.063151546 0.06390821
-0.18213332 0.22630729 0.10942032
0.053860046 -0.3024727 -0.12764274
0.13913311 0.10695826 0.18918636
-0.004844403 0.3092533 0.044934377
-0.010980039 0.032557275 0.24736847
0.078213304 0.18111368 0.18750377
-0.07573156 -0.047404103 -0.10328023
0.08193513 -0.12045887 -0.0131859975
-0.06876491 -0.118136846 -0.01712165
-0.14193043 0.04725111 0.21113165
0.09064303 -0.34150243 -0.2162129
-0.06406646 -0.009181518 0.18869378
-0.10712234 0.22740641 0.009536358
0.027098369 0.05442505 -0.0755258
-0.08806669 -0.074091256 -0.07980464
-0.016537508 0.22825535 0.1199945
0.05679475 -0.18835586 -0.04016948
0.084256016 -0.08401839 0.007693181
-0.13652956 0.09593762 0.05394827
0.06128622 0.28150037 0.039927803
0.021677071 -0.11384164 -0.22034968
-0.13926932 0.23135091 0.102307275
-0.015665703 -0.15260461 -0.24302202
-0.0031534436 -0.32118532 -0.1431452
0.0910427 -0.1986982 -0.25620487
-0.19051977 0.16308314 0.12089972
-0.041302428 -0.20402986 -0.063435175
-0.07677646 -0.18054551 -0.17603847
-0.02845515 -0.009213206 0.11788972
0.07618838 -0.1340095 -0.21206212
-0.039205708 -0.21114524 -0.26962605
0.028254442 -0.31544983 -0.13284604
0.038292628 0.25154507 0.007691526
0.00039917903 -0.24776842 -0.07834441
-0.041832298 0.23916636 0.10398676
-0.09030414 0.2951909 0.061169118
0.020600028 -0.36025074 -0.17024012
-0.021577554 -0.22720294 -0.06948227
-0.030178053 -0.31030956 -0.26749486
0.08493746 -0.30067095 -0.2659996
-0.062004346 0.11273795 0.2538392
-0.16623636 0.07390272 0.07708581
0.027674343 -0.20179357 -0.039194643
0.07495976 -0.06527633 0.034979988
0.022801133 0.20685528 -0.03501869
0.12781405 0.19127274 0.024799267
0.06585832 -0.041843135 -0.13716467
0.09430973 0.036212124 0.0030127112
-0.057963297 0.079244055 0.27411944
0.06943286 -0.3611769 -0.19494869
0.08286074 0.020781623 0.078605965
0.019042877 0.21241042 0.14311053
-0.043104984 0.13219412 -0.006087305
-0.06751526 -0.2112614 -0.11040988
0.06641277 0.13684352 0.26955545
0.09261852 -0.12878036 -0.036240526
-0.07445521 0.17121887 -0.029586593
-0.07219856 -0.24414068 -0.1652886
-0.033467807 -0.33145726 -0.24242003
0.012239857 -0.29739666 -0.27820915
0.10210911 0.2845746 0.054017995
-0.16159749 0.14820643 0.22957042
0.0062621143 0.25602543 0.0024466533
0.12700748 0.09788096 0.19909891
0.12124861 0.25124404 0.07019264
0.09192397 0.058277566 0.065424256
0.069573656 0.026830912 0.10665903
-0.05982372 0.29898387 0.06007154
0.14988907 0.116791174 0.06143514
-0.13502647 0.21085979 0.12744895
-0.16223083 0.18316266 0.18780445
-0.053571213 -0.03347511 -0.12483035
0.10551127 0.13688287 0.2552849
-0.16086307 0.06182153 0.13626374
0.06313265 -0.04141499 -0.13961032
0.05090866 -0.21853687 -0.30316594
0.1076539 0.2896752 0.07519471
0.08599767 -0.1416094 -0.034126885
0.060921125 -0.2997108 -0.26988783
0.020995367 0.13348821 0.23830858
0.06474425 0.08386804 0.27278903
-0.07043146 -0.045121722 -0.110765785
-0.011325839 -0.1235401 -0.22249788
-0.08332723 -0.017047534 -0.06760506
0.09938169 0.21865356 -0.003169333
0.10725161 -0.21726495 -0.24680197
-0.082776845 -0.11136634 -0.12048239
-0.10384966 0.28177342 0.04341578
-0.03388641 0.16977453 0.18839844
0.10792205 0.09213949 0.2206553
0.16858995 0.120474696 0.13483554
-0.053602632 0.3108403 0.03333442
0.1485761 0.22048177 0.1656184
-0.06678621 -0.1501654 -0.04565467
-0.047288984 -0.14635941 -0.016071457
0.14859858 0.17383307 0.10511786
0.11670764 0.14315672 0.025929723
-0.12856898 0.04643283 0.22610201
0.04105235 -0.32595348 -0.24056578
-0.0010685206 0.04000578 -0.091959305
0.114625886 -0.17248468 -0.13274439
0.1539846 0.118707776 0.060179774
0.046180956 0.07658536 0.29264566
-0.067778334 -0.3080988 -0.23116256
0.05949058 0.2506779 0.012967568
-0.12193302 0.116224736 0.26958117
-0.01560489 -0.2643527 -0.09896047
0.096700266 0.013192081 0.024249287
0.028334094 -0.106551856 -0.21295138
-0.14613093 0.058699638 0.20519434
-0.0070823706 0.034137554 -0.0963302
0.0036050847 -0.0048697223 0.21940723
0.08426785 0.16046496 0.0014107972
-0.18605343 0.2147888 0.10660421
0.03421564 -0.21223815 -0.30152252
-0.15270852 0.06280005 0.09198732
0.16933657 0.07482213 0.12611426
-0.0581287 0.15256377 -0.0052786563
0.08598937 -0.28836632 -0.1389344
0.09157299 -0.07540344 -0.00047994524
0.006152843 0.06679914 -0.06996113
0.11219487 -0.20802476 -0.13226543
0.09383986 0.017675225 0.044607468
0.079185836 -0.024045276 0.05655056
0.0002540637 0.21891072 0.13315004
0.01235817 0.105228834 0.27159402
0.04627876 0.30125818 0.052631766
0.090762846 -0.15196522 -0.21110405
0.09177747 -0.07003222 0.0024081417
0.0766999 0.25709155 0.023360634
0.06472669 -0.07292177 -0.16708465
-0.0842357 0.055519428 -0.020302458
-0.06386975 0.17814653 -0.036719177
0.009940193 0.00973906 0.13593172
-0.00040116694 -0.010421929 0.1206062
0.02863376 -0.040341236 0.090306334
0.083115965 0.18531373 0.1830081
0.02486345 -0.27360958 -0.30539945
0.1071923 -0.120571844 -0.07136913
0.11472962 0.1676804 0.21052341
0.030938013 -0.28233457 -0.105775364
-0.02809713 -0.35715222 -0.19199818
0.045884203 0.04372078 0.26986915
-0.030041032 -0.28017852 -0.122502655
0.11251553 0.12163371 0.051355466
0.050899774 0.053249136 0.26988384
-0.18565671 0.18045287 0.0819698
-0.17159006 0.21239492 0.08567034
-0.15210357 0.09315517 0.05552449
-0.05678999 0.2614744 -0.010799205
-0.15048261 0.2245719 0.0658463
-0.11808178 0.18180898 -0.0078033125
-0.18133129 0.15495934 0.058313005
-0.074938945 -0.22296615 -0.15347672
-0.099594034 0.25267598 0.08115763
-0.08002873 -0.109275006 -0.033712246
0.083574474 0.035323627 0.08607308
0.09612638 0.15583462 0.21996428
0.024172898 -0.3671953 -0.19285439
-0.14383088 0.07257946 0.23462652
-0.003872566 -0.09200694 0.052804586
0.1416445 0.2115399 0.11965771
-0.09795118 0.08685838 0.031469695
0.07079942 -0.2343077 -0.3073239
0.10218231 -0.032600097 -0.034702376
0.06434072 -0.24878933 -0.09137366
0.12316305 0.20262976 0.19176006
0.1404755 0.07694548 0.10831339
-0.03764188 0.26089033 0.078319535
-0.08233105 0.24477825 -0.011597018
-0.19723558 0.16993795 0.09025958
0.11511864 -0.17064355 -0.14306453
-0.015850889 -0.064230464 0.07434871
-0.041824892 -0.1707535 -0.033046324
-0.05872115 -0.11181804 0.0041055325
0.14331178 0.18267384 0.09041423
-0.15449119 0.12336042 0.24779062
-0.07439803 0.012599219 0.21237916
-0.1531141 0.18766522 0.043407854
0.06102731 -0.23670071 -0.31480336
0.068870164 -0.10539834 -0.1931037
0.008167682 0.055503584 0.27239797
0.050112244 -0.1789973 -0.02927618
-0.13330562 0.17500484 0.17079417
-0.02890321 -0.002799252 0.2120134
-0.078707494 -0.17688803 -0.110586725
0.08208092 0.14005801 0.26746953
0.0188745 -0.29955968 -0.11914972
-0.19077086 0.15856366 0.073480174
0.083624974 -0.061416127 0.024018949
-0.038133875 0.025777074 -0.09177849
0.0030805527 -0.30656153 -0.26822174
-0.044623144 -0.22519273 -0.27340943
0.10437532 -0.29823473 -0.17010105
0.100886025 -0.05685929 -0.017330585
0.0015803505 -0.33983582 -0.15736781
0.004741794 -0.26025534 -0.32376045
-0.18550052 0.19054729 0.17286347
0.1069275 -0.30269304 -0.17728034
0.042267658 0.21188842 -0.025181148
-0.07701072 -0.02775907 -0.088234305
0.04482898 -0.032209996 -0.14359275
-0.14325827 0.03107087 0.1312442
0.13432111 0.0734376 0.17209993
0.12396635 -0.282485 -0.26548377
-0.041657202 0.2621806 0.07631009
-0.043760117 0.16297098 0.19546211
-0.0960022 0.12612177 0.263983
-0.0014316201 0.07212482 -0.06547449
0.08466542 0.023907462 0.07655844
0.045971815 0.18034849 0.18475743
-0.042848665 -0.117944576 0.013996347
-0.19208421 0.1232878 0.061443537
-0.16038083 0.16123697 0.21440034
-0.08915402 -0.060241476 -0.009125864
0.09800574 0.0012501671 -0.022978252
0.11513288 0.25061736 0.039078068
-0.028296174 0.022148663 -0.099901184
-0.044683523 -0.26579058 -0.30191743
-0.06839126 -0.064498276 -0.12719879
0.074728705 0.1742985 0.19530982
-0.10065156 0.15501319 -0.013063804
0.11632841 -0.2697797 -0.2813713
0.005401546 -0.30778325 -0.12832452
0.10971329 -0.17417921 -0.10671415
-0.009511389 0.02719867 0.24319042
-0.077826284 -0.121797614 -0.1433507
0.14033394 0.23059423 0.16514286
-0.08208659 0.17442375 -0.034311436
0.0046247253 0.15076284 0.0009796091
-0.07518334 -0.0010551714 0.20045659
-0.12619759 0.12870839 0.015685484
-0.08777945 -0.036941424 -0.06591818
0.015912792 0.16326013 0.20190221
0.0032661653 -0.2807739 -0.10581309
-0.0061013587 -0.008526645 0.19450009
0.092315115 0.24774255 0.019815538
0.028579896 0.17655484 0.18734518
0.045914315 0.18247283 0.18219478
0.038633972 -0.16846935 -0.26359
-0.03451353 -0.26368213 -0.11180472
-0.05122564 -0.29774708 -0.16552088
-0.04902932 -0.05436125 -0.14481874
0.048003692 0.010061885 0.17828476
-0.1955255 0.15616491 0.07825461
-0.16530272 0.21819417 0.14529727
0.072829135 -0.22424911 -0.2969752
-0.11963696 0.08117618 0.07363398
-0.07672987 -0.2163161 -0.18277726
-0.014530859 -0.3502826 -0.17482224
0.09753524 -0.1385781 -0.05295378
0.059201427 0.2541413 0.097458564
0.13888907 0.2149762 0.11046773
-0.11424771 0.24290538 0.030015105
-0.08691255 0.14966339 -0.0050626937
0.036249973 -0.2897751 -0.28465065
-0.02223213 0.19332086 -0.050243523
-0.06939196 -0.09582872 0.003660285
-0.009100289 -0.18922539 -0.03068822
-0.1491258 0.150264 0.2288864
-0.012186112 0.0075641624 0.13572463
-0.008286739 -0.0011001836 0.21928409
-0.07879376 -0.17453386 -0.10757161
-0.18607709 0.17444144 0.1576678
-0.08195467 -0.035689782 -0.08223447
-0.058888543 0.26151645 0.0751497
-0.07724018 0.091215044 -0.0071557616
0.14361186 0.20163646 0.19969463
0.02740328 0.22776322 0.12558477
-0.0068209395 0.08480034 0.29327232
-0.0072772224 0.027646672 0.24420452
0.09406771 0.26573193 0.10833373
-0.14873347 0.038710628 0.16633222
0.12948924 0.1026186 0.19910389
0.005879814 -0.17955343 -0.27246505
0.1434241 0.06850002 0.1188132
-0.19613203 0.17555174 0.09268725
-0.01169631 0.050421488 -0.08256044
0.102843665 0.04032336 0.1481062
0.012394343 0.0074166614 0.17741767
0.008456111 0.23825282 0.110805705
-0.1791173 0.15146448 0.1622966
-0.19496612 0.16205133 0.09753064
0.012058143 0.002637439 0.18313104
-0.07600351 -0.22845042 -0.17089678
0.041518427 0.16131908 0.20715085
-0.041398495 0.22219534 -0.040078435
0.029984916 -0.36098707 -0.19966443
-0.077464364 -0.20149356 -0.13951446
-0.14180283 0.15882254 0.18930212
-0.06603115 0.10435217 0.29316396
-0.011036035 0.092855886 -0.047660448
-0.13612832 0.25463802 0.104758896
0.11303562 0.2479592 0.025842944
0.13756508 0.11073243 0.06732274
0.09307522 0.06497838 0.039753936
0.08883923 0.04451947 0.07573322
-0.021436732 -0.23389947 -0.07537601
0.09908446 0.12707612 0.257079
-0.08158578 0.07794684 0.2664136
0.09461507 -0.27458143 -0.29629636
-0.06824808 -0.3086578 -0.24733452
-0.083614476 -0.1353022 -0.083674364
0.029315006 0.20565438 0.15240854
-0.09500798 0.073899575 0.014787115
-0.08055497 -0.0008801089 0.17682827
0.07169963 -0.2993558 -0.26908925
-0.14144737 0.019419583 0.1773657
-0.16230074 0.19598055 0.061632108
0.1476126 0.15985134 0.08206749
-0.061950054 -0.28400144 -0.2800807
0.110811576 0.13325171 0.037179805
-0.0257263 0.10857226 0.2930969
0.012998296 0.2517508 0.09507874
-0.117635064 0.035434447 0.21983284
-0.09181174 0.08529097 0.014803246
0.083100766 -0.13535807 -0.20610212
0.08243735 0.046653934 -0.027210347
0.02037562 0.12677771 -0.015356184
-0.010772277 0.01704194 0.16319852
0.1699535 0.09288382 0.10574359
0.038049124 -0.04657973 -0.15888037
0.018857922 -0.21320415 -0.30205852
-0.09574195 0.11507285 0.03555999
0.011413953 -0.0305408 -0.15102734
0.06727418 -0.31500468 -0.2507594
0.10884303 0.17024909 0.22739042
0.12605934 -0.28412345 -0.24950238
-0.0906191 -0.05291019 -0.009081058
-0.095456466 -0.019472362 -0.014281053
-0.0091776475 -0.025516758 -0.14432336
0.027560977 0.11831947 0.27653387
0.021986928 -0.34822562 -0.21593164
0.020905428 0.2017897 0.15610333
0.11137182 0.2732686 0.049876876
0.010621734 -0.002172625 -0.1275999
0.075413324 0.19988279 -0.026071727
-0.103220835 0.12946886 0.01738471
0.03436849 -0.012920891 0.108751215
0.038323168 0.26640502 0.08032411
0.108740084 -0.15008736 -0.09136613
0.13493218 0.21626654 0.09254126
0.06727795 -0.20149368 -0.28033727
0.025764547 -0.1403634 -0.2420998
-0.05450717 -0.22695555 -0.101530746
-0.074007675 -0.114923924 -0.024734596
-0.04890976 -0.12144725 -0.19365855
0.13647346 0.12929328 0.044863414
0.071788885 0.266022 0.029625028
-0.0149129955 -0.14241305 0.0076145255
0.069080934 -0.35409954 -0.20350571
0.10482796 0.24991108 0.114411764
-0.065570995 -0.1698209 -0.06336976
-0.08787446 -0.093758665 -0.051758923
-0.031211294 0.015599784 -0.103441216
0.12779823 0.12924212 0.04393697
0.025867298 -0.22792324 -0.060567286
-0.03328688 0.18681575 0.1679584
0.09600178 -0.22662464 -0.27589798
-0.025539508 -0.022141976 -0.13593513
-0.11450127 0.11069765 0.038691115
0.15729503 0.06390941 0.13458827
0.08009545 -0.1953169 -0.26497692
0.032798562 0.30188647 0.06711471
-0.053590048 0.27728793 0.003657346
0.032388642 -0.24605788 -0.076128334
-0.06851708 0.2485736 -0.025147056
-0.03427487 0.13618103 0.2287817
-0.06537434 0.30250356 0.055203203
-0.057189595 -0.30593297 -0.18611965
0.008354933 -0.012273377 0.21440159
0.15698013 0.17348288 0.14618911
-0.006924542 0.2913262 0.028971843
0.06509497 -0.35667628 -0.20085825
-0.0637709 0.09289841 0.28415778
-0.18941633 0.19122522 0.16293159
0.041204765 0.13060899 -0.00081930996
0.07283015 0.14157373 0.26242986
0.08843661 0.11986669 0.26628768
-0.06764281 -0.16553028 -0.06338598
-0.14914124 0.15434597 0.20290834
0.088379085 -0.012553615 0.045671813
0.0467125 0.05386737 0.27592012
0.07727341 -0.054086808 0.039335757
-0.046310235 -0.31082505 -0.26870996
0.019994402 0.05262238 -0.07945991
-0.055050544 -0.15013926 -0.027687691
0.08075995 -0.16304263 -0.23428157
0.12208171 0.22507052 0.15355015
0.056047518 -0.24098569 -0.3205796
-0.006550565 -0.12935416 -0.2285435
-0.13076591 0.096155845 0.05434062
0.057871934 0.26972818 0.028888257
0.0010525748 -0.14397803 -0.24248242
-0.06104604 0.006590209 -0.08722531
0.036300696 -0.26431254 -0.31528726
0.0027009395 0.101880975 0.3017091
0.087311596 0.09956111 0.2535155
0.13231361 0.061950926 0.16671345
-0.057811305 -0.0014336343 0.10767067
-0.022811772 0.08469909 -0.051815134
-0.16466548 0.07465011 0.076366305
0.013165037 0.101919346 -0.038891133
0.12023702 -0.29785442 -0.26537412
0.15700614 0.16150275 0.13074882
0.07307549 -0.34705025 -0.17272697
-0.03972303 0.07408138 -0.05324198
-0.098477975 0.058660295 0.019472884
0.1580981 0.12787054 0.09246582
0.1087009 -0.3381777 -0.20418963
-0.1304137 0.14627737 0.20569524
0.099192224 0.17475985 0.19753772
0.09221057 0.25982377 0.030154957
0.051213235 -0.11320931 -0.21142305
0.12044508 0.05731838 0.1296555
-0.10649359 0.11034434 0.040027253
0.057017 0.2787239 0.03636487
-0.047168773 0.13217042 -0.0039202143
-0.07229686 -0.0026395954 0.19991218
0.12157651 0.095216624 0.20450912
-0.090832435 -0.06127954 -0.057939164
-0.14300564 0.032806296 0.18704161
0.11557329 -0.1793243 -0.16913062
-0.12437835 0.23225158 0.10291682
-0.0928378 -0.03498143 0.0017197399
-0.031314928 -0.07761431 -0.17610385
-0.0067988564 0.014405012 0.14154756
-0.017921494 -0.303531 -0.13528585
0.114175044 0.25885314 0.045035105
0.121747114 0.20671453 0.16164775
-0.0021341306 0.034589343 0.25160444
-0.18211053 0.098315634 0.07841203
0.01475567 0.21437448 0.14025867
-0.111065686 0.26018888 0.037900154
0.075987265 -0.34130886 -0.17039323
0.0045373417 -0.25199106 -0.3303048
-0.014636264 -0.1095981 0.036144417
-0.090621226 -0.061186906 -0.022096211
0.087341815 -0.29052916 -0.14204086
-0.09730614 0.13120006 0.22760515
0.119911246 -0.24970122 -0.18236999
0.1384444 0.1506958 0.024746653
-0.056220412 0.03712222 0.23852141
-0.07919781 -0.17041898 -0.15814215
-0.03534631 0.1559979 -0.006821456
-0.058095504 0.09235365 -0.026696196
0.021159943 -0.08296568 -0.19425431
0.010397984 -0.32862324 -0.2408405
0.0622421 -0.34811643 -0.1677329
0.06348383 -0.032941643 0.07144471
0.07668745 -0.327779 -0.16071299
0.09491294 -0.0340845 -0.082434416
-0.04542621 -0.043233063 -0.13924746
-0.03416006 0.13895664 -0.00494206
-0.06879921 0.1320927 0.22977358
0.10780225 0.26051295 0.035053536
-0.0788027 0.14035845 0.0070578675
-0.1911962 0.18325745 0.0913849
0.042418014 0.0709528 -0.05334857
-0.16933346 0.09830189 0.14169352
-0.0057548387 0.070261665 0.28112677
0.115632296 0.27148482 0.1131241
-0.121098466 0.12553036 0.020090202
0.09083044 -0.09859029 -0.1590077
0.012686539 -0.20837794 -0.04345438
0.13537842 0.08097209 0.17597988
-0.05123259 0.16754268 0.18911047
0.021621143 -0.23068385 -0.31666848
-0.13897404 0.100360624 0.2694168
0.092335984 -0.08296645 -0.13998125
0.10205006 -0.11451327 -0.04988642
-0.04881422 -0.06804031 0.0546303
-0.09289412 0.02271767 0.21583402
-0.097767726 0.20991437 0.13282606
0.034328613 -0.016332105 0.10611101
0.052906487 -0.044717632 0.07214946
0.117511846 0.10080021 0.21388611
0.098117374 -0.33872452 -0.218706
0.05218085 -0.033071958 -0.1398358
-0.1774209 0.17263731 0.19821227
0.15683515 0.1548302 0.19916254
-0.09863672 0.08602619 0.26863405
-0.021372316 -0.12548639 0.019592926
0.05736942 0.12119884 0.0055429176
0.11478237 0.28055394 0.07623893
0.08113576 -0.18712014 -0.060178194
-0.14005674 0.06947467 0.24264415
0.0897378 -0.07596653 0.0032272781
-0.08897143 -0.08074795 -0.03990759
-0.13433775 0.034626026 0.12798217
0.09764461 -0.08361602 -0.01901242
0.036804583 0.11970871 0.2735974
0.020616965 -0.022360627 -0.14294693
-0.000915083 0.22406736 -0.026989114
0.08669228 0.022534516 0.07122357
0.019369412 -0.2509798 -0.07905975
0.08425861 -0.35536775 -0.18755697
0.14859575 0.19733779 0.13564028
-0.0016425927 0.2810959 0.021699378
0.14552401 0.17812622 0.095461175
0.09973834 -0.005469492 -0.019014968
0.0061252555 0.23485026 -0.015747081
-0.047697887 -0.19344802 -0.060273904
-0.15163578 0.095989704 0.052166946
0.08759432 -0.03464568 -0.10020453
-0.0076549677 0.20852147 -0.042230133
0.14169483 0.15797085 0.22176087
-0.0644103 -0.32948473 -0.23839536
-0.00018141337 -0.36947957 -0.19287632
-0.034782294 -0.0674982 -0.16600338
0.043276418 -0.070620686 -0.17764266
-0.06884086 0.21972445 0.12431079
-0.16170077 0.18392096 0.1869522
0.05544147 0.07138812 0.27656978
-0.027811747 0.09256229 -0.04405831
0.09945526 -0.027408978 -0.0016720437
-0.070400596 -0.16534345 -0.18842079
-0.08697461 0.2495107 -0.0019958878
-0.18313009 0.0944227 0.06830335
0.029681318 0.020921374 -0.10360579
0.016124321 0.19658089 0.16182654
-0.009047832 0.10329046 0.3009022
-0.093978904 -0.036250245 -0.022091497
0.10129313 -0.10530025 -0.14286803
-0.096614204 0.22641908 -0.005284
-0.042836048 -0.024676856 -0.12725782
0.017453033 0.15452327 0.000961133
-0.15429085 0.07653479 0.18794268
-0.087638326 -0.094309784 -0.08590084
0.08242935 -0.22041634 -0.28587407
-0.09292775 0.12536494 0.26500958
-0.19921742 0.18754469 0.10959015
-0.13913943 0.20202473 0.13761412
-0.178318 0.17248027 0.19356307
0.0029809477 -0.28468087 -0.29456502
-0.086803705 -0.038439248 -0.07015181
-0.07449413 -0.0348146 -0.09728378
0.0598523 -0.015721492 0.0880379
0.07402452 -0.2188377 -0.07621507
-0.08083061 0.15010177 0.20673265
0.15782613 0.19687682 0.18077305
-0.04999218 -0.07418607 -0.15834405
0.04065691 -0.1471199 -0.24511255
-0.079383165 -0.19131348 -0.14742368
0.030180981 0.23944919 0.111837536
-0.026855506 -0.11296988 -0.206084
0.112022586 0.15398996 0.012360472
0.0380754 0.04197211 -0.08184346
0.1073504 0.19718862 -0.019322673
0.073406845 0.018661361 0.21526185
0.10705882 0.098351136 0.22618185
0.065340765 0.18622066 -0.031737447
0.079090714 0.02125183 0.087233245
0.06566802 0.19677906 -0.031497527
0.16405363 0.16554941 0.17092752
0.06058145 0.20376137 -0.026953796
-0.050171893 -0.15761283 -0.029543357
-0.09327984 -0.0007454653 -0.02839541
-0.033676486 0.1053547 0.29606497
-0.03284537 -0.2519111 -0.099120215
-0.07618791 -0.107726544 -0.021980599
-0.060263064 -0.10582412 0.007750372
0.061685197 0.285738 0.08614589
-0.006084944 0.06309741 0.27491245
-0.06108595 -0.3327035 -0.227141
-0.16134337 0.08445948 0.16329709
0.1521964 0.1352736 0.19167316
-0.026855342 -0.36644587 -0.19934213
0.007021733 0.16036457 0.20437542
0.09916607 -0.21216552 -0.25701997
-0.15416199 0.072453156 0.18327825
0.010493885 0.28549513 0.028913436
-0.14874429 0.19010204 0.039248247
0.1252641 -0.27646136 -0.23908801
0.07120386 -0.27453232 -0.2990179
0.1626841 0.09233106 0.09232545
-0.19346757 0.1678161 0.112444736
0.07598221 0.0038361493 0.18895887
-0.14498222 0.23524399 0.065947786
-0.051363416 -0.010011174 0.19949822
-0.17357063 0.13953765 0.17427923
-0.03999033 0.12449206 0.24219814
-0.100985564 0.05910536 0.10231636
0.012712456 0.19455609 0.16387577
0.020084703 -0.07782175 -0.19008763
0.07984791 0.05286081 -0.026359765
0.054012038 0.02033968 -0.09085595
0.041666918 -0.2080323 -0.29659495
-0.005099018 -0.29062074 -0.11734149
-0.1822677 0.08592812 0.06153857
-0.054517098 -0.042690866 0.072755024
-0.034138273 0.30674392 0.034477204
-0.002484845 -0.25076604 -0.081483476
0.06409826 0.012064458 0.103293285
0.07187531 0.13622528 0.2709218
0.12183133 0.1337802 0.03779655
-0.01487014 -0.34385565 -0.16930231
-0.16276385 0.23504885 0.08960166
0.10349896 -0.05081163 -0.061762363
0.023579823 0.17639479 -0.024663417
0.034680117 0.2958606 0.044719484
0.10812722 -0.30497128 -0.25818646
-0.06883384 0.25441894 -0.020223567
-0.059180647 -0.1378312 -0.19176397
-0.048932534 -0.039317414 0.080232725
-0.023706546 0.22187139 0.12686142
-0.08244044 -0.029354524 -0.077221446
-0.056978162 0.026930636 0.13409117
-0.18152037 0.16192126 0.16397734
0.16869514 0.123940326 0.16153204
0.16355717 0.106741816 0.15634698
-0.007266312 0.05996481 -0.07504271
-0.08489367 0.14139803 0.0051139384
0.1198447 -0.24236508 -0.18080539
0.041035175 -0.015243071 0.20794557
0.0849757 -0.3377662 -0.22135426
-0.039501283 0.06716465 -0.05875611
0.046043117 0.16502616 0.20320457
-0.04857654 -0.07703362 0.04674826
0.07938425 0.014640518 0.20441875
-0.04963802 0.19442634 -0.054691494
