# .PCD v0.7 - Point Cloud Data file format
VERSION 0.7
FIELDS x y z
SIZE 4 4 4
TYPE F F F
COUNT 1 1 1
WIDTH 1000
HEIGHT 1
VIEWPOINT 0 0 0 1 0 0 0
POINTS 1000
DATA ascii
0.025267376 0.12802857 0.043388892
-0.07083106 -0.33126283 0.12997967
0.17450555 0.16226682 -0.011647229
0.03246675 -0.22414826 0.0017626699
-0.07884638 -0.229907 0.14371641
-0.16455735 0.21226834 -0.18180734
0.093717605 -0.07054624 -0.02409881
-0.047031518 -0.31041276 0.23662741
-0.042148296 0.04229108 -0.23351659
0.025414811 -0.17270134 0.20073551
0.11594511 -0.25403866 0.09410819
-0.104502425 0.2794715 0.02243734
0.050115403 -0.3715895 0.18945867
0.10295826 0.24799782 -0.10116706
-0.032351736 0.2514456 -0.07773786
0.1065916 -0.018206522 0.0018972934
0.00091387145 0.15931365 -0.2765752
0.08224537 0.045619715 -0.18849424
-0.08684088 0.10327732 -0.22958621
-0.06808694 0.045981053 -0.21681854
0.064145245 -0.2937675 0.046480495
-0.025472887 -0.11990472 -0.045976643
0.17750707 0.20190491 -0.05451143
-0.0118987225 0.16934747 0.065456346
0.1493129 0.21809815 -0.1768558
-0.124541365 0.07534067 -0.10479805
-0.1539495 0.18103783 0.020385921
0.0365957 0.24992849 0.08371984
-0.058947746 0.104227476 -0.26048818
-0.026615988 -0.31101173 0.058289398
-0.09028868 0.07089916 -0.117718056
-0.049032923 -0.009691706 0.09825893
-0.08835345 0.11666042 -0.23568922
-0.07445937 0.12414359 -0.25514048
0.039346594 0.18193176 -0.26635718
-0.09127038 -0.076666236 0.020910652
-0.16121612 0.23933937 -0.02462267
0.009094846 0.054085046 -0.22222362
-0.018009882 -0.38059294 0.1802185
0.11910257 -0.21566273 0.112079166
0.06343549 0.076895185 0.049874324
0.0977395 0.3019359 -0.03849647
-0.075219795 -0.31910247 0.17738989
0.05554837 -0.35966864 0.2121396
-0.0047215256 -0.27923408 0.031254016
0.016277147 -0.39791426 0.08939795
-0.0804934 0.0753202 0.027400695
-0.055825144 -0.34270394 0.23857073
0.15428717 0.17328736 0.0039720777
0.16245104 0.16221784 -0.108014755
0.08167789 0.18676952 -0.2184744
0.087354705 0.02069653 -0.07188162
-0.18000528 0.099590056 -0.12607794
0.090542816 -0.33543327 0.08564024
-0.08611203 0.034093842 -0.19032378
-0.058185164 0.2696463 -0.038905274
-0.070884965 -0.14502218 0.007651259
0.0053615863 -0.11638607 0.17155236
-0.01568542 0.08701398 0.06631486
-0.02488944 0.24469437 -0.09188304
0.14298725 0.26033258 -0.034130953
0.043470964 -0.3123149 0.27041128
-0.022478113 0.28315347 -0.016847694
0.102748886 0.044731434 -0.017804526
0.057582706 0.016236732 0.08835385
0.14689288 0.16958134 -0.17515191
-0.07376949 -0.34395626 0.15319952
0.071633406 0.21683475 0.068694904
-0.019083355 -0.0065587624 0.1119813
-0.15837048 0.08518439 -0.08134607
0.11387172 -0.1331667 0.065611586
-0.18568216 0.15499762 -0.15198177
-0.016835483 -0.36575156 0.20914423
0.11874253 -0.2102995 0.10690576
-0.074076116 -0.35461646 0.18846059
0.11308772 -0.11926967 0.068154275
-0.10776597 0.27388862 0.024083713
0.004935543 0.27896756 -0.028424982
0.03795661 0.29584208 0.059594445
0.042978078 -0.29193708 0.037698824
0.07112798 0.08801996 -0.21818069
0.10973768 0.0813591 -0.12188026
-0.05362459 0.022145726 0.080210716
-0.018212644 0.3172171 0.005725091
-0.12963867 0.23471881 -0.098512925
0.06107182 0.2899144 0.03787457
0.06475865 0.18949017 0.09200785
-0.09609269 0.036222797 -0.050620157
-0.03131115 -0.26077747 0.22778003
0.10530303 -0.2433066 0.06548219
-0.09106441 0.12441044 -0.23722696
-0.007558152 -0.22359969 0.22230479
0.060301982 0.20695646 -0.17629975
0.06910785 0.13110441 -0.23992692
0.1000041 -0.00010414562 -0.03542338
-0.04004444 -0.15231395 -0.02067779
-0.0576248 -0.11978188 0.14065446
0.10309297 0.20504428 -0.22894153
0.011833488 -0.27521974 0.2523203
-0.052645385 0.022754153 -0.22017345
0.1113023 -0.19976732 0.06257858
0.063268006 0.09597943 -0.22468941
-0.105836526 0.29717326 0.013341138
0.08933073 0.08592896 -0.21110132
0.04537031 0.024921423 0.090809196
0.17688152 0.23065305 -0.06418631
0.058743447 -0.39865974 0.09475879
-0.018007211 -0.39644238 0.099975646
0.06667169 -0.36615488 0.08254581
-0.012694262 -0.18373542 0.20087233
-0.021382198 0.20176418 0.08806278
0.100175664 -0.2799637 0.07257914
-0.049882203 -0.23295319 0.032697696
0.097953394 -0.10702698 -0.0017300731
-0.083070576 0.20301817 -0.16634528
-0.040967237 -0.37363535 0.10446293
-0.06748575 -0.25008762 0.06759847
-0.07680756 -0.16050413 0.029104313
0.18383503 0.150797 -0.015428485
-0.084296085 0.24840413 -0.07729496
0.09462346 0.11194129 -0.023187067
0.031571295 0.19167979 -0.20268178
-0.08653253 0.23700605 -0.09934521
-0.029696241 -0.3813067 0.18026048
-0.09432579 -0.036566712 0.022919815
0.075213835 -0.19308336 0.0068127266
0.020253155 0.18997583 0.10189913
-0.07487085 0.10650073 0.02192015
0.03850623 -0.037947394 -0.088317424
-0.039521698 -0.3964779 0.11611691
0.14654891 0.19193588 -0.1820644
0.16185948 0.10118193 -0.09556956
-0.024591126 0.23571095 0.07038579
-0.18187636 0.20689963 -0.104009375
-0.0900705 0.03802813 -0.18213168
0.11427208 -0.14006366 0.065487064
0.11681766 -0.34152392 0.12591983
0.048807554 -0.14906946 -0.030131621
-0.029159099 -0.39004627 0.103120774
-0.12270632 0.2344997 -0.09979727
-0.07965284 -0.2705256 0.13742724
-0.08459511 0.13120086 -0.2481978
0.07343711 -0.17706731 0.18484013
-0.058163464 -0.37948868 0.18732888
-0.026571542 -0.043110356 -0.086614
-0.097137675 0.05741717 -0.14328264
0.08040137 -0.23627688 0.031249018
0.0031939207 0.2784308 -0.029261487
-0.01300292 -0.20434523 0.21071675
0.11698805 0.16353783 -0.2399593
0.06842779 -0.010809393 0.09512606
0.10338007 -0.2222376 0.17704664
-0.08468708 -0.1653634 0.10022665
-0.08046416 -0.21509697 0.13269965
0.13661884 0.08758258 -0.11300329
-0.011884999 0.2064284 -0.16843805
0.11949957 0.12275069 -0.042005736
-0.17909977 0.123916715 -0.14114816
0.08034706 0.06422471 -0.20347416
0.103539966 0.30529597 -0.032630287
0.05825098 -0.05339427 0.12611733
0.0728433 -0.38308775 0.16413482
0.17118762 0.22552633 -0.08699397
0.029598396 0.1695543 -0.2718519
0.16668093 0.1200848 -0.07994596
-0.09575159 0.018592712 -0.036938578
0.15901954 0.1135405 -0.06491794
0.15301675 0.25438341 -0.13845098
-0.07466704 0.10561058 -0.2441845
-0.10898566 0.24086623 -0.08901711
-0.054507874 -0.028241452 -0.079276286
0.1673808 0.14570704 -0.08327623
-0.05835629 0.072603546 0.053369943
-0.091745734 0.12157314 -0.23484296
0.06074358 0.12015088 0.027765483
-0.0424075 -0.09742479 -0.049350746
-0.15032558 0.22722407 0.024488728
0.025122838 0.24299347 -0.10137773
-0.05938437 0.05844549 0.05879118
-0.029550971 -0.2927933 0.24394953
-0.103794396 0.20800762 0.057698037
-0.15606646 0.10776841 -0.03739477
-0.15268011 0.18675774 0.02434961
-0.1563178 0.19092172 0.007981075
-0.10120042 0.0705825 -0.045981545
-0.17616637 0.18112141 -0.07339222
-0.037352376 0.0015663932 -0.106368005
-0.079169676 -0.0076300893 0.06383737
0.045301806 -0.37121335 0.19078985
-0.02344042 -0.3813466 0.0949424
-0.09609141 0.17256184 -0.25963613
-0.155204 0.265888 -0.0779338
0.035132416 0.17922743 -0.27113396
-0.08133136 0.015432924 0.05069042
0.11646806 0.18855684 0.03628248
0.093835995 0.0836949 -0.11534468
0.048300225 -0.3095232 0.26812163
-0.03396938 0.21492745 0.07744923
0.006923869 -0.34486955 0.24711825
-0.09738871 0.26931694 -0.034719944
-0.061700042 -0.15307258 0.15009248
0.0062327017 -0.26938373 0.24815407
-0.18583064 0.093814254 -0.09288374
-0.19048537 0.2046291 -0.13971889
0.096210726 -0.26876292 0.21514365
-0.070124745 0.25002113 -0.07587342
-0.09701857 0.08360318 -0.011301358
-0.08866062 0.20641433 0.063492335
-0.07787265 0.06569224 0.03508844
-0.15819587 0.26770994 -0.018496469
-0.10920722 0.14940661 -0.23195824
-0.015102175 0.14077313 0.039768625
0.034874417 -0.024333049 0.121166766
-0.0033976987 0.21491663 -0.1528564
-0.09156457 -0.07264237 0.046134274
-0.039440278 -0.40225232 0.11931957
0.044028673 -0.008584122 -0.1000698
0.048220642 0.15836053 -0.26020867
-0.0959556 0.07533571 -0.005317353
0.097527966 0.23424964 0.030435663
0.10139786 -0.00871353 -0.028375702
0.16415295 0.1957069 -0.10902052
-0.051031962 -0.26372612 0.05127843
-0.06947242 -0.21472529 0.04907631
-0.0815595 -0.032597397 0.0689415
0.04313235 0.17373902 0.06727662
0.0845173 0.12305216 -0.0048564626
-0.14145255 0.058495037 -0.13570955
0.08632389 -0.09437683 -0.025163462
-0.0023200344 0.015154328 0.10442294
0.15788853 0.2455696 -0.1480309
-0.090445 0.043656304 -0.17106065
0.116739094 0.11292707 -0.21521601
-0.07971831 0.27579054 -0.024216365
0.056169584 0.07851121 0.055067472
-0.08540555 0.0030124555 0.047663346
0.11528738 -0.28668395 0.10233456
-0.02850633 -0.31811503 0.25649738
0.107473195 -0.07311723 0.011714031
0.118552126 -0.3252086 0.21067588
0.16672264 0.13229392 -0.029134333
-0.06708982 -0.19245526 0.03027443
-0.03951095 0.17392063 -0.27233097
0.044272877 0.14632592 0.024995444
0.030728092 -0.089276634 0.15632112
-0.056988962 -0.26613116 0.06049915
0.14987797 0.27427632 -0.09909992
0.120705485 -0.2893179 0.120029315
-0.06830796 -0.20296672 0.1608077
0.013384887 -0.2994007 0.26467243
-0.07447445 -0.33072644 0.14566995
-0.15003555 0.16760764 0.04017931
-0.15361133 0.16874194 0.024812292
0.04125638 0.23658612 -0.11591576
-0.096636735 0.17929389 0.07412191
-0.13992901 0.16959868 -0.2102205
0.074722975 -0.2202173 0.01906614
0.06900964 -0.052214675 -0.06253882
0.060177494 -0.3429446 0.24432771
-0.10442604 0.09255699 -0.073553726
-0.011258999 0.23016325 0.077518955
-0.090483226 0.20203139 0.065033756
-0.15609002 0.0737678 -0.10398929
-0.123130634 0.2526129 0.029467685
0.10074424 0.11111044 -0.2196203
0.076767564 0.07929437 0.034237765
0.0110559985 0.10943952 -0.24864584
0.08847528 0.09370246 0.0059802434
-0.11497059 0.06486489 -0.12649657
0.1445118 0.08061786 -0.12761524
0.03431619 0.20287608 0.10597512
-0.015665883 -0.34492964 0.24978475
0.086659044 -0.078238584 0.1146894
-0.034800176 0.22722666 -0.12487582
0.059513573 -0.11765125 -0.039366737
0.030158361 0.19568753 -0.19465783
0.18122217 0.17645974 -0.032673754
0.0636795 -0.19321759 -0.0011966826
-0.04819858 0.07090668 0.06120452
-0.020550389 0.03315181 -0.12899932
-0.06578333 0.033383217 0.063886076
0.03798755 -0.33332574 0.26590133
-0.015969133 -0.17093661 -0.022335894
0.12896582 0.21929024 -0.2042247
0.14419338 0.17402184 -0.18750343
0.01498222 0.32308763 0.013133875
0.032311093 0.16974285 -0.2710089
0.05001142 0.18751769 -0.25672874
0.037268355 0.057973623 -0.15875486
-0.1737206 0.16317241 -0.058693893
0.054501034 0.2506209 -0.0900581
0.11596154 -0.3321406 0.120617755
-0.09913256 0.038151648 -0.033818953
-0.1610857 0.14242128 -0.00031309502
-0.068909995 -0.1140219 0.12361432
-0.050190184 -0.23840353 0.0360688
-0.09336774 0.12811124 -0.00527605
0.11298926 -0.33711207 0.23101376
0.12596506 0.13038447 -0.027851067
-0.08499073 0.15417387 0.04474258
0.10591587 0.19742951 -0.24153675
-0.1349193 0.24945663 -0.0689944
-0.02258867 -0.36589414 0.20957354
-0.047828004 -0.13884944 0.15869008
0.044876747 0.054674283 -0.21060467
-0.1522602 0.20788687 -0.19190578
0.024592882 -0.24247839 0.009886761
0.17542918 0.1342556 -0.04667724
0.022835305 -0.26491052 0.24773529
-0.0021012502 0.09791782 0.062407196
0.07430045 -0.24862297 0.22354187
0.075947374 0.0797492 -0.21253164
0.064774506 -0.12369117 -0.032900378
0.09491553 0.2784391 0.0076929005
0.05494476 0.2317184 0.07823722
0.097957775 0.1839279 -0.2556626
0.16219527 0.15240175 0.0074591087
0.11029374 -0.19951157 0.14755222
-0.003111552 0.3251524 0.019406594
-0.011250413 0.06983564 -0.2366975
-0.09012532 0.0034363053 -0.046165988
-0.11207876 0.30325478 -0.010055812
-0.18170236 0.090837754 -0.07473078
0.017810395 0.1794841 -0.224874
0.0010797258 0.003338023 -0.11596282
0.0927405 0.07177707 -0.13855402
-0.018849429 -0.12082978 0.16782987
0.107848056 -0.26360166 0.07829083
-0.03360671 -0.052104827 0.12833863
-0.09447235 0.31192774 0.00740966
-0.1685324 0.22860399 -0.052756563
0.09386317 -0.3537073 0.097064346
-0.057391245 -0.34859866 0.23854284
0.06988617 -0.3630988 0.082481824
-0.001628834 0.32014656 0.009419144
-0.043193683 -0.23565523 0.028185327
-0.07448161 -0.34880272 0.16187878
0.055042755 0.13930845 -0.24861965
-0.033766754 -0.34458333 0.2526934
-0.0038572035 -0.023202997 -0.102498524
0.014555534 -0.33160138 0.2721671
0.14750248 0.2342434 -0.023938397
0.07458924 -0.028634256 0.09967038
-0.13044989 0.18400297 -0.2288748
0.05460657 0.3044752 0.036479525
0.13738596 0.18775514 -0.21991035
-0.009972487 -0.17082547 0.19556732
0.04256429 0.113828406 0.043825623
0.010319911 -0.31706503 0.048271373
0.06597635 -0.3820434 0.16702695
0.060018096 0.21906593 -0.15254477
0.16267866 0.13139275 -0.030401917
-0.15178828 0.16860233 0.03253666
0.0051416527 0.26368952 0.0665657
0.111282036 0.26259306 -0.00094109046
-0.067118816 -0.11904086 -0.013449758
0.10237931 -0.30607808 0.22919406
-0.00012505871 0.2756225 -0.03435396
0.0052058045 -0.24873419 0.013527383
0.13341135 0.16022749 0.029684909
0.03320226 -0.03384284 -0.09262951
0.053163625 0.037366025 -0.11615003
0.0397978 -0.028568435 -0.092278935
0.13627869 0.2954762 -0.04717913
-0.0074150786 -0.0006982604 0.1117193
-0.05441773 0.15869977 0.04984064
-0.1528822 0.25184488 0.0077244015
0.077538945 0.24193513 0.047735743
0.033325683 -0.24385153 0.23646753
-0.04994561 0.2056391 0.07670177
-0.010060568 -0.08846982 -0.06739609
-0.18671666 0.22261836 -0.14653152
0.051257517 -0.09216582 0.15115266
0.074224226 0.22721161 0.059868753
0.070597254 -0.059266634 0.12066037
0.10413192 -0.35664448 0.21207465
0.124188356 0.21106653 -0.21974486
-0.07690892 -0.30700493 0.16520908
-0.06858761 0.13573992 -0.26824367
-0.18138546 0.12312197 -0.08126947
0.026647752 0.31868264 0.0030678392
0.041901086 0.046005655 -0.1827668
-0.051962905 -0.033606216 0.10736
-0.011170308 0.18510349 0.09622862
-0.040188935 0.23187196 -0.11511214
-0.120257914 0.09525864 -0.06631075
0.06480242 -0.34795135 0.07293419
0.028304696 -0.21944687 0.22461009
0.067262344 -0.33281672 0.06670627
0.051207744 -0.40333408 0.12714508
0.020389153 -0.22150786 0.22558904
0.044822235 -0.27728912 0.030808898
-0.06899669 -0.35792497 0.21490397
-0.008684893 -0.2524079 0.018430848
-0.05552436 -0.19209288 0.17513202
0.107487634 -0.08014421 0.072553575
-0.09532078 0.07266852 -0.07900116
-0.024275234 -0.35826367 0.22472823
0.0007007316 0.14650066 -0.27035004
0.042417727 0.10895755 -0.23797563
0.09479419 -0.28317225 0.066533275
0.10266906 -0.1444554 0.021933336
-0.06661595 0.059898384 -0.14218305
0.05785599 -0.2449418 0.23030555
-0.06612258 -0.024186756 0.08936383
0.10238993 -0.36502355 0.19587712
0.10539836 -0.04612182 0.054885995
0.10093216 0.008045673 -0.035099883
0.13200516 0.108506694 -0.07144875
0.049046468 -0.070586726 -0.067926265
0.12113834 -0.27987424 0.16792162
0.048957314 -0.3353945 0.26049703
-0.12764263 0.06706038 -0.120633535
-0.089964196 -0.10625342 0.056058593
-0.14611676 0.17787029 0.054239646
0.002093678 -0.21958633 0.22250243
-0.0871857 0.11993579 -0.0012715484
0.18130788 0.1505962 -0.012292699
-0.047726706 -0.2641324 0.21513976
0.12318101 -0.303416 0.13779436
-0.093087785 -0.056243934 0.032953214
-0.09916321 0.18452868 0.07072231
-0.15783475 0.09657526 -0.059099685
-0.024421789 -0.1845882 0.19633485
-0.070797056 0.18906555 -0.19518706
-0.019267293 0.21828918 -0.14429641
0.06976091 0.09347641 -0.22130439
-0.11281492 0.21949618 -0.13040319
0.036863696 -0.05135152 -0.08256543
0.16843206 0.24123004 -0.10246777
0.015930297 0.05427045 0.084030986
0.08030035 -0.09850876 0.13415512
-0.09720602 0.034652665 -0.0014678563
0.17186081 0.26346195 -0.06736094
0.061832085 -0.19537063 0.2017925
-0.09676355 0.15751751 0.05274177
-0.08662761 0.135695 0.008748528
0.079524614 0.079403885 -0.21117179
-0.12593643 0.17716488 -0.2298275
-0.07882282 0.06505854 -0.10727914
0.08582604 0.13574868 -0.23663385
-0.015504762 -0.34766537 0.24440664
0.02693112 0.13543393 -0.25607866
0.099346004 0.13560422 -0.014346426
-0.07288469 0.04946346 -0.16184913
0.09468829 -0.2498359 0.20591561
-0.015057627 -0.06755648 -0.077437624
-0.18338095 0.18296672 -0.1706792
-0.1885823 0.18979812 -0.12825084
-0.066989265 -0.34342116 0.21698257
0.16983601 0.13742392 -0.07093831
-0.015787696 -0.21819735 0.21624534
0.10629273 -0.15196486 0.12629412
0.17391929 0.21776402 -0.043142214
-0.021636065 -0.10771751 -0.053963006
-0.08999904 -0.08028697 0.057057872
0.07084835 0.006887742 -0.087347925
0.15690723 0.1930538 -0.010324383
-0.027665228 0.2917753 0.0006787187
0.050701775 -0.26109776 0.024799012
-0.016155167 -0.15124218 -0.032793503
-0.083301194 -0.05216059 -0.026841845
-0.0776516 0.065784246 -0.1292938
0.04816204 -0.25356522 0.23863244
0.082053736 -0.2704615 0.048220087
0.061527185 -0.14197184 -0.026616639
0.008075351 0.3229109 0.013637239
0.0014043028 -0.3748798 0.080043055
0.0056010904 -0.33720654 0.059589382
-0.14364125 0.2636255 -0.064313404
0.14871699 0.10811795 -0.15245767
0.12643291 -0.37433842 0.17467108
0.17112425 0.24229193 -0.09121259
-0.06002068 0.10685739 -0.26084328
0.107685596 0.26460025 -0.06922981
-0.08604051 0.07993357 -0.21694097
0.06798644 -0.23752686 0.02247818
-0.12647104 0.13524915 -0.20497586
-0.096275285 0.2607593 -0.05161846
-0.08018332 0.12635455 -0.25019202
-0.13172656 0.16890414 -0.21874334
-0.17954247 0.13249414 -0.14563358
-0.0001185692 -0.12622929 0.17567095
0.04570989 0.077913634 0.061632488
0.07184621 0.21308747 -0.1657126
-0.03982292 0.019921314 0.090816945
-0.03377152 -0.33900395 0.26228756
-0.06488004 0.26849693 0.04098925
-0.1682487 0.15728502 -0.03416472
-0.0074422196 0.03440879 0.09429052
-0.07801691 -0.27168638 0.15438323
-0.07709043 -0.25851545 0.09786948
-0.09252343 0.07477865 -0.109843746
0.032860775 0.19276905 0.10581679
0.118329875 -0.20340201 0.10565391
-0.0820453 0.23431642 -0.105167106
0.13687766 0.19908652 0.007977797
-0.078614786 0.23566619 -0.10294525
-0.03361077 -0.19958794 0.19761737
-0.03911117 0.19420947 -0.18901622
0.08565136 -0.23963624 0.037828572
-0.07901464 -0.16171509 0.122290395
-0.110668406 0.25223064 0.03375203
0.11551025 -0.22536454 0.15002188
-0.14566739 0.22851145 0.033783525
0.116688006 -0.2845212 0.106013864
0.15533859 0.15537508 0.013198534
0.14716278 0.08856518 -0.15420425
0.087924734 0.086187966 0.011827159
0.10149472 -0.16880977 0.14686951
0.08587094 0.20604116 0.059452455
-0.042722277 -0.26570272 0.22067742
0.039553016 0.26283202 0.07697056
0.05849615 0.16449489 -0.25979027
-0.102822185 0.30463663 -0.0084906565
-0.18285976 0.084539555 -0.07959157
-0.06283888 -0.3669025 0.21255799
-0.04008733 0.090745755 0.056467254
0.0089387605 0.23095153 -0.12296939
0.023963649 0.052354768 0.08364205
0.015172207 0.09970172 -0.242514
-0.13384736 0.2970033 -0.008102368
-0.058582712 -0.18342875 0.013553656
0.04143347 0.19028048 -0.20663886
-0.07939454 0.06787332 0.032070916
0.11860681 0.11799602 -0.21710052
0.10298876 -0.20898823 0.0476627
-0.020905286 0.26920262 -0.044368226
-0.08377276 0.015127302 -0.0685842
0.09098376 -0.06193464 -0.03250455
-0.016467033 -0.18890296 -0.012539165
-0.060066782 0.3185086 0.013411924
-0.15630144 0.099886194 -0.1520414
-0.16635561 0.16079779 -0.17636883
0.15082462 0.23442896 -0.17438452
0.026791258 0.09699248 -0.23732212
0.014217742 0.29178956 0.055892367
-0.080542274 0.22134045 0.058877952
0.04413295 0.18700007 0.09312793
0.04496858 -0.13147233 0.17457934
-0.043171916 -0.187745 0.18517755
0.10051968 0.08001257 -0.036843468
0.05122241 -0.031160543 -0.08549942
-0.17266233 0.20491579 -0.18496084
0.11781881 0.23272948 -0.13290446
0.102023914 -0.32090712 0.09248056
0.11486647 -0.21727441 0.14629197
-0.115238346 0.28373522 -0.029132914
-0.06020519 0.2915738 0.0042938157
0.11241542 -0.1392444 0.05092653
0.1110765 -0.08727569 0.051942475
0.0034350464 0.037681013 -0.19433273
-0.080178626 -0.26328936 0.12622224
-0.06526008 -0.32577538 0.21447834
0.064269505 -0.1543053 0.17783332
-0.17614707 0.15216708 -0.066245586
0.071990974 0.23030329 0.060507175
0.15229957 0.16064356 -0.1502594
-0.08015054 -0.26107526 0.11799631
-0.044439632 0.20748553 -0.16235581
-0.07324779 -0.19276793 0.042570733
-0.06439255 0.03561136 0.064226724
-0.09507252 -0.021263976 -0.0054430203
-0.1347163 0.09798859 -0.0591832
0.045268837 -0.052662 0.1323285
0.04396272 0.0069238665 -0.107587926
0.018531391 -0.37559682 0.18550377
0.03397487 0.23277426 -0.12248376
0.07094969 0.002308695 0.0854034
0.09819743 -0.27186042 0.066420905
-0.08717083 0.16700558 -0.26612547
-0.070422016 -0.067674115 0.101882994
-0.06421064 0.28406742 0.033592187
-0.03480538 0.29106635 0.00017017078
0.010674368 0.26431185 -0.05783849
-0.1309772 0.09701218 -0.061555155
-0.17206551 0.15473154 -0.04964859
-0.020986607 -0.3163109 0.2608676
-0.18253292 0.09031433 -0.1179557
-0.19113876 0.14861329 -0.12848918
-0.061408184 -0.16004486 0.0033884952
0.027251203 0.051237002 -0.21478924
-0.10033755 0.14211713 -0.23738833
-0.005461769 0.1765507 -0.2713745
-0.096305564 0.09936173 -0.21702097
0.030788144 0.12979877 0.040325977
-0.12633155 0.16306962 -0.22123607
-0.010000743 0.24481459 -0.09348172
0.06651868 -0.38132027 0.089801416
0.036224723 -0.34604597 0.24120349
0.03163702 -0.2899633 0.26080212
-0.17655115 0.1585478 -0.06951245
0.05322909 0.22699688 -0.13617402
0.11109775 -0.12790626 0.09326116
-0.025417896 0.11596206 -0.26401863
-0.045144353 0.2466358 -0.08558361
0.10360908 -0.1108055 0.01065276
-0.1728283 0.24545135 -0.07499882
-0.0824485 -0.22564827 0.11740567
0.114772364 0.25180116 0.001509917
0.03844379 -0.082866676 -0.06665277
-0.085308686 -0.023477081 0.05816014
0.057106454 0.06222812 0.06343255
0.13905783 0.22067574 -0.20172037
0.04764546 0.19990252 -0.18855692
-0.04303932 -0.04679014 0.119736165
0.0010587025 -0.017673217 0.121239915
-0.13332495 0.24591225 -0.07613536
-0.09399564 0.06959931 -0.20230277
0.042222526 -0.41734177 0.10081324
-0.15314828 0.17085639 -0.19656461
0.07941334 -0.40967762 0.111242265
0.13753794 0.15600382 -0.21141693
0.100372255 0.19121905 0.052255075
-0.046238244 0.26663098 -0.04628317
-0.14145726 0.2135327 0.04252857
0.043089226 0.22550736 0.09473281
-0.15943131 0.28098297 -0.039543543
0.1217742 -0.32135063 0.13343503
-0.04808221 -0.083074406 -0.05383091
0.049670227 -0.20066607 0.20977196
0.075520955 0.055927563 -0.10375172
0.046476282 0.013701168 -0.109736495
0.0017402364 0.19834328 0.09739964
-0.002571976 -0.2169197 0.22012079
0.08498147 0.28246322 0.016172454
-0.07217384 0.23858336 -0.09802546
0.11387562 0.12759466 -0.031825755
-0.017016007 -0.41294116 0.11673489
-0.073738694 -0.109276466 -0.009410241
0.10216656 -0.20294331 0.16719586
-0.0966299 0.019437253 -0.032338798
0.07280932 -0.114330314 0.14990386
-0.057416152 -0.3704329 0.20497546
0.025337966 -0.40225065 0.13245632
0.15746295 0.14295971 -0.124252155
-0.015726589 0.3019511 0.040931422
0.064577565 -0.034428865 -0.0747151
0.1020216 0.25525633 0.013383718
-0.066610746 -0.07652726 -0.03931898
-0.15830365 0.21879394 -0.16979736
0.0471227 -0.29930678 0.26299757
-0.17275542 0.21724549 -0.06780854
-0.10782556 0.16820891 0.07504853
0.003872818 -0.24184993 0.010168987
0.0038320562 -0.25061953 0.014749207
0.119410045 0.12622887 -0.035183705
-0.0032719648 -0.08948763 0.15672196
-0.0710787 0.2658255 -0.044799305
0.021098742 -0.34653443 0.06257107
-0.05406662 0.18792288 -0.19948705
-0.002612874 -0.35529223 0.22787775
-0.086538345 -0.0991731 0.0147944605
0.14224207 0.06902236 -0.1700862
-0.037878536 0.012999334 0.095026575
0.05244317 -0.12315676 0.16726786
-0.041907374 -0.24181521 0.2107188
-0.07761959 -0.005418356 -0.067071915
-0.063271314 0.04348764 0.061765935
-0.055644248 0.102663495 0.04121556
0.09595604 0.028523639 -0.05703156
-0.040687073 0.24132775 -0.09652973
-0.027108954 -0.061090857 0.13543043
0.023209507 0.18158294 0.08509598
0.11526249 -0.2672327 0.096138336
0.11052109 -0.22839957 0.069749944
0.09859939 -0.2850195 0.07255302
0.038184762 -0.057043828 -0.07923647
-0.050757103 0.24100068 -0.09593013
-0.005854385 -0.2608435 0.24107806
0.048241757 -0.32592803 0.05571769
-0.10279413 0.16792215 -0.24965683
-0.14393489 0.11872031 -0.17640409
0.13741714 0.1566421 0.022170026
-0.05058679 -0.2933233 0.06824279
0.11121908 -0.16053379 0.11755742
-0.043827727 -0.09501076 0.14170404
0.055159185 -0.35148507 0.22821578
0.004938957 -0.2972928 0.038892765
0.016077662 -0.25877967 0.017791845
0.07326972 0.16957353 0.055402603
-0.027942924 -0.019760724 0.11507587
-0.16839576 0.08097928 -0.12793525
-0.09499144 0.30435896 -0.009999231
0.006301552 -0.29405907 0.26041442
0.06941537 0.29671 -0.012977242
0.008955154 -0.4060714 0.12698923
-0.03486064 -0.0369151 0.12045817
0.15648611 0.15868184 -0.13220237
-0.092635676 0.011961269 -0.044616487
0.056826536 -0.33897695 0.06509623
0.021651102 0.11267628 -0.24670395
0.16886503 0.16287747 -0.08124366
0.010454839 -0.18741612 -0.01869085
-0.17717712 0.15695971 -0.071764
-0.041217826 0.13549885 0.03433108
-0.11896897 0.16277967 -0.229079
-0.05196865 0.26625758 -0.04630906
-0.030241055 0.13714379 0.03813621
0.14786202 0.27218583 -0.1029457
0.09589214 -0.17256564 0.0211526
0.068334475 0.022460818 -0.096779846
0.042710993 -0.31378692 0.27131042
0.09610321 -0.27098045 0.063165754
-0.04057574 0.20515893 0.0800408
-0.026029397 0.23894629 -0.10300083
-0.083066456 0.14649221 -0.25871468
0.091342896 0.19360708 0.060696997
-0.07590754 0.17281449 -0.26704848
-0.0659477 -0.088516265 0.11687683
-0.06516463 0.11480543 0.027860446
-0.044705603 0.04925513 -0.16572993
0.14071585 0.1331537 -0.19218896
-0.15265633 0.24069211 -0.08397699
-0.09081882 0.04929473 -0.15996952
-0.08238712 -0.107701905 0.094795555
0.116284125 -0.17087044 0.08913856
0.01599188 -0.27975953 0.25497553
0.029592726 0.3251309 0.03596549
-0.0055847657 0.26657358 -0.051404916
0.033342768 0.2293248 -0.12916367
0.01959201 -0.29610646 0.2634339
-0.03135232 -0.33892983 0.07641456
-0.089340694 0.11658793 -0.0041257506
0.032135423 -0.30732313 0.04314295
0.11961316 -0.33189324 0.13002776
0.007266799 -0.26849958 0.023477847
-0.015138847 0.120532 -0.26291236
0.099156305 0.05520762 0.0023440893
-0.19027264 0.1799125 -0.13274679
-0.021023313 0.18457589 -0.21011443
-0.18303853 0.21910632 -0.111791074
0.014927768 -0.041894965 0.13414595
-0.055113122 -0.090069406 -0.04364691
-0.1019701 0.17498092 0.07446452
0.14826278 0.28488138 -0.07363251
-0.0064832247 0.20799702 -0.16603103
-0.0769966 -0.19185477 0.13807037
0.045777906 -0.18818232 0.20458908
-0.075888276 0.04301018 -0.20661083
0.11128656 -0.32124555 0.22429805
-0.12792088 0.28468937 0.012220693
-0.011068639 0.28372118 0.051451653
0.018766182 0.16803445 0.059105653
0.030305669 0.19876458 -0.18864919
0.0769991 -0.19106959 0.0076314188
-0.04161051 0.0550187 -0.23955494
-0.12328851 0.11088481 -0.035329483
-0.036898788 0.25749063 0.055648196
-0.006534735 -0.17418537 0.19801486
-0.021101594 -0.3986333 0.1452629
0.016934346 -0.073952846 -0.076022364
-0.048602857 -0.006190199 -0.09565713
0.08473246 -0.0017836042 -0.066608086
-0.05568778 -0.297579 0.07744047
0.16768783 0.26346076 -0.10770379
0.08912744 0.30897883 -0.0036909196
-0.041522194 0.17979623 -0.26057386
-0.02206265 -0.06802079 -0.07502318
0.118504405 -0.22259212 0.13276714
0.052446485 0.1786765 -0.23072465
0.04982772 -0.39796123 0.13783869
-0.09380298 0.107350536 -0.009139641
-0.021611594 0.3253396 0.025347663
-0.1583667 0.15062822 0.009164397
-0.07900463 0.019954031 0.05292312
-0.1336721 0.08370926 -0.08727941
0.04087238 -0.39048418 0.15358703
-0.013489025 -0.09420591 0.15674607
-0.035409376 -0.35749856 0.09028281
0.14789231 0.21882914 -0.182997
-0.010083484 0.17187908 -0.2790102
-0.07013205 -0.35252294 0.2095611
-0.0982172 0.24569389 -0.08088758
-0.09407074 0.27657068 -0.020919086
0.03286184 -0.13728902 0.18098617
0.092394374 0.02996624 -0.06576604
0.1006476 0.12107921 -0.22451243
-0.06643941 -0.3421713 0.124472834
0.0015314905 0.12153906 0.05057135
0.098851 0.026514826 -0.047391728
0.17137909 0.17693555 -0.07409221
-0.044205032 -0.08728286 0.13783456
-0.17736581 0.16549265 -0.07464399
-0.06036371 0.08282352 -0.24655397
-0.02060224 0.25083557 -0.08038079
0.045961894 -0.10917737 0.16227823
0.030091606 -0.04879529 -0.08592022
0.09690278 0.08546974 -0.20835628
-0.04660703 -0.28624502 0.22616677
-0.06912344 0.109739475 -0.2526077
-0.021115856 -0.34750187 0.24541812
0.040191375 0.026727963 0.091828
0.0761195 -0.2805742 0.04821593
-0.16536194 0.272013 -0.0502485
-0.12647544 0.06416614 -0.1264475
0.099312544 -0.3156877 0.08653709
0.118326366 -0.31395635 0.12037855
0.10268983 0.044776365 -0.023793194
0.012829899 -0.059300028 -0.0836421
0.099293396 0.013471149 0.031645074
0.0058350842 -0.17105289 0.19926535
0.07140225 -0.2457401 0.22368959
-0.15276334 0.21610104 -0.17575407
-0.050107446 -0.16804367 -0.003928361
0.06656932 0.15837435 0.03429253
0.06530669 -0.15897313 0.17977223
0.016731987 -0.11760857 -0.053864677
0.1549321 0.24263254 -0.15932274
0.09090969 -0.24300031 0.044418633
-0.056985516 -0.1766006 0.16655326
-0.0029658764 0.07180548 -0.23490387
-0.038982563 0.16163523 -0.28264734
-0.15751366 0.17858794 0.005940563
-0.020399848 -0.3384915 0.069643416
0.004583927 0.28467366 0.05611268
0.11029846 0.12120085 -0.04390943
0.011489781 -0.033658255 -0.09672134
0.048023954 0.24695396 0.076946035
0.17946072 0.19751354 -0.04522403
0.110669814 -0.34825644 0.22769979
0.17635213 0.23728956 -0.057094797
0.11430019 -0.14231607 0.06429574
-0.09088436 -0.091511376 0.04928796
0.07874765 -0.22982465 0.21006814
0.1535197 0.23011114 -0.16198027
0.12324857 -0.285827 0.13700634
-0.13051002 0.22284998 0.041589607
0.103048176 0.21446294 0.035885617
0.09135535 0.01598189 0.049606267
0.03271498 -0.1606165 -0.029769562
0.08671983 -0.027891364 0.08476053
0.043067113 -0.26745462 0.025546739
-0.046651136 0.0975223 -0.26202974
0.080570534 -0.27579382 0.049187355
0.123715445 0.081417926 -0.12348841
-0.15353549 0.17851862 -0.20057957
0.045363963 -0.26160714 0.023127852
-0.13551445 0.29522234 -0.020144703
0.06773177 -0.09197319 -0.0456592
0.10786148 -0.14566368 0.1172048
-0.16921066 0.13472074 -0.03272124
-0.028368527 -0.40287334 0.13785286
-0.057707947 -0.3280907 0.098173134
0.039187424 -0.017685385 -0.09780212
0.071434975 -0.3243629 0.26675987
-0.060837004 -0.1273243 -0.016758395
0.0750602 0.07641567 0.03817847
0.0930513 -0.26359624 0.05583586
-0.03694489 0.045256387 -0.23324965
0.053417657 0.27684847 0.05376842
-0.14461386 0.100607455 -0.05283224
-0.07796144 -0.03493984 -0.048253108
0.07986932 0.2058028 -0.18097024
-0.05758708 -0.33144912 0.100006156
0.08095531 0.04286108 -0.09073365
-0.052114666 0.09127087 0.04898174
-0.0042325477 0.27310267 0.058900353
0.058962412 0.32265308 0.013625054
-0.06486192 -0.33754697 0.21982794
-0.13457686 0.27513427 -0.051267758
0.0535659 -0.23029642 0.22412
-0.039714627 0.031117773 -0.20187163
-0.041184198 -0.40914568 0.12480725
0.12431476 -0.34357852 0.14857809
0.09554765 -0.30295837 0.23628412
0.06972904 0.14599817 0.009662027
0.020038543 0.0160092 -0.1202758
0.029364606 -0.2858558 0.25865638
-0.040720604 -0.2855446 0.23153488
-0.046909027 0.03999937 -0.23397025
-0.12605771 0.16787751 -0.22431825
0.11260108 -0.22682105 0.15973315
0.082663536 0.18714449 -0.21786226
0.014761272 -0.40596083 0.12649223
-0.034024272 -0.008825245 -0.102087766
0.10644507 -0.2252374 0.06065529
0.101985335 0.045122847 -0.0058847796
-0.15457076 0.14472671 0.026618961
0.018937826 -0.4060069 0.12588644
0.11275009 -0.12164008 0.05200246
0.07349716 -0.4118261 0.10768172
-0.0048291436 -0.24035192 0.010890843
-0.056543045 -0.22813307 0.03738771
-0.17255813 0.20066859 -0.06293624
-0.055605683 0.25917235 0.04862617
-0.18339184 0.09224851 -0.08220704
0.10551691 0.20676409 -0.1822469
0.08937148 0.25307253 0.028412575
-0.03901829 -0.1899886 0.18938522
0.09098381 -0.06700602 -0.030355105
-0.0772694 0.22621797 0.05757497
0.040820483 0.18894675 0.09734966
-0.09133751 0.15870552 -0.25678608
-0.14304127 0.13215262 0.00876323
-0.039400324 -0.060109995 0.12847804
0.084682755 -0.25151637 0.21701142
-0.038772095 -0.3276768 0.07640145
0.035488598 -0.39934295 0.09001608
0.08085135 0.07960469 -0.12175798
-0.061277885 -0.07957226 0.119042575
-0.14714809 0.2896874 -0.02216703
-0.15295509 0.2021729 -0.20301166
-0.06244769 0.056403052 -0.120126344
-0.08852288 -0.12828347 0.05030748
0.113801695 -0.25533038 0.087845616
0.11644391 -0.19608055 0.08310483
0.08132542 -0.19565485 0.013869708
0.047331635 -0.35099933 0.23013204
-0.013325773 -0.36109674 0.07832048
0.109114476 -0.057983387 0.024325078
-0.15590237 0.1839688 0.011428392
-0.09719513 0.06309939 -0.0055960645
0.009767931 0.31981218 0.0073599075
0.01866761 -0.23972467 0.008229028
-0.099758625 0.0712846 -0.021775734
-0.089459606 0.2741122 0.030097209
0.06828693 -0.40117583 0.10016687
-0.16360173 0.22454971 -0.15787025
-0.0069463127 -0.40154696 0.13780957
-0.13707677 0.27030075 -0.05310706
-0.06840225 0.059383504 -0.22423619
0.04582961 -0.0038274487 0.10600358
0.07573424 0.30637628 0.012389275
-0.07568818 -0.33369827 0.16861662
0.10548864 -0.33157772 0.10177197
-0.035811625 -0.062087696 -0.07265009
-0.042512383 0.30246872 0.031764273
0.12189301 0.06501405 -0.15539299
0.101014934 0.09548604 -0.21188655
0.09336835 -0.17621933 0.019228602
0.07518785 0.012242542 0.07593557
-0.027394526 -0.3073299 0.25223252
0.0044405153 0.2804253 0.058127806
0.02508822 0.26131046 -0.065494426
-0.061055046 -0.1073729 -0.028301243
-0.027740566 -0.358659 0.2243804
-0.08334483 -0.18927437 0.11138778
-0.09968491 0.21194592 0.05713124
-0.08780657 0.043062888 -0.17254679
-0.15313226 0.2858516 -0.028074007
-0.15388967 0.283944 -0.03974546
0.11612362 -0.25393057 0.16814148
0.028874941 0.08793742 0.06344074
-0.0003307627 -0.25814825 0.019392317
0.16040553 0.122170106 -0.1068098
0.10057904 0.07996532 -0.030838303
-0.024990264 0.037729435 0.088499226
-0.07168636 0.22568652 -0.123347916
0.110341534 -0.092594706 0.066302836
-0.04053102 -0.34214744 0.2571768
0.09001818 0.057012428 0.026213655
-0.19077575 0.17945017 -0.16059716
-0.038713824 -0.17092639 -0.011270027
0.06964039 0.3114354 0.016090805
0.060529035 -0.011922472 -0.088030875
-0.04101057 0.3104965 0.028420085
-0.041858025 0.14139155 -0.2818871
-0.1898892 0.13052113 -0.11898185
-0.16648659 0.26075253 -0.08660186
0.042503923 0.070075504 -0.21892765
0.08580109 -0.092863105 0.124481246
0.11471019 0.19859017 0.032385256
-0.037584513 -0.10474247 -0.04821637
0.1221522 -0.3108788 0.1894632
0.06222814 -0.0006314184 -0.09212481
-0.020097815 -0.359571 0.08101611
-0.032463647 -0.25557214 0.03139323
-0.0334706 -0.22004509 0.012522561
0.01461857 -0.06437655 -0.08098627
0.07437092 -0.09302074 0.1364014
-0.06295461 0.036262654 -0.21677594
-0.0010841206 0.2578081 0.067415126
0.14457653 0.080839105 -0.16317347
-0.11665221 0.048296288 -0.15874219
-0.036168043 0.18181898 -0.21364771
0.03217526 0.29436627 -0.001620326
-0.07092249 0.18463379 -0.20385303
-0.052344467 -0.28980836 0.22093585
0.10952125 -0.26168653 0.18999772
-0.020612886 -0.1631433 -0.024722885
0.0064039645 0.1640215 0.052768786
-0.11674817 0.21495587 0.05000397
-0.05111805 0.2800408 0.039901298
0.037550367 -0.3021091 0.041601818
-0.033040468 0.11122545 -0.26420093
0.076042816 -0.3337037 0.26047283
0.052805733 -0.21922417 0.21849142
-0.0756166 -0.29409066 0.119878024
-0.028101275 -0.3602696 0.0861708
0.02527595 -0.2812828 0.25615495
0.13114226 0.13444361 -0.020538265
0.111611955 0.17973813 -0.2496851
-0.06155207 -0.14989394 -0.002442669
-0.01676011 -0.23237012 0.0108133415
-0.06570647 0.09168954 0.03773445
-0.17902027 0.14390106 -0.15280485
0.08551811 -0.33946583 0.08260285
0.09265054 -0.19603656 0.026643554
-0.089807905 0.21989137 -0.13246544
