# .PCD v0.7 - Point Cloud Data file format
VERSION 0.7
FIELDS x y z
SIZE 4 4 4
TYPE F F F
COUNT 1 1 1
WIDTH 1000
HEIGHT 1
VIEWPOINT 0 0 0 1 0 0 0
POINTS 1000
DATA ascii
0.088779725 0.065201245 0.029921204
-0.14474618 0.023561986 -0.21708022
0.006451855 -0.031296 -0.2735233
-0.0975953 -0.012575849 0.45825598
0.05247172 0.09576528 0.22790837
-0.17007874 0.08933228 0.33251765
0.105729625 -0.15763171 -0.23295216
-0.15580004 -0.031453323 -0.2603433
0.0065134694 0.1432055 0.3222244
-0.060662676 0.012849727 -0.29394466
-0.05606698 0.16268674 -0.16398358
-0.09265954 0.09736522 -0.22072808
-0.0875991 -0.10497863 -0.124607764
0.20338714 0.05628541 -0.22199894
-0.017173626 0.14301364 -0.30924386
-0.008064209 0.1547095 0.3512127
0.024947612 0.14839344 -0.24542199
-0.12439268 0.10590808 0.19690573
0.030106781 0.11043568 0.37359434
-0.09828534 -0.0010114465 -0.32082775
-0.07689791 -0.19906084 -0.167448
0.12931538 -0.2023014 -0.13313612
-0.15793768 0.07435848 0.2665154
-0.09022421 -0.0047280276 -0.14213684
0.1361397 -0.17973574 -0.24533202
0.24908315 -0.046579506 -0.18426247
0.05695607 0.07303888 0.27032924
0.11160996 -0.16106588 -0.07671806
0.09221543 0.014141415 0.1043277
0.17493215 0.10927042 -0.27922472
0.13096455 -0.21740419 -0.17213562
0.045605406 0.10687001 0.2156181
-0.083826214 -0.19415171 -0.13960437
-0.0031725815 0.14361086 0.22883832
0.200292 -0.03989119 -0.23473078
0.0872293 0.06868449 0.024093583
0.23610461 -0.05890148 -0.24480869
0.09016634 0.05939807 0.05274129
0.084550455 -0.22569522 -0.23769322
0.056488894 0.049567435 -0.27761716
0.12360498 -0.18221895 -0.070816144
-0.12197901 0.011311384 -0.3180834
0.17972289 -0.065648146 -0.23431826
0.093801714 0.028411886 0.09279757
-0.11124705 0.12720752 0.4318922
0.13809735 -0.18403214 -0.12095586
0.21598321 0.0015105729 -0.26072845
0.080395155 0.037332542 0.16398285
0.09623838 -0.06706125 -0.020924203
-0.12367814 -0.11349066 -0.19105987
0.085074805 0.0032249342 0.13312712
-0.009591672 -0.1617822 -0.09993866
0.15288867 -0.15213251 -0.09779457
0.11747623 -0.04251724 -0.053184316
0.07697762 0.07815241 -0.11844914
0.014152422 0.12775758 0.13311417
-0.16174863 -0.027851677 -0.22223747
-0.048540242 -0.07007591 0.21586035
0.14138643 -0.19183534 -0.14906314
-0.14907011 -0.03465808 -0.30727658
-0.10547609 -0.16570707 -0.1266236
0.0747636 -0.06345743 0.053031355
0.06109822 0.048933364 0.26490754
0.06709902 -0.08175053 -0.25327608
-0.0671577 0.09140937 7.413209e-05
0.08267588 0.07176206 0.053874075
0.07391837 0.08137409 0.0791554
0.124504924 -0.19597623 -0.103653215
-0.012768191 -0.07635508 -0.26957417
0.11832811 -0.020017583 -0.25389206
-0.06766112 0.17421995 0.35902724
-0.13276806 0.08431966 0.18020023
-0.0708688 -0.16460872 -0.28776896
-0.13412544 0.06065481 -0.16877553
0.026058167 0.1111712 0.010772029
-0.10199568 0.041149974 -0.0042918287
0.17985198 -0.024691612 -0.2412487
0.20828097 0.037520673 -0.1839092
0.03859685 0.058627263 0.38310573
0.008483432 -0.16668437 -0.25014353
-0.08007549 0.0767837 -0.008430375
0.025121914 -0.14468355 -0.09615641
-0.13406801 0.109474786 0.4305076
0.20900907 -0.09910074 -0.1610608
-0.08664412 -0.08854103 -0.28173357
-0.039828356 -0.060775284 0.27480677
0.011943598 -0.0829811 0.119658224
-0.0011011638 -0.103680894 -0.26268774
0.051786184 0.1133372 -0.29738662
0.100042574 0.14407386 -0.22484177
0.116568215 -0.07034954 -0.09116751
-0.019459296 0.14169838 0.17372449
-0.042684663 -0.05084558 0.32641718
-0.022220582 0.14501448 0.44601443
-0.029375955 0.15291156 0.24409871
-0.15278253 0.14636931 0.4206392
-0.113088906 -0.13621004 -0.18723086
-0.055090085 -0.029524647 0.441905
0.115049876 0.10461208 -0.12116647
-0.13596033 -0.020008722 0.3683561
-0.049321454 -0.04039552 0.3834991
-0.058517575 -0.086673155 0.017496154
-0.10771876 -0.031822544 0.4146227
-0.0057506934 0.12285145 0.4529497
0.206832 -0.07414011 -0.09854862
0.16298531 0.13187774 -0.18789002
-0.10098701 -0.15215631 -0.22687827
-0.11245451 -0.11127687 -0.30254853
-0.095704906 0.16847424 0.34445995
0.03372209 0.06924502 0.407565
-0.117201716 0.075582184 -0.1901007
0.09362054 -0.018656611 0.074691124
-0.037094556 -0.02742534 0.42628273
0.22026935 -0.05391633 -0.09696793
-0.06999667 0.13682914 0.17308499
0.07779766 -0.021225497 0.1334223
0.21985899 0.012711201 -0.1798487
-0.020165447 -0.2149882 -0.23591508
0.058895685 0.09048225 0.19206336
0.040971108 0.0894818 -0.13194643
-0.0176865 0.15573514 0.2974996
-0.06879073 -0.046070512 0.35945848
-0.1235473 0.026586967 -0.2790076
0.19693759 0.072196335 -0.23344201
-0.09093727 -0.0045115184 -0.092838235
-0.012178981 -0.008007359 0.4435826
-0.0064465953 0.14901759 0.27094948
0.10763263 0.043209583 -0.03276776
-0.05811019 -0.07994637 0.11330891
0.036228884 -0.10022705 0.011143116
-0.056124415 -0.046719093 0.35752827
-0.09897801 0.050171956 -0.30520374
0.20652467 0.023260975 -0.10531935
-0.08822368 -0.047090776 0.3318499
-0.15375881 0.122267626 0.4245431
0.15719616 0.06876067 -0.26147988
-0.15306039 0.12541081 0.42414388
0.07151325 0.082970664 -0.0900523
-0.064241774 -0.004349103 0.46328253
0.008927422 -0.0005309971 0.40682775
-0.13195334 -0.023107458 0.37788838
-0.010557333 0.13902903 0.16707996
0.049549915 -0.05601869 0.1426304
-0.04233828 0.031731065 0.46137583
-0.0055721384 0.15259832 -0.23753825
0.06340039 -0.223011 -0.25199318
-0.12769607 -0.09499971 -0.2358993
-0.12379158 0.12608185 0.42966792
-0.14231461 -0.036211666 -0.31191212
-0.07339569 0.03008815 -0.13168265
-0.111927785 -0.14312147 -0.16738845
0.20875876 0.010330554 -0.0871105
-0.14050524 -0.015395603 0.3205083
-0.10196874 0.067427695 -0.2573359
0.12646852 0.020242823 -0.2591597
-0.15956466 0.07345541 0.27334023
0.0998189 0.011995067 0.06423693
0.103695035 0.079548836 -0.2736157
-0.095322385 0.12297549 0.1671211
-0.12076341 0.084359355 0.13816273
0.034863327 0.07515217 0.40070668
-0.0885082 -0.052202635 -0.040256675
-0.0408452 -0.21072093 -0.22080679
-0.01438686 0.064997464 -0.2938868
0.121668756 -0.0015347428 -0.049982693
-0.09171548 0.060969166 -0.00842041
0.018285623 -0.04243612 0.2623077
-0.09948354 -0.17422241 -0.14353198
-0.014342438 0.14511505 -0.29340228
-0.0777004 0.07763071 -0.013436031
0.031626683 0.06338827 0.4194835
-0.13020054 0.0030148372 -0.15115021
-0.0621696 -0.08206625 0.06108372
0.19083765 0.09258678 -0.2677374
-0.084346496 0.10444416 0.44093817
-0.038318593 0.10473952 -0.3266291
0.012732085 -0.024606887 -0.2734508
-0.12600096 -0.10389322 -0.21217468
-0.14533271 0.06673546 0.20348868
-0.15133134 0.055519793 0.22318588
0.011674892 -0.11672204 -0.25801262
0.097387396 -0.052812718 0.0046294346
0.0085081505 -0.0715751 0.1728479
-0.0867145 -0.04421999 0.35553893
-0.12443943 -0.026102295 0.18286227
7.6022545e-05 0.13922966 -0.31736234
-0.08915888 -0.03147013 -0.089426264
0.048001654 0.016332744 0.30414096
0.018183952 0.09116162 -0.13753869
-0.08467827 0.07638516 0.44563907
-0.16381353 -0.037089773 -0.16291666
-0.08107317 0.17730388 0.37643954
-0.11964853 -0.03342247 0.20506293
0.06798954 -0.04492404 -0.25935775
0.121834666 -0.03477061 -0.061617702
0.041395213 -0.20316853 -0.11655771
0.11304004 -7.925041e-05 -0.0043542245
0.1173169 0.1471611 -0.19307747
0.009090383 -0.0077325394 0.38869336
-0.06599654 -0.07958216 -0.09601903
0.1721981 -0.022402423 -0.24311139
-0.010559623 0.09292575 -0.09967111
0.20757635 0.056806177 -0.2622714
-0.0028444058 -0.112801075 -0.039707668
-0.070669524 -0.17033409 -0.28675747
0.11737089 0.026493091 -0.058642726
-0.14487435 -0.0131619815 -0.29839978
0.11414638 0.09648548 -0.27447864
0.047746837 -0.13957022 -0.24718525
0.10597659 -0.22195408 -0.19806817
-0.04966087 -0.06777664 0.23074815
-0.14750637 -0.028722662 -0.31110188
0.12074461 0.13656016 -0.26199415
0.013936789 0.09007907 0.46230724
0.055519525 0.06557544 0.28769585
0.07167712 -0.2162121 -0.18299581
-0.12290931 -0.09633884 -0.27339977
-0.13014811 0.12477303 0.26113415
0.08076592 -0.216739 -0.18052606
0.20615757 0.055913903 -0.24548693
-0.004555841 0.1385117 0.17305063
-0.045233727 0.14668712 0.44129875
0.05659518 -0.0180498 0.21409377
-0.1474942 0.07455088 0.22242853
-0.02050653 -0.031186039 0.3834273
-0.1675849 0.0195923 0.43931428
-0.14053135 0.0015077448 -0.27979392
-0.188774 0.05651787 0.42760667
-0.11234422 -0.01855653 -0.32055587
-0.09510094 -0.09911801 -0.12704833
-0.04348373 -0.036282554 0.39830512
0.24048135 -0.03214938 -0.24621251
-0.064621426 -0.081997655 0.036648974
0.037483897 0.10152095 -0.04450549
0.034403887 0.05313055 0.39984882
-0.018101955 -0.08854785 0.10968715
-0.08215792 0.09212002 -0.26624206
-0.067844555 -0.057515454 0.28263095
0.20007826 0.039113153 -0.116534196
-0.08940243 -0.1815124 -0.20289773
0.059495434 0.14818034 -0.22424982
-0.096610375 0.18384567 0.42070386
-0.14819127 0.03427986 -0.1821286
0.01723174 0.09900285 -0.13905373
0.024422158 -0.03939615 0.25622502
-0.048249576 0.11842023 0.44551697
-0.021849109 -0.030252999 0.389504
-0.10703118 -0.15791823 -0.14675343
0.0038845753 -0.10745346 -0.0015701789
-0.006047826 0.011263077 0.47183958
0.0517258 -0.22302647 -0.24140692
-0.046040498 0.13503805 0.13735437
0.102719344 -0.033012483 0.018466553
-0.005447382 -0.06680472 0.21352097
-0.15747449 -0.050095126 -0.16324756
-0.08258613 -0.060816105 0.21600337
-0.1656966 0.112228304 0.34902507
0.006749387 -0.17361635 -0.094782956
-0.045698438 -0.04327651 0.366229
-0.1401672 -0.014848403 0.30204707
0.06662439 0.06928937 0.21062072
0.015239241 0.112753786 0.00613739
-0.1562768 0.073928915 0.25860953
0.06498802 0.0428743 0.2450646
0.024058687 -0.22190417 -0.25193158
-0.05675739 -0.057337146 0.29298356
-0.07672965 -0.17055121 -0.28716955
0.028637951 0.09386105 -0.11385646
-0.10978189 -0.09064695 -0.30782202
0.15556201 -0.15022388 -0.10217897
-0.046494666 -0.17922305 -0.1040851
-0.018146483 0.13543883 0.1310425
-0.15704319 0.00031971125 0.38393855
0.07630375 -0.12667246 -0.24387544
0.2172604 0.007458734 -0.13321006
-0.016718913 0.08153348 -0.13867539
-0.0748832 0.021122737 -0.13956884
-0.12000924 -0.11740642 -0.20711716
0.05794107 -0.016352203 0.2127257
-0.0147951525 0.15749544 -0.21117955
-0.16485323 0.0018197115 -0.20078868
-0.16477941 0.040020104 0.297739
0.2098489 0.02535378 -0.14464949
0.23026873 -0.0282683 -0.094148345
0.011097314 0.13921152 0.30494615
0.100026354 -0.06479586 -0.24981382
-0.026757713 -0.061342645 0.26115528
-0.015271349 -0.21107444 -0.20628707
-0.035490353 -0.02462299 0.43574062
-0.018047065 -0.020913962 -0.280004
-0.1486571 0.04209575 -0.16323693
-0.039686516 -0.09172416 0.062147904
-0.15743315 0.09725079 0.29379877
0.07184215 0.121433824 -0.30885306
0.091765516 -0.03449818 0.059541225
0.07334657 -0.051247247 0.08723577
0.011741269 0.13517456 0.41644642
-0.1384228 -0.08240962 -0.19396807
-0.117710955 -0.036262017 0.25056642
0.030646736 0.119801946 -0.14000104
-0.1623516 0.054416623 0.2785034
-0.053128485 0.113765195 -0.31201157
-0.11259402 0.068695866 -0.22027309
0.09837443 -0.20852058 -0.114327036
-0.18396875 0.04959195 0.43106353
0.0059673707 0.14287452 0.28786346
-0.08664711 0.11634236 0.12569825
-0.014692098 -0.21099517 -0.20545542
-0.08823928 0.02910082 -0.32400638
0.06055056 -0.14971064 -0.24299727
-0.070603654 0.17208877 0.4320988
-0.028546723 -0.08152431 0.15066104
0.09388825 -0.03293568 0.0533884
0.060595013 0.14330998 -0.25575826
-0.13819678 -0.009359924 -0.31146717
-0.13981548 0.020406518 0.16540487
0.2125494 -0.05536318 -0.2517334
-0.063055545 0.12135529 -0.2626291
0.0710115 -0.065739736 0.058821347
-0.027036052 -0.04829314 0.32341346
0.18192965 -0.16431595 -0.21861008
-0.10668076 0.15303358 0.29760808
0.18696485 -0.074232064 -0.23146674
-0.067334615 0.13172074 -0.16089663
0.18414664 0.021928256 -0.09381886
-0.071791016 -0.19669814 -0.14863676
0.09696547 -0.128201 -0.239637
-0.02437953 0.16531062 0.368879
0.16062936 0.120470256 -0.11639029
0.06328243 0.016909653 0.24244037
-0.121531434 -0.031998858 0.3290664
-0.09198385 0.074337505 -0.27414086
-0.08347157 0.04596007 -0.0660125
0.05378766 -0.124145016 -0.09412396
0.0780423 0.06464262 -0.27602476
-0.044225577 -0.06191331 0.2672047
-0.018008241 0.16339397 0.44370568
-0.122235075 -0.06852878 -0.31343025
0.19759874 -0.08923972 -0.22687061
0.032523748 -0.07912257 0.10385476
-0.011834338 -0.056267563 0.26738766
-0.18178123 0.105342045 0.40125418
0.017450536 -0.11101535 -0.25786904
-0.13141182 0.033651177 0.44389337
-0.053282574 0.15479329 0.24403942
-0.07840855 -0.06365096 -0.07602157
0.18713012 0.07730709 -0.16698356
-0.053352408 0.15578374 0.24994911
0.046972673 -0.18282163 -0.23999062
-0.118744664 0.04158402 -0.26077557
0.007814649 0.13226868 0.15528947
0.008142897 -0.09259372 0.077571005
-0.1711331 0.1091823 0.36472145
0.115993656 -0.21120542 -0.12039046
0.081588656 0.07184297 0.06527446
0.0550414 -0.07704017 -0.2563982
-0.06347369 -0.16674374 -0.28598234
0.029686965 0.050515488 0.41963992
0.0797513 -0.20867172 -0.12763429
0.04620916 0.099243335 -0.0358493
-0.16282359 0.016547885 0.33117145
-0.03834433 0.15648945 0.4409606
-0.08512189 0.047853578 -0.056607462
0.037434094 0.05947518 0.3891668
0.16151203 -0.1369983 -0.0919888
0.14667846 0.0033601373 -0.25240064
-0.09179795 0.004826182 -0.31214285
0.006495112 0.022671131 0.4674997
-0.0546903 0.17884827 0.40319437
0.03893582 0.008186009 -0.27397162
-0.0731501 -0.007410693 0.46208692
0.08642517 0.06084875 0.08098376
-0.009950127 -0.20636615 -0.17179197
-0.119363464 0.16722184 0.3741875
0.05654164 -0.14741178 -0.089643024
-0.1134088 0.016039133 0.02373986
-0.0020157516 -0.17287235 -0.25111526
-0.0037213706 0.12787077 0.09236786
0.072160915 -0.004521432 0.1793348
0.120445766 0.024357524 -0.07631851
0.1862655 0.084356226 -0.2795067
0.13672689 -0.20253405 -0.15754454
-0.12835477 -0.026589489 0.3463348
0.19786365 0.05242028 -0.15493691
0.23437904 -0.093633525 -0.23117055
-0.04829713 0.08983564 -0.047366347
-0.13312449 0.04592265 -0.2047791
0.018983925 0.10740433 0.4603363
0.07138155 0.1400135 -0.27051595
-0.0973107 -0.05241176 0.22000556
0.07946994 0.07294743 0.08128603
-0.13085139 0.17148246 0.4205991
-0.04651979 -0.021174053 -0.28544438
-0.101884626 -0.1571919 -0.1966062
-0.10954161 -0.03902008 0.32981113
0.05067821 0.038797166 -0.27690694
0.15370965 -0.16653305 -0.13245216
-0.04036824 -0.20316307 -0.17080837
0.20174898 0.042169265 -0.14511265
0.16766085 0.12977298 -0.22102842
-0.04366166 0.12111318 -0.32149556
-0.10454587 0.074520685 0.06247461
-0.08243975 -0.0672504 0.082445785
-0.09331746 -0.046990775 -0.021665623
-0.16263385 -0.038321406 -0.15037791
0.04783026 -0.012168567 0.2560045
-0.043928117 0.13347249 -0.15668498
0.001261097 -0.005964408 0.4161845
-0.051770415 -0.09452143 -0.10941186
0.108876735 -0.05439235 -0.038361814
-0.073601656 -0.09138061 -0.2787389
-0.09120006 0.1269176 0.17274639
0.11490811 -0.22489892 -0.21169862
0.038457956 0.095432654 -0.090352505
0.1329753 0.09274447 -0.27021748
0.17463881 -0.11792195 -0.09195609
-0.05623274 -0.05113902 0.33069167
0.1869221 0.0023514698 -0.24447843
-0.065864876 0.07068977 -0.06619097
-0.13860932 0.05579139 0.16509736
-0.10802869 0.07155839 -0.22861478
0.036255784 -0.18284932 -0.087532446
0.23969154 -0.01576567 -0.23452061
-0.07995786 0.09822351 -0.2597513
-0.12021593 0.02578155 0.44738644
-0.09236059 0.09987091 -0.21611105
-0.12077809 -0.056224078 -0.31578484
0.06567337 0.08093665 0.1802737
0.06359887 -0.09356487 -0.01127727
-0.09214245 -0.02760977 0.4618581
0.10193678 -0.15274633 -0.23451152
-0.052791514 0.11358631 0.0496763
-0.06868113 0.080207326 -0.15240867
-0.102878235 -0.04198824 -0.29639462
-0.14440627 -0.0037849157 0.2556344
-0.06354494 -0.03995842 0.3973874
-0.16537589 0.13185354 0.42067844
0.003521612 0.109403506 -0.14345996
-0.13793178 -0.013675953 0.24942754
0.10591356 -0.073526315 -0.2471966
0.21738237 0.007346395 -0.13382368
0.10911063 -0.17028561 -0.07563387
0.051606935 -0.014659589 0.23802851
0.10929809 -0.09220886 -0.088854745
0.11647738 0.10285438 -0.2773017
-0.0043479865 0.14365593 0.22506662
0.07328633 0.13382791 -0.30980498
-0.09477029 -0.042360082 0.35614526
-0.0824436 0.12406035 -0.19424966
-0.16235194 0.016383896 0.32797447
0.08365091 -0.07147614 0.006440162
0.20279829 0.05392586 -0.2062896
-0.09406759 0.08557858 0.44226828
0.06840827 -0.13818249 -0.24344186
-0.13641922 0.04878641 0.15020894
-0.09914181 0.15052973 0.2737964
-0.023005724 -0.030665569 0.39039686
-0.017759167 -0.19712232 -0.115665436
-0.0028246674 0.14019313 0.19602904
-0.040699977 0.022832284 -0.29179582
-0.006682766 0.13629073 0.45048842
-0.118099004 -0.026254676 -0.14384969
0.12778893 -0.21989493 -0.17035314
-0.04918314 0.06908037 -0.3150494
0.24478757 -0.053479742 -0.17487413
0.085098594 -0.20529114 -0.10167092
-0.16159861 0.0033760301 -0.20786496
-0.14082251 0.119002596 0.42758864
-0.15471004 0.007398864 0.2953716
0.020140063 0.12706174 0.15538725
-0.084864534 -0.18091854 -0.24665093
0.098314084 -0.024619782 0.047731247
0.082069546 0.09384264 -0.28020766
-0.13966016 -0.0085456 -0.3049416
-0.15865012 -0.033115234 -0.22719656
-0.08800223 0.06940743 -0.2979414
0.09801514 0.02796877 -0.26595125
0.24659894 -0.054896023 -0.18388663
0.16786633 0.12467441 -0.20048657
-0.124520786 0.054735247 -0.21289924
0.06954888 0.0089546265 0.20821801
0.09035714 -0.002673877 -0.2622237
0.11886553 -0.16024415 -0.07546059
-0.11647219 0.05278366 -0.24317949
0.046545148 0.09490707 -0.077859424
-0.05711134 0.08753477 -0.03688602
0.06994271 -0.07612224 0.030265193
-0.109082274 0.013403652 -0.14884745
-0.14791392 -0.069713585 -0.1637093
-0.09697729 -0.05375872 0.19957012
0.052062955 -0.024171747 -0.26594824
0.09181336 -0.05575396 -0.25293022
0.046110645 0.100483395 -0.023855614
-0.15658729 -0.0013648061 -0.2344037
0.016701527 -0.12745406 -0.25522253
-0.106244 -0.032676958 0.41140807
-0.06412004 0.09762178 -0.31194988
0.065714926 0.02270769 0.23532014
0.025034562 0.08107228 0.45210984
0.05863258 0.020834068 -0.27232462
0.13612847 -0.057235014 -0.24414365
-0.08021671 -0.06468628 -0.04939722
-0.107225075 -0.042367186 0.10090481
0.07341258 0.07815776 0.113580205
-0.10662845 -0.09067347 -0.3072102
-0.113476224 -0.037689757 0.14983729
0.20867543 0.055989407 -0.2686439
-0.06949484 -0.13647574 -0.11577335
-0.062987424 -0.13239262 -0.115212716
-0.111418046 -0.0151419435 -0.14444987
-0.01755113 0.14281094 0.18517423
-0.11603751 0.04538857 0.057070777
0.18642499 0.07497037 -0.15031907
0.08287646 -0.16645838 -0.23585376
0.21540713 -0.023461284 -0.25659984
-0.0224521 -0.19963986 -0.1354695
0.042653754 -0.1259115 -0.2504849
0.08609881 -0.066037826 0.012332969
-0.06781794 0.1020189 0.036054317
0.046069503 0.101019494 0.26370382
-0.046525314 0.0003285699 -0.28909627
0.008540285 0.11797365 0.035680234
0.025242051 0.124496885 0.3277652
0.18719578 0.0148974145 -0.2465563
-0.023135241 -0.20467877 -0.1693409
0.03728535 0.095129475 0.36303052
0.15928365 -0.12446365 -0.22826935
0.2053475 -0.09665768 -0.14380606
0.06795439 -0.068151325 0.059559233
-0.13838795 0.093661174 0.43236133
-0.17561206 0.056596234 0.34863988
-0.0059006047 -0.105741516 0.007269536
-0.071761645 -0.20293832 -0.18966188
-0.06400004 -0.10937386 -0.11931659
-0.11948001 0.027887912 -0.2892748
0.014296226 0.06916239 -0.28907046
-0.14068551 0.042451613 -0.18813716
-0.15052484 -0.007404557 0.41088116
0.09074285 0.069089174 -0.095425315
-0.0024049967 -0.09760842 0.057188697
0.010938824 0.13911895 0.36225185
0.10321771 0.13276641 -0.29858062
0.07687079 -0.017359361 0.14255834
-0.15256038 0.11950318 0.31684485
-0.035169303 -0.019440552 0.45534244
-0.10112529 -0.048370462 0.08159981
-0.12956795 -0.02506501 -0.3176449
0.09355061 0.08545583 -0.2765721
-0.02279594 0.13375363 -0.31895572
0.13035032 -0.21419722 -0.16297412
-0.13237831 0.029076967 0.12273042
0.16020504 -0.08173658 -0.08082887
-0.10071503 -0.15800416 -0.20363824
0.0743279 0.11924263 -0.13149418
0.057577673 -0.15603654 -0.08797785
0.101442225 -0.2232318 -0.2095677
0.2097465 -0.113483876 -0.19553275
0.023893073 0.003865789 0.37041184
-0.00533982 0.003184185 0.45919862
-0.15674049 0.067780375 0.2564685
-0.06445614 -0.04091606 0.3914318
0.1476342 0.055826977 -0.10660784
-0.03886066 -0.045242146 -0.27988207
0.24113576 -0.03014638 -0.18442367
-0.16101924 0.14767088 0.41883123
0.18151075 0.015497447 -0.09323517
-0.08889915 -0.16806504 -0.2665512
0.1352735 -0.21667814 -0.18437299
-0.119661875 -0.034488477 0.26809144
0.06642162 -0.03849039 0.13948576
0.031588767 0.111604616 0.3531938
0.20368195 0.037157383 -0.26915064
0.18651088 0.06773641 -0.119311534
-0.07865941 0.18074651 0.39719528
0.20901918 0.02999183 -0.15751454
-0.06274641 0.16130963 0.4354429
-0.06080215 -0.061376117 0.26368335
-0.1360143 0.054483585 0.15230586
-0.07611201 0.10153153 0.4430182
-0.08888319 0.05802463 0.4479459
-0.085391365 0.101757795 -0.23437442
-0.10170683 -0.00030079077 -0.03620995
-0.11031079 0.13468349 0.24009125
0.17152181 0.023093516 -0.096448995
-0.038003873 0.13857135 -0.30551377
-0.049452685 -0.0217394 0.46846265
0.008870568 0.1179535 0.03603362
-0.031157585 -0.060071304 0.27117655
0.07880211 0.032821044 0.1730509
-0.022235665 -0.12976976 -0.26232827
-0.0937035 0.1723311 0.42760935
0.21758997 0.00013006513 -0.10399181
-0.103475705 0.086653665 -0.20970057
0.08521785 0.008063928 -0.26503673
-0.03298807 -0.0471928 0.33608896
-0.12515132 -0.015930478 0.13338369
-0.08901501 -0.061246548 0.1455465
0.170582 -0.1800611 -0.2172217
-0.081183426 -0.14808485 -0.2925613
0.19023727 -0.100453235 -0.10347633
0.07211795 -0.2106029 -0.14550465
0.11532825 -0.0005967595 -0.016436035
0.094871186 -0.06478619 -0.011206469
-0.07096062 0.14471821 0.43667796
-0.09576925 0.067608446 -0.2769136
-0.09382989 0.0851102 -0.24422275
0.029780822 -0.110059 -0.25565645
-0.008297944 0.002150228 0.46486363
0.07562581 0.08213405 0.025536703
0.19239502 0.08046938 -0.2286135
-0.017168319 0.14840233 -0.27339932
-0.014455526 0.12449127 0.45099515
0.20700774 0.02871768 -0.13367283
0.09526335 0.027287636 -0.26636595
0.15777905 -0.16778722 -0.14837492
0.13648762 0.13898121 -0.23500153
-0.016216652 -0.21782938 -0.25191203
-0.100919 -0.10014343 -0.3045032
0.037981432 -0.07192346 0.11836606
-0.13100192 0.036569383 0.11691197
-0.12037224 0.05720677 0.44202027
0.22508599 -0.008465224 -0.1341856
0.0776724 -0.21961029 -0.20169899
0.09971556 -0.0049336725 -0.26003742
-0.007098293 -0.10681978 -0.26330942
-0.09539265 -0.021304348 0.46016243
0.20139205 0.045633737 -0.15710217
0.05420642 -0.18618383 -0.23802643
9.064258e-06 -0.08861381 0.104106404
0.0546611 0.045208927 0.29959852
-0.14007503 0.031263843 0.16331126
0.18821995 0.07035327 -0.14630722
-0.12224278 0.018554857 0.07031921
0.15923484 0.09454839 -0.11094766
0.16274653 -0.06853262 -0.23709916
-0.05066644 0.1225446 -0.300402
-0.0006035205 0.14578559 0.27082133
-0.0046393024 0.1282087 0.45225447
0.13139468 -0.0851371 -0.08580034
-0.15674956 0.14326255 0.3868976
-0.07309979 0.09046752 0.012070091
-0.12585507 0.027742295 0.08826361
0.04598698 0.109450065 -0.28980675
0.00013803712 -0.08564788 0.11858615
0.2315074 -0.014199144 -0.1672001
-0.13291165 -0.0018902504 0.44963968
-0.002058064 -0.10013083 0.041933734
-0.10446997 0.09292966 0.1048834
-0.040741455 0.12208195 0.069088094
0.0022258128 -0.06720708 -0.26824
-0.11023674 0.040384855 0.02710847
0.08422962 -0.21059833 -0.25008845
0.07741004 -0.18156715 -0.07982439
0.021655021 -0.035682872 0.2744797
-0.13194227 -0.02288663 0.2749031
0.08839506 0.06497538 0.035625152
0.13594992 -0.19834428 -0.14579664
0.118481226 0.011487456 -0.040825028
-0.05355964 0.10179787 0.0060825986
-0.009291922 -0.114118785 -0.058771573
-0.08424664 0.12574284 -0.18469557
-0.069503896 -0.069388606 0.17758396
0.024468398 0.12041063 0.37358925
-0.14613172 -0.050397314 -0.26474667
2.5313095e-05 0.0644707 0.4639751
0.0034241553 0.12935267 0.11474163
0.007347468 0.13861434 0.22667108
-0.054568592 0.14991304 -0.16152607
0.19189002 -0.14607033 -0.21020427
0.14944977 0.14812331 -0.1365575
-0.10343583 -0.041614722 0.33242625
-0.10344135 0.0035212848 -0.027513139
-0.09980125 -0.021785246 -0.03451207
-0.12407941 0.09859731 0.17775905
0.17672268 -0.11229169 -0.0861678
0.111660086 -0.012376377 0.00052563165
0.086366355 0.073483035 -0.12140449
0.11591983 -0.0010915421 -0.2575689
0.012625503 -0.030846808 -0.27240998
-0.04988573 -0.09177971 -0.27410385
0.06497122 0.08954191 0.12007847
-0.0907602 0.122359976 -0.17123112
-0.023054142 -0.17761363 -0.09984365
-0.10592266 0.07526855 -0.2271503
0.03862419 0.11259064 -0.29735506
0.008870787 0.12755804 0.45496765
-0.05722057 -0.06501326 0.24149977
-0.07022371 -0.068503246 0.18381856
-0.053593196 -0.17747235 -0.28225794
0.0530746 0.052550644 0.307033
0.0106348945 0.14552192 -0.27360126
0.06561874 -0.115043156 -0.24790782
0.07405897 -0.08635199 -0.011246804
0.17855379 0.11790792 -0.26764736
-0.1320216 -0.010091223 0.16970342
-0.08794371 -0.041982695 0.3705807
-0.05513967 -0.073790595 -0.2781705
-0.06947699 -0.073868595 0.13019632
-0.12609968 0.07099055 0.13304357
-0.11021276 -0.1346158 -0.22030897
0.004440962 0.07580256 0.46290135
-0.11320108 -0.11730511 -0.26929593
0.018313905 0.1301057 0.19031814
-0.014994137 0.11741106 0.024081238
-0.10338257 -0.049101092 0.14716047
0.005470055 -0.16002192 -0.09733755
-0.113391206 0.014486991 0.45061848
0.22583233 -0.019594386 -0.09204202
0.06647949 -0.20249027 -0.095438495
0.108940534 -0.16559806 -0.23098098
-0.13868561 0.05073242 -0.1761534
-0.07973688 -0.035456583 0.42214116
0.058196362 0.0023052571 0.24405745
-0.08798755 -0.04283472 0.3641242
-0.10916029 0.13406754 0.23533353
-0.16457056 -0.03267852 -0.17543815
-0.13148165 -0.013654855 0.17853284
-0.09287681 -0.053190846 0.2525371
-0.03211801 -0.008652667 0.4702014
-0.011746333 0.16534501 -0.15725014
-0.11485152 -0.03699517 0.3102251
0.18262985 0.037898388 -0.25134155
-0.062336486 0.10232248 -0.15494284
0.016390763 0.05585887 -0.2864071
-0.15864803 -0.020023907 -0.26939604
-0.03112316 0.074149296 -0.13848284
-0.06425258 -0.07580308 0.1325324
-0.04035403 -0.10239584 -0.07164503
0.028509159 -0.023833852 0.29036555
0.17338043 -0.1586666 -0.178458
0.065458074 -0.21559374 -0.1830149
0.22888704 0.0039596325 -0.22324938
0.1551662 -0.18983963 -0.18906924
0.06858177 -0.21989194 -0.25152424
-0.051207155 0.119559176 -0.30531088
-0.11085326 -0.056147292 -0.31388634
0.07296495 -0.022469431 0.14861156
0.15330796 -0.035621926 -0.24450475
0.08127138 -0.15124328 -0.23874661
-0.083647504 -0.06992329 -0.28431728
0.21352775 -0.106315516 -0.24289335
-0.060620725 0.124600224 0.10767512
0.04305183 0.15951003 -0.16003886
0.034234095 0.04596368 -0.28129122
-0.0039358404 0.12990817 0.10760835
-0.020630013 -0.070641205 0.21017288
-0.015932644 -0.054119036 0.28248668
0.03899875 0.11483699 0.19148675
-0.1582237 0.0028274958 -0.21993509
-0.14584231 0.02020996 0.2029451
-0.018226529 0.1339332 0.122039616
-0.02086691 -0.11090128 -0.06133284
-0.05011114 0.1604215 -0.21504146
0.20923871 -0.094657265 -0.15192313
-0.10739196 -0.045495834 0.17788656
-0.10517583 0.12678486 0.20314129
0.20614283 -0.09664073 -0.14633775
0.14645794 -0.037529092 -0.24550003
0.17252667 -0.16320643 -0.18579346
0.18725018 -0.1090832 -0.2254951
0.001422604 0.13814971 0.1909324
0.066147715 -0.14426775 -0.24284355
-0.10839783 -0.08407552 -0.1321634
-0.07367625 0.09982075 0.042048782
-0.056514096 -0.02394021 0.46809685
-0.051584262 0.12315599 0.44407073
0.19439149 0.08035355 -0.2462056
0.08450141 0.13602237 -0.13238372
0.024518998 0.12709041 0.20167175
0.129579 -0.016723344 -0.089948
-0.07339748 0.11068874 0.4419859
0.2037926 -0.084668726 -0.112141125
0.20832239 0.042009138 -0.20400238
-0.077460736 -0.19287321 -0.12705275
-0.10548326 -0.12918855 -0.28703776
-0.08016491 0.011979539 -0.14303526
-0.029465089 -0.11403969 -0.11187288
-0.055952765 0.10379001 0.01808702
-0.12752849 0.09612598 0.18437429
-0.15805338 -0.040378798 -0.20068774
0.0483029 0.07426656 0.32252294
-0.12864374 0.072226875 0.14482486
-0.0036224234 0.15237135 0.40691307
-0.13672562 0.029091321 -0.1568349
0.17996973 0.0025321522 -0.2458486
0.00809306 -0.21320723 -0.2643102
0.10317802 0.0044984394 -0.2609723
-0.011752113 0.15586461 0.333155
0.1330867 0.08643284 -0.11460587
0.08762504 -0.010860775 -0.26135936
0.09270595 0.034409083 0.09277707
-0.13189618 -0.017672123 0.20942093
-0.09002414 -0.19257843 -0.13335048
0.0036786112 0.107243486 -0.035776637
0.0753933 0.09621275 -0.12737815
-0.1281699 0.14341342 0.31142023
-0.05876087 -0.19568096 -0.13328117
-0.12589237 0.046099257 0.10012565
0.11949708 -0.14920586 -0.07721286
-0.0518682 0.15616523 0.43841124
0.10467069 0.046867147 -0.024247985
-0.043222036 -0.1420953 -0.26427752
0.11539398 -0.18559103 -0.23871182
-0.08089433 0.13883027 0.43576485
-0.09841385 -0.044374812 0.017102815
0.022057427 -0.009277727 -0.27425644
-0.005663197 0.15390797 0.380806
0.05086022 -0.07489519 0.08140501
-0.0008479074 0.08691894 -0.13800801
0.028234348 0.09914295 -0.077795565
-0.019798232 0.10057072 -0.053810596
-0.029942485 -0.04643319 0.3355403
-0.029524267 0.1360189 0.13365144
0.011329414 0.07989187 -0.29146275
0.043408323 -0.080295034 0.07739235
0.06625979 -0.20530222 -0.114231244
-0.15643147 -0.0012476653 0.4010823
-0.061941717 0.10382161 -0.3052823
0.081688404 0.15678671 -0.15280259
-0.07683041 -0.072177395 0.05584603
0.08701999 0.05442507 0.09544703
-0.017370466 -0.04288187 0.3320213
0.11144341 0.045513578 -0.08967634
-0.042091124 0.10083208 0.44969034
-0.08068775 -0.047783904 -0.28750682
0.10539266 -0.18131924 -0.07447665
-0.06174029 0.15372393 -0.19493926
-0.14819464 -0.021215912 -0.30569622
0.026194952 0.12594695 0.23300852
0.22036026 -0.007832501 -0.094117485
0.057275597 -0.12922494 -0.09258945
0.11473276 0.13714014 -0.2619699
-0.08911046 -0.051613484 0.2842601
-0.07925363 -0.12869614 -0.28282994
-0.12345795 -0.11179567 -0.20051478
-0.018677788 -0.11552408 -0.09953594
0.012922928 -0.06895374 0.17741296
0.019929338 0.12987177 0.20306237
-0.16245945 0.13574895 0.38529065
0.043121736 0.105661765 0.26562226
0.17066956 0.049895905 -0.2556817
0.05653731 0.09908536 0.05976666
0.11532564 -0.00532416 -0.015784852
-0.10208397 0.0011784968 -0.034401827
-0.14747167 -0.0039683385 0.29046446
0.06236537 -0.014208887 -0.26565516
-0.12422394 0.046344385 -0.23252419
0.068000846 -0.21697487 -0.19048761
0.2510087 -0.050926507 -0.189606
-0.08221633 0.115493685 -0.21404462
-0.042036597 0.16434574 -0.18366158
0.14868964 0.07874293 -0.110295445
0.23923312 -0.028842505 -0.17290285
-0.09621171 0.07522446 -0.25854382
0.073261105 -0.20052297 -0.07789347
-0.1198248 0.017455032 -0.31157666
0.08479375 -0.20903656 -0.1267111
-0.106295325 0.021801742 -0.0064991466
-0.0486409 0.1175235 0.060181703
-0.05145449 -0.07551595 0.17088725
-0.091190346 -0.0317582 0.4426834
0.046349403 0.09738762 -0.0538468
-0.03523619 0.06493636 -0.29789189
0.084647655 -0.21090819 -0.13922323
0.13277034 0.12174703 -0.120663606
-0.0055981297 -0.013621838 -0.27884525
-0.11312191 -0.032313928 0.3903145
0.036925912 -0.053671453 -0.26385456
-0.04072557 -0.20880206 -0.20831713
-0.08341428 -0.039634757 -0.13489734
-0.12888725 -0.09998788 -0.20316988
0.019657906 0.1308884 0.32772034
-0.069430575 0.122895926 0.44067767
0.19499062 0.03050741 -0.09318753
-0.068790436 0.04032166 -0.30017444
-0.13387556 -0.07218918 -0.2801064
0.14944234 -0.2141166 -0.22429523
-0.06448297 0.14390552 0.19675128
0.2405119 -0.05640412 -0.24151811
-0.12627289 0.078252465 0.14582804
-0.15573597 -0.04667233 -0.19405156
-0.085760795 -0.18536852 -0.21897289
0.035596233 -0.15643384 -0.09214445
0.048649535 0.054323837 0.33029425
-0.047204312 0.15273707 0.23221102
0.14095958 -0.19280119 -0.14979993
0.2184465 -0.003097161 -0.097579114
-0.05860903 -0.08829629 -0.046311133
-0.03607844 -0.03408996 0.3966596
0.2246271 0.009459722 -0.20879221
0.023080667 0.120017014 0.3913907
-0.062262222 0.15735675 0.26101455
0.02022756 0.1312138 0.2647027
0.11347102 -0.013258336 -0.00838126
0.0805962 -0.0906259 -0.04064365
-0.1126921 -0.029594343 0.0768708
-0.09011073 0.08131581 -0.26464957
0.07066432 -0.006229849 -0.2654126
-0.05711316 0.1371765 -0.2468716
-0.092942886 0.04921269 -0.026573272
-0.0005979588 -0.014221416 0.39564407
-0.12628074 -0.08779577 -0.2803782
-0.053986438 0.14832145 0.4393348
-0.13262056 -0.023552354 -0.31676093
-0.11880687 -0.032519344 0.16821037
0.0326854 0.065508336 0.4135752
0.08789843 0.11575478 -0.3047956
-0.0053007067 0.005023749 -0.28195453
-0.018395377 -0.05857463 0.2673119
0.17504613 -0.14588895 -0.1554356
-0.04833664 0.16986945 0.34439564
-0.056942783 0.122808054 -0.2794007
-0.0029827573 -0.09631064 0.064975
-0.052373618 -0.090651885 0.01112236
-0.03527574 0.13245827 0.44563255
-0.003482 -0.08454523 -0.266395
-0.0119158 -0.029708328 0.37111613
0.0824341 0.07469797 0.018513475
0.09055155 0.059624627 0.04703516
-0.08881595 -0.17116213 -0.25369996
-0.023187876 0.14933972 0.22636141
0.098910786 0.09794967 -0.12314404
0.05540466 0.13737267 -0.13821639
0.16635756 0.11435117 -0.14143434
0.09363809 0.057051774 0.030040544
-0.06506724 -0.19599757 -0.13956253
-0.07707723 0.119001314 -0.22280034
0.19742402 -0.084140025 -0.22777024
0.034775503 0.07459994 -0.28604922
0.087160036 0.13666669 -0.2821499
0.23515485 -0.019050134 -0.17895678
-0.057035293 -0.050160628 0.33649907
-0.13041665 -0.034227278 -0.14486745
0.23608129 -0.031298775 -0.13352829
0.03301038 0.076973535 -0.28679216
0.08947861 -0.011606633 0.10101382
0.07724967 0.07831989 0.06416059
0.025530752 -0.07149607 0.145383
-0.17114319 0.12200391 0.3868094
-0.018827153 -0.06526104 0.23509368
-0.18811963 0.073588274 0.412775
-0.09105381 -0.056845427 0.021310296
-0.10267835 -0.037964992 0.37151957
-0.015667172 -0.114433326 -0.07784378
-0.10659595 -0.042873092 0.29221913
-0.0067792777 0.14311746 -0.3017104
-0.14441644 0.10162482 0.2541207
0.04584096 -0.20097455 -0.09905969
0.012515834 -0.16353099 -0.24990217
0.1256678 0.13922046 -0.24101724
0.09985318 -0.13242136 -0.083846025
-0.07085989 0.111009315 -0.26062188
-0.12747753 -0.020364597 0.45382288
0.16566443 0.020601124 -0.25167137
-0.082108006 -0.052790094 -0.093344435
-0.0711716 0.18544829 0.42815173
-0.059189264 -0.08286994 -0.27740818
0.05171526 0.024458248 -0.27427256
-0.10220567 -0.13639928 -0.28506672
-0.10546991 -0.033187393 0.4090983
0.023761809 0.12749712 0.30196732
-0.074233286 0.13827094 0.1854006
-0.10057715 -0.13869888 -0.28973728
-0.007111307 -0.08149397 0.14522414
-0.039888952 -0.19567032 -0.12070692
0.05349035 0.09062286 0.24979025
-0.11154389 0.012884933 0.014256663
-0.06456705 0.16220313 0.2874577
-0.13122578 0.16707046 0.39792705
-0.10152024 -0.0078675505 -0.03618044
-0.0023257518 -0.10519514 0.011153668
-0.032688573 0.11630565 0.44887254
-0.10156608 -0.16037576 -0.18550435
-0.12426887 -0.08130389 -0.30958483
-0.016380886 0.10267269 0.45432967
-0.103671126 -0.045911547 0.09056482
0.038204484 -0.073191695 0.1133877
0.1762976 -0.115972586 -0.09297626
0.031535078 0.084844574 0.41435936
0.1796374 0.105499186 -0.22293986
0.03823789 0.11510329 0.13860206
-0.16382077 -0.02847287 -0.20071496
-0.09937864 0.08608181 -0.22417852
-0.12487452 -0.029004209 0.2359544
-0.07406535 0.12057345 -0.16029967
0.20805195 -0.12624586 -0.21848053
-0.081447184 -0.048127368 -0.11238256
0.24125203 -0.03664665 -0.15691172
-0.13071519 -0.024674647 0.3353079
0.2268998 -0.06353634 -0.13977487
-0.09289312 -0.0073776715 -0.29671815
0.21456942 -0.100585036 -0.243666
-0.01658296 0.07273267 -0.29562336
-0.115834706 0.026526576 -0.15237638
0.124840006 0.009637303 -0.25767204
0.014928295 0.10176132 -0.067685165
-0.13691904 -0.018869035 0.40121335
0.042202786 0.07377303 0.36085826
0.007480948 0.121297576 -0.3212248
-0.12193522 -0.11269495 -0.21036288
