# .PCD v0.7 - Point Cloud Data file format
VERSION 0.7
FIELDS x y z
SIZE 4 4 4
TYPE F F F
COUNT 1 1 1
WIDTH 1000
HEIGHT 1
VIEWPOINT 0 0 0 1 0 0 0
POINTS 1000
DATA ascii
0.07716799 0.022412878 0.21262981
0.04342056 0.10569525 -0.0053192964
-0.10934842 -0.052194808 0.11571336
0.05372189 0.014366544 0.3435922
-0.15580647 -0.029365782 -0.30343592
-0.106534 0.077434085 -0.30962384
0.11985341 0.16020349 -0.2793785
-0.060032718 -0.033139974 -0.27707905
0.15236472 -0.15788919 -0.10368619
-0.05208018 0.082160346 -0.10272491
0.043348376 0.016391834 0.40024707
0.032213677 -0.06728566 0.22207834
-0.09213482 -0.13852184 -0.2961217
-0.10541334 0.1293255 -0.14255138
0.14272514 -0.010447616 -0.24392484
-0.12214858 0.055206228 0.11019689
-0.1232551 -0.05065418 0.23196205
-0.08194861 0.033738706 -0.2862934
0.22509183 -0.06641733 -0.21949373
0.24372157 -0.02158154 -0.19673793
0.06975459 -0.08450272 0.006696906
0.016860476 -0.026415361 -0.2643538
-0.035890087 0.13061127 0.1940348
-0.10206636 0.09519945 -0.28717512
-0.14048828 -0.05117907 0.46608663
-0.06897219 -0.19600351 -0.19263363
0.10465111 0.016450766 0.049256954
-0.028403986 -0.1578308 -0.105936326
0.11987033 -0.16051789 -0.23721592
-0.12582651 0.058511525 0.13456368
0.062255245 0.09708533 -0.04783291
0.19580927 -0.07653003 -0.10783409
-0.17759134 0.011767812 0.40059805
0.045466 -0.03167413 0.30009604
-0.15965594 -0.048473693 -0.23106302
-0.12316502 0.04535189 -0.31121254
0.056413833 0.010399814 0.32474205
0.02516688 0.08703804 0.44730955
-0.049494456 -0.0046631456 0.48249707
-0.053392936 -0.07653876 0.38263938
-0.14545442 0.12810946 0.44773075
0.015082512 -0.19576915 -0.15103072
-0.13941161 -0.081956744 -0.2195344
0.014127117 -0.15758659 -0.09861501
-0.18155973 -0.019363038 -0.19726929
-0.14489916 0.060666997 0.23182175
-0.12748267 0.022932068 0.09560214
-0.022065783 -0.09966081 0.09811112
-0.021718705 0.13636672 0.37454644
-0.09003397 -0.07593046 0.31645977
0.10167198 -0.19940305 -0.22701305
0.14599366 -0.17120726 -0.10644236
-0.10064572 0.036258653 -0.031523805
-0.008964441 -0.1456256 -0.103572406
0.23774585 -0.03200717 -0.19491981
-0.090421356 -0.1597054 -0.20926802
0.20186873 -0.09380158 -0.1779203
0.21141358 -0.103175364 -0.24521792
-0.035205763 -0.10991108 -0.2665582
-0.16332437 0.10787915 0.45370668
-0.16132641 0.004553581 0.305438
0.12273102 0.008411548 -0.055912275
-0.1423852 -0.033977367 -0.30794558
0.111269064 0.17517683 -0.21029493
0.0910274 0.1345433 -0.26462483
-0.0007200137 0.12632088 0.33024845
-0.12448328 -0.025211606 0.11806981
-0.11094253 0.101829425 -0.22988398
-0.02091848 -0.10683433 -0.031500738
-0.12564342 -0.0571967 0.34787408
0.15418024 -0.05618181 -0.23823307
-0.0123802675 0.12484777 0.13376111
-0.015464268 0.13289249 -0.30500948
-0.17121594 0.0060014934 0.36946496
-0.039870027 0.034993228 -0.27913257
0.00013584495 0.11853888 0.055233963
0.12101879 0.13876997 -0.28192922
-0.08777697 -0.06807202 -0.12347478
0.008732918 -0.12020408 -0.10258336
-0.04525506 -0.18717252 -0.27994147
0.079717524 -0.13303803 -0.0892877
0.009894104 0.13218074 -0.122881
0.0385724 0.040717527 0.43626457
0.15076278 0.15120581 -0.19225055
-0.018877422 0.13169229 0.24231036
-0.07761551 0.011713267 -0.28375715
-0.064613625 -0.18715641 -0.2764808
0.06518949 0.043609753 0.27017474
0.100014195 -0.19035065 -0.12203607
0.15071368 -0.19395842 -0.18374781
0.03462319 0.079070225 0.4067966
0.23562476 0.011354662 -0.14663434
-0.12272419 0.04972013 -0.30216765
0.009737339 -0.009784146 0.49313515
0.0014960297 -0.046427045 0.43023497
0.07629212 -0.1972447 -0.19175847
0.18756096 -0.077273734 -0.07520261
0.22304425 0.03692274 -0.17940058
0.019922765 -0.05869191 0.30653518
-0.087623306 0.0468741 -0.07445862
-0.121954314 0.14088885 0.4409601
-0.07539107 -0.068990976 -0.075188145
-0.09190542 -0.098168366 -0.12174292
0.06880068 -0.08393839 0.012769128
0.2070022 0.010080421 -0.07894265
-0.10912807 -0.012801289 -0.0037578635
0.16927516 0.031477414 -0.0871922
0.116334446 -0.013638981 -0.017567584
0.034259595 -0.10394493 -0.0025156678
-0.0685497 0.07385378 -0.07450429
-0.014497071 -0.031259317 0.49069673
-0.070480496 0.08497112 -0.023680625
-0.05745089 0.09428112 -0.13142666
0.11715338 -0.06303351 -0.24406746
-0.0038090618 -0.055223405 -0.2655816
0.20776208 0.07478109 -0.25575608
-0.10299519 0.03925535 0.46969393
0.06640494 -0.1640464 -0.24462268
-0.004360039 0.12427745 0.44772655
0.10901872 -0.006388632 0.025525022
-0.05699648 -0.090209596 0.16948019
-0.050404873 -0.20784149 -0.26716876
-0.16982652 0.094693266 0.42479697
-0.13375087 0.09593261 0.4597819
0.052622724 0.028500708 0.3538178
-0.02177352 -0.1171383 -0.26365295
0.12612101 0.13232414 -0.2805249
0.11973156 0.13314956 -0.1040012
0.1382179 0.018424237 -0.24704844
-0.038661968 0.10209089 0.47569436
-0.17789207 0.0053943717 0.41601142
0.050853923 -0.19189318 -0.12056638
0.120965265 0.0749364 -0.2546151
-0.112022884 -0.064971276 0.31432974
-0.08415115 -0.0010943253 0.47622347
0.05433763 -0.098189525 -0.015675105
0.072907105 -0.07201117 0.049235307
0.054755334 -0.08744435 -0.25285494
0.2119689 0.031533297 -0.25752163
0.05442592 0.00919923 -0.26076144
-0.010380666 -0.19565797 -0.2769284
0.038950693 0.08409752 0.3530645
0.08135228 0.08587333 -0.08442531
-0.1154884 0.08237073 -0.2561367
0.16816422 0.12013574 -0.17002185
-0.16105226 0.090404175 0.3735044
0.05041329 -0.013509405 0.31957483
0.2547671 -0.0073322626 -0.2136659
-0.016497526 -0.17212395 -0.10272054
-0.016830206 -0.09824999 0.12167294
-0.10685251 -0.062043913 0.17902052
-0.1799936 0.0126969265 0.41493177
-0.10879494 0.12010396 0.2789205
-0.16789453 -0.04427746 -0.18504857
0.03648985 0.012423439 0.4313064
0.06099578 0.033489183 -0.261601
-0.11726414 0.121849015 0.31743336
-0.15940978 0.03616578 -0.16483615
-0.10178579 -0.06986192 0.41234645
0.056129772 0.09461644 0.11387394
0.043487955 0.10481096 0.09767559
0.062429376 0.013861231 0.29513702
-0.007574046 -0.091418974 0.1841168
0.0032925126 0.0001923538 -0.26885632
0.012103949 0.120323785 0.25473145
-0.12846951 0.029121405 0.10441918
0.053298507 -0.018562527 0.29546106
0.13369162 0.056233175 -0.2509
-0.014404919 0.1321335 0.43040013
0.16844945 -0.17547937 -0.22087789
0.033366587 0.0133926915 0.44879732
0.06534626 -0.14879738 -0.09048803
-0.10257251 0.03968556 -0.015465818
-0.17262463 0.028969074 0.35430214
-0.09043747 -0.15856175 -0.21527757
0.051570646 0.10192399 -0.04445849
-0.11442897 -0.08842024 -0.12642257
0.11312808 0.02305474 -0.009360077
0.043504138 -0.030407026 0.3124184
0.13537681 -0.02590663 -0.08838127
0.06178395 0.18092297 -0.12469766
-0.14911759 0.07001383 0.2705563
-0.114875175 0.019884575 0.023103362
-0.03312648 0.13423726 0.24860385
-0.04125508 -0.038278837 -0.27342123
-0.01143222 -0.09358867 0.16653581
0.039544944 0.016572237 -0.263929
-0.03087017 0.16438414 -0.2770183
0.031441547 -0.0074514505 0.42374668
-0.10708004 0.04645603 -0.3138021
-0.08390205 -0.07265461 0.043417092
0.06733844 -0.05369946 0.14062382
0.06589308 -0.10069175 -0.06516001
-0.13753769 0.095997974 0.45912305
-0.11720308 0.02959196 -0.1364861
-0.13143303 0.088913605 0.23747386
0.061292607 -0.19394316 -0.1481086
0.014760484 -0.075145625 0.23991896
-0.15767238 -0.05388186 -0.21849647
0.0014689744 -0.19944164 -0.18779546
0.19425954 -0.015625091 -0.07905286
0.005935502 0.12209006 0.14588583
0.08133687 0.0860652 -0.09049693
-0.0050846664 0.10630449 -0.084063865
0.05599958 0.09958362 -0.10237159
0.03467437 0.12841427 -0.2738542
-0.18215226 -0.0051540555 -0.15987708
-0.09734598 -0.009513352 -0.2854388
-0.116688564 0.06811546 -0.28524503
-0.059668344 -0.013167118 -0.27863857
-0.12955673 0.02097491 0.10707255
0.07043442 0.16741976 -0.11529379
-0.017033286 -0.08559085 0.25196624
0.108686864 0.019805541 -0.25225693
0.21606608 0.02985575 -0.083314486
0.014125669 -0.11097605 -0.035239827
0.0938064 -0.0017430722 0.11319003
-0.054186966 -0.0077503454 -0.27813232
-0.08546093 0.11106146 0.15423605
0.2094689 -0.088547975 -0.20045614
0.072280005 -0.15643796 -0.08867099
-0.031001661 0.1631515 -0.29142705
-0.06581148 -0.05860448 0.48405996
0.1635805 -0.1326845 -0.09455628
-0.008100417 0.044219684 -0.27439824
-0.042240202 0.11919522 0.09151073
-0.044301517 -0.093269 0.16241801
-0.07195603 0.11037826 0.10973787
0.19340967 -0.09528912 -0.14225075
-0.05176283 -0.0701928 0.44445872
-0.15796024 0.025805138 -0.19676198
-0.10002263 -0.026625106 -0.044835582
-0.06577169 -0.13565297 -0.114188306
-0.06406733 -0.112540565 -0.115770526
-0.011175957 -0.20126359 -0.20269127
0.10572355 0.03787539 0.012656612
-0.13002492 0.060548216 0.15900838
0.025588298 -0.0770813 0.19598337
0.1259897 0.12058795 -0.101900406
-0.09253998 -0.14640279 -0.2631606
0.021033552 0.1641843 -0.299315
0.03868645 -0.141399 -0.0956906
-0.030333444 -0.08718909 0.25104982
0.04689863 0.07853928 0.31439734
0.09611968 -0.0511252 0.01886791
-0.17949279 0.0054984805 0.42665347
0.04780399 0.09310529 0.22405529
-0.06950714 -0.082120135 -0.002637717
-0.034938328 0.09946752 -0.06599451
-0.13374946 0.040317375 0.14551446
0.1579408 -0.17190334 -0.24787022
0.2136962 0.05823263 -0.21617243
0.054030042 -0.179768 -0.25074598
0.1711637 0.003618145 -0.08460398
0.047089715 0.17271866 -0.21242438
-0.15740675 -0.005691646 -0.27599236
-0.05809305 0.10510182 0.036844324
-0.109005496 0.12973519 -0.17098507
0.047716256 -0.062884495 0.18482868
0.015636086 -0.02637066 0.44854176
-0.17036647 -0.028385064 -0.24992833
-0.14852184 0.10578332 0.36717102
0.15940201 -0.1463201 -0.10826572
-0.1271505 0.05184215 0.12807606
-0.14757693 0.0633533 0.25010407
-0.057275012 0.1457765 0.39102906
-0.110578865 0.13084494 -0.16098711
0.0018044373 -0.05405566 0.39317074
0.206087 0.077210434 -0.25487536
0.061102998 0.1738584 -0.20503324
0.07825717 -0.19715789 -0.19152653
0.08525988 -0.00860963 0.15106301
-0.15194702 0.00445662 -0.14044143
0.067036524 0.17177053 -0.23087765
-0.00015025777 0.12261321 0.12774628
0.051659193 -0.19789854 -0.18965358
-0.085726365 0.13980906 0.34456396
0.08667429 0.027439682 0.15113509
-0.10031745 0.116087876 -0.24446896
-0.1809985 -0.024108743 -0.18442354
-0.008656441 -0.10774682 -0.004275153
-0.16424847 0.022149723 0.30750445
-0.029912436 0.12533836 0.1317262
0.07082378 0.032269336 0.24532916
-0.15667024 -0.020524975 0.34078404
0.14567895 -0.13626102 -0.23319602
0.19277124 0.089339264 -0.20925614
0.047833793 -0.1907033 -0.10577138
-0.18212825 0.0579435 0.4196032
0.09774886 0.019576687 0.08935445
-0.03719004 -0.09191374 0.19449009
-0.1836744 0.060932692 0.43128905
0.16100752 -0.13880523 -0.09747221
0.01957951 -0.13925366 -0.25471827
0.008199347 -0.10114608 0.06964139
0.026546327 -0.19743906 -0.17462197
-0.07580247 -0.0832247 0.15893933
-0.0243624 0.10777131 -0.28236678
-0.085972756 0.044883743 -0.08637689
0.042406157 -0.08071064 0.122350655
0.08791337 -0.08804052 -0.07490161
0.07922007 -0.14778689 -0.08817544
0.031413786 0.10419537 0.28552133
0.050111555 0.17682509 -0.16677278
0.04739048 -0.076917075 0.12241568
-0.019834265 0.090174556 -0.28015527
0.20661238 0.015037287 -0.25710568
-0.035239127 0.104173996 -0.03562597
0.10924444 0.0005613665 0.025532985
-0.11215968 -0.039606854 0.4745174
-0.15139869 -0.0722145 -0.1721364
-0.11539818 -0.1329468 -0.12297341
0.11326057 -0.015029186 -0.003013473
0.15291342 -0.102694504 -0.23467487
0.22259533 -0.053437695 -0.17633386
-0.09015786 -0.06205559 0.010451215
-0.007873064 -0.047432397 0.45899203
-0.08031183 -0.16181539 -0.28207007
-0.097019196 0.013711447 0.47280005
-0.12359441 0.040021516 0.092087395
0.026031833 -0.19370236 -0.13162188
-0.050099954 -0.08790415 0.2405801
-0.140294 -0.046859905 0.38042638
0.009203583 -0.058943827 0.34367326
0.13240139 0.1259256 -0.1012278
0.011246866 0.011348537 0.49167925
-0.08779425 -0.18056905 -0.118955374
-0.08097039 -0.07326259 0.4210233
-0.11423045 0.108357094 0.24298432
0.0641124 -0.05882671 0.1345353
0.022419382 -0.18496616 -0.27265418
-0.059569363 -0.16765785 -0.28821126
0.13078539 0.17287973 -0.24416298
-0.1628739 0.018914156 -0.19073994
-0.09835804 0.0010030611 -0.07466436
-0.11925941 0.08836624 -0.22405997
0.09697572 -0.013469093 0.08398061
0.04059275 -0.057829145 0.23256561
0.23538548 0.018047545 -0.18063395
-0.13767056 0.045874085 0.17270409
0.15852053 0.1423841 -0.20937629
-0.14483373 0.11515776 0.38798645
0.091365464 -0.08446202 -0.071995586
0.15315612 -0.072002955 -0.081568815
0.080593765 0.052075498 0.15326354
-0.103321105 -0.07012996 0.29935837
0.0032890984 -0.040257283 0.44875404
0.04716654 -0.062199928 0.18963228
-0.110409856 -0.039231587 -0.29943234
-0.01243846 0.03356411 -0.27428177
-0.14968075 -0.017118575 0.27312636
-0.1557482 -0.011200458 0.3006827
-0.078549564 -0.17663582 -0.21705286
-0.085868254 -0.07837221 0.2318141
0.09897771 -0.20020188 -0.23510404
0.051378477 0.07497473 0.2943532
0.0838588 -0.08665731 -0.05388756
0.18490858 0.08282603 -0.10878828
0.119834594 -0.15033163 -0.23651439
-0.015499451 -0.009667368 -0.2712989
0.061986953 0.17829688 -0.15473677
-0.03114384 -0.10076073 0.056520015
0.23520568 0.027867587 -0.23194107
-0.093282014 0.15188886 -0.14229077
-0.006596383 -0.19237463 -0.27705953
0.03777329 -0.19389889 -0.13844535
0.02069835 0.043763746 0.49067777
-0.01212237 -0.15479542 -0.25892803
0.045132387 0.014135813 0.38820353
-0.11985041 0.09987997 -0.19331247
0.022773216 0.07845062 -0.2718498
-0.08640683 0.151857 0.4583866
-0.16844374 0.021727728 -0.1580617
0.08600161 0.067849405 0.05467072
0.033105686 -0.052776117 0.28175
-0.14295386 -0.009264924 0.20985593
-0.0107646715 -0.19353272 -0.11535874
0.03306783 0.043290466 0.46815
-0.004783311 -0.09764352 0.1187386
0.2207841 -0.054577097 -0.17063056
0.029671079 0.10973843 0.2301028
0.038297173 -0.04893077 0.27554488
-0.08614359 -0.16691281 -0.2061163
0.018588152 0.14548576 -0.30015394
-0.02043219 0.12649094 -0.30534732
-0.13071096 0.10425308 0.28999197
0.08326351 -0.10798685 -0.24626596
-0.052472204 0.087824985 -0.07460881
0.17896903 -0.020808334 -0.08127174
-0.16398858 0.01947688 -0.18420188
0.077408634 0.00562112 0.2081245
-0.15555061 -0.024403628 -0.13871911
0.121824615 0.020558398 -0.25005165
-0.04721072 -0.18131849 -0.28330138
0.21669294 0.05016764 -0.19775337
-0.0503875 -0.09301054 -0.074826986
0.017956046 0.115915745 0.06443172
-0.12689458 0.1049802 -0.14823677
0.027731191 -0.0039383736 0.44877797
-0.14051384 -0.08151719 -0.21272022
0.1924749 -0.04183774 -0.07723164
-0.11359135 -0.027948113 0.04995633
-0.17524746 -0.031538572 -0.19234233
-0.047846388 0.07386857 -0.283668
-0.11915174 -0.05259203 0.2082395
0.2370584 -0.009428035 -0.1364038
0.015653234 -0.14499786 -0.2549291
0.031504266 0.023071304 0.47020036
-0.07480492 -0.07486444 -0.03801692
-0.08893262 -0.07612162 0.3330471
0.010493809 0.11909955 0.3299882
0.03762669 0.10823547 -0.2717056
0.0007727751 0.039070603 0.48761994
0.03717618 -0.060845222 0.2346962
0.106012106 0.03910787 0.008111039
0.15860806 0.13586608 -0.17506465
0.04990503 0.08910241 -0.2680315
0.008390774 -0.1262622 -0.25770515
0.17708902 0.12000112 -0.24357896
-0.09030965 0.07580187 0.02008374
0.035654258 -0.08329161 0.12889962
-0.16335623 0.0057750307 0.46199512
-0.111226775 -0.04970054 0.115118824
-0.08898988 -0.12010033 -0.119458176
0.06548113 -0.09507046 -0.25038376
-0.1600516 -0.0068142046 0.3206545
0.0002781726 0.10675033 -0.086065896
0.09590933 -0.1070534 -0.24415936
0.10881705 0.020500284 0.019728558
-0.01165126 -0.09424936 0.16015746
0.20632258 -0.0534464 -0.10059457
0.068585984 0.17061593 -0.24498226
-0.050286144 -0.20700143 -0.2541599
0.2063564 -0.060742814 -0.1184734
0.21918452 0.025027469 -0.08330963
0.0908978 0.003312436 0.13072707
-0.15781583 0.042721268 -0.14456303
0.21491982 -0.06457905 -0.16755189
-0.04946985 -0.09169218 0.17283043
0.004138091 0.16947243 -0.23224178
0.043467436 0.18000227 -0.12786815
-0.0045981547 -0.04970219 0.4365836
0.037034 -0.018675342 0.3741471
0.15292846 -0.18295696 -0.24353957
0.07904286 -0.027813723 0.15203968
-0.1291403 0.006713788 0.10312258
0.072049275 0.08002921 0.09547136
-0.11501572 0.01803707 0.469343
-0.033090036 0.14192462 0.46632412
-0.13427374 0.04219472 0.150517
-0.07169252 0.019104186 -0.28333512
0.0019710737 -0.13706182 -0.25793585
0.008976564 0.16481002 -0.2872719
0.06503584 0.008639836 0.2775624
-0.095385276 -0.073526464 0.33314598
0.040829454 -0.19828212 -0.1898326
-0.06295104 -0.20033231 -0.1724791
0.10399621 0.05135828 -0.015129865
-0.16676445 -0.04215345 -0.20588313
0.042029016 -0.12957235 -0.25162968
-0.04201459 0.022281282 -0.27847
0.053412337 -0.20346665 -0.25440174
0.1378378 0.041492123 -0.093431495
-0.10555196 0.13705413 -0.16919458
0.080621816 0.17585257 -0.114220016
0.12185794 0.18105806 -0.11215702
-0.14291295 0.075036176 0.25003242
0.057963368 -0.10587869 -0.07228594
-0.12476063 0.077011526 0.46287045
0.18927118 -0.09967061 -0.13367343
-0.12117576 -0.061841235 0.42592466
-0.13408555 -0.028517844 0.19924584
0.07893526 -0.021526609 -0.25403565
-0.061573233 0.0914034 -0.025203671
-0.15609999 0.097126864 0.37068588
-0.0857742 0.14060709 0.35055506
0.08429413 -0.17458174 -0.24560279
0.18075459 -0.014166878 -0.23705897
0.028260347 0.07643001 0.45703572
-0.18127608 -0.0008824259 -0.14507014
0.0011711812 0.1033436 -0.12047538
-0.056683358 -0.08802461 0.22085771
0.059251256 -0.04445729 0.20265318
-0.13300966 -0.0039701755 0.46802372
0.18133368 0.005939997 -0.23859178
0.002309617 -0.0763549 0.26999542
-0.13186914 0.009790088 0.1181795
-0.06968401 -0.0854327 0.20777173
-0.025305733 0.13774821 0.3567145
-0.024951342 -0.09506341 0.15989354
0.057382215 -0.08836701 -0.25232646
0.18232265 0.109770015 -0.23213972
0.036013547 0.17628673 -0.16726899
-0.034350127 0.12115559 0.096057795
0.104045056 0.17721693 -0.1847487
-0.08365818 0.13187571 -0.1390039
0.009561202 0.03738148 0.48927364
-0.06212031 0.123354904 0.16832972
-0.15720497 -0.04436298 -0.27356875
0.22365735 0.027687011 -0.13484022
0.04945808 -0.073950246 0.12900877
-0.12781127 0.124479786 0.36754355
0.19513816 0.057326484 -0.084827356
0.082900956 -0.15869613 -0.08665506
0.11724482 -0.042241827 -0.062186506
-0.1298482 -0.015671438 -0.31268638
-0.08256944 -0.16489072 -0.24674289
0.10105172 -0.19888039 -0.22067899
0.010069869 0.0056744064 -0.2681309
-0.12952399 -0.09852532 -0.2127516
0.07189634 -0.17480999 -0.24280019
0.11069344 -0.19832538 -0.21786654
-0.047309514 -0.025508134 -0.27550232
-0.16364147 0.012017299 -0.2038377
-0.05470402 0.16704388 -0.23709668
-0.12854955 -0.029501678 0.16059251
0.14744619 0.13135126 -0.099071145
0.025411455 0.059941713 0.4901773
-0.13834743 0.10616644 0.32785416
-0.15933189 -0.061193217 -0.16536343
-0.12651785 0.11185724 0.30341116
0.14501849 0.14042361 -0.2774871
0.16519605 -0.05074543 -0.23677295
0.040077474 0.10665643 0.10942745
-0.16052203 -0.05644998 -0.1809712
-0.05799381 0.13851415 0.29404128
-0.093017176 0.13743387 -0.22630042
0.001677066 -0.10053818 0.08276706
-0.11803207 0.1040585 -0.19158196
0.029696574 -0.057831496 0.2756456
-0.14767207 0.0795463 0.45870996
-0.017552309 -0.20621249 -0.25667664
-0.09436403 0.06963957 -0.13579655
-0.08202005 0.16742785 -0.20459479
0.13902552 0.0896693 -0.2526952
0.038205057 0.032368444 0.43680426
-0.044068526 -0.04091187 -0.27369198
0.031712692 -0.04452477 0.31866097
0.0493454 -0.0073251813 0.33713153
0.00029324042 0.120153144 0.44760615
0.19740233 0.07933065 -0.19399346
-0.10600043 0.025148269 -0.017802998
0.13866805 0.078901075 -0.09632661
0.04020091 0.048575185 0.4210414
-0.096469715 -0.016701834 -0.07893857
-0.115056284 0.12425462 -0.15625226
0.13572063 0.033719737 -0.093166
-0.06971998 -0.08609817 0.12229316
0.14752881 0.16050929 -0.21534437
-0.12188646 0.07825649 -0.23647502
0.07538364 -0.047760636 -0.25251725
-0.10821837 0.10505512 0.4634486
-0.015836546 -0.064843945 0.39281222
0.120578036 0.027546534 -0.06639863
0.2125282 -0.07615509 -0.1845691
-0.06880589 -0.18949541 -0.22901158
-0.00034309595 0.12652156 0.27748296
0.11303341 0.16951904 -0.27547702
-0.075888686 -0.16163561 -0.28895438
-0.06498245 0.07934166 -0.06795996
-0.06921168 0.11048918 0.102184094
-0.14455245 -0.048394788 0.4605822
-0.10907296 -0.0663612 0.45618317
0.0967653 -0.057840947 -0.0027739394
-0.0049927384 0.0014380455 -0.2703871
-0.11414246 0.12626964 0.33059245
0.075966865 -0.18534373 -0.2633804
0.039810598 0.10627584 0.12782437
-0.03630835 -0.08769495 0.2524311
0.019671327 0.14935353 -0.12258827
-0.06652616 0.14533453 0.37591904
0.010161279 -0.07062937 0.2805584
0.0085569285 0.111311644 0.4533039
0.10377328 0.05397747 -0.024043966
0.11625112 -0.052484512 -0.2450795
0.07820276 0.07171976 0.09842062
0.03612652 -0.18065013 -0.26713663
-0.13041463 0.063496925 0.16663584
-0.00041947412 -0.0561033 0.39146683
-0.12899278 -0.08831767 -0.27206185
0.012318535 0.117264055 0.06733294
0.09285613 0.009785913 0.12076182
-0.13611646 -0.10056826 -0.14689118
-0.10236382 0.12653962 0.29693654
-0.09591543 0.10569038 -0.2900494
0.0139108235 0.044041943 0.48948273
0.0010980319 -0.19587925 -0.14684837
-0.016426085 -0.05618428 -0.2676797
-0.075568736 0.17239794 -0.16690166
-0.1025489 -0.05167718 0.05029166
-0.04337025 -0.10980856 -0.26797548
0.12893625 0.17497271 -0.13835427
-0.121476635 -0.03336534 0.47240207
0.14964479 -0.023093374 -0.24170391
0.08747076 -0.15170428 -0.24198867
-0.15889046 0.089276575 0.36066207
-0.012191733 -0.035740018 0.49145862
0.21795985 -0.03326764 -0.25122315
-0.051063366 -0.16737005 -0.10907339
0.100762464 -0.038399663 0.025475053
0.071304604 0.017134711 0.24510038
0.053740818 -0.10670251 -0.068063885
0.17143509 0.11986622 -0.19579895
0.06337037 -0.08032037 0.049240578
-0.11279174 0.09440111 -0.23937653
-0.10448756 -0.060662005 0.13162164
-0.17322381 -0.044096366 -0.14166765
0.075133614 0.10756985 -0.2651775
-0.037421547 0.13860734 0.30843773
-0.049871482 -0.19854559 -0.15743768
0.0071324646 0.1753309 -0.16660404
-0.016570786 0.021402994 0.48606083
-0.038718376 0.113739416 -0.30732048
0.112402454 -0.1941289 -0.17051436
0.012694451 0.12033239 0.19524309
-0.019122997 0.13539322 0.42317578
0.07035314 0.09245844 -0.067605354
-0.1395312 0.058061533 -0.2037677
0.14383548 -0.18068056 -0.24980132
-0.09432515 -0.05257733 -0.009406579
-0.07910815 0.10180356 0.46873686
0.20167966 -0.120542355 -0.24198574
-0.09718398 0.06665123 -0.31373465
0.17868951 -0.08151539 -0.076388486
0.0509928 -0.2023726 -0.24071907
0.019545885 0.111362785 -0.02917727
-0.16365385 -0.045286432 -0.21492334
0.018492475 0.16993879 -0.23267713
-0.11776244 -0.037560944 0.11020001
-0.11847856 -0.031601537 0.09153942
-0.085068695 0.08277041 0.025544213
0.099291794 0.014994712 0.08387582
-0.06330985 0.16813624 -0.22106776
0.013678572 0.048043396 -0.27094993
-0.007668164 0.14411354 -0.30457556
-0.08373786 0.051453628 -0.28804165
-0.012157962 0.1214614 0.08544985
-0.11146526 -0.06380263 0.2635057
0.10956392 0.026149483 0.010017088
0.11433358 -0.030335393 -0.02707656
-0.14594677 -0.0042242124 0.21957074
-0.09385916 0.14400525 0.39440143
0.08133932 0.05848626 0.13047005
-0.098025955 -0.10664568 -0.29980436
-0.05065501 0.09275709 -0.28568602
-0.003780188 -0.07986826 -0.26357323
0.031170957 0.10747536 0.24300936
-0.07180687 0.012476176 -0.28281707
0.00063772156 0.04077384 -0.27261007
-0.09167581 -0.016052505 0.4761402
0.06521955 -0.037406627 0.19559336
-0.12574627 -0.047729407 0.23389779
0.18437535 0.08358584 -0.10843562
-0.045069087 0.094793804 -0.28488714
-0.084569335 0.1277115 -0.28960904
-0.021251233 -0.08914617 0.2216456
0.04524087 0.09408955 0.2404864
0.05583762 0.09761557 0.07218917
0.064741984 0.073625706 0.19689374
-0.14559996 0.075514056 0.26407588
-0.16017464 -0.02624565 0.3957006
0.15068343 -0.12855674 -0.23295785
0.0023970173 0.17303587 -0.19088416
0.08142888 -0.074612774 0.005213067
-0.05920937 -0.081525594 0.32244143
0.034167852 -0.18632284 -0.09282188
0.042550858 0.03620963 0.4127231
-0.15642422 0.015661065 0.26468617
0.028562184 -0.11656032 -0.25501108
-0.073093794 0.12993422 0.24236214
-0.11944834 -0.037963793 0.12482592
-0.1139821 0.103645585 -0.21136808
0.0039487416 0.15073325 -0.12541407
0.17560694 -0.104788624 -0.08264776
-0.08405985 0.12489501 0.23234433
0.14101866 0.16608132 -0.19111528
0.0657984 0.089874834 0.060511924
-0.01842086 0.10975992 -0.033404056
-0.064712495 -0.20133743 -0.19941078
-0.0039075967 -0.12795946 -0.10413504
-0.14657469 0.0710143 0.2600907
-0.06928632 -0.078044534 -0.06189044
-0.06786764 0.14369054 0.35644716
-0.012863365 0.13198842 0.29661933
-0.015391379 -0.08671981 0.23962913
-0.038878854 -0.06393619 0.46249852
-0.119287975 0.06972119 -0.26928374
0.05508353 0.030431213 0.34013656
-0.018114755 0.17277193 -0.18567915
0.12039258 0.16071281 -0.2789351
-0.043517474 -0.20060204 -0.18328345
0.0803844 -0.18903403 -0.09932008
-0.032775022 0.07567662 -0.2812124
0.15961988 0.10011931 -0.09443423
-0.13849403 -0.010775467 0.46762955
-0.1091248 -0.03427542 0.47460833
-0.07341987 0.13329308 -0.13735095
0.03203082 -0.17722812 -0.24948463
0.045136064 -0.090575 0.05717641
-0.14825529 0.03333844 -0.22344741
0.020201484 0.17577127 -0.1668033
0.115660325 -0.08658139 -0.24241255
-0.13943192 -0.046018213 0.35811493
-0.03397347 0.05148117 0.48061514
0.07194673 -0.07142304 0.05531707
0.09878694 -0.18461919 -0.081807114
-0.03501515 -0.054827522 0.48906884
0.013494085 -0.10565679 0.018734379
0.08041469 -0.011265775 0.17318061
0.071654506 0.02590031 -0.25914496
-0.012821761 0.13143766 0.2664626
-0.069239475 0.16687739 -0.23312576
0.09067486 0.12054724 -0.107992984
-0.1340789 0.113142416 0.45832774
-0.08240261 0.17087078 -0.18188252
0.24229163 -0.032977056 -0.23997052
0.010638883 -0.16360974 -0.09872738
0.24679008 0.00143426 -0.18622881
0.10772045 -0.13916844 -0.23951179
-0.12251639 0.074303105 -0.24316567
-0.09171437 0.15732037 -0.18401399
0.22283621 0.0192711 -0.08275662
0.20297278 0.0554566 -0.11198673
-0.08751008 -0.074346565 0.111358605
0.07312351 -0.2031225 -0.25783297
-0.019308414 0.1170118 -0.282245
-0.04321341 -0.082386546 0.3130744
0.107524045 -0.058855474 -0.05379951
-0.09462788 0.08212434 0.061390627
0.1340579 0.13517785 -0.2793869
-0.03851619 -0.12825099 -0.11008434
-0.13765106 0.09194837 0.27380994
-0.105325796 -0.06888506 0.30091804
0.019410016 0.04100415 0.49067935
0.057678487 0.09870572 -0.0036052035
0.0077390736 0.07144175 -0.27387515
0.005694937 -0.107435 0.009334972
-0.14948851 -0.024202857 0.30038682
-0.16104372 0.024062995 0.28731278
0.017569404 -0.1098554 -0.027731875
-0.0210506 0.13077012 0.47640496
-0.071522735 0.14772266 -0.30164972
-0.096549205 -0.149552 -0.2128529
0.047787476 0.025771614 0.38089585
-0.002859382 0.17688611 -0.128713
0.22495714 -0.033021033 -0.13762456
0.18002148 -0.09975228 -0.09091922
0.1440089 -0.1984558 -0.23159653
0.09834301 -0.030175766 0.05367142
0.08989327 -0.19884592 -0.21539104
0.08248139 0.15783404 -0.29012954
-0.015526655 -0.07595518 0.31960255
-0.10309999 0.023231601 -0.28909153
-0.118877545 0.080882475 0.15866534
0.04999851 0.16769119 -0.2704801
0.028927894 0.104703665 0.30910483
-0.14071593 0.02912328 -0.26915115
-0.03762021 -0.20676854 -0.2553665
0.0021840641 -0.20304713 -0.22834353
0.04662054 -0.022542367 0.3198969
0.16767368 0.10798366 -0.100597374
0.163894 -0.022381008 -0.08374668
-0.15132129 0.0044737514 0.24300773
0.018382993 0.117010646 0.09152714
-0.012217899 -0.036338013 -0.26856625
0.19585897 0.06842774 -0.12251579
0.018733487 -0.040134273 0.38733783
-0.15905584 0.022895575 -0.14316599
-0.08765582 0.024901291 -0.11396416
-0.012847518 -0.11008086 -0.065675646
0.028322399 0.00091199356 0.4556186
-0.08838417 0.1676296 -0.17455064
-0.17790501 0.0771463 0.42488393
0.056334373 0.1738807 -0.20285578
-0.17792743 0.006055789 0.41485798
-0.16264181 0.10762908 0.4307556
0.08332537 0.03958462 0.16096433
-0.10350236 0.09676932 -0.2766963
0.18054527 -0.15609503 -0.23020576
0.09351062 0.052420586 -0.2575257
-0.04535014 0.16448967 -0.27025697
-0.09881093 -0.03378607 -0.0380143
0.019605525 -0.03176396 -0.2634443
0.18528585 -0.101913884 -0.12061567
-0.04614629 -0.09593544 0.09245822
-0.014700634 0.13254534 0.42305127
0.046745718 0.11431789 -0.27062553
0.09410161 0.07485414 -0.07984651
-0.087387234 -0.05602239 -0.048870854
-0.0727112 0.1550097 -0.13899328
0.0059648207 -0.16063397 -0.2553322
-0.073011406 0.11953615 0.16738729
-0.1299778 0.038761504 -0.29561225
-0.038987633 0.0818398 -0.28278512
-0.13743484 -0.08753898 -0.20596656
0.01444432 0.1724051 -0.20290738
0.084846295 0.0065627648 0.16586882
-0.09944166 -0.15395145 -0.16512495
0.1145959 -0.061630197 -0.08906717
-0.084909216 0.16647677 -0.19353142
0.07005012 -0.09200458 -0.029721234
-0.13313821 -0.0021786618 -0.3136784
0.0057896115 0.1632357 -0.3015532
-0.117772706 -0.10755346 -0.2620205
-0.025836706 0.122532144 0.47624803
0.12742855 0.021654606 -0.093617424
-0.0992813 0.110593736 -0.2626468
0.065508924 -0.1903048 -0.108077906
-0.09944386 0.037478387 -0.30931956
-0.06474627 -0.10832081 -0.27178654
0.053544786 -0.10942234 -0.087686114
-0.02571264 0.040550966 -0.27714047
-0.114591815 -0.062033936 0.2742323
-0.18877713 0.044967655 0.44944894
0.097638115 0.18218525 -0.12466769
-0.06304817 -0.08433696 0.2735531
0.042199552 -0.02956749 0.32060573
0.11241262 -0.0035978002 0.0066802334
0.081266835 0.07152521 -0.26119086
0.10014257 -0.036749285 0.03178409
0.1754755 -0.12298782 -0.12624252
-0.09684355 0.0147624565 -0.07817598
0.16834655 0.12822975 -0.21505539
-0.082728356 0.086679086 0.0310047
-0.14167906 0.051661253 -0.20937215
-0.10992691 0.030732943 0.009455349
-0.06176466 0.14240165 0.33842635
-0.14097777 -0.044174623 0.35158864
0.0967237 -0.058844935 -0.00538735
0.17691948 0.100060076 -0.13495092
-0.052918855 0.102221936 0.47322306
-0.14681607 -0.044885267 0.43339124
-0.13547198 -0.10188736 -0.14515977
0.20660934 0.047101106 -0.097326316
0.0451947 -0.068211466 0.17130017
0.08598254 0.073784165 0.012520532
0.024742236 -0.025091395 0.4113131
0.124246605 0.1793087 -0.12263203
0.13812071 -0.19670947 -0.20931718
-0.1126514 0.120623365 0.29516298
0.21644428 0.036726627 -0.12340978
-0.11283612 -0.051446047 0.14228539
0.03094787 0.110577114 0.0068200775
-0.042802684 -0.095009245 0.13011974
0.014413368 -0.040296562 -0.26364785
-0.17764907 -0.017334865 -0.21042626
-0.057283398 0.16782331 -0.22708598
-0.071610354 0.06140789 -0.10727436
-0.02003757 0.14660315 -0.3069121
0.19829468 -0.100002035 -0.24919783
-0.056738026 0.10894763 -0.13249424
-0.15801652 -0.036992118 0.46189564
0.16194157 -0.16028716 -0.15406282
0.23484689 0.009236146 -0.12876688
0.056723088 -0.046623778 0.20792893
0.04999083 0.08264036 0.27394047
0.09953815 0.0738622 -0.25822625
0.09328145 -0.1647838 -0.23992386
0.016943274 -0.1950252 -0.27278218
0.109883934 -0.016569212 0.012776355
0.25308654 -0.0061592488 -0.2334985
0.04943662 -0.20425215 -0.2616221
-0.009718277 -0.035796084 -0.26817945
0.06303257 0.08701014 0.12819156
-0.0132896425 -0.09318249 0.17261665
-0.17093402 -0.01758685 0.43873042
0.096383035 -0.06831374 -0.030790798
0.17731544 -0.10945921 -0.23435396
-0.15154035 0.0060794153 -0.27477592
0.205827 0.063741274 -0.1802898
-0.06567186 0.12938721 0.22110122
-0.17462625 -0.01157752 -0.21042025
0.19610766 -0.122056514 -0.2477834
0.12274668 0.01189905 -0.05914108
0.05647937 0.042103723 0.32566074
-0.11833146 -0.050414097 -0.13018268
0.055065077 -0.12279714 -0.24992944
-0.12155168 0.10119547 0.24168436
0.12766959 -0.07571255 -0.24122299
0.20919287 -0.06185967 -0.25041455
0.06764647 0.0026900577 0.2567386
0.22280492 0.020488389 -0.08903402
0.122512504 0.021799508 -0.06744784
-0.13736841 0.086079046 0.25577763
-0.16491911 -0.009230115 -0.24974127
0.008458283 0.1721943 -0.20291463
0.15559742 -0.151646 -0.10353378
-0.0042211623 -0.07509616 -0.26403743
0.0022196553 -0.15124908 -0.1011854
-0.11126058 0.043977663 0.46788368
-0.17134558 0.07382405 0.38642496
-0.10040437 -0.06953428 0.2169388
-0.059324827 -0.1968447 -0.13442305
0.17866705 0.10205003 -0.16020055
0.18768851 0.010630122 -0.23787582
0.06155767 -0.07911276 0.061412692
-0.18210366 0.0035869817 0.4483644
-0.15294164 0.10079165 0.36710957
-0.07356724 0.138097 0.3084591
-0.081653975 -0.09901177 -0.2754603
-0.035579342 0.13487212 -0.30864263
-0.099265374 0.008788487 -0.068038926
-0.098395236 0.036641434 0.47070006
0.032486495 -0.0036099583 -0.2635081
0.061032485 -0.10944177 -0.09442952
0.06535186 0.02224239 0.2800199
-0.07777 0.031923834 -0.28542447
-0.097907156 -0.1348588 -0.28056154
-0.17359509 0.008660184 -0.16595486
0.10801263 0.05747414 -0.07272724
-0.11596834 -0.05162308 0.17219953
-0.055318758 0.021528715 -0.28070486
-0.04816853 -0.07185967 -0.2718853
0.15807396 -0.1129786 -0.07739091
0.14395937 -0.04129663 -0.08565116
-0.09791536 -0.07249178 0.3281815
-0.14216112 0.059297547 -0.18856125
0.0046771173 -0.05323933 0.38674572
-0.04773082 -0.19696611 -0.14028926
-0.030204847 -0.06963404 0.40031844
0.13249236 -0.19691408 -0.20943034
-0.068382695 0.026586415 0.47669673
0.031123377 0.017731763 -0.26547647
-0.14337431 -0.09091354 -0.13839073
-0.14149544 0.06592963 0.22543074
-0.17656651 0.008173134 -0.15336205
-0.11435914 0.015755458 -0.3125656
0.1920289 -0.09984708 -0.14690842
-0.016910406 -0.094430506 -0.26465768
-0.10882182 0.07408153 -0.3071376
0.20541124 -0.10403631 -0.24764122
-0.08686893 0.0318277 -0.10735383
0.1613177 0.13597548 -0.19820611
-0.11842058 -0.094404705 -0.30422297
0.098500356 0.061600354 -0.015127201
0.025707949 0.11028986 0.27128226
-0.09709617 -0.06977716 0.43745673
0.026276147 0.046985652 0.49137878
-0.021729952 -0.006151407 0.48740888
-0.1254927 0.091504686 -0.18751907
0.09312591 -0.0770755 -0.05100606
0.07043461 0.045522414 0.23585464
0.07345266 -0.19979541 -0.21985963
-0.087165296 0.12405994 -0.28624254
0.21694249 0.053849917 -0.2584743
-0.03018941 -0.11670996 -0.2651403
-0.03605806 0.11704405 0.06128521
0.1660501 0.1136948 -0.11779293
-0.046955045 -0.2068947 -0.25386184
-0.09922184 0.049753293 0.46949235
0.053190622 -0.19837819 -0.19574489
0.20177573 0.052084234 -0.08388849
-0.12986778 -0.034377895 -0.13347666
0.19104028 0.06729132 -0.08634411
-0.122479305 0.11300833 0.2943982
0.01575136 0.08280288 0.4866533
0.07859523 0.13175794 -0.110989034
-0.070466615 -0.16285783 -0.2894614
0.12207022 0.0069269305 -0.24890095
-0.019135172 0.13558221 0.41713336
0.17692025 -0.15647192 -0.21438214
0.15438548 0.14665903 -0.19795494
-0.03760288 0.10973461 0.010907355
0.04100348 -0.05756162 0.23193555
-0.11770121 -0.10395432 -0.28196788
0.0699088 -0.037100084 -0.25432882
-0.025822455 -0.19759426 -0.15601611
-0.078105025 -0.10910716 -0.27402782
-0.09088616 0.12418675 0.2485701
-0.0066477475 0.123051986 0.113454774
-0.09864092 -0.020883368 -0.06169011
0.06840108 0.0037649076 0.2540956
0.18811508 0.06410321 -0.08658947
-0.08689007 -0.0661227 0.009566165
0.14202242 -0.08502252 -0.23798923
0.18070821 0.11545574 -0.24927154
0.06221089 0.13680191 -0.26978248
0.04219836 0.1766109 -0.16605191
0.047655504 0.045961477 0.37705308
0.015834233 -0.020510936 -0.2650099
0.046421986 -0.06457929 -0.25615048
-0.11961349 0.09527976 -0.20559989
-0.13367134 0.13404484 0.43531787
-0.048413847 -0.07972338 0.34536064
-0.05610028 0.14280881 0.34962887
0.1010234 0.016012063 0.07219687
0.19154434 -0.02791672 -0.07852303
-0.123352565 0.0491115 0.10423841
0.16158457 0.02760012 -0.24376021
-0.10462273 0.14169256 0.40229714
0.027769528 -0.19985256 -0.20273727
0.063950665 0.06316437 0.24284747
0.026428977 -0.0040929033 0.45478818
-0.11204649 0.13248216 -0.15019764
0.0077244514 -0.11429911 -0.083095096
0.067169875 -0.19076598 -0.11401398
-0.14232194 -0.052991007 -0.30530658
0.032357786 -0.1832113 -0.27108043
-0.08812374 -0.08296987 -0.12232463
0.10095656 0.06906291 -0.09081088
