# .PCD v0.7 - Point Cloud Data file format
VERSION 0.7
FIELDS x y z
SIZE 4 4 4
TYPE F F F
COUNT 1 1 1
WIDTH 1000
HEIGHT 1
VIEWPOINT 0 0 0 1 0 0 0
POINTS 1000
DATA ascii
0.15332389 0.00866843 -0.2349769
-0.003459445 0.2219732 -0.13849415
-0.079061896 0.2524763 0.09206927
0.16628112 -0.20956622 0.12186582
0.10288461 -0.11875369 -0.19714078
-0.010492446 -0.09303319 0.097859725
0.13200279 -0.24133234 0.089843035
-0.22038423 -0.010618047 0.017861938
-0.21469352 0.16305217 -0.079985306
-0.10027403 -0.20758305 0.021988472
0.14045383 0.10514775 -0.03138197
-0.23677698 -0.009548514 0.14330512
-0.06807521 -0.18818268 0.22051795
0.0970109 0.06769532 -0.07092284
-0.018821217 -0.16687842 -0.028855393
0.080170095 -0.1968522 0.19273464
0.08910805 -0.29786816 -0.022411387
0.018444743 -0.16931729 -0.061584324
0.10282655 -0.049041566 -0.23444694
-0.14140984 0.13921545 -0.12910216
0.13785402 -0.05891413 -0.25370076
0.076541044 -0.16438088 -0.15045092
0.1029353 -0.18089308 -0.16388828
0.22108191 -0.082880154 -0.19962722
0.2393428 -0.15977356 0.040730555
-0.027561797 -0.09421799 0.23435439
-0.17901465 -0.1793865 0.13484558
-0.19095622 0.024685446 -0.021272123
-0.16018954 0.0093354955 0.0071517685
0.21075526 -0.00094353367 -0.016842773
0.20104457 0.033316918 -0.027000993
0.10406043 0.09501306 -0.24430625
-0.09829736 -0.14580578 0.224227
0.028790323 -0.17613348 -0.10383536
-0.16650438 0.207491 0.014506961
-0.11531503 -0.14889568 0.2069938
0.05882703 0.03580594 -0.24276008
0.07196409 -0.09132472 0.09978914
-0.24765392 0.10304669 -0.02001722
0.1557813 0.23326384 -0.10835226
-0.12860121 -0.21863262 0.16458848
0.1557833 0.028901706 -0.018882142
0.10676694 0.17360851 -0.21912625
0.22075953 -0.16539633 0.008655132
0.20316221 -0.16979031 -0.049082056
0.02666508 0.07872709 -0.2386024
-0.06227349 -0.2349496 0.004568445
-0.15649198 -0.1167084 0.18048774
-0.061997063 0.25866833 0.07434339
-0.008875976 -0.21204938 -0.052787654
-0.2115549 -0.14861654 0.08434945
-0.10773411 -0.07371045 0.24633034
-0.2873513 0.05185097 0.08473335
-0.07909956 -0.007073474 0.23117399
0.0912252 0.14875594 -0.24639134
0.023626743 -0.110715434 0.19997504
0.042190235 -0.14091676 -0.022518657
0.08465355 -0.13402657 0.16093846
-0.1219742 0.051621906 0.06084315
-0.21025655 0.1323148 0.09814177
-0.06603073 -0.22743857 0.0037145591
-0.09424737 0.114150725 -0.08530043
0.17013472 -0.10938872 0.07556139
0.067510456 -0.13418785 -0.15900344
0.18040757 0.04259196 -0.021694968
0.11796322 -0.22402948 0.1362372
0.09063644 0.1904475 -0.017975716
-0.103414275 -0.023655793 0.26058966
0.074909724 0.24834135 -0.09192196
0.14287455 -0.07565714 -0.012411841
-0.015490435 0.26667604 0.030785898
0.25225475 0.08434092 -0.10767479
-0.17912148 -0.14405458 0.14867699
-0.07440296 0.19892181 -0.17903459
0.008813294 0.27884248 -0.026817579
0.2882186 -0.042920507 -0.12079976
-0.18393575 0.16722564 0.08786494
0.16476376 -0.25262538 0.04748224
0.0074655465 -0.26727405 0.05856616
-0.2394854 0.08777905 -0.01873477
-0.19256265 0.10669512 -0.06848869
-0.09027225 0.089532524 0.18884349
0.15548965 -0.25795096 0.05183567
0.11084663 0.16082056 -0.22406545
0.13128202 -0.09557441 0.100965366
-0.1316768 0.15055682 -0.14339784
0.06164573 0.06685375 -0.0979958
-0.049175322 0.100327976 -0.086256504
-0.16412191 0.006109396 0.21575034
0.2563494 0.070356056 -0.10722289
0.07495207 -0.11995342 0.05440078
0.09913633 0.19765507 -0.02901457
0.3004638 -0.0258255 -0.094391875
-0.11926296 -0.101782195 0.027533429
0.10341171 -0.26684344 -0.05791583
0.08546005 -0.25655106 -0.09766718
0.16522972 -0.2347254 0.09856288
0.14734793 -0.20311177 -0.1291812
0.19902949 -0.13424344 -0.14170545
0.05888513 -0.13512307 -0.151221
-0.21311292 0.07295651 -0.03305837
0.06367666 0.010725393 -0.23341429
0.24728656 -0.13864574 0.0032900316
-0.18409637 0.029810084 0.20383269
-0.0031689336 0.16437785 -0.24504562
0.10111383 0.21996233 -0.1597167
-0.253245 -0.023217585 0.05235943
0.014220196 -0.08135859 0.16029812
0.28359753 -0.06973114 -0.075959206
0.056914672 0.18741083 -0.21831034
0.09538429 -0.10488619 -0.19823723
0.22893028 -0.15375541 -0.011942678
-0.26698276 -0.005869278 0.054661732
-0.042421732 -0.21855727 0.15856247
0.0696706 0.03833822 -0.09769534
-0.10702325 0.2612597 0.058227424
-0.20161062 0.14936692 -0.08371276
-0.029975532 -0.17069037 0.2524082
0.07624485 0.14223762 -0.014106184
-0.06541374 -0.23798512 0.12175829
0.27303818 -0.08439426 -0.048416696
0.2539479 -0.09500937 -0.07759926
-0.019748688 0.17469151 0.083668604
-0.21841411 0.14588438 0.047434617
-0.021883486 0.13806024 0.030764716
-0.10468236 -0.08708443 0.24338447
0.02967114 0.15253857 -0.25635022
-0.18186414 -0.11277481 0.040075142
-0.002524438 -0.05808187 0.13088064
0.22343177 0.101252064 -0.08230369
0.07243027 -0.027637683 -0.13022144
-0.2794585 -0.023578737 0.08914579
-0.12405257 0.2418193 0.05494057
0.27992696 -0.061994895 -0.118913226
-0.20093036 -0.03423306 0.014090707
-0.16017327 0.14222763 0.19788752
-0.07841452 -0.06239805 0.26024026
-0.20206927 -0.032528527 0.014138328
-0.2198284 -0.14068697 0.10780289
-0.09828537 -0.08581643 0.2502366
0.13860524 0.017496746 -0.057977207
-0.123023055 -0.016301893 0.047274914
-0.18229115 0.1499129 -0.10031849
-0.01231076 -0.16640027 -0.03406114
0.047847345 0.018436136 -0.13126367
0.109786235 -0.24061306 -0.09680569
-0.15628944 0.082767315 -0.07577263
-0.1469718 0.10678775 -0.10703091
0.23308823 -0.1504396 -0.0083416235
-0.05140904 0.119602315 0.13666196
-0.039861493 -0.02764173 0.12940297
-0.09234717 0.18384308 -0.19364174
0.2679171 0.036291454 -0.10444946
-0.23417556 -0.07272023 0.06278322
-0.20864002 0.15053353 0.064277306
0.1175941 -0.10532803 0.020666825
0.07836292 -0.14969736 -0.1598562
0.07252365 -0.19502047 0.19691025
0.018269382 0.1058125 -0.10666403
-0.17453654 0.07873576 0.23220508
-0.25147784 0.11939384 -0.01587058
-0.054784738 0.10186573 -0.10393656
0.14667366 0.12250935 -0.19638073
-0.15317686 -0.037008703 0.20842999
-0.13329065 0.24619792 -0.08124521
-0.08919235 0.2246803 0.11551682
-0.14025275 0.057745222 0.24807641
0.08908602 0.20304777 -0.18993463
-0.16822648 -0.12065633 0.032784738
0.017397748 -0.060123008 0.17812575
0.1824306 -0.13869014 -0.1779878
0.050753873 -0.112703435 0.17813402
-0.081784226 -0.0795781 0.26922336
0.055509795 -0.10366618 -0.109474555
-0.14986815 -0.11039689 0.18911636
-0.062303636 0.11934328 0.149257
-0.1230556 0.026297783 0.25040725
0.2042836 -0.16134943 -0.06519497
0.11723046 -0.23164985 0.11934335
0.05791019 0.20438685 -0.1840561
0.14948407 -0.00018811232 -0.24158509
0.004108893 -0.13062806 0.22712402
-0.059208266 0.18021867 -0.21043825
-0.098981604 0.19786331 -0.17866424
0.25720355 -0.07153175 -0.15582478
0.20020922 -0.093778685 0.0418049
0.13915731 -0.12288286 0.10894697
0.24148665 -0.15376535 0.039096233
0.08392827 0.22844453 -0.13332115
-0.15995812 -0.2131266 0.07535153
0.12323745 0.18698534 -0.19346333
-0.256526 0.03231829 0.13406323
0.17475094 -0.11891394 0.07676897
0.23359536 0.06465297 -0.1332094
0.1752451 -0.19405827 -0.054465875
0.07952802 -0.20005533 0.18644129
-0.042050272 -0.13037857 0.2573098
-0.04482754 0.12908606 0.12400038
-0.09114213 0.19155945 0.13491023
0.12075227 0.18948378 -0.042886157
-0.018241504 0.1430116 0.0135709895
0.2232068 -0.15995038 -0.010677994
0.2577446 -0.10713043 -0.039336033
0.14821856 0.15998513 -0.050270747
0.08139215 0.2574908 -0.07427628
0.25387582 -0.081303924 -0.010192143
0.24345016 -0.10824827 -0.0767655
-0.013791292 -0.05163582 0.19991113
0.1694684 -0.15079622 -0.18662702
-0.13042483 -0.050997138 0.057888366
0.16801082 -0.18933123 0.11853715
0.25421226 -0.0076350467 -0.04994838
0.023173658 -0.2558064 0.08013703
-0.08909774 0.063676216 0.045365725
-0.067780174 0.12266946 0.152097
0.19463086 0.16360067 -0.09139563
0.048449215 0.2690059 -0.024447545
0.2332084 -0.112832785 0.02415256
0.058227506 0.17365015 0.007495114
0.04871961 0.0034418209 -0.18110096
-0.2926231 0.021577189 0.09004096
-0.042269938 -0.20235665 0.190616
-0.1552119 -0.20451011 0.15524782
0.005541592 0.19528757 0.051279712
-0.06990536 -0.25070405 0.0969073
-0.26114938 0.0050671436 0.124542646
0.20396292 -0.121064104 -0.15809628
-0.12965617 0.0536374 0.24133122
0.0607298 -0.21678177 0.15468368
-0.03719205 -0.087715074 0.23900288
-0.22079867 0.086664215 -0.033914194
0.16106685 -0.16430083 -0.17932153
-0.18329883 0.15876685 -0.10421131
-0.09750579 0.03016593 0.09767481
0.020338742 0.22739486 -0.12946777
0.2613825 -0.019039849 -0.04989143
0.03265124 -0.19856153 0.1927572
0.08967432 0.24928685 -0.091110855
0.01330772 0.063569985 -0.15146066
-0.010519151 -0.099903785 0.12329752
0.048601758 0.1259478 -0.060991317
-0.046550382 0.118739024 -0.19822298
-0.0797566 -0.20844239 0.18125743
-0.06253633 0.14908461 -0.20098722
0.26464176 -0.08497643 -0.070574306
0.17879422 0.19893233 -0.09918252
0.19267158 0.10154484 -0.1608821
0.16037461 0.0065762512 -0.22801198
-0.17219844 0.22772038 -0.055316962
-0.012033069 0.13815287 -0.23777011
0.1656321 -0.20007487 -0.08265182
-0.122100525 0.22187439 0.105888695
0.11763186 -0.264394 -0.03299604
0.11787894 -0.23427686 -0.09087812
-0.004954133 -0.07465005 0.20478208
-0.047729652 0.14286773 -0.21015567
-0.0041619097 -0.09925344 0.21729557
0.051501952 -0.26600543 0.0579231
-0.11968374 0.2702656 -0.034585614
0.24205217 0.0618069 -0.12494902
-0.107683204 0.27172604 -0.032554045
-0.021941585 0.21206331 -0.15678272
-0.0060578124 0.11762366 -0.1116039
0.22440822 -0.033346023 -0.0110068275
0.09803969 0.23171 -0.13318019
-0.05096177 0.17419806 -0.21909152
0.15157142 -0.0900595 0.08087949
0.15698121 0.15424688 -0.05459413
-0.13627441 -0.042733546 0.2249302
0.08846633 0.16672048 -0.009383066
0.01331442 -0.1510592 0.23029979
0.035681527 -0.1825562 0.22421779
0.11040605 0.24535389 -0.06408809
-0.007909499 0.195293 0.062634945
0.16368364 0.20114413 -0.085382186
-0.037808035 -0.1756023 0.24324821
-0.13862088 -0.04292372 0.22236167
-0.19276032 0.016590001 0.19226828
0.22313948 0.14457205 -0.105270244
0.2601707 -0.060062874 -0.15384836
-0.11866419 0.25812978 0.029436072
0.18967058 -0.12428926 0.06705169
0.05889278 -0.15860453 -0.13864353
-0.107851304 -0.19868855 0.023621364
-0.23740672 0.00236472 0.14594178
0.19165333 -0.12755534 0.067128934
-0.21596019 -0.12794636 0.076994866
-0.13812165 -0.038560648 0.22412524
-0.23679285 -0.05589245 0.05597599
-0.13272811 0.07144446 -0.06419474
0.09364417 0.12846148 -0.24688374
-0.15823302 -0.14860381 0.03932273
0.22768214 -0.023038346 -0.16447908
0.21914293 0.018205548 -0.1617688
-0.2189253 0.1651442 -0.0712799
0.08878848 -0.20553356 0.17493539
0.23190393 -0.096792065 0.016658992
0.1790629 -0.23699044 0.09163171
0.25461978 -0.1250913 -0.0071129124
-0.05849358 0.15615794 0.12631333
0.13851729 -0.06320041 -0.25163585
-0.08733352 -0.23562984 0.026090948
0.067645065 0.017300323 -0.2402868
-0.10639382 0.08125474 0.2068924
0.056812134 -0.10662033 -0.14882578
0.1568206 0.08999223 -0.19651487
-0.060653567 -0.22187789 -0.0038049268
0.039213847 0.21421283 0.012707626
-0.21386777 -0.1549131 0.10321407
-0.11442815 0.16515082 -0.16578183
0.037553705 -0.25851893 -0.067090705
-0.039356913 0.21807183 -0.143644
-0.116861895 -0.048942067 0.055400934
-0.0211349 -0.2262095 -0.03484886
-0.06905024 0.29103827 0.002900342
0.04999893 0.10290472 -0.2664754
0.073451765 0.040761013 -0.09319268
-0.24869415 0.022226857 0.024165615
-0.16565926 -0.123896725 0.032352567
0.13789946 -0.12550165 -0.21958244
-0.05888555 -0.26104128 0.0756583
0.11390023 0.23981264 -0.11926161
0.111567646 -0.02875536 -0.25269583
-0.07996321 -0.020255346 0.23896748
0.09328956 0.10429746 -0.2525469
0.13687067 -0.09376417 0.095277056
0.1702884 0.092843615 -0.035182703
-0.1801949 0.18392907 0.02995742
-0.21606086 -0.028678358 0.02388914
-0.0031628716 0.06495384 -0.20603833
-0.12706885 0.0406848 0.2460859
-0.10108855 0.027728997 0.23109274
0.15312375 -0.1464853 0.109802365
-0.06480006 0.29124036 0.002993629
-0.09377697 0.176475 -0.18928553
0.19667095 0.055094942 -0.034977008
-0.2585951 0.013000014 0.12892501
-0.04174276 0.29951328 0.017716445
0.15892394 -0.00193622 -0.009714081
-0.27643406 -0.013920414 0.07419459
0.2604617 -0.06237813 -0.15415044
-0.12744346 -0.167747 0.1889025
-0.020398075 0.2755555 -0.031230712
0.13418323 -0.05936401 -0.020320486
0.2787732 -0.052934993 -0.05000259
-0.033848573 0.25322443 -0.07446356
-0.10992842 0.13071655 0.1833736
0.08340648 -0.10207864 0.020776374
0.15153317 -0.15920773 0.11796182
0.18474913 -0.19422129 -0.016436469
0.07053633 -0.23047 0.12688877
-0.12280892 0.19342977 0.16064453
-0.20325695 -0.077031314 0.14350452
-0.043072447 -0.24400853 0.10823792
0.04034946 0.17620903 -0.243871
0.1539102 -0.17128284 0.122425385
-0.08407536 -0.22950988 0.02006046
-0.18003386 -0.21017517 0.12391465
0.06831681 -0.066914864 -0.19573233
0.24379937 -0.017610269 -0.1457536
0.011535559 -0.29512674 0.0026793818
0.25290152 -0.092988566 -0.0031066085
0.030053694 -0.2666776 0.05812897
-0.14538415 0.18579492 0.14013132
-0.17307946 0.14501989 0.15929765
-0.11825906 -0.09839378 0.22540177
0.21863288 0.09612822 -0.1369724
0.0467737 0.1210486 -0.2651345
-0.03592322 0.2501434 -0.08041254
0.13033883 0.11129955 -0.21491095
-0.11963372 0.107508734 0.20400192
0.20276771 -0.16093644 0.07562877
0.05214164 0.21861002 -0.0005619078
0.1574074 -0.11177955 0.08759027
0.06997135 0.19717719 -0.004131931
-0.19715975 0.2016902 -0.088305995
0.014606686 0.07440644 -0.22610539
-0.20670077 -0.158806 0.08571239
-0.0031901218 0.044551365 -0.18778232
-0.064553924 -0.2690161 0.060280602
0.1806158 -0.16596568 0.097029015
0.014565755 -0.20642653 -0.07559238
-0.004982813 0.28696305 -0.009755636
-0.18282905 -0.19734871 0.12900819
-0.18341076 -0.059682485 0.16965243
0.06311958 -0.20684247 -0.116365165
-0.03853374 -0.009536583 0.1424938
-0.038893852 0.29599893 0.010554393
-0.07934477 0.010105529 0.22217788
-0.28132075 0.012577941 0.06079463
-0.068829834 -0.25613222 0.021454168
-0.023205731 -0.2552284 0.08460701
-0.04764763 -0.20380749 0.18812986
-0.019852322 -0.1030091 0.23255567
0.14458995 -0.13172331 -0.21773444
-0.24052812 -0.07796981 0.07095962
0.17605074 -0.1169331 -0.23028558
-0.09832282 -0.12763152 0.22927801
-0.09652835 0.030645505 0.088866055
-0.066851996 -0.11298294 0.054581407
-0.2823365 -0.007214235 0.080114804
-0.2799128 -0.023261314 0.09769951
-0.23485379 0.124910176 -0.042540427
0.0036435437 0.117793866 -0.111961156
0.18661706 -0.23527604 0.0613841
0.086005 -0.10746362 -0.18893805
-0.24173957 -0.055404354 0.11962676
-0.09815985 -0.030425414 0.25977966
-0.13029328 0.14064458 -0.13925497
-0.19543163 -0.13556333 0.13469014
-0.098118626 0.22930661 -0.11719457
-0.051847875 0.066093855 0.16066764
-0.19292828 -0.018474543 0.0020944767
0.11172308 -0.19935003 -0.16141807
0.27111092 -0.08802161 -0.045533564
-0.24086979 -0.09200939 0.07877067
-0.23848648 0.041690625 0.15739407
0.08538203 -0.22179633 -0.12714995
-0.2069117 0.1969942 -0.079541534
-0.015764702 -0.0388233 0.19471171
0.07341816 0.20355736 -0.010461223
-0.1737354 -0.21561381 0.110313915
0.038171373 -0.121432446 0.19343635
-0.13793573 0.20413692 -0.1520871
0.11576219 0.03481525 -0.080360964
-0.2822046 0.06396194 0.07336627
-0.059377566 0.28332832 0.050945394
-0.12793192 -0.0027185532 0.08700539
0.09291581 -0.2718924 0.036862798
-0.0049687703 -0.22878991 0.13562614
0.022145025 0.24256933 0.011925241
0.12982005 0.074576266 -0.22580536
-0.25116563 0.029008724 0.14040956
-0.038776603 0.17278488 -0.22533654
-0.054940294 0.084108286 -0.16211672
-0.1867575 -0.14661135 0.06233902
-0.16223975 -0.23371549 0.116852835
0.04663112 0.22982104 -0.0019173402
-0.0079579335 0.17452925 -0.23254251
0.099777445 -0.22030349 -0.14010485
-0.1632098 0.11114929 0.22685544
-0.05498125 -0.23363534 0.12962002
-0.045680985 -0.27178392 0.010294936
0.04643364 0.23597519 -0.005048276
0.07787949 0.02091333 -0.1038681
-0.1990611 0.07905534 -0.048191026
-0.19479911 0.19993238 -0.09158256
0.060867544 -0.2947459 -0.041355025
0.098268166 -0.17224053 0.16991967
-0.05728154 0.11218438 0.088847905
0.25325793 -0.036093175 -0.033894937
-0.22109789 -0.1392547 0.1036519
-0.034266386 0.18865308 0.08844501
0.18316397 0.2055175 -0.11656593
0.22659083 0.036047354 -0.050034396
-0.09311254 -0.22660016 0.026131699
-0.20916335 0.031215329 -0.014028187
-0.22249302 0.008409036 0.16145444
-0.20231716 0.14738959 0.085645586
-0.13221908 0.2096229 -0.15371142
-0.2632515 -0.016365545 0.11638708
-0.2105811 -0.08680302 0.13290712
0.2353488 -0.13751106 0.035568144
-0.038128573 -0.1429619 0.040365074
-0.12346616 0.106880784 -0.055726323
-0.13736396 0.24818677 -0.0128372945
-0.012359459 0.26446813 -0.053751465
0.12865561 0.108939685 -0.027156614
-0.018041579 0.20425239 -0.1725228
-0.23486903 0.011010174 0.15201822
-0.15433393 0.034986917 0.2339575
-0.05038496 -0.19460005 0.20654754
-0.12202091 0.011096481 0.08107125
0.08971661 0.0036461295 -0.10103215
-0.099330746 0.12663864 0.17660974
0.016648024 0.2590714 0.007725199
-0.26625758 0.07645157 0.009940436
0.16492908 0.17018901 -0.06984684
0.23494595 0.06910151 -0.07479962
0.22090256 -0.17028618 0.019099904
-0.0061237104 0.0553157 -0.17053372
0.061386704 0.20399515 -0.00053634157
-0.26399523 0.035622183 0.029907517
0.15583287 -0.25512064 0.02938778
-0.112584084 -0.10580393 0.06454529
0.24815132 0.09835627 -0.10812739
-0.0991073 0.06031503 0.21195884
0.21326113 -0.19446069 0.050115313
0.015044141 0.1404064 -0.012764633
0.23684163 0.09076368 -0.12238282
-0.15513682 -0.18762627 0.15840776
0.04863963 0.18059853 -0.23530771
-0.10204919 -0.055178598 0.2580988
0.11165999 -0.12946494 -0.1988111
0.02301815 0.105045 -0.12400513
-0.1748988 -0.16846995 0.06404011
0.0837965 -0.17171234 0.18185556
0.23785834 -0.051186413 -0.012804885
0.17849836 0.19628473 -0.09615119
-0.29199472 0.011686963 0.08989591
-0.18756925 -0.108642966 0.042677887
-0.19871943 0.06933215 0.20834018
0.022433082 -0.23119609 -0.06896408
0.18682529 0.08333494 -0.17089738
-0.13133909 -0.16164361 0.18711041
-0.16062565 0.24996106 -0.07162357
-0.018604625 0.19937596 0.069476835
0.057831652 -0.0921952 -0.16940992
0.02635732 0.08656892 -0.24254453
-0.053975724 0.19693607 0.10064801
0.20280796 -0.19054241 0.018426396
-0.0032746017 -0.26339427 -0.030005533
0.22679071 -0.14399575 0.046268914
0.009539112 0.06610358 -0.14304489
0.045419015 0.011286387 -0.21829957
0.1656762 0.098385125 -0.18563375
-0.040293895 -0.1804801 -0.020483749
-0.14833218 0.23721014 -0.097955056
0.06388663 -0.118619815 -0.11901458
-0.20546071 -0.17213652 0.106658846
-0.15523517 0.17976628 -0.13915844
-0.095526785 -0.10166361 0.24567907
-0.17435576 -0.11674135 0.16180524
0.24047944 0.003451177 -0.14323007
-0.22010592 0.09241482 -0.037580855
0.1667041 0.11164243 -0.17967589
0.090189435 0.2256312 -0.14649568
0.17616956 -0.024516603 0.0064068544
-0.14127433 0.23083568 0.03182658
0.17095293 0.14152634 -0.16827679
-0.2032766 0.036741912 0.18946843
0.12925807 -0.1880538 -0.1783611
-0.1281092 0.20972046 0.12067018
-0.15038356 0.188316 0.12316403
-0.050111663 0.27808785 -0.024091091
0.15374362 0.12991004 -0.18775263
-0.10982057 -0.19533752 0.2043022
-0.26074472 0.059330653 0.0144590875
0.025703402 0.11195337 -0.2555937
0.081109196 0.22885057 -0.030508384
0.080795765 0.19184628 -0.01041593
0.10964019 0.073822156 -0.24394278
-0.025756719 0.22792801 -0.1251127
-0.19610733 0.13552219 0.12478346
-0.013906696 -0.20414485 -0.0527754
-0.26624548 0.09293155 0.0026740206
-0.0620189 -0.26008508 0.017821386
0.11728499 -0.15208994 -0.19143812
-0.22887859 0.01905169 0.16059424
-0.23906863 -0.09977127 0.081408225
0.05830107 0.1709042 0.0057574348
0.09168794 0.16905072 -0.23358925
-0.07123862 -0.26860744 0.061570223
0.2191339 -0.055514634 0.0053238873
0.23492828 -0.015867416 -0.15466313
0.1791302 0.040988237 -0.19822961
0.089124046 0.0061486596 -0.11656021
0.2223405 0.025511457 -0.15628575
-0.08908843 -0.18223836 0.22888507
0.14989424 -0.18886076 0.13523585
-0.123325534 0.09635082 -0.11388879
-0.09943878 0.27378583 0.041466463
0.047546268 0.2360489 -0.11429071
-0.10922942 0.14910994 -0.16157621
0.2550698 -0.1334032 0.016716864
-0.22509451 0.16195479 -0.04549993
0.15264498 -0.11650823 0.0941434
0.27337506 -0.042155888 -0.13573782
0.02777661 0.24402182 -0.09709542
-0.22634089 -0.09204519 0.06652159
0.16835488 -0.090750426 0.06707904
0.12211334 0.17984794 -0.20252745
-0.12992029 0.024044713 0.058146596
-0.13869113 0.08862047 0.23016272
0.1176832 -0.11517637 0.12294931
0.13619642 0.20849699 -0.066112824
-0.07758244 0.23840126 -0.10066723
0.032638893 -0.22708789 0.13629918
-0.11084393 0.04958544 0.227618
0.10906582 -0.10701616 0.1145914
-0.0039920043 0.15936086 0.05220275
0.18997322 0.16237506 -0.08680584
0.20259182 0.040063515 -0.17335135
0.058814205 0.07463171 -0.2635513
-0.055373948 0.14339215 -0.203983
0.13011874 0.121496536 -0.21269399
0.16004007 -0.1743763 -0.15921848
-0.021164563 -0.28116515 -0.005378113
0.25187021 -0.0002827765 -0.051911183
0.22442356 -0.10074256 -0.15374717
-0.0985665 0.23352781 -0.10880962
-0.041151326 -0.117784545 0.043183617
-0.062190767 0.027902871 0.12483454
0.06105261 -0.23341466 -0.1003822
-0.13937159 0.05481442 0.007318117
0.081419304 0.18415819 -0.23399681
-0.041881703 0.109287165 -0.1971004
0.18146525 0.12953722 -0.062026065
0.086423695 -0.15292862 0.16957152
-0.21269962 0.18095827 -0.054173116
0.25669098 -0.06957103 -0.15746538
-0.120138176 -0.07710254 0.23254512
-0.21015918 0.08614033 -0.042617276
0.22791125 -0.15745647 -0.0018108235
0.27219716 -0.013054402 -0.12347864
-0.24198034 0.01831251 0.020594515
0.16541295 -0.16714858 -0.16067523
-0.16726366 0.17008393 0.1211614
-0.2321265 0.0030217452 0.15081805
0.2809317 -0.0064707454 -0.077732444
0.035493545 0.12988517 -0.26091015
0.069349 -0.2831098 -0.0632709
0.03304708 -0.08165294 0.12544318
-0.21287324 0.013714175 0.1720585
-0.038964104 0.07840851 -0.16127048
0.2208697 -0.11570362 -0.12291182
-0.14622921 0.22884695 0.022506112
-0.051043414 0.040277548 0.17482671
-0.15796816 -0.12586159 0.17647226
0.16003658 -0.042391576 0.019224092
-0.23476632 -0.09183825 0.07352577
0.013248373 0.109530635 -0.11442694
0.08185545 -0.11162486 -0.18320476
-0.28975102 0.058356095 0.064975426
0.15531506 -0.24984387 0.067892164
0.13590556 -0.19378869 0.14924851
-0.005310662 -0.21420734 0.16451317
-0.2202347 0.044881243 -0.012001779
0.17419416 0.03568026 -0.20501184
-0.17464155 0.04200279 -0.037422333
0.07335041 0.2178669 -0.15867144
0.069509044 0.017399035 -0.14314635
-0.17947885 0.09794792 0.23398603
-0.2248298 0.08444079 -0.029319493
0.084115535 0.2148222 -0.025529314
-0.15101437 -0.19390634 0.16195472
0.06942384 0.21153665 -0.1719873
-0.094541706 0.19704415 0.13484165
-0.092072695 0.27368984 0.071690045
-0.16549987 0.06344884 -0.05449601
-0.033255935 -0.060746185 0.13846117
-0.08235529 -0.099644236 0.25846407
0.20093551 -0.2010084 0.033799183
-0.16597028 0.0007244169 0.21209078
0.13033715 -0.24664837 -0.036231436
0.081762806 0.19126448 -0.010920609
-0.0050164666 -0.23966132 0.114114396
-0.06225229 -0.24528235 0.10708961
0.109042384 -0.1042719 0.09757663
-0.0064530796 0.27818397 -0.027026784
0.09066963 0.095338 -0.2572268
0.08909642 -0.24350195 0.0997686
-0.24618608 0.12812972 0.016098045
0.07080323 0.0021988868 -0.23486327
-0.061360765 -0.23515023 0.12707782
0.12379328 -0.1570672 -0.1942648
-0.19465117 0.019524012 -0.018971419
-0.087786146 0.29056248 0.020550778
0.059157886 0.17414129 -0.25222674
0.0013905789 -0.15360415 0.24172787
0.12892266 0.0771097 -0.02662529
-0.17445572 0.0072790063 0.207241
0.16246058 -0.24478735 0.07738886
-0.053397857 -0.041651715 0.22800311
0.087551914 0.099066064 -0.059323516
0.19509162 -0.1387344 -0.14247614
-0.05923759 -0.12819283 0.26644647
-0.10789154 -0.02854932 0.2593338
-0.17008686 -0.07515811 0.1795731
-0.18839104 -0.086666465 0.15672088
-0.17994876 -0.0070188623 -0.0033150592
0.035266917 0.08295402 -0.24812977
-0.17784145 -0.0124421595 0.19544229
0.16435769 -0.22802813 0.11112271
-0.0011319708 0.18155506 -0.2186561
-0.2693308 0.0913363 0.04394096
0.14616889 -0.2458578 0.07989175
0.048310667 0.08066232 -0.25791425
-0.035500154 0.093310736 -0.10401106
0.20090508 0.011584677 -0.015238632
-0.12504567 0.04582999 0.24161999
0.1326607 0.0797573 -0.043898895
0.060940053 -0.2707446 0.042745028
-0.16385846 0.23261958 -0.10592842
0.12109468 -0.13534072 -0.20362914
-0.22876915 0.10355859 0.12374587
-0.051021222 -0.23779719 0.12109769
-0.058643714 0.09085383 0.07788459
0.16500354 -0.25289634 0.061154667
0.2114494 -0.15162681 -0.06732703
0.09160146 0.1319473 -0.024610862
-0.04671421 0.14904352 0.12018049
0.04237461 0.15374471 -0.030525098
0.13346207 0.15389308 -0.03454709
0.107758366 -0.22686341 0.13136153
-0.022714341 0.08968758 -0.11421031
-0.049070746 0.22988236 -0.119570546
-0.18333688 0.19489299 -0.0038369314
-0.15658438 -0.15060668 0.039004102
0.11828133 0.19770579 -0.19346507
0.26155344 -0.048408773 -0.03430012
0.118016824 -0.21737142 -0.14846873
0.04223362 0.13300826 -0.07035302
-0.038861092 0.015162205 0.16757116
0.23269488 -0.102845155 0.019234695
0.05145074 -0.24959448 0.090406135
-0.024009038 -0.26733255 0.060708363
0.03204244 0.19358656 -0.20137511
-0.17494959 -0.1922941 0.07684706
-0.019473737 -0.06996152 0.21452832
-0.063857034 -0.036227576 0.23392758
-0.1899897 -0.18656307 0.08948752
-0.009372845 0.19545087 0.06378465
0.2203993 -0.19110839 0.06049176
-0.24639854 -0.0019127774 0.13670425
-0.022552317 0.28878427 -0.0048930603
-0.10922028 -0.20550047 0.189192
-0.0010020947 0.2245664 -0.13353644
0.041812316 0.2232552 -0.1392011
0.13986142 -0.12510455 0.10954454
0.05151621 -0.23839885 -0.08965983
-0.051932488 0.081903934 0.1484789
0.06629068 -0.09258352 0.106404655
-0.2207377 -0.042756677 0.14335719
-0.17975399 -0.21238236 0.12786146
-0.14379579 -0.0527884 0.06576958
0.106207915 -0.24916008 -0.087554194
0.010862621 -0.118775226 0.06985184
-0.15165433 0.20787933 0.055148296
-0.19691977 0.0173542 0.18841279
0.020459851 0.24590416 0.011562295
-0.20820689 -0.13837072 0.12057682
-0.09112109 -0.25562793 0.04000341
0.18248166 -0.18912692 -0.058562037
-0.059118308 -0.0599074 0.24261494
0.27493072 -0.0086608995 -0.06813337
0.21034679 -0.14365163 -0.088598035
-0.21606454 0.14902842 -0.071328014
0.1435904 0.16730013 -0.050282903
0.056353696 -0.09316985 -0.103881426
0.05220547 -0.10650264 -0.087091364
-0.27468956 -0.013143756 0.070887715
-0.03478066 -0.012083843 0.14068976
0.038688097 0.047407217 -0.2319717
0.19578463 0.07812583 -0.1652211
0.23863862 0.070953585 -0.12603277
0.13856593 -0.23710367 0.097008094
0.22675848 -0.012357692 -0.16240983
-0.008706412 0.05395981 -0.18887393
0.17109692 -0.24190088 0.08248388
0.27796367 -0.043775853 -0.13147953
-0.20769508 -0.06636722 0.037020374
-0.1506033 0.030205559 0.024875639
-0.21311921 -0.03768933 0.152352
0.018668974 0.19307177 0.041382555
-0.15705647 -0.121386886 0.02374535
-0.21138567 -0.085081816 0.05016406
-0.09262547 0.1429339 -0.17228575
0.23713188 -0.15264778 0.015883677
-0.06372722 0.036962777 0.124905445
-0.1134623 0.08794252 -0.094040826
-0.2090741 0.15846345 0.0127916895
-0.20562272 -0.021934649 0.011462595
0.15737563 0.1602604 -0.17752837
-0.06175185 -0.2750862 0.03745109
-0.15292332 0.1481775 0.20016985
0.057950452 0.25948477 -0.06865216
0.045002986 -0.18873343 -0.110773645
-0.12501495 -0.09552485 0.025038203
0.24603724 0.036452923 -0.1278154
-0.21291111 -0.046607472 0.14529091
0.07424083 -0.2142702 0.15868586
-0.25644904 0.12122779 -0.004959651
0.012050392 -0.2907258 -0.019563088
-0.009445113 0.17692025 -0.22723277
-0.047811396 0.08232974 -0.17303345
0.19347614 0.060855106 -0.17726582
0.17359681 0.23277958 -0.12695451
-0.0028083322 -0.20688133 -0.060680706
-0.2598238 0.00953544 0.040363595
0.070530966 0.1770628 -0.24726011
0.14303088 -0.10916595 -0.22739905
0.0533768 0.072721295 -0.25793815
0.08245416 -0.06517569 -0.20859925
-0.23584841 0.013189711 0.15224607
-0.2133579 -0.08699319 0.12987895
-0.2023055 -0.08548355 0.0427126
-0.05263718 -0.23014614 0.1363577
0.15548363 -0.04016011 -0.24640486
-0.20131774 -0.051845856 0.023854854
-0.18850608 -0.13814555 0.1412303
-0.26668882 -0.050516352 0.07924424
0.10381676 0.21471249 -0.042105526
0.24069563 0.04678278 -0.13063143
-0.15925764 -0.018113233 0.20723148
0.1660298 0.16777094 -0.16764653
0.16964331 -0.19818749 -0.07417694
-0.24467266 0.07488128 0.14406663
-0.19647554 -0.015485027 0.17946021
0.21825373 -0.010131112 -0.17075507
-0.028554821 0.25828478 0.0463129
-0.067070514 0.07179794 0.17875712
0.02345992 -0.1735725 -0.09178974
-0.07507683 0.2474391 -0.08295885
0.08454744 -0.2286492 -0.12277266
0.22348824 -0.16966121 0.023891574
0.15765397 -0.15074897 -0.20974457
0.12919451 0.23637085 -0.07513612
0.09616022 0.26415652 -0.06214279
0.1685851 -0.17799975 -0.12705676
-0.05017214 -0.025284218 0.21650836
-0.16787417 0.092524566 0.23889457
-0.033798292 0.2610123 0.04927864
0.060934994 0.2457459 -0.096057594
-0.09343527 -0.2114682 0.17624925
-0.11614202 0.22672938 0.11147402
0.10258337 -0.25775602 -0.0783062
-0.1999342 0.20304205 -0.07117338
-0.15763482 -0.23331892 0.10700061
0.013400823 0.2781853 0.00022456204
0.22489934 -0.17294529 0.03399673
0.19274768 -0.22373019 0.10159136
-0.028671311 0.16043848 0.09884001
0.16170868 -0.07701502 0.0653301
-0.16300863 0.062437385 0.23389071
-0.15659924 -0.15853474 0.043265324
0.06912535 -0.18044735 0.19892168
-0.23520312 0.014365523 0.016987022
0.06105534 -0.14073198 -0.15004604
-0.021121379 -0.19453132 -0.051017664
0.018352604 0.18042582 -0.22440033
-0.11286072 0.06738426 0.051906906
-0.25154555 0.029165778 0.13999484
0.063748084 0.22023219 -0.14675574
0.12642993 0.14307493 -0.21145836
-0.04298094 -0.25817126 0.08019666
-0.16589081 -0.21830493 0.085090704
0.19372457 -0.020678995 -0.19994743
0.10313057 0.23135479 -0.050443407
0.08112874 0.06072491 -0.10456075
-0.10247192 0.1722868 -0.17969981
0.21359092 -0.17492326 0.01149212
-0.06696214 0.23494521 -0.10826919
0.17837049 -0.19356613 0.10952305
-0.17877091 -0.09311818 0.16521248
0.22099525 0.013928627 -0.033457786
-0.050721914 -0.17197956 0.2513442
0.16175337 -0.23197864 0.0036445048
-0.11148706 0.00435866 0.25239593
-0.18313147 0.1261048 -0.08685212
-0.07540728 -0.13388656 0.011962334
-0.14163855 0.23134637 0.029643903
0.10770983 0.05845203 -0.25112808
0.19171856 0.058645606 -0.032698333
0.14530854 -0.21934903 0.1376421
0.22021085 0.1209932 -0.090162
-0.19311745 -0.18559712 0.11973842
-0.07025132 0.2822856 -0.014338477
-0.04772278 0.1506631 -0.2143388
0.02314912 -0.1989025 0.19276205
0.20221952 -0.060289104 0.02216429
-0.09831417 -0.04154286 0.26586774
-0.07893378 0.035929564 0.11769579
0.048320487 -0.15405002 -0.13215815
-0.06704649 -0.06632344 0.25274715
-0.07075326 -0.23535495 0.12734555
0.006489114 -0.13108689 0.22536054
0.18132737 0.09897308 -0.045533217
0.24539319 0.011098793 -0.052540675
0.12041727 -0.13239105 -0.20463723
-0.112701505 0.020916013 0.24454954
0.2496016 -0.0003493726 -0.049960464
-0.24503541 0.09618378 -0.018551102
-0.10367779 0.084880784 -0.045189094
0.07514042 0.11395525 -0.050524916
-0.14586045 0.014812037 0.23490036
0.023186838 -0.2863613 -0.032230172
0.16258973 0.22743566 -0.10888296
-0.055415694 0.24434002 -0.090502314
-0.006633925 0.24529512 -0.09210849
0.011419175 0.07832998 -0.22551642
0.041362964 -0.14650954 0.20417829
0.1824486 -0.04028195 -0.21754837
-0.033350073 0.1871986 0.0884518
-0.12280905 0.057793472 -0.00535117
0.20413864 -0.16889742 0.078739084
-0.049128912 0.14137003 0.12633008
0.057876304 -0.014256601 -0.15250446
-0.02179069 0.16812043 0.08891457
0.073464245 0.1937464 -0.20965059
-0.15201023 -0.15999964 0.168091
0.114107996 -0.11816088 0.12756784
-0.2131488 -0.10351364 0.061528567
-0.12628828 0.2285272 -0.11672162
-0.15514168 0.2324631 -0.016746627
-0.10774293 0.26748577 -0.040943153
0.09078371 -0.06769851 -0.065233454
-0.12822303 0.023048505 0.032106645
0.10291602 -0.15754141 -0.1763855
-0.016655175 -0.08722955 0.09795108
0.2295759 -0.13151196 -0.062508464
-0.12828235 0.085903965 -0.09165173
-0.00092485856 0.25018832 -0.08283112
-0.089766786 0.14127547 0.16069242
0.048568547 0.21354887 -0.15889712
0.22355172 -0.15009126 -0.036986627
0.14239383 -0.16042207 -0.19943027
0.07988576 0.08608267 -0.26929235
-0.14805369 -0.13906445 0.17895894
0.19550204 0.03364953 -0.18275309
0.07656123 -0.20331313 -0.12960418
-0.24827509 -0.08883244 0.083319426
0.17984122 -0.12393036 -0.22010297
-0.060655747 -0.124286145 0.26606527
0.1557977 -0.2154721 -0.0405855
-0.0011573104 0.17319591 -0.23575635
0.107893206 0.14953111 -0.020543676
-0.1669081 0.14890663 0.16577677
-0.084598064 -0.10696792 0.252547
-0.03686069 -0.07112061 0.09505406
0.11141074 0.2053584 -0.043504823
0.0039386605 0.16505967 0.055847317
-0.20913123 0.15612833 0.021027364
-0.07849972 -0.055374555 0.09312369
0.015467044 -0.16686448 0.0011728649
0.117795974 -0.26396304 0.046602257
0.050051853 -0.15561895 -0.13277972
0.21747205 0.030162038 -0.1601931
0.17664823 0.14504907 -0.16190739
-0.20761079 -0.1544865 0.11684469
-0.009145451 0.25414017 -0.074422106
0.10282917 0.0070438962 -0.10058607
0.15474749 0.04799849 -0.21647489
0.14999893 0.19692603 -0.07156768
-0.016488684 0.060026255 -0.18868876
-0.09890364 -0.03954035 0.26529214
-0.19157472 0.19452794 -0.02604141
-0.15755144 -0.18482788 0.058156464
-0.1748177 0.05152235 -0.042205103
-0.2631516 0.09238312 0.056301814
-0.17455289 0.061746925 0.224269
-0.19735545 0.20698804 -0.07310166
0.029717501 0.19593082 -0.19587067
0.21477506 0.1692165 -0.11141342
0.20677215 0.025999548 -0.17282918
0.050302535 0.014552277 -0.13408914
-0.07404333 0.15340763 0.14091678
0.20362782 0.15110031 -0.09229265
0.17937824 0.010180903 -0.014894483
0.064122654 0.21854827 -0.15011601
0.123311296 0.035168413 -0.24908797
-0.19363417 -0.16632336 0.12566537
0.1348925 -0.22995996 0.11207838
-0.112694465 -0.012724207 0.25864172
-0.26244846 -0.0131149 0.054715313
-0.03650713 0.29142204 0.024068393
-0.17594084 0.15236759 0.13738354
-0.19502823 -0.1257961 0.13774985
0.1640147 0.033460885 -0.019814104
-0.036901042 -0.006310589 0.19513848
0.23700881 -0.09690701 0.012410247
-0.050931916 0.20805041 0.09212371
0.13599111 -0.224867 0.1271111
0.07203633 0.05114296 -0.12631142
0.1490952 0.20803292 -0.16077408
0.10940199 -0.12580736 -0.19886555
-0.048189916 0.15157552 -0.006329801
-0.1438954 0.08261231 0.23641092
-0.082351476 0.09454599 -0.1400867
0.26527238 0.05979215 -0.10063569
-0.02227633 -0.12961899 0.24776644
0.2827908 -0.07158016 -0.0636289
0.16724837 0.00703659 -0.22051625
-0.21973523 0.15768869 -0.07137433
-0.06689127 0.30067068 0.03994834
-0.15759885 3.8441895e-06 0.03881434
-0.084842995 0.11616391 0.16999066
-0.09026746 -0.2551454 0.089576006
0.014604546 0.14074065 -0.25179002
0.12757652 -0.1216529 0.11806766
0.019085674 0.15307106 -0.012533024
0.2533583 0.05011721 -0.11612391
-0.22027758 0.029034901 -0.0034747163
-0.25088072 -0.051933162 0.1165412
0.20175186 0.09077961 -0.05838774
-0.11711096 -0.19399862 0.19473995
0.20484018 -0.12654252 -0.14301828
-0.075774305 -0.2712027 0.049085855
0.19360551 0.15894099 -0.14213489
0.13084818 0.2501038 -0.09930864
-0.15287228 -0.12956354 0.17976813
0.25055987 -0.057900786 -0.16308723
0.24797784 0.03161685 -0.12709656
-0.16973236 0.23377511 -0.1032226
-0.22512028 0.11125388 0.10672181
-0.05658604 0.06641653 0.17278905
0.0038990772 0.19975339 0.05027346
-0.14057234 0.020785132 0.24176754
0.06998615 -0.18685602 0.20162918
0.07123799 0.17973085 0.0041457256
