# .PCD v0.7 - Point Cloud Data file format
VERSION 0.7
FIELDS x y z
SIZE 4 4 4
TYPE F F F
COUNT 1 1 1
WIDTH 1000
HEIGHT 1
VIEWPOINT 0 0 0 1 0 0 0
POINTS 1000
DATA ascii
-0.1958323 -0.08323549 -0.17217739
-0.223756 -0.045476824 -0.1749803
0.13050683 0.21056756 -0.023829076
0.100957796 0.14443985 0.23283802
0.074541904 0.16715232 0.24017227
-0.15893649 0.078341044 -0.22638215
0.05566815 0.28883716 -0.06616504
0.11499654 0.024141397 0.26620182
-0.09392206 0.2681187 0.055142056
-0.1482592 0.023335773 -0.03296438
-0.16723989 -0.12364106 -0.16796805
0.04195662 0.08344665 0.12379581
-0.0675417 0.09054288 -0.096524596
0.09510112 0.25068992 -0.049429886
-0.27143082 -0.036138363 -0.100944616
-0.05809196 -0.20708771 0.06585432
0.097276755 0.13765892 0.24149624
-0.14594792 -0.09824942 -0.019576145
0.042772375 0.2454158 0.20987976
-0.12618484 0.14911063 0.065716855
-0.02476709 0.17854 0.16444638
-0.11815599 0.16876543 0.07658347
0.09038819 0.009286406 0.12850781
-0.00080080586 0.1327868 0.1785042
-0.096088536 0.26780018 0.055232443
-0.12781222 0.26260218 0.06305334
0.26748392 -0.0073013427 0.1732455
0.14059839 0.06572423 0.04801881
-0.06754657 0.16424534 0.122472264
0.009678912 0.15651739 0.19234677
0.14055951 0.2851691 0.025852285
-0.24179982 0.107588775 -0.048233863
-0.11782367 0.17431757 0.077867344
-0.009354685 0.15805906 -0.16208231
0.18917632 -0.1305742 0.15540774
0.11585169 0.10266531 0.25094333
-0.0066271657 0.29273733 -0.09621094
0.038257506 0.27729362 0.045790575
0.19326265 0.029361308 0.02503115
0.06439943 0.28408262 -0.025221251
-0.035070185 -0.23095584 0.082887925
0.15894143 0.18591519 -0.0019384215
-0.20942557 -0.001995391 -0.221796
-0.026236247 -0.24554332 -0.19587262
-0.04059034 -0.12887757 -0.24138518
0.2885339 -0.01015369 0.08309989
-0.08550634 -0.26199523 0.030901534
-0.08309661 0.083253935 -0.24326664
-0.23487994 -0.1276387 -0.10147728
-0.14557523 -0.050615452 -0.032124776
0.13057007 0.22631143 -0.021000873
0.13400845 0.20969203 0.1517568
0.13870178 0.20242907 0.15292986
0.09646152 -0.23661527 0.17141725
-0.1517515 -0.043668985 -0.24388239
0.1445045 -0.06034754 0.020261668
0.03650673 0.27652955 0.06006275
0.18021709 0.1685498 0.14001243
0.0956258 0.28332746 0.04934786
-0.10354098 0.25652632 -0.13518485
-0.13856189 -0.029403334 -0.060354825
0.09980449 -0.15179783 0.22122896
0.20115297 0.23326674 0.05891501
-0.034032505 0.21076433 -0.1755712
0.1805255 0.2476032 0.03268176
-0.06586007 -0.27748668 0.03807039
-0.22376166 -0.12097742 -0.07181342
0.11295908 0.037992064 0.26675987
0.19723141 -0.22053441 -0.03284568
-0.17123362 -0.21562691 -0.04089824
-0.17929377 -0.17148724 -0.11993475
-0.08929519 0.14307506 0.08724597
-0.16104029 -0.19050238 -0.12245354
-0.14041288 -0.27023622 -0.033474967
0.09071849 0.021279471 0.13092102
-0.19208169 0.092301376 -0.1740032
-0.20044781 -0.17956524 -0.060618002
-0.24308039 0.08972016 -0.11593042
0.049823973 -0.27614233 0.1376394
0.22699553 -0.18622476 0.05547625
-0.09854553 0.042420622 -0.06819373
-0.04499051 0.2640483 0.15197586
0.096390195 -0.26089346 -0.013484418
0.114732966 -0.17531085 0.2028924
-0.16909151 0.024645835 -0.035434242
0.025871545 0.28315625 -0.105539374
0.17674337 0.014655641 0.048614055
-0.05288513 0.25533894 0.1520254
-0.21719112 0.0321224 -0.03881277
-0.0648403 0.17260976 0.12643954
0.11349135 -0.060575075 0.08302233
-0.09448815 0.28315905 -0.06932637
-0.04775228 -0.11554626 -0.026814215
0.08176707 -0.0770649 0.21774146
-0.08281111 -0.25290203 -0.13717519
0.1360854 0.100856766 0.2333589
-0.022612242 0.25528902 -0.15662579
0.028044833 -0.2697076 0.022591777
0.038888413 0.26479053 0.18801636
-0.021758 -0.26385897 0.08937765
0.055830393 0.27918887 0.04568741
-0.117100514 -0.15163988 0.021178154
0.039549 0.20182241 0.22522151
-0.0049918555 -0.2543602 -0.14554064
0.038737107 0.102247536 0.20960106
-0.153028 0.057008676 -0.027173333
-0.19086127 0.068458475 -0.19360754
0.07435414 -0.03761775 0.11992498
-0.111539476 0.088642314 -0.25892535
-0.17076679 0.09000761 -0.20310165
-0.06549584 -0.25419727 0.05073382
-0.0071560834 -0.06843303 -0.18053307
0.03652751 0.1690154 -0.111512125
-0.19009109 0.0677932 -0.0075391512
-0.1897747 -0.010360696 -0.021000354
0.12783512 0.278359 -0.008050619
-0.03438814 0.06943231 -0.1820375
-0.21049064 0.23354058 -0.021728033
-0.19485515 0.058357626 -0.013592442
-0.052943755 -0.2785115 0.047803298
0.103026986 -0.07638755 0.23747091
-0.008867019 0.29412034 -0.11636139
0.0430865 -0.032736782 0.15840751
0.2283412 0.086019635 0.04449932
-0.016671088 -0.22907141 -0.2068918
-0.1926594 0.059082594 -0.011440349
-0.038987797 -0.22852218 0.07970256
-0.093142204 0.22255103 0.109121345
0.26538554 0.03725212 0.0700891
-0.12165791 0.07523965 -0.26490486
-0.081263855 0.074101605 -0.24318635
0.028170824 0.2685145 0.15658867
-0.2776738 0.066721864 -0.088516325
-0.07009102 -0.22057469 0.05241208
0.23009844 0.13574564 0.0548704
0.045160927 -0.22123237 -0.17853726
-0.04843201 -0.23384358 -0.18568139
0.25915033 0.025530264 0.1865187
0.16480844 -0.26343247 0.04307906
-0.04606713 -0.19360897 0.07931622
-0.24918105 0.024789773 -0.1610225
-0.15572369 0.055489894 -0.25438473
-0.051823124 0.0730774 -0.21620941
-0.051474158 -0.2742812 0.06013336
-0.20335488 -0.15415862 -0.11067588
0.1859039 -0.012277083 0.25951925
0.10774036 -0.26118797 0.024129732
-0.09435304 0.16886804 -0.21449074
0.17769498 0.16542092 0.14477909
-0.13360915 0.13179068 -0.20596604
0.15197378 -0.047388285 0.05524927
0.040718254 -0.2672411 -0.0047576125
-0.110538304 -0.2788241 -0.062072735
0.09918468 -0.034792412 0.24124664
0.13185652 -0.2180763 -0.09801047
0.0059087034 -0.1859004 -0.20852664
0.12132541 -0.049449977 0.25909042
0.12607248 0.28623876 0.036461215
-0.21887213 -0.0606062 -0.05667998
0.08009312 -0.22329228 -0.14667623
-0.0082275225 0.18647887 -0.15604196
0.17713003 -0.060721513 0.23693182
0.2366631 -0.13435388 0.013398353
0.12210549 -0.2198922 0.147249
0.22060443 -0.19319482 0.055881377
0.11868293 0.2615752 0.12629712
0.12621322 0.28387046 0.0807373
-0.1327354 0.24408485 -0.11524031
0.18710233 -0.20403874 -0.044580687
0.062437605 -0.15942377 0.18541963
0.08190574 -0.0552867 0.12983778
0.115795285 -0.25866666 0.13397224
-0.1898442 0.22007087 -0.057636097
0.19058152 0.043350495 0.23403536
-0.13938405 -0.19581755 -0.13867891
0.28681996 0.0695783 0.11125023
0.18503614 -0.07295934 -0.009782231
-0.20841408 0.12638184 -0.12107776
0.0635743 -0.18922092 0.18122466
0.16971925 -0.20169963 0.108576074
0.12492267 0.073240116 0.0851647
-0.19090125 0.19973744 0.0149322
-0.22024952 0.19281954 -0.04490674
-0.05152666 -0.17082697 0.078290224
0.007479994 0.10065556 0.17894258
0.18825366 0.08177827 0.019070541
0.028185358 -0.1801985 0.15016915
0.16101795 0.008064859 0.2880612
-0.05115899 -0.2378233 0.06683891
-0.24764341 0.01812951 -0.17119195
0.099211045 0.28252354 0.05396172
0.10383474 0.21107963 -0.048343346
-0.18003725 -0.08297708 -0.1871855
0.18102527 -0.17482266 0.123135395
0.16075961 0.051279254 0.25172162
-0.16780433 -0.18971409 -0.032292694
-0.0030334166 0.21469398 -0.14628544
-0.14354596 0.16193604 -0.16221909
-0.24261442 -0.018856352 -0.17773421
-0.19793148 0.014578683 -0.24529618
0.10057986 0.07579373 0.2619917
0.046639614 0.0039663645 0.19959682
0.09663334 -0.09550547 0.063742965
-0.063895434 0.25230438 0.14133416
-0.25337586 -5.82027e-05 -0.07785291
0.061287414 0.111944 0.11209562
-0.09816273 -0.037775204 -0.08865178
-0.13475175 -0.1837559 -0.1522826
0.10037467 0.0032573328 0.2490385
-0.014759834 0.2775112 0.019276379
0.05035154 -0.26505473 -0.033245586
-0.04373756 -0.13767475 -0.2458361
-0.11759215 0.18379483 -0.17937727
0.18173493 0.046017077 0.047461845
0.025683207 0.16437827 -0.04212385
-0.0786592 -0.07476216 -0.2669784
0.21918887 0.116129324 0.041354924
0.050271697 0.281121 -0.0052870046
-0.17996316 -0.14674573 -0.13830134
0.10899464 -0.2510971 0.14947619
0.0024733974 0.28303736 -0.0072732535
-0.03700644 -0.085410364 -0.134635
0.07969727 -0.010808396 0.15743302
-0.13291462 -0.025151366 -0.27576125
0.02744372 -0.22681369 0.14128244
0.16066502 0.2644227 0.027240539
-0.24316537 0.052246258 -0.059232343
-0.2029318 -0.017733634 -0.21580471
0.28834066 -0.034715302 0.08344614
-0.20844895 -0.17007205 -0.06632733
-0.1486297 0.064153776 -0.25248986
0.15768099 -0.2215169 0.102637306
-0.087787494 0.06379725 -0.25101706
-0.107206106 -0.097781315 -0.2441112
-0.21479975 0.009399951 -0.22550437
-0.013897258 -0.1445039 -0.026753377
-0.024309736 0.28546858 -0.036806986
-0.11722495 -0.0087312795 -0.28043228
0.09083373 0.03154517 0.12927672
-0.047505636 0.039018758 -0.16015048
-0.1546571 0.15606184 0.04067994
-0.0930847 0.17955758 0.10160918
0.18984093 -0.12198109 -0.027614439
0.047149785 0.27610967 0.09886774
0.12332345 0.24207214 -0.024912389
-0.088214256 -0.27830082 0.012751828
0.11454067 -0.2545857 0.1400204
0.024523173 0.2639426 -0.112200424
0.17285998 -0.16907263 -0.05156463
0.013024629 -0.23346685 -0.19211908
0.14638668 0.14486933 0.18991187
-0.25949952 0.004591486 -0.08268492
-0.052534603 -0.16652422 0.059386723
-0.15700662 -0.21723202 -0.10062559
0.07240806 -0.115845375 0.024357311
0.13386728 0.13939975 0.20585018
0.012987594 0.12236965 0.18939047
0.1163831 0.19874388 -0.038938817
-0.094660446 0.14093697 0.083299555
-0.26898476 -0.011725686 -0.15848216
-0.18886507 -0.14119405 -0.04318237
0.12656265 -0.12262346 0.24345015
0.10898749 0.20654759 0.17762977
0.12186239 -0.13131349 0.24018615
0.22852166 -0.15651436 0.0019888768
-0.24490304 -0.11568196 -0.0903853
-0.2367414 -0.09662326 -0.12354021
0.056701615 0.2658392 -0.08218485
-0.060743053 0.11857423 -0.21643192
-0.04198673 0.28645706 -0.07987557
-0.2707731 0.02760626 -0.12910607
0.043554217 0.05827903 0.20630822
-0.081316955 -0.01876752 -0.10973517
0.13187307 -0.25767905 0.0015546451
-0.19997804 -0.0962327 -0.045521237
0.121147595 -0.10661851 -0.023613341
0.07001259 -0.26304173 -0.030652286
-0.19706397 0.04495564 -0.20795439
0.005715001 0.24215056 -0.13338298
-0.01811597 -0.15879919 -0.22591835
0.021077193 -0.1092291 -0.14358322
-0.090417646 0.27075383 0.028356865
0.1631045 0.12630902 0.0028140522
-0.17664893 -0.16808155 -0.036644377
0.04518452 -0.10239271 0.17954117
0.19305539 -0.2546756 0.038554385
-0.04190496 0.06531047 -0.20842695
0.20021634 -0.116616875 0.14871617
-0.117191195 -0.10637389 -0.22815256
0.114480704 -0.14022467 -0.078111246
-0.018113105 0.28916252 -0.072054885
-0.073363535 -0.2699974 -0.08164046
0.05482479 -0.23482409 0.16273476
0.05051363 -0.26775533 0.03419093
-0.23272371 0.055727657 -0.048987787
-0.03579599 -0.18137312 0.09094269
-0.20137177 0.062190283 -0.018929722
0.11888779 -0.11869559 -0.03287073
-0.038019437 0.26737338 -0.15554018
-0.17522246 0.065460786 -0.21714517
-0.122125424 0.23886335 -0.13361649
0.099978715 0.11701507 0.07349182
0.22973466 0.19051479 0.06843351
0.04957402 -0.26901743 0.062964156
-0.25160056 -0.0078722695 -0.17773975
0.111610524 -0.05077452 0.08132348
-0.22633244 0.010432505 -0.051062122
-0.02405801 -0.074684836 -0.21659964
0.07776413 0.22625764 0.19177686
0.1941165 -0.02607079 0.242704
0.06094324 0.06241086 0.12447723
-0.0650838 -0.27020893 -0.058921862
-0.1619891 -0.21813448 -0.03193081
0.029746236 0.25650826 0.21049233
-0.032537255 0.00940266 -0.17218927
-0.07810835 -0.035480585 -0.11041584
0.20381342 -0.15122789 0.12036538
0.00922874 -0.25597313 -0.09088095
0.21096355 -0.23675759 0.024670472
0.044413824 -0.17510156 0.16603513
0.16661564 0.17929941 0.0039758575
0.0461321 -0.25522384 -0.091559954
0.15302615 0.27856854 0.081049204
-0.0866796 0.12890102 -0.23853932
-0.2424393 -0.05968831 -0.078258336
0.15042168 -0.12859331 0.20389321
0.0766555 0.20197693 0.211456
-0.073233865 0.26300648 0.11034668
-0.23018077 -0.034169506 -0.17763762
0.03175957 -0.11724346 0.16454317
-0.24445842 -0.022406185 -0.073560655
-0.16477126 0.2716446 -0.015773699
-0.071550876 0.03893334 -0.13808846
-0.10918478 0.2808628 -0.05067414
0.11889778 0.09302399 0.045108438
-0.016829005 0.24605781 0.18365037
-0.21901073 0.07818098 -0.15463479
-0.111614615 0.26837918 0.019760616
-0.035470825 -0.26623842 -0.0428297
0.08781511 -0.27785674 0.14705113
-0.21038274 0.20761634 -0.041916866
0.18517725 0.04021025 0.2419953
-0.0884015 -0.032204293 -0.2684769
0.060565516 0.12867154 0.23438653
0.08112589 0.15970226 -0.048270687
0.294662 -0.034273103 0.10213009
0.090953775 -0.26114425 -0.021792093
-0.1408905 0.2224317 -0.121045925
0.12336325 0.0034165792 0.26797876
-0.07066154 0.22457801 0.1302155
-0.25425267 0.039767217 -0.1383958
0.11438954 0.00885259 0.113109976
0.022442596 0.090105996 0.1924336
0.10763626 0.27727872 -0.0331884
0.05584143 0.10002096 0.22498651
-0.042392787 -0.02628924 -0.22499497
0.026008787 0.26304385 0.18948266
0.19314846 0.25049636 0.055625834
-0.06470621 -0.2048792 -0.19964479
-0.14607559 0.26555482 0.014697191
-0.24568008 -0.10014505 -0.112455815
0.08943264 0.025761677 0.24290581
-0.14580692 0.20274174 0.05705598
0.07315174 0.28545964 -0.034118216
0.08182982 -0.1267644 0.20905295
0.07296157 -0.20272692 0.18750712
0.061058294 -0.25105828 0.16011353
-0.0055864584 0.27006093 0.108075745
0.056703225 0.14610025 -0.009601915
0.08849026 -0.056142922 0.22762518
-0.10376184 -0.026241086 -0.27689198
-0.2189868 -0.0070282905 -0.208967
-0.21462907 0.22194421 -0.024017934
-0.12489692 -0.002740982 -0.072193794
0.015034319 0.18444425 0.2022017
0.13209037 0.030757155 0.27545562
-0.041834198 0.2908511 -0.12260284
0.076348454 -0.13763426 -0.0856914
0.20807786 -0.22344382 -0.013994848
-0.049891092 0.27249482 -0.15723984
0.21747778 0.208933 0.056106996
-0.0237593 0.28113857 0.010248115
0.26477182 -0.018857809 0.16631389
0.08956492 -0.10278517 0.053897984
-0.087330505 0.041297574 -0.25455567
0.12725823 -0.02278815 0.26735747
-0.2367175 0.023052562 -0.18038365
0.01210231 -0.26799762 -0.03337356
0.12514605 0.094415806 0.24856007
-0.042001005 -0.15424012 0.071262665
-0.083495915 -0.27696687 0.0043098764
-0.1410711 -0.16681668 -0.15935908
0.08091054 0.19799402 0.2105245
0.18006088 0.18828133 0.01795765
-0.15889688 0.16272403 -0.14280315
0.17002033 -0.25932398 0.028964672
-0.19860594 0.14635494 -0.0015696075
0.19728494 0.042760633 0.02447435
-0.03179124 -0.1498789 0.07830694
-0.037421137 -0.0035555405 -0.2164098
-0.059108477 -0.018532982 -0.23904887
-0.037040085 -0.13582872 0.060543846
0.02737747 0.16247542 -0.03686058
-0.23301816 -0.050917882 -0.1621192
-0.025277466 0.13831742 0.15689862
0.080173135 0.093563125 0.08367274
0.25253624 -0.026924513 0.046943713
-0.065676235 -0.022363793 -0.24578102
0.104701534 0.023167336 0.085232705
-0.029798009 0.051707912 -0.19965366
-0.21080671 -0.18588984 -0.071287155
0.18749724 -0.19234687 -0.04215958
0.19272165 0.1945759 0.030744245
-0.121675305 0.1440703 -0.20749739
0.19328728 -0.19184768 -0.036730424
0.2823895 -0.012551358 0.14931452
0.25632286 0.012192473 0.1974431
0.010555186 -0.27395698 0.081268266
-0.0067767506 -0.21854754 -0.20687568
-0.10136235 0.08063647 -0.09905336
0.10824199 0.18575555 -0.048734292
-0.121146485 -0.23473309 -0.11886339
0.0029183063 -0.11308145 -0.19847162
0.117555186 -0.25591126 -0.08053152
0.049259163 0.1923771 -0.10197654
0.19120756 0.21426466 0.09461291
0.17633386 -0.08002553 -0.019003369
0.025255118 -0.2664217 -0.04521701
0.022665463 0.10957586 0.15720943
0.042651277 0.26201937 0.19724637
0.03577176 -0.18076313 0.15706754
0.100338735 0.10957211 0.2601853
0.22733511 -0.069664 0.15775454
-0.13448714 -0.06485897 -0.24380326
0.23007388 0.06704161 0.17525947
0.247533 -0.16101204 0.01873241
-0.12501198 -0.08360706 -0.23829557
-0.14442424 0.22675185 0.06255646
0.13843423 0.12194323 0.03485696
-0.1306245 -0.21327141 -0.0021422824
0.21596043 0.17520292 0.048770964
-0.26114807 -0.017256148 -0.1615839
0.048889417 -0.016165936 0.19812949
0.21873954 0.061095566 0.19144523
-0.21270612 0.06791529 -0.028378006
0.16379184 -0.2280593 0.08865733
-0.22698466 -0.10025557 -0.12990059
-0.09384503 -0.024049824 -0.27206287
0.14829853 -0.23063643 0.1074551
-0.1574082 -0.2473972 -0.07219473
-0.008175906 -0.2728093 0.10033097
0.059823263 -0.26633775 0.023876647
0.140101 0.15508834 -0.013886254
-0.04493314 -0.26453942 -0.09993969
0.1263597 -0.26928148 0.07135726
-0.12995106 -0.14509472 -0.18646213
-0.14069661 -0.27955315 -0.062440187
0.08480103 0.25066355 0.16644174
-0.20553082 0.24865906 -0.0055846665
-0.078069076 -0.109657444 -0.046763457
-0.14324155 0.23878284 -0.10608811
0.045637764 -0.112863585 0.17811626
-0.080540136 0.2720635 0.029806888
0.043028887 -0.2177295 -0.17988582
-0.25065896 -0.069574386 -0.13125512
0.22528234 -0.197212 0.0459914
0.13480861 -0.23412392 0.12331667
-0.2615003 -0.05987506 -0.09587372
-0.063926555 0.15200041 0.1236568
-0.021655388 -0.19374275 -0.22454493
0.23274542 0.17811494 0.08330638
-0.06583192 0.22920236 -0.19119473
-0.045923766 -0.20296924 -0.22008574
0.053806428 0.19409627 -0.097479746
-0.21629718 0.20091549 -0.008288025
-0.052498322 -0.014637017 -0.23226674
0.14984109 -0.1592296 0.17729934
-0.029890355 -0.12639679 -0.0071052806
0.22549048 0.014252529 0.029240588
-0.026913919 0.083719306 -0.19136149
-0.032376364 0.050263755 -0.14621942
0.002218499 -0.23580869 0.11643094
0.12985554 0.28188962 -0.0012064736
0.069867425 0.24670249 0.18348588
-0.2305688 -0.0022725342 -0.05720406
-0.051896565 0.2778075 0.009524183
-0.11629971 0.06768559 -0.2648977
0.004650334 -0.1310089 -0.20002776
0.03110846 -0.13169156 -0.17574418
-0.07197224 -0.09506851 -0.08840455
0.042522155 0.087318785 0.1568812
0.217633 0.13890989 0.1276828
0.18649511 -0.10983218 0.17522271
-0.04111733 -0.11917474 -0.025187083
0.18695065 -0.12993407 0.15826945
-0.13377874 0.26550004 0.015756179
-0.2046604 -0.1712186 -0.09635636
-0.09778871 0.24933504 0.10954767
0.061205074 -0.28286368 0.14386486
-0.099375054 -0.17153642 -0.19483395
-0.09655326 -0.036831483 -0.07077876
0.064505994 -0.16029416 -0.14997089
0.10487903 0.026517218 0.10310487
-0.11846222 -0.058734506 -0.26353043
-0.016105708 0.13588892 0.010746618
-0.113423094 -0.07927879 -0.25248617
-0.07007438 -0.07390567 -0.106553875
0.16247076 0.20260368 0.13051043
0.15470867 -0.21604335 0.11197022
-0.09155911 -0.013368467 -0.08044282
-0.07692975 0.28585777 -0.1224057
0.07097518 0.16014479 0.24889603
0.2613947 0.12467653 0.09362837
-0.10447124 0.07955644 -0.057601668
0.044511277 -0.16601822 0.1677229
0.23562865 0.060198303 0.17516297
0.21042909 -0.11250435 0.13925727
0.047892775 0.21516891 -0.099228024
0.22290567 -0.066737205 0.16713393
0.055287976 0.20263016 0.23099118
-0.07380654 -0.026817169 -0.25406614
0.014482272 0.23698454 0.20232363
0.076609954 -0.25534278 0.16811395
0.02221681 -0.25492403 -0.080493085
0.013716108 0.27141586 0.12602381
0.25189966 -0.1425327 0.026013125
-0.14899535 -0.22577715 -0.021288017
-0.13972296 -0.2477107 -0.089745864
-0.14974743 -0.25183895 -0.076340735
-0.13296111 -0.008325333 -0.038672507
0.1708194 0.21499366 0.014135512
-0.26613542 0.041835763 -0.122365855
0.2547753 0.09692614 0.070802316
0.05991139 -0.26441157 -0.023687826
0.04655941 -0.2652627 -0.038212597
0.035579726 -0.12616764 -0.13622478
0.17604478 -0.070430964 0.22755057
-0.11424205 0.0903008 -0.25867417
-0.0928468 -0.272082 -0.10974973
0.1714242 0.1437768 0.0021608588
-0.01599273 -0.21250434 -0.21205567
0.21857674 0.05896139 0.030731354
0.115598716 -0.23533806 0.1474271
-0.14424865 0.052117556 -0.27195993
-0.11205559 0.28059253 -0.051548384
0.24647357 -0.006564501 0.19490191
0.080328025 -0.034292474 0.13029099
-0.2296588 0.0031859514 -0.20680313
0.087072685 -0.2567827 0.17245156
0.18830249 0.012394669 0.26117674
-0.15491296 -0.11436362 -0.18664828
-0.18726479 -0.024030818 -0.22565934
0.05530309 0.039997797 0.21392967
-0.016260345 -0.21488705 0.10306499
0.11673416 0.21083015 -0.036487345
-0.20252089 0.15790384 -0.095050365
0.24394977 0.114114374 0.06384084
0.046293095 -0.05976349 0.17338088
0.11093079 -0.20108086 0.18048169
0.015320418 -0.12968208 0.0416209
0.17177702 -0.18495806 0.12366986
-0.024917353 -0.17538759 0.10203217
0.086868964 0.16692135 0.22879006
-0.13769911 -0.22610912 -0.010926167
0.115883045 0.03581828 0.11923241
0.07269899 0.06025596 0.23354049
0.15433872 -0.10389707 -0.006631726
0.042130847 0.1979381 0.22945842
0.069337055 0.10389143 0.06842974
-0.01301489 -0.13396086 -0.2168438
0.22318901 -0.0069220862 0.21770252
-0.012025073 0.27949843 0.011163503
-0.13011947 -0.09687071 -0.22332464
-0.24543606 0.12837112 -0.04793224
0.2382382 -0.033291824 0.03263315
-0.00838862 -0.16091172 0.11869538
-0.13869679 0.22709122 0.06789872
0.09506775 -0.2636393 0.05034562
0.009926416 0.13118462 0.080608524
-0.035877034 -0.27652133 0.032893337
0.2113908 -0.08072199 0.16732782
0.15794177 0.113732636 0.20298028
0.010442058 0.1335573 0.13161075
-0.28678283 -0.022753956 -0.1303548
-0.020007221 0.087472335 -0.16559863
0.22058772 0.031104794 0.21365736
-0.006328248 -0.25332764 -0.17583007
-0.09189957 -0.2723891 -0.10741575
-0.22014797 0.14105922 -0.02237305
0.21657921 -0.19767335 0.05604238
-0.18001048 -0.19915172 -0.045211904
-0.04131286 0.27856424 0.019215597
0.07388036 0.24408823 0.18173034
-0.1510118 -0.12369349 -0.18314333
0.29660076 -0.018563714 0.10149897
0.12683992 0.27332273 -0.015856775
-0.18109293 0.023037981 -0.019914644
-0.2712759 0.08313618 -0.08862622
0.06632157 -0.27087477 0.09329937
-0.007128951 -0.1636945 0.1204969
0.25438246 -0.022707839 0.049389474
0.2505147 -0.11829232 0.08915612
-0.116773784 0.26684564 0.029694874
0.06417979 -0.16985783 0.18519014
0.05970555 -0.26866263 0.08092004
0.07380089 0.2735342 0.14322044
-0.075249724 0.015723143 -0.24791102
-0.08957275 -0.0786594 -0.06162079
0.10798481 -0.25655547 -0.09009353
0.11603405 -0.1644296 -0.10316676
0.04839336 -0.10845744 -0.10138184
-0.2531147 -0.07183891 -0.1272143
-0.041831546 0.2908162 -0.13142352
-0.06293895 0.26525685 0.095127
-0.0641563 -0.2351259 -0.17088753
-0.06388842 -0.03402562 -0.24618538
-0.007794541 -0.05853028 -0.14500253
0.24829994 -0.156015 0.06146143
0.065007254 0.119467534 0.10374844
-0.18432638 -0.12899473 -0.0368485
-0.09975095 -0.19505736 -0.17399874
-0.10395385 -0.04649141 -0.2748082
-0.18756463 0.196041 0.017357007
0.09140058 0.26855066 -0.049700104
0.092441164 0.23477958 -0.054680865
-0.12371234 0.18721944 0.074705966
0.17704533 0.19424619 0.12325954
0.029291483 -0.26791632 -0.018496117
-0.0073045264 -0.0892644 -0.20371135
0.10838946 -0.09063007 0.083596006
-0.21297473 0.0815092 -0.15941103
-0.23804851 -0.072159745 -0.14109606
0.044823993 -0.12077806 -0.14553332
-0.020937871 -0.17137751 -0.22950593
-0.10381812 -0.2724489 0.012172643
0.05578627 0.27989903 0.027975328
0.19983047 -0.081629254 0.18223509
-0.0051454054 0.10695568 0.15894815
-0.06476095 -0.029762067 -0.11142571
0.20877667 -0.08993711 -0.0045086504
0.25292045 0.10915491 0.07124273
-0.07979084 -0.17341876 -0.21175134
-0.023531225 0.27600896 0.028187942
0.24755345 0.14664058 0.09369282
0.22456056 -0.2189122 0.014081241
0.15801534 0.06285905 0.04973874
-0.050298158 0.28219405 -0.04279064
-0.105845675 -0.2781956 -0.041610558
0.12690344 -0.07560135 0.053602464
0.020186387 -0.13511908 -0.07303882
0.06196692 0.07841073 0.22683455
-0.10034169 0.03552262 -0.08133149
-0.066759676 -0.055717364 -0.2526505
-0.07468237 -0.2620659 -0.1377633
0.20466825 -0.006657161 0.014846312
-0.024803083 -0.20243809 0.09737762
-0.06998713 -0.26865456 -0.12809727
0.052446913 -0.22383527 0.16486934
0.111480765 -0.19061098 0.19073345
-0.011383337 0.2816995 0.003159169
0.23664394 0.16572692 0.08927016
0.20826994 -0.24960335 0.0003040909
0.035512693 -0.0749211 0.14739744
-0.03267476 0.01950718 -0.20797299
-0.14737369 -0.09861933 -0.20580305
-0.10817694 0.018339438 -0.09842756
-0.020346915 0.27753514 -0.13870242
-0.2055773 -0.16139801 -0.062152997
-0.036595903 -0.1471748 0.07132831
-0.19353029 0.22761613 -0.047813434
-0.19478363 -0.052163515 -0.19701429
0.05610009 0.27394933 0.11667648
-0.21361162 -0.14331837 -0.06638254
0.087274425 0.15078463 0.0006928502
0.052745722 -0.12722585 -0.07542555
-0.1103483 -0.1253522 -0.0043969247
0.106485195 -0.049923614 0.06622483
-0.12954375 0.27551082 -0.06014679
0.064648814 0.2794277 0.06333783
0.28496337 0.058562007 0.10305156
-0.16270971 0.15949892 0.033854775
-0.06737631 0.26762417 -0.16591091
-0.13228235 -0.066952646 -0.24426387
-0.019337354 0.14900407 -0.1728843
-0.0014861893 -0.18443954 0.122053206
-0.21828102 -0.10344836 -0.13561034
0.08905121 -0.25989264 -0.057893448
-0.16546461 -0.06382676 -0.21555121
-0.08395479 -0.2664127 0.031556968
0.17070487 -0.2155575 0.09312613
0.145262 0.19385755 -0.0131605035
-0.22178087 -0.07916528 -0.15096995
-0.22160366 0.066324405 -0.15887862
-0.16940339 -0.20664711 -0.10221808
0.16543825 -0.25268388 -0.03269401
0.0023783948 -0.08345904 -0.17163885
0.08476422 -0.23888701 -0.14261556
-0.017893512 -0.27543002 0.041831437
-0.027035797 -0.2772962 0.06368196
0.094165675 0.27371964 -0.04624089
0.09738593 -0.27688453 0.118550815
0.11052703 0.1755761 0.19996335
-0.053075083 0.0015020777 -0.22995959
0.099490784 0.057368957 0.08751216
0.25441495 -0.0128737865 0.051148783
-0.26179293 0.06750236 -0.07373086
-0.03000739 -0.040395822 -0.21605355
0.18860713 -0.20082667 -0.04262694
-0.18954708 -0.19106251 -0.052586168
0.10939666 -0.04667693 0.24857493
0.13029367 -0.024507103 0.2687969
0.081976786 0.28565887 -0.034120504
-0.14317702 0.016313525 -0.029512512
-0.19962518 -0.18950473 -0.061608348
0.15496199 -0.10019635 0.22555499
-0.17748146 -0.14691675 -0.03368805
0.2426589 -0.13356839 0.09186595
-0.1763596 0.058009386 -0.0056191995
-0.15833311 0.1278063 0.032315403
-0.11552641 0.21795957 0.08766519
0.04563969 -0.21716087 0.1597647
0.2658301 0.0021519617 0.1759835
-0.052403685 -0.15500122 -0.24308747
-0.19237806 0.0342049 -0.23188858
0.15454036 0.10999837 0.011937116
-0.09542161 0.058363724 -0.25901514
-0.124318495 -0.16452494 -0.17682801
0.20562504 0.15074776 0.03493495
0.09066465 0.2283956 -0.057444736
-0.024168376 0.13000435 -0.06349168
-0.01825212 0.19678824 -0.16347514
-0.0366607 0.027505862 -0.18128037
-0.104128085 -0.2319193 -0.1382545
-0.25714976 0.006568674 -0.080169216
-0.15180412 0.16449405 0.04479473
-0.20924415 -0.0785014 -0.050948936
-0.17269473 0.100113146 0.013002773
-0.07286807 0.019858703 -0.24498758
0.19484863 -0.1867434 -0.034390304
-0.08389337 0.26812828 0.07324753
0.03643902 -0.1171461 0.16887686
0.16448757 -0.20746791 -0.06604404
0.20727414 0.08473038 0.024839997
-0.13410182 0.0427735 -0.073836446
-0.0769105 0.2853316 -0.1135585
0.011403174 0.28458837 -0.016415695
0.24083431 -0.057544786 0.15273724
0.23305967 0.17790592 0.065020785
-0.052860025 -0.2678159 -0.061761376
-0.24146186 0.04661621 -0.05865264
0.116435796 0.14375836 -0.014932739
0.21100177 0.09618149 0.166704
-0.14344129 -0.024568463 -0.03388097
-0.07068469 0.00511598 -0.13871917
-0.04819638 0.14285766 -0.200585
-0.1584015 0.25771344 0.05511153
0.26875162 0.028657094 0.07168156
-0.27121842 0.009271639 -0.09654376
-0.14231303 0.23930758 0.066712864
-0.08622571 -0.26085418 0.030441131
-0.098695345 0.2656557 0.07749007
-0.005301292 -0.12374307 -0.20792988
0.12059871 -0.18342823 0.1872496
0.06672944 0.19414717 0.22677322
0.14017971 -0.112049624 -0.018253872
-0.25986168 0.043330286 -0.12870435
-0.25626588 0.121686555 -0.06807691
0.052295394 0.13213569 0.22736798
0.055084176 0.05046694 0.21556948
0.054572124 -0.28314808 0.13776332
0.021139799 0.15845348 0.20325947
-0.08655637 -0.052483216 -0.11590534
0.1696857 0.051007267 0.2447167
0.010754776 -0.25681987 0.120606564
-0.16652341 -0.23385093 -0.07389191
0.05487552 -0.117576756 0.10120793
0.06463647 0.2837693 -0.022818526
0.09729024 -0.03239693 0.23991974
0.21333432 0.16261797 0.04413471
0.030633861 -0.2682431 -0.0068237134
-0.13449495 -0.09884322 -0.018785186
0.045495886 -0.0123856235 0.16657768
0.16496141 0.084953666 0.21849193
-0.26354474 -0.04279534 -0.1397313
0.03545764 -0.1295758 0.16578451
0.08162021 -0.26589316 0.069028586
-0.13229221 -0.059132982 -0.029142298
0.27809718 -0.04939565 0.110538214
-0.016790988 -0.25798792 -0.11769969
0.21512127 0.0067902682 0.24218945
0.14038801 0.2567891 -0.006582873
-0.03269231 0.28141338 -0.0009950595
-0.06502682 0.15714441 0.0133682005
-0.12885003 -0.22350232 -0.0023061377
-0.27501988 -0.010017824 -0.10569302
-0.031014761 0.16243365 0.15585046
-0.28039864 -0.004286653 -0.111874186
-0.21214446 -0.08154541 -0.054159753
0.20793776 0.21743068 0.076495476
-0.23456003 -0.059480622 -0.07095512
-0.08566171 0.2832408 -0.122308046
0.18268208 -0.054438192 0.00039320593
-0.0067045605 -0.10935241 -0.2066906
-0.017483192 0.13667014 -0.072899334
0.08852942 -0.26401967 0.043053556
-0.24669795 0.089210406 -0.05598626
-0.050488453 0.12319571 -0.20616035
-0.043320075 -0.21968459 -0.20497496
0.19290006 0.25458378 0.058746252
0.0328084 -0.24599005 -0.173718
-0.05251119 -0.19854334 -0.21700692
0.118228376 0.14015967 0.21993119
0.15597984 0.2228595 0.12104601
-0.14872256 0.24312434 0.061472736
0.16702105 -0.24994282 0.07540301
0.20234746 0.23021808 0.05897487
0.096653655 -0.0869151 0.22974008
0.22134429 0.041438982 0.2046008
0.16368069 -0.112981886 0.20312205
-0.23772179 -0.081536695 -0.13420196
0.009454113 0.27402592 0.04989319
0.110260494 -0.002086068 0.12746848
0.21101587 -0.113100454 -0.00651964
0.009149936 -0.27411512 0.081442595
-0.04556524 -0.26602477 -0.06853109
0.04409366 -0.2606294 0.14186583
0.033496752 -0.26778716 -0.010478866
0.16956304 -0.11734265 0.19013093
0.17706472 0.101975285 0.014283901
0.002352513 -0.27282417 0.031281218
0.044218194 -0.19325455 0.16266033
0.04085857 -0.2642462 -0.061803304
0.22872107 -0.061062355 0.018968662
0.18271402 0.2287678 0.091443665
-0.1705579 -0.032745194 -0.2346356
0.08016385 0.10535173 0.24836156
0.0028896118 0.27781618 -0.1220952
0.2593121 0.023753626 0.06211151
-0.051651243 -0.21088672 0.07112454
0.1808461 -0.0723748 -0.010193701
0.023480278 -0.16030343 -0.18781401
-0.2154831 0.020302827 -0.039317887
-0.05349692 0.25871518 0.15205424
0.0045483517 0.1182963 0.18088835
0.2848997 -0.019805804 0.07804998
-0.05617842 0.006796385 -0.23188938
0.18279043 -0.081389114 -0.018837482
0.14862399 -0.05137378 0.018095879
0.0068710223 0.14280401 -0.12937045
0.07752267 0.096996814 0.24445528
0.2701977 0.062725194 0.07900847
0.13545465 0.1603579 0.18827179
0.0033340508 -0.2510047 -0.18363807
-0.16329414 -0.103804834 -0.013015704
0.078197494 -0.11876085 0.034382194
0.1270875 -0.032724883 0.2659861
-0.12942372 -0.005665934 -0.076885015
-0.08232378 -0.041126028 -0.26444006
-0.2895531 -0.013054912 -0.13027105
-0.22725649 0.07763644 -0.040088274
-0.16137119 -0.032676965 -0.24330118
-0.22957768 0.022316474 -0.19356161
0.17928475 -0.12636158 -0.038122542
-0.13696447 -0.050263803 -0.25268605
-0.068418786 0.16152126 -0.21595584
-0.084171064 -0.042872608 -0.26645032
-0.11785208 0.1298371 0.053120434
0.14382881 -0.20884378 0.13263674
0.10989039 0.2607068 0.1352079
-0.069430426 0.20187119 -0.20978951
0.08148198 0.26317143 0.15995316
0.0746536 0.04356451 0.23240589
0.23075503 0.17570587 0.087132044
0.22023104 -0.043372728 0.0142503055
-0.20857619 -0.010438615 -0.038356196
0.01801914 -0.120288104 0.1381848
-0.20647441 -0.031275935 -0.04008338
0.056218732 -0.04071135 0.20057137
-0.07433014 -0.058541086 -0.2601301
0.108426705 -0.22917534 -0.12157438
-0.18965328 0.1426774 0.006041904
0.02210592 -0.25751168 0.12922032
0.23838097 0.13201356 0.11352165
0.1310687 0.016063103 0.08810927
-0.04908508 0.081840724 -0.09976085
-0.18063222 -0.17802298 -0.04206921
0.13969277 -0.20640196 0.1401659
-0.16103238 0.15992388 0.03547755
-0.10661159 -0.01835756 -0.071529396
-0.08605456 0.13758314 -0.004916629
0.062403955 0.02603895 0.21802245
0.073369056 0.050237924 0.12729236
-0.16803525 -0.23611635 -0.051071912
-0.043697715 0.056018762 -0.21171702
0.11433739 -0.030392474 0.25599647
0.0086723175 0.28355318 -0.011649835
-0.112901576 -0.00093556824 -0.27576715
-0.12173377 -0.28175122 -0.04350264
0.073474295 0.25650382 -0.068356134
0.062403023 -0.11254331 -0.08731682
-0.065248825 0.21462326 -0.19961335
-0.10998613 -0.2487114 0.010658124
0.06950702 -0.21291105 0.18252784
0.27550042 0.08085101 0.11844546
-0.20889828 -0.092608094 -0.053111866
0.2614258 0.0946218 0.12062055
-0.1522303 0.2536238 -0.07944628
-0.0701504 -0.26870134 -0.10854701
0.28610295 -0.020376598 0.13347389
-0.0860437 0.08164931 -0.09948499
-0.1809435 0.101523355 0.006834529
0.0051271706 -0.21906681 -0.20085268
0.051534962 0.18541448 0.23604132
-0.18397361 -0.14308771 -0.039004028
-0.09922169 0.24141009 -0.15949066
0.03115127 0.1488396 -0.092943475
0.15019345 0.25793058 0.0026633209
-0.035378683 -0.26396224 -0.0713233
0.02318277 0.14122307 0.05227068
0.18623918 0.14040342 0.15597278
0.24039233 0.043575503 0.18370955
-0.111564584 0.2669733 0.03752227
0.15057074 -0.12849812 -0.060229763
-0.016520612 -0.24218632 0.09802437
-0.16914523 -0.221178 -0.08596756
-0.09258635 -0.26463783 -0.11900074
0.02290063 0.224398 0.20909537
-0.19473638 -0.15888608 -0.11512821
-0.2670878 -0.02428736 -0.1506162
0.09433171 -0.06346893 0.23172396
0.03068876 -0.09764524 0.12322103
-0.10788461 0.13273045 0.026161022
-0.22434847 0.086133026 -0.03591165
-0.15604855 -0.012546567 -0.2637461
-0.062430292 -0.26790705 -0.13121197
-0.15745114 -0.16111566 -0.14837793
-0.19011706 -0.18382153 -0.051838286
0.23039672 -0.16853121 0.0016031867
-0.2256846 0.12947819 -0.029516004
0.08360082 -0.24170236 -0.13558516
-0.13511916 -0.03781377 -0.051293846
0.17113797 -0.040553067 0.025652174
-0.04544956 -0.22511928 -0.19742829
0.019777158 -0.25197223 -0.122085586
-0.25892237 0.0340356 -0.1382678
0.106887765 0.27631617 -0.034049563
0.06066714 -0.080189236 0.19772802
-0.19892709 -0.19969961 -0.062758476
0.16693771 -0.14875409 0.16761924
-0.0353541 -0.26339474 -0.08082996
0.21964972 0.13768314 0.045573536
0.06233427 0.11799614 0.23413892
-0.15588412 -0.16001941 -0.016072873
-0.07826403 0.08769801 -0.053068217
0.2761836 0.04027088 0.1583949
-0.024977827 0.123835154 0.079706885
0.12700029 -0.23333958 0.13363455
-0.0021170396 -0.12794392 0.09395152
0.012868114 0.28663543 -0.10670164
-0.21566325 0.066052735 -0.1659076
0.050917964 -0.2607478 0.14669465
0.09616496 -0.25367177 -0.12136734
-0.109041624 0.20228724 0.090889715
0.1388399 0.27320647 0.098467514
0.23981595 0.15195279 0.09686899
0.046154186 -0.011271612 0.19646795
0.09451172 0.067072555 0.10371851
-0.16482754 0.18672027 -0.12460478
0.19947225 0.21218672 0.04006918
-0.22790241 0.045988277 -0.16755596
-0.079537034 0.07077599 -0.24217945
0.0781733 0.09232798 0.24423233
0.18808986 -0.08823893 0.19129144
-0.17841718 0.056817584 -0.0070439265
0.020449363 -0.24192205 0.1321713
-0.19097805 0.18929137 -0.087967955
0.10217144 0.060269397 0.12470017
-0.03372593 -0.021926098 -0.21623373
-0.07372407 -0.27006972 -0.11919994
-0.18263425 0.17970078 -0.105519794
0.040126886 0.2402576 0.21632093
0.022886982 -0.122977816 -0.036972616
-0.1539022 -0.041344676 -0.24365088
-0.15148112 -0.12143566 -0.005221221
0.28836688 0.020525593 0.09539379
0.16602902 -0.029153772 0.27165166
0.013273279 0.15559658 0.19549969
0.053719707 0.28999937 -0.052938055
0.024778496 0.2828569 -0.015862452
-0.24297307 0.15262969 -0.05161916
0.059052512 0.12973922 0.052254025
-0.10072174 -0.10227417 -0.011051743
0.05992806 0.23891413 0.19878547
0.076890126 0.17924169 0.2286894
-0.21956351 -0.08458006 -0.14889413
-0.2804048 0.02961595 -0.097564444
-0.1959248 0.03365351 -0.018926961
-0.19381748 0.03909613 -0.22121313
-0.25587147 -0.007852324 -0.08152853
0.0043693897 0.19789211 0.1947301
