# .PCD v0.7 - Point Cloud Data file format
VERSION 0.7
FIELDS x y z
SIZE 4 4 4
TYPE F F F
COUNT 1 1 1
WIDTH 1000
HEIGHT 1
VIEWPOINT 0 0 0 1 0 0 0
POINTS 1000
DATA ascii
0.13042027 -0.12532634 -0.13406885
-0.23050429 -0.054171305 -0.10434556
0.15888114 -0.04540725 -0.25321025
0.28785467 -0.037610378 0.010673543
-0.10541254 0.09647867 0.21335699
-0.050392736 0.04024603 0.04483716
0.24896728 -0.053665247 -0.11846805
0.14035174 -0.13703936 0.0010138178
-0.14964265 -0.117932424 0.33624896
-0.2734022 0.06006109 0.018085437
0.13539772 -0.13391542 -0.036418006
0.24932703 0.15295151 -0.19671826
0.2385894 0.10468942 0.13717458
-0.14621653 0.05158425 0.3895346
-0.085373834 -0.12357197 0.36480707
-0.017360471 0.04750882 0.36696252
-0.029976672 -0.020055795 0.26246926
-0.08085661 -0.1086966 -0.16010009
-0.0014844611 -0.10362481 -0.20058456
0.16508561 -0.051840946 -0.18161541
0.25614443 0.087192915 -0.19908033
-0.04924945 -0.07290945 0.22399606
-0.2577744 -0.0430144 0.06816996
0.2836773 0.11254571 0.05405439
-0.1505812 -0.11514415 0.30016747
-0.025799615 -0.012176502 -0.14919211
0.07791775 0.06909561 0.24022499
0.049672607 -0.04356641 -0.22347711
-0.036668636 -0.053460535 0.24128743
0.08101249 -0.06697871 0.21599726
0.19555447 -0.033299815 -0.17757912
-0.0521968 -0.14921197 0.01764137
0.1674264 -0.05069782 -0.21781386
-0.2813704 0.09737215 -0.056192238
-0.04972001 0.09804341 0.23009454
-0.013084993 0.105211705 0.3709115
0.29901698 0.11305559 -0.03434791
0.011573104 1.9078625e-06 0.24141584
0.05277246 0.15316878 -0.31461984
-0.031221682 -0.09643663 -0.15268856
0.10546552 -0.056380846 -0.11537472
0.17198557 -0.07950216 0.10226116
0.056757227 -0.047279216 0.23218915
-0.25415263 0.021356093 0.11707943
-0.035182305 -0.14954379 0.031675298
-0.2094859 -0.07329862 0.049227707
0.08819475 0.046381086 0.23550577
0.056829587 0.11019197 -0.19785273
0.26182634 -0.038155634 -0.003596994
0.18770517 -0.053898975 0.16736433
-0.03820096 -0.01800323 -0.33017048
-0.025565272 -0.015872363 -0.21599756
-0.13757956 0.078409806 0.3211975
0.100992374 -0.14381504 0.051640555
-0.09526467 0.036878806 -0.04151853
-0.19935185 -0.0668158 -0.18782136
0.0017535011 0.008290612 -0.34055895
0.09988143 0.10396662 0.23651545
0.19792618 -0.07107753 0.1298008
0.18205902 -0.04997229 -0.2149381
0.1526925 -0.05110218 -0.22234942
0.1741608 -0.018993637 -0.25035042
0.21630155 -0.02532959 0.1573384
-0.14000863 0.07678461 0.37695053
-0.09138901 -0.016100405 -0.05470957
-0.052547354 0.04018251 0.372441
-0.24742794 0.023134204 0.15386881
0.08268055 0.036301155 0.23578425
0.057716757 -0.049628552 0.23141553
0.10809977 -0.13906969 0.003704327
-0.1621265 -0.10926138 0.22740354
-0.1749523 -0.073424645 -0.17570074
0.10192105 0.082277305 -0.122736454
0.056108188 -0.089191064 0.18848975
0.20822772 0.15168501 -0.21873742
0.06613815 -0.12360476 -0.19224876
-0.09093862 0.084275566 0.27978727
0.17384654 0.019575102 0.19366476
0.2905568 0.028218832 -0.13761324
-0.044772804 0.061079733 0.29726037
0.18116942 -0.049455736 -0.1270208
0.15785149 0.0983984 -0.04723857
-0.080029525 -0.077665545 0.15706135
0.1121592 -0.06606014 0.13241993
0.27568278 0.1232159 -0.087298825
0.17948657 -0.04240962 -0.08074997
0.29944286 0.028923536 -0.10373789
-0.2496114 0.101560265 -0.1741197
-0.06359968 0.009269743 0.024727471
0.30702457 0.1186589 -0.010505218
0.011597191 0.10597117 -0.19559178
0.2558708 0.07379957 0.11174325
0.010318829 -0.1278539 -0.17949614
-0.14034383 0.08787165 -0.08530137
-0.021687388 0.14936683 -0.3278376
-0.2452362 -0.034382835 -0.17069238
-0.22871369 -0.06474481 -0.016762052
0.12233962 -0.07681011 -0.0834318
-0.1650397 0.13623837 -0.26099288
0.0595038 -0.04195313 -0.30612972
-0.21675089 0.008867466 -0.22588523
0.047637776 -0.06358722 0.10284541
0.20440269 -0.03364721 0.13719453
-0.09074082 -0.07815593 0.20254892
-0.21163401 -0.08100058 0.29169473
-0.21903165 -0.090292625 0.054897573
-0.03631547 -0.08549846 0.11649083
0.08576469 -0.046336763 -0.28822234
-0.20546246 0.0072696316 0.3961619
0.04035974 -0.007327456 0.23956402
0.26792738 0.017565768 0.09290715
-0.056689285 -0.10464356 0.36139324
-0.23612638 -0.047367815 0.19605458
-0.04461465 0.12059153 -0.3278617
0.26041913 0.093080096 -0.14683397
0.23421828 -0.020808537 0.13878424
-0.23699443 0.073962666 -0.19567388
-0.27815562 0.030011013 -0.046047006
0.25719172 -0.057133447 0.05682992
0.115369245 -0.13735008 -0.01079985
0.27048492 0.027265456 -0.18446928
0.053329527 -0.116190836 0.07821686
-0.25213975 -0.019527266 0.11186167
-0.0935448 0.09869128 -0.31350708
-0.16238509 -0.101269685 0.13807042
-0.13147569 -0.06856044 -0.2033883
-0.13373628 0.0810912 -0.05619098
0.24387547 -0.045508094 -0.0062020733
0.2544006 0.001414518 -0.21120776
0.1997895 0.15450732 -0.23968165
-0.116435125 0.13437092 -0.3017244
0.27733076 -0.050999567 -0.028657405
-0.1697393 -0.07657437 -0.13229431
0.11543709 0.027746974 0.20362258
-0.041321877 -0.05395967 -0.28889155
0.21590544 -0.07077589 0.03293219
0.24941735 0.14637412 -0.15945643
-0.2172353 0.068867914 -0.22450459
0.059632063 -0.06978724 -0.15514612
0.03591433 -0.086834006 0.20019075
0.12671505 -0.11166965 -0.15632923
-0.271626 0.02751763 0.014975203
0.11271481 0.08263654 0.23019534
0.09517381 0.01259122 -0.32881257
0.17572588 0.15333602 -0.2489687
0.2977276 0.0728692 0.004896732
0.19716606 0.017863536 -0.27640507
-0.21378218 -0.08610121 0.24894029
0.29575422 0.12141215 -0.08541548
-0.15475053 -0.07027265 -0.06103603
0.21614109 0.0860199 -0.24902157
0.28601816 0.1329304 0.0073298127
0.30264926 -0.015576147 -0.030975541
-0.08676192 0.07832097 -0.3172058
-0.067278594 0.07682035 0.3311355
0.1483393 0.09462453 0.2142215
0.2809811 0.047087908 0.0649095
-0.2626916 0.10018677 -0.0508494
-0.19306238 -0.102501005 0.3851057
-0.11298626 -0.1457719 -0.05733806
0.23549631 -0.03921105 -0.088094845
-0.066333756 -0.13674504 -0.12305728
-0.23241878 0.005897023 0.24078563
0.0016446982 0.03477608 0.36264852
0.060779784 0.10452246 -0.19778563
-0.007551659 -0.049283486 0.21372359
-0.0025821577 -0.049456783 -0.23186935
0.19224735 0.06252738 -0.27462703
-0.10617272 0.05882697 -0.029703042
0.29633135 0.08043166 -0.1006153
-0.22177064 -0.08162392 0.20647848
0.25876427 -0.02788396 0.10145549
0.120043874 -0.09378007 -0.16067109
0.26784554 0.14151117 -0.11643214
0.053799286 0.09083159 -0.1633211
0.10996869 0.0028958241 0.22568138
0.20952089 0.11959404 0.15084693
-0.06975719 0.07882966 0.26742396
-0.21797073 -0.04122669 -0.20944396
-0.2603886 0.09116253 -0.14912866
-0.08653078 -0.13949822 -0.11030476
0.24033506 -0.061415013 -0.0552815
0.18956353 0.010491087 -0.28102204
0.16058037 0.12870628 -0.2879282
-0.083755955 -0.047042124 -0.18295822
-0.24851951 0.022195868 -0.17491308
-0.006041139 -0.06932386 -0.18450965
-0.1230659 -0.11406243 0.30297413
-0.24107628 0.05934335 0.12193865
-0.09613959 -0.14160648 -0.09294515
-0.09208701 -0.001717392 -0.042950124
0.21017629 -0.056485265 0.14319496
-0.1789196 0.05125335 0.39515245
0.13269179 -0.12966298 -0.08491003
-0.01023341 -0.09321255 0.18823838
0.26427224 0.05731533 -0.19086042
0.10477631 0.08812717 -0.17786849
-0.03717244 0.040227737 0.24152486
-0.013161662 -0.057722814 0.3576912
0.093792155 -0.08148407 0.19186792
-0.14786236 -0.015636383 -0.28789017
0.28982344 0.12403112 0.031826038
-0.021344243 -0.066543736 0.3583867
-0.12807271 -0.03618181 -0.28902027
-0.027637174 -0.09611609 0.16438396
-0.21799427 -0.07774137 0.37826458
0.17193852 -0.03397632 -0.26671416
0.04592005 0.118914925 -0.30943245
-0.18231913 -0.10750075 0.25911185
-0.06223975 0.07537394 0.33385378
-0.27594948 0.013031994 -0.017055303
0.26578936 -0.03794752 -0.14730728
0.10214078 0.07921754 -0.12007177
-0.197839 -0.089732036 -0.010656227
0.17005111 -0.0753368 0.15144815
0.054058496 0.10142466 0.25615662
0.25726697 0.051263083 0.06898156
-0.083927676 -0.09744977 0.208831
0.23825933 0.04480563 0.13583793
-0.070819646 0.06645601 0.2160225
0.15255018 -0.083709404 -0.07925053
-0.008162124 -0.06459827 -0.1831066
0.0057827136 0.07104795 -0.1589461
0.13113686 -0.0801447 0.17339374
0.004952073 -0.058433242 0.23110515
0.21778108 0.030473996 -0.2554655
0.021451779 -0.036830835 -0.31828824
0.25930983 0.038509253 0.10632092
0.007859527 0.07812969 0.24850184
0.08285462 0.10087102 0.24167733
-0.092301086 -0.09916991 0.19547449
-0.2788796 0.048325107 -0.05872918
0.003138636 -0.035089456 -0.27524385
-0.13517722 0.08806273 0.3905921
-0.010033951 -0.03385245 -0.24087168
0.14770655 0.15765874 -0.3061649
-0.00022534962 0.10026796 -0.33257484
-0.010574112 -0.12843837 -0.18580301
0.047866598 -0.08972076 -0.16090806
-0.22754617 -0.0619011 0.060590483
0.30411214 -0.0046469807 -0.059356816
-0.12693988 -0.009531162 -0.30230272
-0.0008468986 -0.095086604 0.17490864
-0.0719835 -0.13312782 0.36171934
-0.05859865 -0.07621005 0.17301163
-0.16439867 0.067756996 0.36789292
-0.21562491 0.07051405 0.18446109
-0.26836511 -0.031328946 -0.106657326
-0.07355438 0.088196 -0.3210746
-0.04254592 -0.07543087 0.14357026
-0.23040602 -0.040000856 -0.19207901
0.116435796 -0.031709958 -0.24335612
-0.036940604 0.009076482 0.36722103
-0.1390279 -0.08100977 0.14386596
0.15199485 -0.06313804 0.1349351
0.122417234 0.057777677 -0.04409209
0.22379462 0.11850784 0.12451291
0.11874061 0.059933957 -0.0731395
-0.02127629 0.063242316 0.36891648
0.25454417 -0.05742875 -0.07757029
-0.004948577 0.08734051 -0.16943072
-0.24795684 0.0072496147 -0.17575587
-0.17867312 -0.08617411 0.3253945
-0.046686836 -0.14227708 0.018822717
0.15018663 -0.043282222 -0.2650545
0.26132843 0.01378597 -0.20287962
0.08315368 -0.042809833 -0.2977613
0.2959769 -0.01572927 0.0129790595
0.21752134 -0.010119872 0.1568226
-0.20935436 0.018869461 0.3977755
0.20737614 0.045096546 -0.26321572
0.11605513 -0.018494945 -0.08870632
-0.054027215 -0.13336614 -0.15802838
-0.18514253 0.057407565 0.35537174
-0.06889899 -0.09299716 0.18153633
0.1537072 0.110915676 0.21224159
0.084431775 0.13739713 -0.29841894
-0.05827169 -0.03867119 -0.15919569
-0.10523267 -0.040994942 -0.25723946
-0.27723834 0.0140087595 -0.048469093
-0.0067135063 0.1044438 0.3697495
-0.16154568 0.07268214 0.34180927
0.24660814 0.124860786 0.1154577
0.16249564 -0.11198499 -0.07188422
-0.12545794 -0.09900805 0.13567898
-0.1980418 -0.007315897 -0.24756837
0.07091577 -0.06271465 0.09705784
0.16605921 -0.022569899 -0.2505709
-0.16589613 -0.088690974 0.012744354
-0.23658422 0.09112386 -0.1961682
-0.1525944 0.06895263 -0.0676584
0.19479607 -0.07596553 0.07722282
-0.2177337 0.07485721 -0.2238927
-0.12105194 -0.040197354 -0.25454143
0.22241703 0.05148494 0.12461511
-0.23286992 -0.080532394 -0.06975125
-0.13095434 0.078242324 0.02784368
0.10464377 0.111550115 -0.3161437
0.12360266 -0.08601134 0.15483128
-0.051012315 -0.096879974 0.15836701
0.061211452 -0.12708761 0.07445049
-0.2636373 -0.011705224 -0.13094267
-0.06727851 0.07684746 0.24729103
-0.11196356 -0.13943744 -0.10868222
0.14335784 0.07906157 -0.30318666
-0.15810874 0.045947388 -0.28171456
0.24782388 -0.027237192 0.08051747
-0.03737609 -0.09664036 0.35870916
-0.15003604 0.09520461 0.20016983
0.13606438 -0.029785912 -0.002707119
-0.01800976 0.05610897 -0.33593896
0.11722448 -0.06649597 -0.14338511
-0.23420733 0.069057524 0.11903937
0.1229779 -0.0840043 0.16852067
-0.26218906 0.0810638 -0.14438911
-0.2327873 -0.08368487 0.022920044
-0.22349012 -0.080476314 0.19831575
-0.049733024 -0.13226987 -0.16748168
-0.03597499 -0.094006486 0.1396443
-0.055609755 -0.065663345 0.021357076
-0.12701404 -0.0022910926 -0.01639628
-0.2595362 0.029058432 -0.14876243
-0.03971465 0.058601055 0.32563776
0.1353893 -0.13417438 -0.033569444
-0.20340595 -0.08622482 0.33437994
0.00045625665 0.012972989 -0.3401037
0.107789226 0.017270315 0.06113761
0.29952326 0.06262688 -0.08847398
-0.10222531 -0.14051075 -0.10872635
0.30309987 0.04886686 -0.040900975
0.22657096 -0.048088133 -0.18148272
-0.25185558 0.10476842 -0.113576196
0.17976427 -0.050711896 -0.14034697
0.094969384 -0.041339427 -0.29629976
-0.14326164 0.04515521 -0.26861057
-0.07239778 -0.05878686 -0.2178501
0.1723765 0.13698712 -0.27867275
0.054662593 0.08126712 0.10978954
0.15794441 -0.113084555 -0.02211844
-0.11513503 -0.06574489 -0.1936851
-0.07818698 -0.055087253 -0.2830293
0.1379066 -0.045947693 -0.26510897
0.19249737 0.0137605835 -0.27945203
-0.012567894 -0.14417252 0.07434453
-0.09590383 -0.1324922 0.36589944
-0.055915482 -0.07370935 0.30763274
-0.035727765 -0.007920961 0.3511827
-0.094888754 0.11268595 -0.29072794
-0.16745701 -0.09134119 0.029197445
-0.21623439 0.0055800793 0.3376358
-0.13968618 -0.09878836 0.12457981
0.23804748 -0.037874598 -0.10126499
0.098657966 -0.12461197 -0.13439211
0.19076423 -0.051012877 -0.08059723
-0.16430119 0.03269249 0.38044173
-0.24692583 -0.053185876 0.12072919
0.06114056 0.099655636 0.2622711
0.19864263 0.017449087 -0.27520353
0.06144569 0.011518329 0.23861568
-0.23988906 -0.07768258 0.038936093
-0.114070654 0.09949272 0.38787755
-0.20802575 0.077346645 -0.20333366
0.14664705 -0.11825905 -0.12826696
0.17416295 -0.027166836 -0.14306776
0.28475395 0.04915115 -0.14844118
0.100565255 0.04090114 0.21046248
-0.13588719 0.0766769 0.3413184
0.103862144 -0.14262693 0.04030734
-0.2547344 0.047585156 0.006630409
-0.2572138 0.05645981 -0.08343397
-0.28083006 0.089880824 -0.09718489
0.1582105 0.014952498 0.20404324
0.2569966 0.118307404 -0.19243807
0.15604627 -0.033917006 0.04646726
0.026467651 0.08310749 -0.33366036
0.14082924 -0.04547302 -0.18087713
-0.1661979 -0.047235835 -0.25355724
-0.27862 0.059478834 -0.070235886
-0.20757481 0.044212926 0.39952695
0.019017681 0.02876966 -0.33899075
-0.05327352 -0.1068834 0.34582207
0.28133252 0.05595941 -0.15618914
-0.20818482 -0.031103872 0.37036854
0.23810801 0.15394099 -0.21372977
-0.25523025 0.010694901 0.106118076
0.067464866 0.071232244 0.07215694
-0.26411596 0.11611139 -0.09972173
0.22289345 0.013601631 0.15265283
0.15495966 -0.0628642 0.13020171
0.01857142 -0.042888425 0.05248637
0.06431974 0.10204065 -0.32760808
0.12962617 0.14149806 -0.31348318
0.067213275 -0.027949063 -0.17210536
-0.10260924 0.060832046 -0.07464396
-0.18356986 0.08515361 0.19839908
-0.20720026 -0.14599685 0.38401312
-0.14141865 0.065967664 0.3898751
-0.090145916 -0.03053931 -0.16024996
0.22269723 -0.045402028 -0.024725331
-0.2528839 0.116615094 -0.1105833
-0.2213059 -0.08450204 -0.06266435
-0.06895879 -0.05374438 -0.28763482
-0.13087994 -0.10246129 0.17041253
0.07341079 -0.090163745 0.15957715
0.06777615 -0.042402383 -0.30273336
-0.22536097 -0.030129058 -0.20671794
0.27434793 0.14885785 -0.13196401
-0.18822645 -0.10481567 0.2507145
0.09266172 0.04765572 0.02970251
-0.101243585 0.054442167 -0.05787651
0.14906032 0.075814135 -0.3001638
-0.082678065 -0.096840195 0.13790053
0.094577186 -0.0494126 -0.22564748
0.14759128 0.038405262 0.21110614
-0.20331766 -0.08753699 -0.038176026
-0.005161302 -0.02241786 0.3591778
-0.07883989 -0.11210241 0.32751194
-0.02283697 -0.008756568 -0.3148919
0.27107114 0.12034259 -0.16625878
-0.22789097 -0.07373295 -0.12368912
-0.19850191 0.055864025 0.31137154
-0.21200025 -0.01980353 -0.22940896
-0.012993659 -0.09836297 0.3522731
0.160003 0.123103455 -0.28906736
-0.2768678 0.024357105 -0.019425832
-0.10423988 -0.042812943 -0.29348436
-0.1825676 -0.14964256 0.37230918
0.23094006 0.10798454 0.17004357
0.17679279 -0.048510026 0.15056904
-0.113172345 0.07331236 -0.07544651
-0.25269914 0.048902843 0.09354248
-0.05199124 0.09337979 -0.1676448
-0.17817049 0.12666194 -0.23619758
0.12823264 0.14847192 -0.2809619
0.104868606 -0.0838566 -0.120775536
0.2512702 -0.062804446 -0.025119625
-0.0138927745 0.07926223 -0.16165061
-0.13367337 0.09346694 0.18982409
0.26289135 -0.05674929 0.036658265
-0.1761049 0.083069384 0.39123276
0.21213818 -0.04581335 -0.011493645
0.10516797 -0.07015303 -0.11807972
-0.18495072 -0.07855175 0.088777184
-0.030873515 0.060111664 -0.3335016
-0.07555412 0.057168137 0.039349843
0.1456583 0.0929439 0.030561866
0.0053621386 0.041075103 0.36251822
0.058929764 -0.07032708 0.148635
0.13223605 -0.03158781 -0.2170028
0.26186478 -0.03704343 0.08854283
-0.27865565 0.07987048 -0.0050244243
-0.019838026 -0.020237647 -0.33101073
-0.058423888 -0.10454022 0.3245645
0.04990575 0.15219599 -0.30565274
0.2993886 0.045762554 -0.0047019892
-0.10907772 -0.07527652 -0.079732805
0.12128342 -0.08594529 0.14230941
-0.21060857 -0.09420739 0.09757252
0.30065882 0.057278752 -0.016719144
0.21337172 0.004136313 -0.2603558
-0.010120415 0.040072482 0.24444425
0.2916714 0.040683378 0.03440775
0.0026729072 0.09361798 0.35409433
-0.022275237 -0.06843865 0.3583936
0.2967338 -0.0042230324 0.019485654
-0.19549745 -0.10132525 0.221482
-0.05406721 0.09441068 0.24292251
0.26424357 0.047445156 -0.19311646
0.22033706 -0.03727824 0.14865427
0.09103864 -0.07462292 -0.13525777
0.2036272 -0.036124527 -0.06956102
0.27634987 0.11425603 -0.15469328
-0.109244145 -0.14024188 -0.11596939
-0.1867029 -0.055368874 -0.22413076
-0.21021047 -0.07789923 0.31121278
0.15884277 -0.1265189 -0.024833314
-0.2511599 -0.067234136 -0.08502476
0.30151013 0.036758866 -0.083780855
0.26499802 0.122131154 -0.17798632
-0.037214432 -0.08850679 0.3593423
-0.1800915 0.080194026 0.3921148
0.03786466 -0.02426953 -0.18084389
-0.014512269 -0.08357835 -0.18928267
-0.12624812 -0.09954113 0.14106971
-0.15160096 0.13250707 -0.28147832
0.12832144 0.12507047 -0.30448157
-0.16541192 -0.050162718 -0.24996328
-0.19948536 0.12967896 -0.2576375
-0.1977006 -0.01905257 -0.24550168
0.24805817 0.07310919 0.087362215
-0.04396118 0.080551915 0.3742379
-0.07493878 -0.032530256 -0.3132597
-0.10760068 -0.11661137 0.34048563
-0.18474866 0.04991919 -0.25939274
0.25794342 -0.0011368874 -0.20557393
0.15026836 0.098828405 -0.07497489
0.037408076 -0.043251116 0.23568667
0.24844436 0.13881482 -0.20213617
0.29862025 0.014078683 -0.11397524
0.09178018 -0.03795966 0.22685662
0.19238886 0.15029776 -0.26245686
0.14712003 -0.05798579 -0.04739218
0.12103881 0.06772416 -0.0016416511
0.03705544 0.008781422 0.24159712
-0.17756382 -0.03959971 -0.25263542
-0.16841298 0.091600716 -0.27167213
0.19827184 0.14469689 -0.25726148
-0.092927285 0.06582683 0.084003784
0.024385344 -0.10302789 -0.16718425
-0.050913095 -0.106065154 0.36028048
-0.08371872 -0.022314254 -0.31661937
-0.052703522 0.002819168 0.07562348
-0.019519558 0.0043021473 0.33542812
-0.05232063 0.07618829 0.1056828
0.2304527 -0.044625793 0.13179575
-0.09400055 -0.091713674 -0.13080052
0.21682017 0.09111651 0.164896
0.2190692 -0.06622417 0.11146462
-0.23386565 -0.08308713 0.03364548
-0.22975877 0.07347334 0.121676646
-0.24932829 -0.038963266 -0.15744063
0.07610531 0.15439622 -0.3139077
-0.27462983 0.039234925 0.0019285021
-0.111366875 0.08520651 0.22363013
-0.20610593 -0.09764214 0.38775206
-0.07174204 -0.13249853 0.34857318
-0.17850097 0.044400617 -0.23986694
-0.11709316 -0.14196435 -0.0356518
-0.23614842 -0.01915188 0.08980036
-0.26299495 -0.0250571 -0.13177603
-0.24156523 0.020603009 0.18736906
-0.28875503 0.10507133 -0.06917374
-0.18562506 0.097274005 0.14983039
-0.18096673 -0.061261307 -0.21886753
0.044931997 -0.09241259 -0.16207457
-0.070675395 -0.03416904 -0.2830799
0.14973281 0.15506597 -0.30770186
0.25980264 0.012946298 -0.20550461
0.2503495 -0.025335101 0.115256056
0.013659034 0.003887988 0.24188143
-0.08463757 0.060799927 0.33275017
-0.14678748 0.041867625 -0.28957298
0.18647614 -0.07653807 0.07845392
-0.1517127 -0.100641385 0.13765854
-0.10437441 -0.08123611 0.18565376
-0.10755994 -0.110759005 0.27604404
-0.10125963 0.09229842 0.38508263
0.08881036 0.14690255 -0.3171376
0.25139603 -0.060932662 0.059284076
0.015627367 -0.052187547 -0.24217527
-0.036527988 0.13395557 -0.34132737
-0.2214803 0.09770166 0.1290794
-0.040857058 0.024343148 0.36913672
0.15637225 -0.028491179 -0.28416222
-0.16211385 -0.10948025 0.23025523
0.071657196 -0.032035347 -0.26708937
-0.17209701 -0.085770935 -0.01642254
0.138869 -0.13674192 -0.0031654923
0.15966949 0.12886924 -0.2885538
0.22138019 -0.070569016 0.09110664
-0.21372505 0.039571766 0.4002118
-0.057474922 -0.033505693 -0.21976033
0.0027825583 -0.12830052 -0.17916928
-0.07309192 0.08065381 -0.32177573
-0.017449334 -0.118555866 -0.1978093
0.2178972 -0.05311036 0.06280654
-0.106161416 -0.14384799 0.35508695
0.17793481 -0.049810626 0.04681546
0.29786596 0.069419675 -0.00051579706
0.28070402 0.10276591 -0.050619766
0.023748403 0.09508162 0.24955945
-0.025746824 -0.042482033 0.2886883
0.16322263 0.09355693 -0.29062444
0.118681334 -0.021039328 0.22122
-0.17810169 -0.114101514 0.36842573
-0.26779452 -0.014326592 0.020248828
-0.09609289 0.06906771 -0.31494972
-0.22627485 -0.12335501 0.3803708
-0.07126232 0.09988506 -0.30003846
-0.10537348 -0.09295566 0.09600298
-0.25861818 -0.06524995 -0.018030576
-0.09406842 -0.09348245 0.1063096
-0.03096012 0.043479018 -0.33483762
-0.19573633 -0.08414292 -0.07093844
-0.01489689 -0.0010307226 0.3482598
-0.06050072 0.04668073 0.042128276
-0.20790264 0.03897628 0.32860023
-0.014400459 0.14178304 -0.32874092
0.23043142 -0.04236492 -0.05644332
-0.26660183 -0.039765093 -0.101300225
-0.1521752 -0.058070406 -0.24773669
0.21795295 0.14459676 -0.20835987
0.25601494 -0.036027968 -0.17175646
-0.11532456 -0.124802075 -0.09819229
-0.02505585 0.0009273785 0.30082703
-0.14800376 -0.049842846 -0.20492713
-0.0433448 -0.08755065 0.302797
-0.03739111 0.04718061 0.27822036
0.08291271 -0.042293113 -0.21244839
-0.18038128 -0.144807 0.3663252
0.27581993 -0.04560348 -0.08946381
-0.07590041 -0.08757616 0.030321507
0.050384846 -0.053701688 0.23115256
0.12741698 -0.09877945 -0.15418145
0.03247341 -0.12867829 0.08019221
-0.2641485 0.04590381 -0.13769478
-0.22626698 -0.023399996 0.26526776
0.26919013 0.0040542358 0.09095823
0.26493266 0.11870191 -0.12953739
-0.01918318 -0.05679188 -0.264524
-0.07906856 -0.10408344 0.26236758
0.052398216 0.13749586 -0.30609027
-0.029250955 -0.05611154 0.11483028
0.18231556 -0.03459297 0.18362811
-0.02012713 -0.008500244 0.3628914
-0.04971223 0.0016410558 0.07558932
-0.24528861 0.05813127 -0.1817842
-0.24397802 0.08343034 0.05501592
-0.010196183 -0.07655911 0.21853709
-0.15655266 -0.07329298 -0.13278835
0.11633255 -0.0283654 -0.2667931
0.24756745 -0.06569077 0.03414328
0.22531733 0.11564757 -0.20455693
-0.010821781 0.100238435 -0.18545179
-0.25616628 0.040658306 -0.0048785224
-0.25762743 0.09521365 0.0782868
-0.074868284 -0.08548585 0.2940806
0.09544416 0.07511241 -0.32284996
-0.06615587 -0.11924322 0.36184117
0.05558361 -0.007368407 0.2183599
-0.2485479 0.10427977 -0.17622925
-0.18658556 -0.07172756 0.012604158
0.061879363 -0.08928986 0.14519265
-0.07273255 0.052893456 -0.3238109
-0.22306633 0.12719832 -0.19681565
-0.16147374 0.04854154 0.39192146
0.15232965 0.007026262 0.20664257
0.04459644 -0.08522418 0.20132343
0.07769206 0.09933835 -0.3049801
0.052181285 0.06689425 0.07470304
0.14438511 -0.04193827 -0.16856621
0.1412218 -0.059825715 0.100206636
-0.030756375 0.025385574 0.27906296
-0.2581339 -0.027761966 0.07246322
-0.19734968 -0.07305165 0.020627327
-0.03984668 -0.07403665 0.13815731
0.27629504 0.14902154 -0.13257776
0.1002686 -0.051226623 0.22005396
0.22202353 -0.035052743 0.11505788
-0.22230883 -0.06686947 0.37989232
-0.16466892 -0.06249287 -0.011443398
-0.14829455 -0.09926308 0.1245582
-0.1789896 -0.09208443 0.026757887
0.22331586 0.07565624 0.12411547
0.019057143 -0.113982685 0.079374656
-0.10179584 -0.021534594 -0.28724888
0.12544183 -0.06254944 0.20227388
-0.1588841 0.074559234 0.33394754
0.06794535 -0.06729073 0.21890841
0.25479704 0.124424025 -0.19581954
-0.050523836 -0.096351616 0.17076716
0.19913831 0.15552232 -0.25125745
0.05437131 0.15320025 -0.3139889
0.25043017 0.15073174 -0.1671969
-0.277054 0.11093436 -0.10034565
-0.039686188 -0.13278283 -0.14940326
0.28213304 -0.020610495 -0.14255698
0.11102094 -0.009845922 -0.0055432185
0.23979427 0.15376294 -0.20707424
0.2531402 -0.027976623 -0.12994756
0.053094935 0.09798598 -0.32992262
0.19424699 -0.057230935 0.086822815
0.06748617 0.069809385 0.06965457
0.028687125 0.10195148 0.23487572
0.063813455 0.013670468 -0.33637378
-0.038601954 0.042120337 -0.33362854
0.23005533 0.061636448 0.14668664
0.28306568 -0.023718052 -0.13682275
-0.08375997 -0.13727354 -0.13312308
-0.26856908 -0.015389241 0.015158483
0.07162718 -0.030121898 -0.23534222
-0.2239795 0.047915164 -0.2160406
-0.1686068 -0.08314454 0.14933881
0.2319232 0.12232998 -0.225952
0.27923474 0.046222482 -0.16380882
0.20605986 0.036046922 0.16986312
0.27330905 0.13031358 -0.09566544
-0.14660752 -0.14682654 0.36322576
0.15826622 0.10413928 0.20890169
-0.21348076 -0.03351712 0.39423314
0.26684672 0.045604046 0.09448799
-0.110187754 0.054296356 -0.28824812
-0.12075722 0.06427544 0.3861711
-0.11380941 -0.09814021 0.1418768
0.23038906 0.102072224 0.15279312
0.21768416 -0.049798757 0.017667163
-0.089010455 -0.0308565 -0.28279924
0.1391521 -0.06430942 0.12960453
0.018366458 0.046699114 0.24568488
0.15824513 0.02574538 -0.27845743
-0.124097034 -0.03889875 -0.10974268
-0.13337004 0.07619619 0.37440985
-0.08696102 -0.08748572 -0.048480745
0.06265016 -0.11378941 0.07399785
0.09365861 -0.0877438 0.14526896
0.27847752 -0.048207134 0.007199654
-0.22748223 0.024238547 0.2584436
0.060383286 -0.07385295 0.21439573
-0.17950636 0.04841711 0.3022351
-0.20135294 0.08447292 0.16296816
0.17931111 0.14136711 -0.24801965
0.28191495 0.08474508 0.06211922
-0.10829174 -0.1400802 -0.11717004
0.04809381 0.016369933 0.24096128
-0.06815835 0.0838938 -0.32332194
-0.23114432 -0.008657523 -0.20508912
-0.053012215 -0.060187742 0.2786809
0.1833026 0.062686086 -0.28135508
0.16345002 0.0016790868 -0.2741738
-0.24631913 0.012113424 -0.17901552
-0.10839237 -0.0894397 0.08169435
0.0446295 -0.041420005 0.04886308
0.024359992 -0.09050063 0.14225058
0.12957337 -0.047591474 -0.2647499
0.09095627 0.15409887 -0.30157083
-0.0064142593 0.0063390564 0.36172965
-0.10702063 0.0678456 0.013791003
-0.0861917 0.13713463 -0.31305835
-0.21500625 -0.09183364 0.14795333
0.07555848 0.120957054 -0.3030575
0.21298668 -0.064922415 0.123915896
-0.03371196 -0.031293973 -0.29336762
-0.17030536 -0.12533575 0.37932286
0.025185565 0.061032325 -0.33573905
-0.0542227 0.07426248 0.10825951
-0.11724262 0.1233593 -0.3021419
0.1504177 0.040514786 -0.30329937
0.17452928 -0.034530953 0.020113077
0.03594646 -0.09226787 0.18259025
-0.06963599 0.049991243 -0.18880063
-0.096889585 0.09825449 -0.16326356
-0.2087428 0.08090563 0.15963621
0.14092878 0.080159545 -0.14384323
-0.21998063 -0.06275379 0.28613895
0.18307899 -0.024308462 -0.26916105
-0.25420615 0.05252199 -0.16269858
-0.19932698 0.13136631 -0.22824287
0.10608293 0.10642815 0.23277725
-0.0040585417 0.0879359 0.22908975
-0.22050965 0.011394177 0.39909416
-0.061750576 -0.008393272 -0.3286591
0.26611814 0.059728194 0.04626125
-0.19993305 0.02219853 -0.21617319
-0.17337953 0.054975998 0.3944988
-0.17232418 -0.14691375 0.37791902
-0.18534549 0.095773675 0.17236038
0.29784644 -0.026305135 -0.045749743
-0.23633328 0.0112346355 0.2195816
0.115640946 -0.005730261 -0.18400174
0.26917103 0.10768961 -0.12134347
-0.10988502 0.077349305 0.3853565
0.19598615 0.09594993 0.18176445
-0.04035502 0.009718872 0.33091
0.17518088 -0.072830796 0.151809
-0.1416368 0.0548058 -0.292277
0.244808 0.1479993 -0.20451099
0.2326945 -0.06672608 -0.0014374556
-0.123537205 -0.11063535 0.37244436
0.17135166 -0.023429226 -0.24537785
-0.088276826 -0.14733016 -0.025096526
0.08460761 0.11055565 -0.32232016
0.29144967 0.10273337 0.027043464
-0.14218462 -0.10645555 0.2075154
0.030243605 -0.045425907 -0.22810094
-0.20200762 -0.063633025 -0.08597116
0.21828765 -0.045639727 0.14581914
-0.21521217 0.021065202 0.3283169
-0.26200223 -0.060892083 -0.03204923
-0.20724821 -0.07879854 -0.12642975
-0.06304106 -0.057058275 -0.27863175
-0.1606636 -0.08352517 -0.0048554735
-0.026373338 -0.018244274 0.28483093
-0.27046695 -0.032844037 -0.0035904131
0.20792525 0.048800677 -0.26214984
0.03921258 -0.0050716656 0.23992106
-0.11954059 -0.11395771 -0.082774796
0.12078869 0.012975283 -0.049772162
-0.023371512 0.029707476 -0.3372658
0.012893784 -0.12521695 0.044609975
0.27081835 -0.039573543 0.06608186
0.053656466 -0.11485918 -0.1617439
-0.008684409 0.113568954 -0.3313253
-0.14148338 -0.120549604 0.35808042
0.27640966 0.15319057 -0.17843239
-0.050952837 0.008489818 -0.3335197
-0.2488399 -0.010731074 0.1353531
-0.14855418 -0.073387034 -0.014090544
-0.22641602 0.03678945 0.24485236
-0.23987296 0.032716595 -0.19102478
0.17281131 0.10174702 -0.03461193
-0.09116432 -0.018059418 -0.058783464
0.044634078 0.0728393 0.2464977
-0.23199774 -0.037809294 0.2248356
-0.0059263883 -0.09703607 -0.19928263
-0.25670698 0.06857887 0.003682928
-0.23916923 -0.05377563 0.1748143
-0.205677 0.12420725 -0.25788844
-0.10087069 0.06339154 0.013700308
-0.26751718 0.07241885 -0.128507
-0.03481162 0.11596503 -0.30855215
0.28721383 0.1130931 0.042445038
-0.22260246 -0.011813023 0.29212427
-0.07761629 0.14462204 -0.3000167
-0.19724548 -0.011352938 -0.24792688
0.28801206 -0.03922171 -0.06030069
0.18640997 -0.046964232 -0.22700502
-0.07800549 0.061058253 0.2955439
-0.1767557 0.068141274 0.396151
0.009744099 -0.0061960784 0.3489552
-0.033926234 -0.012212561 0.3612242
-0.22541974 -0.05686102 -0.10707662
-0.20292373 0.038371418 0.35210797
0.02626256 -0.009333526 0.24089497
-0.09368534 -0.110776566 0.3672804
0.25290847 0.08040208 -0.16668515
-0.15553711 -0.07114804 -0.09765125
0.0775433 -0.0888839 0.17908558
-0.21047929 -0.045733705 0.35043797
0.06823881 -0.045421373 -0.2239713
0.23326822 0.04315118 0.14201145
0.2099052 0.082921274 0.16855463
-0.1513659 0.0566824 -0.28577352
-0.18489547 -0.10503315 0.1942355
0.25006726 -0.021249188 0.11743214
0.1368535 0.023610003 0.19398667
-0.09554625 0.12134161 -0.31087634
0.18911506 -0.0092928335 0.1826706
0.15812959 0.09565517 0.01920188
-0.23142952 -0.069923416 0.18227404
-0.22500324 -0.11338592 0.37657923
0.24138643 0.031524137 -0.22876127
-0.079916656 0.086871095 0.36780187
-0.2567385 -0.026355887 0.08141817
0.21438771 -0.052832335 -0.1656516
0.2684818 0.13235603 0.034277607
0.23949549 -0.025897427 0.13033822
0.2953628 0.08579093 0.015187296
0.16113292 -0.029810892 -0.23268655
-0.2195661 0.024522757 0.3010587
-0.08600285 0.0852314 0.38187483
0.034392886 0.065998994 -0.15463594
-0.032777544 0.019589104 0.23932041
0.14245516 -0.12776618 -0.09985218
-0.13726872 -0.047277197 -0.22330573
0.05322282 -0.020391127 0.23744299
0.27020785 0.066664726 0.08723835
0.2366272 -0.0046716044 0.13681515
-0.11294798 -0.14351104 0.36794665
0.102771945 0.10565997 -0.15761511
0.1379484 0.091393955 0.048767976
-0.2808482 0.091170646 -0.062397823
0.26985434 0.0467631 -0.1814575
0.24349666 0.017802142 0.12860604
-0.14440812 0.11041294 -0.28737423
0.21287212 0.09187889 0.17188807
-0.20172277 -0.059782546 -0.123107076
-0.26630524 -0.043876417 -0.0944751
0.15906622 -0.06176598 0.1359904
-0.13112369 -0.02970493 -0.29222342
0.2774 0.13469554 0.02590505
0.27996197 0.109400906 -0.040373955
-0.1817921 0.0680429 -0.26138902
-0.15777095 -0.094312735 0.06424732
-0.19553223 0.025253713 -0.2211095
-0.1944846 -0.096994616 0.07858646
0.1616652 -0.04472302 0.007384105
0.030217238 -0.050079245 0.2347362
-0.15505724 -0.08043689 0.1277791
-0.14346881 0.08474034 0.24787039
-0.12941226 0.07888304 -0.055453006
-0.26183918 0.047412198 0.054364506
-0.23288111 -0.002383547 -0.20244314
0.18434119 -0.02067994 -0.085063204
0.06628531 0.029305674 -0.33444437
-0.2782265 0.059147697 -0.012196418
-0.08333648 -0.15040898 0.011828341
-0.16820543 0.08758102 0.38553816
-0.0070271897 -0.037954025 -0.31802267
0.15107788 -0.014030305 -0.27115056
0.17568454 -0.005186114 -0.095181175
0.12620188 0.06340021 -0.3131872
-0.16323204 -0.075052336 -0.09317065
0.13977526 0.08589946 -0.03860659
-0.07486846 -0.15083162 0.021652162
0.07857063 0.123191714 -0.30188042
-0.15895797 -0.071254194 -0.19048193
0.24374749 -0.05986713 0.08255284
-0.20548119 -0.07467507 0.058048014
-0.25147197 -0.02173793 -0.09821542
0.19696823 0.12604126 -0.23502861
-0.02301106 0.10632965 0.3698358
0.2520292 0.14865024 -0.19333456
-0.21559693 -0.067275226 -0.0434084
0.15462579 -0.027741496 -0.28600162
-0.11516739 0.07284215 -0.30636355
0.10691622 0.13877428 -0.3124557
-0.24890159 0.0064504677 -0.17390876
-0.10455594 -0.09122518 0.2774282
0.1468244 0.06992954 0.21352603
0.15663013 -0.13157122 -0.049289726
-0.11069617 0.071835786 0.023781689
0.26038188 -0.058295056 0.036684446
0.24040467 -0.033954468 -0.12752265
-0.2135257 0.031312365 0.3995066
0.17933768 -0.025411924 -0.0036682717
0.17282113 -0.05357019 0.0628184
-0.27098992 -0.041405432 -0.06603442
0.23262173 -0.014061641 -0.23304732
0.055914227 0.012116952 -0.3375319
0.105603985 -0.001086018 0.0054464317
-0.20793901 -0.095576905 0.1295628
0.12797321 -0.05100614 -0.23848574
-0.22398344 0.001253271 0.28936958
0.16960524 -0.03147736 -0.27155015
-0.25902355 -0.012281956 0.073673874
0.1335964 -0.08434129 0.1321518
-0.18596974 -0.002220368 -0.2611013
-0.26141846 0.07693392 -0.046740394
-0.2269655 -0.07007762 -0.13900574
0.047979016 -0.029288743 0.23721959
-0.27234375 0.049354736 0.019902958
0.014647848 -0.041439362 0.075133234
0.291804 0.08070214 -0.1168939
-0.19477317 -0.045790385 0.3264828
0.102083795 0.028271304 -0.10589736
0.28701842 0.14745612 -0.10878984
-0.03370305 -0.068993956 0.28847885
-0.2532312 -0.0025326272 0.112507604
0.23852068 0.08117799 -0.19148298
0.25430614 0.058295023 -0.2068643
-0.0015468445 0.0964176 0.36820564
-0.036779117 0.11609041 -0.32793513
-0.25448203 -0.042068023 0.088299595
0.06912157 -0.06711959 0.21877088
-0.15286526 0.0776126 -0.019490534
0.03745479 -0.0070262905 0.24002682
0.057000868 -0.0009284798 -0.1731337
0.1545851 -0.08035683 0.10223005
0.24052179 0.056357767 0.13356493
0.19033869 -0.006722483 -0.27752444
-0.18541852 -0.08494918 0.25826687
-0.27849597 0.042971298 -0.056768436
-0.24034314 -0.050209306 0.16958627
0.17517486 0.13074498 -0.25279927
-0.23799601 0.079810925 -0.15357815
0.14296588 0.09239654 -0.06245721
-0.21651119 -0.07262853 0.28160274
-0.16692898 -0.055954494 -0.14156757
-0.035829153 0.08265004 -0.33081546
-0.03377335 -0.13724387 0.068730496
-0.25348845 0.10005464 0.08363381
-0.12666048 -0.046910428 -0.18092373
0.24191383 0.09271765 -0.21878476
0.23388273 -0.049620446 -0.16471656
0.26657116 -0.052262776 -0.08349339
-0.12698644 -0.10185079 0.16606316
0.20204717 -0.054283395 0.05753012
-0.099085525 0.021230537 -0.31764007
-0.20343237 -0.09234831 0.021053648
0.27564427 0.13578296 0.012857713
-0.24432167 0.050627965 -0.18352021
-0.050380204 -0.067717716 0.11917573
0.15504554 0.104648404 -0.09248285
0.10451525 -0.028404979 -0.30840054
-0.2230498 -0.0050420347 0.29230577
-0.18752517 0.027854286 0.39473763
0.14446191 0.092599146 0.040043626
-0.2543829 -0.06311161 -0.09083284
-0.21912825 0.087144636 0.13968806
-0.20933752 -0.012280327 0.37141553
-0.110379025 -0.111946076 0.2874023
0.23674023 -0.06250339 -0.045484
0.034360714 0.087918475 -0.16616389
-0.20835198 0.044120993 0.31106293
-0.038605463 -0.052113548 -0.29439613
0.11439668 -0.12537633 -0.11462609
-0.08248553 0.11301372 -0.2954788
-0.20297404 0.0074903285 0.39575016
0.020310516 0.14533238 -0.30843747
0.024679394 -0.03183001 -0.32323998
-0.13735598 -0.048941363 -0.17043306
-0.038661946 -0.069165 0.26393166
0.14385387 0.08695046 -0.301916
0.13588686 -0.07548537 -0.12075121
-0.10447156 0.024077669 -0.3147775
-0.04891728 -0.09673605 0.16827744
-0.23754638 0.090393 0.11381293
0.27714685 0.13702482 -0.18523511
-0.14126822 0.07986456 0.0068780202
0.085874684 0.018064836 0.2334483
