# .PCD v0.7 - Point Cloud Data file format
VERSION 0.7
FIELDS x y z
SIZE 4 4 4
TYPE F F F
COUNT 1 1 1
WIDTH 1000
HEIGHT 1
VIEWPOINT 0 0 0 1 0 0 0
POINTS 1000
DATA ascii
-0.23560873 0.1692515 -0.012083685
0.08997351 0.0560542 0.18375215
-0.024600213 0.021369193 -0.27065787
-0.02938599 0.11688186 0.13822965
0.052676395 0.017139519 0.27957752
0.28427166 -0.07195582 0.064190604
0.14802736 0.014823764 0.19303158
0.15969326 -0.16919482 -0.15208766
-0.21820377 -0.0008304669 0.014684032
-0.06261033 0.15987387 0.18310775
-0.21100423 -0.033866853 0.20930909
-0.07468361 -0.013132876 0.27138445
0.0018949038 -0.045031477 -0.14511435
0.12295214 -0.24263003 0.066633046
0.034738522 0.0464871 -0.15564927
-0.18194602 0.10884789 0.17637697
-0.22921549 0.026876928 0.17115696
-0.25741675 0.0355822 0.13046291
-0.08571241 0.24099135 -0.15849954
0.08775907 0.039278265 0.27921644
0.18069822 -0.0027604208 0.1689122
0.025393626 0.064647436 0.28719574
-0.007242262 0.09469497 0.2958803
-0.19147074 0.0042599533 -0.018782053
-0.0003301077 -0.1301448 0.2531658
0.23623894 0.004450793 -0.06584897
-0.15719421 0.088306114 -0.2578887
-0.0828328 -0.0871598 0.25326568
0.08957258 -0.18753669 0.24299149
-0.04049809 0.1368951 0.22463277
-0.061197095 0.17256378 0.11183124
-0.19371371 0.17164119 -0.08704123
-0.23168284 0.17459475 -0.011162182
-0.08526469 0.1377816 -0.025054568
0.08384976 -0.13388164 0.24716946
-0.24633685 0.14200138 0.07480479
-0.18492304 0.11479925 -0.19240633
-0.016847486 0.07597071 0.29183424
-0.15565072 -0.008450332 0.036257517
0.14933117 -0.034323875 -0.25292915
-0.2350277 0.06816618 -0.1503327
0.2843725 -0.06368702 0.07467437
0.031883597 -0.1539511 0.24625269
-0.013717321 -0.026472393 0.272205
0.05838749 0.069985084 0.22310148
0.10373091 -0.090720356 0.25466552
0.1701365 0.0779047 -0.25266972
0.0366691 -0.010000622 0.27511606
-0.045370482 0.081867985 0.29591447
0.20874251 -0.0051757735 0.082002506
0.15264045 -0.057316404 0.26920316
0.22810307 -0.07570326 -0.12813398
-0.009421889 -0.15707397 0.11965653
0.13810682 0.019703435 0.20275491
0.009167808 0.098864086 0.24696453
-0.043387394 0.034623697 0.12719488
-0.09166866 0.21825624 -0.018650599
-0.18295081 0.0045935963 0.23924272
-0.12607294 -0.057026252 0.12792799
-0.18769947 -0.0460745 0.14269134
-0.093899295 -0.04609234 0.26386744
0.23054324 -0.13666564 0.06186239
0.25077075 0.000108696804 -0.09474581
0.06270521 -0.17214358 0.0027442754
0.18311502 -0.11357686 0.17988996
0.26555845 -0.009981828 -0.09453265
0.13630871 0.021228645 0.114521906
0.27885032 -0.06475133 -0.07376251
0.12192465 -0.1731929 0.2050865
0.13575336 -0.14144447 -0.19991304
-0.21061021 0.0744025 0.16325489
-0.076169595 0.1355087 0.01184072
0.11049623 -0.21135855 0.17753072
-0.23643637 0.018092824 -0.0194315
-0.055904355 -0.044416156 -0.27903086
0.15745142 -0.24252532 0.035759587
0.14403862 0.09023015 -0.18658406
-0.078709714 0.082408786 -0.068218745
0.26690608 -0.036697544 0.04019365
0.015110499 -0.18263608 0.13606966
0.25732857 -0.09561521 0.07628759
0.08886269 0.04022903 0.27033213
0.2337442 0.021943426 -0.14834206
-0.22006576 0.10974868 -0.11878151
0.021303432 -0.11105775 -0.2596881
-0.19313231 0.23405883 0.007072128
-0.22719392 0.022306442 -0.07423529
-0.18574421 -0.016147748 0.24524258
0.11172877 -0.11628887 0.2549453
0.0017363541 0.03954349 0.2817882
0.028339973 0.17573759 -0.22250336
0.15052713 -0.117629446 0.24616916
-0.12250127 0.20765485 0.1461364
-0.26305255 0.09580738 0.08418171
0.08787978 -0.10333528 -0.05261435
0.21737252 -0.021000858 0.13401783
0.18197036 -0.09299637 0.20596217
-0.15018082 0.01934347 0.26323545
-0.13191827 0.14606202 -0.232033
0.2480268 -0.17736919 -0.035362825
-0.06600923 -0.1388575 0.2497632
-0.11757004 -0.042439323 0.10301241
0.03510491 0.079000816 0.25864828
-0.20667392 0.065323845 -0.22082518
0.12882023 -0.23985915 0.11462602
0.10159666 -0.23259567 0.0900301
0.2249154 -0.015978543 0.08101603
-0.22795568 0.07539567 0.1410702
-0.102345765 -0.008095693 0.27499172
-0.17307995 0.0098912 -0.028136639
0.16790177 0.004918992 0.048596695
0.25336003 -0.13960534 -0.06170997
-0.0642939 -0.050629005 -0.27147317
0.28977183 -0.106914714 -0.0405282
0.15217938 0.09769052 -0.26199067
-0.0010927628 -0.07424714 0.26454332
-0.047319233 -0.04471177 -0.2798388
0.13158752 -0.03366163 -0.0153652
0.035712976 -0.19974917 0.2221109
0.13465278 0.10547667 -0.23288955
-0.16853403 -0.04608921 0.2692174
-0.10750349 0.084851414 0.27536446
-0.00015301337 0.18378803 -0.16342153
-0.073751554 0.038228385 0.28526294
-0.17592844 0.2484494 0.09216537
0.24421582 0.015093287 -0.14973354
0.09767559 0.12373634 -0.19700758
0.16329418 -0.22327302 -0.10780171
0.07927443 -0.20523371 0.026367038
0.1414167 -0.15450431 0.19668394
-0.29023814 0.045908395 0.052228276
0.2218322 -0.092198014 -0.12516098
0.27719152 -0.09469083 0.04561166
0.028642325 -0.030544609 0.15768896
0.11098754 -0.22497909 0.16084556
-0.23044871 0.09965559 -0.114573486
0.26052138 -0.14114475 -0.052042633
-0.08980229 0.14117733 0.25887623
0.18776573 -0.20833035 -0.093075775
0.114079855 -0.18991165 0.19740732
0.15412919 -0.06146669 -0.22926503
-0.13956301 -0.09547075 0.23389617
0.20080212 -0.013182339 -0.20281215
0.1323889 -0.14931758 0.23084742
0.026616205 -0.0042027635 0.27694178
-0.17536101 -0.048244968 0.110239714
-0.17566681 0.2242779 -0.0519225
-0.19276354 0.021077335 0.21749806
-0.077278905 0.1613852 0.020184757
-0.044583842 0.21937773 -0.1977198
-0.21313673 0.13406552 -0.10103152
0.04691796 -0.08528577 -0.29170683
-0.15812276 -0.068736434 0.15606624
-0.0061806184 -0.094592474 -0.2481343
-0.27112883 0.14511512 0.008041413
-0.096691355 -0.03406312 0.26695725
0.023793759 -0.19652826 0.17779903
0.27293202 -0.03696528 0.020211907
-0.22263063 0.043344866 -0.1860863
0.013578899 -0.17557268 0.104620874
-0.15921792 0.25767842 -0.03565086
-0.085306995 -0.05548615 -0.16954723
0.1570135 -0.20293947 0.1156382
0.12833439 -0.24372475 0.09444645
-0.14373319 0.060399737 0.24925944
-0.008608914 -0.02754034 0.2731642
0.15373233 -0.052824244 -0.23539583
-0.16412613 0.20672889 -0.09164047
-0.19042762 0.08187342 -0.22530313
0.10448548 -0.18930766 0.21326122
-0.10147004 0.22664763 -0.027691655
0.11186917 0.026706824 -0.27207452
-0.15795863 0.09906244 -0.2500263
0.16350701 0.06991678 -0.1495944
-0.20221463 -0.002023842 -0.035829417
0.122058645 -0.010320049 -0.277944
0.23046128 -0.15635993 0.036656316
0.08195753 0.12432172 -0.14428721
-0.13043109 -0.043594792 0.10638931
-0.25498554 0.10856701 0.08587281
0.25767708 -0.059043188 0.12867412
0.2907014 -0.043179676 -0.040409315
-0.038960796 0.1303898 -0.07244125
0.17550372 -0.19420703 -0.11614315
-0.22037174 0.14938888 -0.07124557
-0.082723066 0.23771827 -0.19737299
-0.1307065 0.24991407 -0.045420848
0.11696152 -0.14240818 -0.22261587
-0.0062141283 0.18477237 -0.14705402
0.09522973 -0.01631609 0.27003777
0.27049097 -0.10276235 0.04532042
0.07982941 -0.14598419 -0.24256086
0.06728028 -0.17354414 -0.096550584
-0.2154366 0.21713412 0.020655075
0.13854453 -0.20840777 0.13772614
-0.17219907 0.042937614 0.22711411
0.12114232 -0.20647815 -0.115719885
0.06583505 0.061088923 0.17443614
-0.18716756 0.13705358 -0.13758637
0.12791242 0.026445033 0.20374052
0.16140833 0.01653679 -0.036389094
0.10104119 -0.14721747 -0.23924631
-0.030331705 -0.054524597 -0.2810027
0.10201245 -0.16065706 0.24843079
-0.23214716 0.04212504 -0.16014929
0.07884509 0.14344674 -0.2331195
0.13617538 -0.24590084 0.06392659
-0.14862062 -0.057385385 0.26409623
-0.05966742 0.07892394 0.2966075
-0.1408131 0.015483812 -0.26989266
0.015252023 -0.19019249 0.2311189
-0.076910615 0.21772298 -0.22822692
-0.026016591 -0.052291248 0.1513827
-0.16723847 0.1671713 -0.13310175
-0.0910175 0.20378324 -0.2270007
0.05160678 -0.1491758 -0.1681778
0.026009282 -0.18022797 0.08481601
0.12413226 0.1131782 -0.25703433
-0.13895726 0.22187473 -0.11274262
0.14864281 -0.067804724 -0.23194309
-0.09213323 0.23765734 -0.17410092
0.12908065 0.015289019 0.25784203
-0.11015139 -0.108523935 0.19359319
-0.06174741 -0.14467102 0.2445703
0.27218664 -0.10162383 -0.06531288
-0.22328405 0.011447201 -0.031402025
-0.061406165 -0.06648103 -0.19894275
-0.0023004853 0.18721114 -0.17367765
0.15295623 0.028297137 -0.26906577
-0.010664205 0.025412066 -0.26849008
0.1969203 -0.06738564 0.231216
-0.27661046 0.08867394 -0.053130437
-0.06198973 -0.044635005 0.14619328
0.12080814 -0.21141677 -0.088743255
-0.027316222 0.12854087 0.22147442
0.004210903 0.008525649 -0.27046505
0.24426 -0.026248248 -0.14033262
-0.12978531 0.22784299 0.0665668
-0.15364006 0.24224515 0.07601373
0.07356588 0.055558648 0.24457276
-0.28395 0.067808956 -0.052790795
-0.22257315 -0.021085382 0.19675006
-0.30245116 0.10743571 0.02768067
-0.18579544 0.19494696 0.11543557
-0.14894387 0.18701886 -0.15117128
-0.22894683 -0.0029595625 0.06392494
-0.1616133 0.07071696 0.22433506
-0.2850568 0.09732118 0.05587459
-0.00724275 -0.105977185 -0.18491375
-0.06880171 0.23333538 -0.18417452
0.04348143 0.16317922 -0.21065576
0.24530523 0.013068155 -0.16468097
-0.1662734 -0.06111142 0.25243747
-0.25489554 0.009674575 0.09003922
-0.09921602 0.0347703 -0.10221473
-0.04409512 0.20949218 -0.1417118
-0.0025940516 -0.1422502 0.2508606
-0.15799458 -0.008777619 -0.15749022
-0.1828656 0.060571726 0.20672657
0.2218161 0.008739164 -0.037060775
0.054333687 -0.15073417 0.07890671
-0.10275885 -0.042116668 -0.179414
-0.14926691 -0.08542561 0.24015988
-0.05578557 -0.0073385574 0.27215993
0.02187267 0.1495023 -0.11975883
-0.059200764 0.18335845 0.048374336
0.17396279 -0.13834602 0.16503763
-0.03633789 -0.0068441695 0.27159694
0.19475971 0.038528368 -0.09659787
-0.2961331 0.122311436 0.025820758
0.12045608 -0.07273794 -0.26372245
-0.19253036 0.037621293 -0.23331343
-0.16739132 -0.07440013 0.21853606
0.22222857 -0.20078258 -0.005298598
0.039598204 0.05814454 0.28569636
-0.10464182 0.01811806 0.28236538
0.14604247 -0.2382109 -0.03837834
0.14294828 -0.085807495 -0.22727193
-0.18987642 0.019508429 -0.19205295
0.20383598 -0.14526188 -0.11289207
0.21076061 -0.13282596 0.1086201
-0.019608064 -0.17546646 0.22183855
-0.037585303 -0.086627714 0.11243588
-0.1433634 0.17378575 -0.17911465
-0.041344844 -0.06697545 -0.1616123
0.08181486 -0.21590394 0.07306955
0.046671186 -0.12194484 -0.26380318
0.2648161 -0.0126837855 -0.077786185
-0.19770005 0.23005787 0.0777532
0.19303182 -0.080192044 0.20381927
-0.087936364 0.0059602046 0.2779937
-0.16007096 0.20435378 0.14123878
0.12248924 -0.016512465 -0.09329137
-0.046445977 0.17782141 -0.054638762
0.105156876 -0.04380591 0.26382366
-0.12706958 0.117530845 0.23657846
-0.13660319 0.25079608 -0.08255135
-0.116600655 -0.059397805 0.13325505
-0.10015888 0.10412613 0.008996317
0.04234745 -0.20455267 0.15385541
0.16489719 0.0048608915 0.0118760895
-0.099495836 0.18222491 0.19728668
0.036727663 -0.12936914 -0.21880408
-0.17444347 0.07816802 -0.2505417
0.013071691 0.03164115 -0.26652792
-0.033141732 0.13589323 -0.08683611
-0.10677452 0.0025432282 -0.27970248
0.25530964 -0.14934954 -0.053504623
0.06460586 -0.20497629 0.07707668
0.03768151 -0.11944486 -0.117116846
-0.23805998 0.07631503 -0.1301298
-0.2415445 0.049579095 0.14103745
-0.10198823 -0.013690327 0.27326837
0.078645594 0.05073087 0.15565522
0.26103368 -0.013695425 -0.059084933
0.22276635 -0.028079668 0.15183859
-0.1599928 -0.064660236 0.2598872
0.13854583 -0.12678376 -0.20600945
-0.17358929 -0.0054287426 -0.11963466
0.0879154 0.02412556 -0.11476836
0.027909115 -0.12954257 0.25145602
-0.080558196 -0.043124918 -0.2529412
-0.08517001 0.13984747 0.0024558275
-0.28615445 0.08895965 -0.034043606
0.11693386 -0.091014236 -0.25617474
-0.031497296 -0.06283587 -0.15103865
0.13498035 -0.21548203 -0.117806405
-0.13278331 0.086988375 -0.25948453
-0.19122821 0.04276381 0.20795737
0.24988933 -0.09837712 0.087403476
0.18159108 -0.0061276257 -0.23126815
0.22295985 0.040835094 -0.20872171
0.18708175 -0.014897644 -0.2187295
-0.087451726 0.09125268 -0.050347056
-0.08109285 0.18771768 -0.24014679
-0.1132983 0.062290855 0.28030363
-0.022344133 -0.020488163 -0.2754574
0.21856138 -0.031040933 0.18221962
0.04452594 -0.1486322 -0.14589217
-0.05923878 0.09075634 -0.25944248
-0.10901662 0.03821729 0.28937447
-0.15186258 0.14737226 -0.2078993
-0.18948969 0.09586766 -0.21290572
0.23202905 -0.19655913 -0.056101836
-0.07095039 0.17590512 0.12899762
0.17352726 0.063179165 -0.14997667
-0.0870055 0.09490256 0.2916755
0.2052864 -0.022366224 -0.19125424
0.0017068022 -0.11426294 -0.16592248
0.26123157 -0.014836695 -0.12670432
0.20152916 -0.01018314 0.13374418
0.16132581 -0.20546517 0.095066994
-0.15387753 0.05272363 0.24237241
-0.117365055 0.22510508 -0.15163392
0.24473527 -0.034606483 0.1079524
-0.17034727 0.24512725 0.101884164
0.13954678 -0.24508435 0.020566441
-0.14916256 0.20231356 -0.11988073
-0.26471013 0.058842722 0.106235
0.219185 -0.039840113 0.21094444
0.025610412 0.018791007 0.2802707
0.0070716864 0.1824906 -0.18227762
0.20958722 0.02746732 -0.21842021
0.22254892 0.025849234 -0.1290041
-0.111648284 0.24404901 -0.13035809
-0.25479147 0.012898593 0.14447221
0.2474355 -0.030355163 0.07616917
-0.13770832 0.0940949 -0.25763428
-0.24460286 0.08479238 0.11427479
-0.022047041 0.17479792 -0.08527229
-0.3049496 0.074551895 0.04602673
0.13666095 0.03224206 -0.26921052
-0.25063768 0.047657054 -0.12341318
-0.24834512 0.06537755 -0.12705944
-0.102155365 0.028171528 0.28528416
-0.08966266 0.1748831 0.20073694
0.0120942015 0.06979846 0.28894627
0.0797375 -0.09799779 -0.29630992
0.09787286 0.06497612 -0.2650987
-0.05261415 -0.12619512 0.13698508
-0.10825264 -0.03677317 -0.1878221
0.20156738 -0.19878174 -0.083085395
-0.1781009 -0.056791846 0.16459045
0.07349598 -0.1168168 -0.088624716
0.1782953 0.0046860804 0.13855585
-0.20435001 -0.0416356 0.17860155
0.2258936 0.018319529 -0.10155868
0.26146868 -0.0021213954 -0.12106557
0.103131086 -0.2096111 -0.035439104
-0.020183321 -0.02039423 -0.15358162
0.03486806 0.08127788 -0.25857309
0.043445695 -0.0065987203 -0.27607486
-0.014958228 -0.116247356 0.25693154
-0.14846611 0.0002874124 -0.23864236
0.030078273 -0.118095525 -0.25407913
0.1320129 0.10356442 -0.21352853
0.2360151 -0.05780655 0.16352713
-0.027374946 -0.027921818 -0.27672988
0.3024717 -0.0631349 0.047573067
-0.01879406 -0.16053699 0.14098793
0.20760544 -0.053792905 0.23127621
0.08479759 -0.21766599 0.071688585
-0.10427782 -0.069791764 0.1374954
0.10178471 -0.1962413 0.2092712
-0.25098976 0.0068655494 0.14967662
-0.080324985 -0.011751893 0.27197894
0.12733065 0.026051017 0.14115131
0.19488974 -0.003948704 0.12475848
0.20545515 -0.15171789 0.08699733
-0.055457458 -0.04382913 0.26307365
-0.07687245 0.100188434 -0.256476
-0.10059036 0.20676886 -0.21737136
0.054781575 -0.09384839 -0.11734675
-0.15533218 -0.00067608146 -0.20924509
0.022711998 0.07542006 0.14801441
0.111742385 -0.21380062 -0.044124022
0.2586495 -0.019808257 -0.12666811
-0.011080859 -0.1049475 0.11469689
0.07195901 -0.20509605 0.05160996
-0.27230933 0.0894078 0.076862656
-0.19437097 0.011718789 0.22202486
-0.06394376 0.22997609 -0.1782326
-0.18470073 0.1840736 -0.08640334
-0.24050766 0.023080386 -0.031018168
0.11643469 -0.08042777 -0.26369956
0.014335969 -0.10976604 0.25634566
-0.2427933 0.19693209 0.04337382
0.0011424972 -0.1527486 0.10720294
-0.14150013 -0.014058669 -0.18844827
-0.0549493 0.17529564 0.075387105
-0.030705197 -0.02730702 0.26648226
-0.040634025 0.0012676342 0.27376547
0.16628017 -0.1908935 0.1154344
0.19506331 -0.021118684 -0.20476048
-0.08131334 -0.008873699 -0.2834391
0.048438065 0.07671539 0.22325817
-0.29527584 0.08469271 -0.027937964
-0.16478238 -0.009826819 0.04539039
-0.18174158 0.14967847 -0.1311902
-0.29467967 0.06939372 -0.0015372423
-0.08894387 -0.1195947 0.17614354
-0.27921742 0.099127315 -0.031230958
0.00076390785 -0.027703462 0.27348784
-0.11709983 0.04242453 -0.057043508
0.25955838 -0.08428991 -0.08347983
0.056000035 -0.10773396 -0.2831671
-0.30215764 0.11788497 0.021227937
0.08389238 0.04343885 0.27121046
-0.13548535 -0.093479745 0.24331105
0.11098353 0.11121057 -0.17882857
0.2319921 -0.1591157 -0.073913634
-0.027743232 -0.0019930752 0.27250025
0.003589446 0.18783528 -0.23751831
-0.045302067 -0.15447825 0.2034261
0.12540896 0.024587547 -0.1089383
-0.1425838 0.16164431 -0.20160297
0.071250744 0.13739778 -0.24903907
0.1291532 0.009577023 -0.08574029
0.027603943 -0.15740632 0.24583039
-0.16954291 0.041710056 0.23115107
0.06810421 0.15308475 -0.24532816
0.19143645 -0.17333575 -0.10997413
-0.1610416 0.1937834 -0.11153691
-0.117224455 -0.02210131 0.27204517
-0.11716917 0.21092078 0.11017047
-0.1670747 -0.06712169 0.2372234
-0.22919992 0.07603941 -0.16982685
0.032685183 -0.19694795 0.23127775
0.0518156 -0.19970915 0.23048536
0.020145975 -0.08629549 -0.29047167
-0.19520117 -0.04563619 0.21678336
-0.17881633 0.22616522 -0.042056434
-0.30339962 0.10762264 0.026380796
-0.12134453 -0.10522874 0.23951468
-0.07138822 0.19684842 0.02117612
-0.103339106 0.20600356 -0.21137038
0.20394497 -0.111648604 0.15002012
-0.13800122 0.14225467 -0.23008983
-0.15462078 0.23419708 0.121525444
-0.1499357 0.16522197 0.17934914
0.17558852 -0.14593351 -0.14752491
-0.03547259 0.21363203 -0.20826949
0.16135828 -0.10638545 -0.19099092
0.015970321 0.092507996 0.25601518
0.21006253 -0.0076822108 -0.19490343
-0.19504327 0.16261476 -0.09554762
-0.14572021 -0.015969368 -0.1634933
0.16891852 0.004673544 -0.25404507
-0.19104886 0.0061671548 -0.11822517
-0.20419654 -0.009490693 0.22486362
0.13128187 -0.10265471 0.26004833
-0.020793825 -0.02444571 -0.27594024
-0.047190525 0.20061998 -0.23956198
-0.02958526 -0.021744628 -0.27596626
-0.23025122 0.032665115 0.16609466
-0.05205918 0.09550607 -0.25851443
-0.05529984 0.0021732063 -0.14585063
-0.1925772 0.13476777 0.14626999
0.13573666 0.10608599 -0.2399179
0.016264107 -0.11585659 -0.21674469
0.16750433 0.01080528 0.14489426
0.19386062 0.045878764 -0.13179441
0.13290781 -0.12192995 0.2556178
0.17439798 0.06641817 -0.16997732
0.26836586 -0.0186502 -0.0592276
-0.19827366 0.07878566 0.17571406
0.07253254 -0.0099855 -0.27864695
0.13171528 -0.07928058 -0.24547464
0.27822644 -0.043965 0.03797372
0.0742216 0.12467714 -0.13699527
0.058412984 0.06947555 -0.12094882
-0.058884814 -0.0688003 -0.195784
-0.12873723 -0.015462902 -0.22641341
-0.12641284 0.048565447 0.2729883
0.1777465 -0.01195861 0.22658044
-0.09803612 -0.11227553 0.17019027
0.08974328 0.04458277 0.16685705
0.06583066 -0.21694413 0.135234
-0.12199708 0.25040197 -0.0788739
-0.18556027 0.022097271 -0.22089335
-0.13242464 -0.10016466 0.22898608
-0.29338387 0.102138475 -0.011369337
0.20142363 -0.2044871 -0.080214754
-0.035839196 0.1631449 -0.2422669
-0.023145884 -0.08212924 -0.2530084
0.165516 -0.16824436 -0.14547849
0.21653607 0.011891016 -0.19963308
-0.16982646 0.16527832 -0.13132386
0.16940431 -0.105956994 0.21427126
0.1258786 0.029093107 -0.2705158
0.25522575 -0.00627622 -0.07721748
0.1952558 0.017137213 -0.0033765233
0.18849151 -0.046290446 0.26967186
-0.11093766 0.041014172 -0.26998857
0.14361301 -0.23145038 0.09036865
-0.14958479 0.20970349 0.15077052
0.24177358 -0.12341878 0.061990373
0.03448362 -0.06619261 0.115715146
-0.14936993 0.24642166 0.039050724
0.28812328 -0.10107782 0.012088364
-0.1707441 0.14209978 -0.17864181
0.11473462 -0.13310148 -0.23145235
0.18696615 0.0014629205 0.12461576
0.23003298 -0.15206833 0.042821094
0.16059622 0.0040790904 -0.2639934
0.2022887 -0.060558334 0.23124458
0.18870032 0.05786773 -0.26418483
0.04764211 -0.13216239 -0.24295059
-0.23878907 0.07766492 -0.12742811
0.1674449 0.011805173 -0.018389663
-0.2823821 0.062171947 -0.05138641
0.19302309 -0.10263793 0.17740093
-0.13950494 0.2039801 -0.14142469
0.040644396 -0.13809042 0.24889953
-0.02200426 -0.15356389 0.12702174
0.12764493 0.05304277 -0.26841405
-0.06825615 0.15639292 0.04750054
-0.089560375 0.040265203 0.28770044
0.27491677 -0.04169685 -0.09219242
-0.14900374 0.23722991 0.08574462
0.06308511 -0.17481236 -0.020795288
-0.14150903 0.12680754 -0.24104404
-0.03982631 0.09375314 -0.12608467
0.18523285 0.053515777 -0.14105125
-0.021388767 0.13483195 0.16758037
-0.00030793023 0.017659068 0.13743971
0.24513556 0.00046147016 -0.076586105
-0.1639955 -0.07605922 0.21515249
-0.053881288 0.16319396 0.13479497
-0.14109182 -0.09260297 0.23780546
-0.19512631 0.07884606 0.17958231
-0.22671814 0.0030980443 0.024387673
-0.19711581 0.04625903 0.1983661
-0.09980513 0.18107319 0.20440386
0.07785079 0.06410705 0.1847224
-0.035797063 0.015358104 0.27709782
0.039157312 0.029320072 0.28209803
0.14517552 0.070211045 -0.11140107
0.23707874 -0.15972626 -0.06738187
0.08233823 0.009968869 0.27620137
0.17286399 0.008888144 -0.03742012
0.18969344 0.03522231 -0.061373636
0.12948723 0.101908416 -0.19592348
0.08614309 -0.07432595 0.084276706
-0.22112523 0.033285785 0.17702118
0.2782034 -0.02704251 -0.09767117
-0.16121586 0.17927945 0.15617384
0.015076012 0.1250603 -0.25353476
-0.054771457 0.15330052 -0.24531609
0.16227967 -0.0073180287 0.041530505
-0.11848467 0.0144224595 -0.276336
-0.0039419965 -0.010405034 -0.27377316
0.10203566 -0.12203104 -0.25443903
0.28325596 -0.040651314 0.002822775
0.06547344 0.021831574 0.27969757
-0.0110573275 0.118787155 0.21470459
-0.21097115 0.078292206 -0.20013827
0.16988003 -0.21031454 0.061205164
-0.07945643 -0.12078306 0.14867915
0.3064753 -0.062456753 -0.030675113
-0.2621843 0.028668888 0.016716713
-0.21938306 -0.014629747 0.09092651
0.20191789 -0.020643968 0.18699786
-0.06300023 -0.10158187 0.1481487
0.20672187 -0.0038320147 0.08215956
-0.09184949 0.22218192 -0.20696996
0.05708982 -0.1323152 -0.25579986
-0.19421144 0.13461912 0.14433783
-0.19216223 0.18175162 -0.07761115
-0.28152722 0.0317477 0.07101422
0.14907892 0.09354223 -0.2217664
0.09698544 -0.22322899 0.057472795
-0.1676671 -0.048908714 0.2683096
-0.039261084 -0.10763015 0.14315116
-0.100531824 0.03930844 -0.092589386
0.14172359 -0.03590442 0.047029573
0.061667643 -0.015777672 0.2723234
0.19577976 0.007327491 0.06270865
-0.19157703 0.0013714453 -0.091308355
-0.20001167 0.2611129 0.045050025
0.21771908 -0.019459024 0.124727406
0.2232137 -0.15348265 0.051270187
0.062654406 -0.17120175 0.012545496
-0.19576077 -0.045538016 0.16849846
-0.008544225 -0.05531824 0.14349364
0.15815714 0.066635616 -0.11347627
-0.22909544 0.21011047 0.027196184
-0.26425973 0.1188119 -0.03144608
-0.2221585 -0.018311849 0.12000279
-0.27627158 0.10469115 -0.028694091
0.09369422 0.036098253 0.27476057
0.14421137 -0.13156125 0.23869726
0.1877969 -0.0047383136 0.15405275
0.09583682 0.087827325 -0.26033548
-0.009425576 0.07380846 -0.26514956
-0.012345788 -0.08954022 -0.25264272
0.24105181 -0.12540363 -0.08396833
0.17984714 0.01807762 -0.24922168
0.11586387 -0.07509671 -0.26788488
-0.21126425 0.04924757 -0.21360877
0.13732687 -0.2296379 -0.05221338
0.09362883 0.11639394 -0.14430992
-0.018359294 -0.133548 0.25364625
-0.011643646 0.13005511 0.15794449
0.19235364 -0.043876182 -0.19328138
0.2752907 -0.103450686 0.03720818
-0.24452272 0.18406942 0.018424442
0.06723549 0.011089899 0.27740678
-0.07071256 0.17358401 0.14026578
-0.11669255 -0.06839813 0.1347102
0.21965897 0.0018229652 -0.18918744
0.1069686 0.071038485 -0.26446074
-0.09537617 -0.028796958 -0.1408419
-0.19493702 -0.038712047 0.1299302
-0.18317221 0.14232896 -0.14550659
-0.19170575 -0.0020534208 -0.07296446
-0.056116834 -0.053297404 -0.15891793
0.25686678 -0.019316869 -0.12920165
-0.19146417 0.004458759 -0.04604547
0.06686905 0.1258753 -0.25085384
-0.036556248 -0.034448866 0.26488364
0.06712975 -0.21586496 0.1249856
0.12214026 -0.21509781 0.1552008
0.17274779 -0.07862117 0.26017562
0.25585854 -0.08407722 0.09810259
0.03765738 0.07678055 0.26118314
-0.046834182 0.008231898 -0.27612185
0.28189063 -0.093603045 -0.059189495
0.10565015 0.11524141 -0.18095484
-0.21449023 0.09045722 -0.17919523
0.16808647 -0.09995472 -0.18683158
0.16867425 -0.0064741466 0.23097917
-0.02809498 0.044912715 -0.27046886
0.05373674 -0.14455281 -0.19988257
0.03949247 -0.0458268 -0.28376746
-0.2280551 0.14004594 -0.06903775
-0.28972277 0.10238021 -0.01540326
-0.031077387 -0.0026142825 -0.27335396
-0.15396124 -0.012747265 -0.12797566
0.09854708 -0.11303835 -0.26463765
0.17392081 0.05747831 -0.12159973
0.26732972 -0.038276587 0.046934757
0.2094434 -0.0155876065 0.13388367
0.14633927 -0.22778475 0.08985146
-0.23289303 0.027066836 -0.07886897
0.12769926 -0.08695906 -0.24545251
0.00015665765 -0.083694085 0.26254788
0.061671443 -0.04822997 -0.28338158
-0.15755148 0.099223 0.21294323
0.1252111 -0.07972669 0.016288904
0.17728344 -0.169564 0.12340922
0.032512914 -0.12820412 -0.20993431
-0.29713184 0.0596033 0.06523262
-0.2482855 0.15185834 -0.012984139
-0.17689152 0.056686036 -0.26342997
-0.24595623 0.0050024805 0.16289347
0.18540716 -0.059398264 0.2641371
-0.19072545 -0.009061464 0.041853957
0.17573877 -0.06495301 -0.2001617
0.1293604 -0.03487176 0.043156058
-0.15322626 0.15010169 0.18512598
0.18019362 -0.17680925 0.10370951
-0.032064255 -0.10523902 0.13612036
0.03606109 -0.20602149 0.18383785
0.055978563 -0.046208948 -0.28339854
-0.2546364 0.112377636 -0.061051115
-0.20415497 0.011064224 -0.0972903
0.050672837 0.011730192 -0.13676168
0.14939195 -0.23336636 0.064446345
0.15466547 0.0013693252 0.23973198
0.22574931 -0.004690765 0.01911293
-0.053506482 -0.062435992 0.26065367
-0.19322832 -0.027099473 0.06322248
-0.23010342 0.041150946 -0.16231385
0.2029857 0.022739349 -0.04333868
-0.30749068 0.08344915 0.03241415
-0.044425722 0.0637989 -0.2666688
-0.19515827 -0.013502767 0.23550867
-0.09363763 -0.12633319 0.24267927
0.18855903 -0.054597538 0.26511303
0.055363666 -0.118064165 -0.27343565
0.2424046 -0.0042488915 -0.04229772
0.049750384 -0.2091234 0.15146121
-0.1098453 -0.10175974 0.15718137
-0.054027736 0.21974374 -0.15999036
0.2394367 -0.18117662 -0.005047847
0.041108765 -0.2027936 0.14906666
-0.07036583 0.02639756 -0.11878086
-0.09651093 -0.116273 0.1856508
0.01623797 -0.16658865 0.09740421
-0.2065599 0.1749244 -0.061516
0.15438633 -0.11708622 -0.19266632
0.24683909 -0.17284748 -0.010611244
-0.21248755 0.20362341 -0.0028437385
0.23294593 0.011899831 -0.09306162
0.14209275 -0.22737235 -0.080962814
-0.17588209 0.022581112 0.236742
0.010177071 -0.027601307 0.27326712
0.19095299 0.036057245 -0.07018707
-0.14552651 0.16266875 -0.19098213
0.081083715 -0.1371067 -0.26310724
-0.28330502 0.05397544 -0.030021165
0.22785027 -0.026301974 0.124512315
0.059467144 -0.059524003 0.26359996
0.115377754 -0.20593803 -0.098083705
0.128049 -0.23529 0.010227058
0.21703364 -0.009834476 0.07690153
-0.22608432 -0.012181691 0.10192517
-0.16824625 0.0857831 -0.25064135
-0.20797956 0.029496022 0.19581473
0.2293375 -0.00173868 -0.1748479
-0.29481632 0.079991885 -0.020698791
-0.06259574 0.17747925 0.026878932
-0.18851513 0.063835196 0.19758226
0.012891344 -0.18467517 0.15459475
0.13911605 -0.16957976 -0.1773859
0.08533414 -0.05385281 0.26307276
0.11012213 -0.018484877 0.2686325
-0.032702472 -0.0336154 -0.27777207
-0.15819126 0.004628397 -0.042813495
-0.26459628 0.12176432 0.06533385
-0.24611233 0.00016164615 0.10854907
-0.07207604 0.1539349 0.07440752
0.08338968 -0.10140016 -0.291046
0.13352753 0.090072714 -0.14845738
0.26922497 -0.11962588 -0.056441635
0.05014936 -0.18200158 0.04860825
-0.0676127 -0.063013636 -0.17811087
0.28762597 -0.0483495 0.020524088
0.052780397 0.106851794 -0.25416696
0.10759428 0.05097539 -0.26856655
-0.12973961 0.2350358 0.028847445
0.11141135 -0.2187306 -0.017199362
-0.09475005 -0.0419326 -0.16169706
-0.0096760895 -0.093916886 -0.23925704
-0.13466452 0.19008471 -0.17125021
0.28281495 -0.047855888 -0.078369685
0.18726438 -0.041136943 0.26665998
-0.0917542 -0.049727153 -0.17872965
0.07365632 -0.17042567 -0.13545597
-0.11976598 -0.024486817 0.27154413
0.11122461 -0.16118494 0.2472473
0.172421 -0.24807167 -0.012271553
-0.06835911 0.15628715 0.03846695
0.2498086 0.0008088483 -0.094988786
0.26976895 -0.12291055 -0.05351967
0.27438784 -0.07320021 -0.07453146
-0.26016432 0.012679904 0.093039736
0.12786713 0.11148989 -0.24020778
-0.17478424 0.053063247 0.21960089
0.15897256 -0.17448683 0.14588979
-0.12427167 0.22784606 0.04697804
-0.1149055 0.02293422 -0.2743442
0.13640036 -0.24272953 0.01943856
-0.13183196 0.12527952 -0.2508951
0.16820955 0.010267012 -0.009512786
0.06742061 -0.21128863 0.2227193
-0.050682664 0.15101945 0.1870091
0.19063903 0.019748889 -0.23691355
0.09631426 -0.21262547 0.0044938866
-0.026359284 0.14012381 -0.09541222
-0.24499525 0.13009548 0.08423441
0.15853465 -0.18522419 0.13401024
0.14740948 -0.21266985 -0.13315895
-0.16142656 0.21632537 0.13174848
-0.050169166 -0.07479608 -0.19540055
-0.14208427 0.1494864 -0.22080132
-0.058409274 0.011518255 -0.27855298
-0.15536208 0.19201724 0.15513213
-0.17222102 0.11772335 -0.21352923
0.11469296 -0.06640939 -0.021861015
-0.17511861 -0.057434306 0.15736395
-0.12231743 0.073316686 -0.2647156
0.26347068 -0.086574316 0.07909007
-0.13296227 0.07534929 0.25188112
-0.040850107 -0.06896564 -0.25892487
0.2302933 -0.1603956 0.031719197
0.19161789 -0.12401067 0.15457271
0.122113846 -0.24239449 0.10305231
0.19168153 -0.23095267 -0.00077987404
0.045238815 -0.13696536 -0.20933694
-0.014874507 0.19261226 -0.2356785
-0.020544505 0.122566395 0.2286445
0.05483802 -0.043262236 0.14974566
-0.046212297 -0.07010522 -0.1696978
-0.11280047 0.07301425 -0.26540205
-0.25511196 0.0028151544 0.12662561
-0.18403104 0.17338988 0.13168898
0.15271087 2.0529214e-05 0.248609
0.054597702 0.07474902 0.21167722
-0.2178705 0.15915905 -0.061418474
-0.06557077 0.09345518 0.30027854
-0.12239732 0.05779409 0.061784096
-0.1853676 0.05306312 -0.2515123
0.1743404 -0.096571065 -0.18127416
0.26826346 -0.016025418 -0.11719871
-0.112697974 0.21982993 0.04777254
-0.06526499 0.14755617 0.08354292
0.2256728 -0.12193615 0.09485992
0.17188829 0.0047689504 -0.25042155
0.11818948 -0.16109838 -0.2089013
-0.11922047 0.08705914 0.26030728
-0.23785487 0.0030608359 0.06410259
-0.1858022 -0.03394116 0.072603494
0.12340633 -0.23181306 0.008549634
-0.1494327 0.24794134 0.029710665
0.21866624 -0.14795074 -0.09453943
0.0963726 -0.11882673 -0.26356113
-0.02796002 0.20867297 -0.19469418
0.15581313 0.087229684 -0.21269679
-0.1386307 0.046871293 0.26247194
0.18926172 -0.08277188 -0.17174831
0.17001042 -0.022415975 -0.23502003
0.095361486 -0.07580108 -0.29208764
0.31194782 -0.07564723 -0.0045604636
-0.085620776 0.24089727 -0.18198194
0.26328662 -0.14582379 -0.004901812
0.069100894 -0.1591156 0.051132068
-0.19797933 0.11426338 0.15293899
-0.26570442 0.14111593 -0.0018609574
0.1810972 -0.24853921 -0.013360033
0.21624304 -0.098628595 0.14627974
-0.121780924 0.24529502 -0.11184441
-0.21510062 0.19208227 0.080919094
-0.24399287 0.19123691 0.045599148
-0.08562351 0.22599767 -0.08051775
0.2776547 -0.07219957 0.0740403
0.043354493 0.03209083 -0.26822776
-0.07947081 0.15811901 0.23459776
-0.2594061 0.074691914 -0.09910929
0.15785122 -0.009848747 -0.25831366
-0.032617934 -0.083884306 0.26463526
0.18711326 0.005196194 0.06782813
-0.18817958 0.19663613 0.11137431
0.24106061 -0.10322684 0.095753156
-0.017493343 -0.068716444 0.2667286
0.08644865 -0.07942392 0.074413635
-0.21263999 0.20008765 0.07875243
-0.22939989 -0.013787416 0.18980059
-0.11833491 0.17186694 0.21424967
-0.24373631 0.14075705 0.07884388
0.13617396 -0.1607396 0.19748923
-0.24978194 0.121441655 -0.05763395
0.21528415 -0.12777011 0.103926465
-0.21414529 0.0448231 0.17816165
-0.14053772 0.026130395 0.27007058
0.1540687 -0.24378455 -0.024870014
-0.21982041 0.048083983 0.16898884
-0.046243474 0.116871975 0.29125157
-0.007965876 -0.1806961 0.20783484
-0.045751132 0.13852146 0.12008662
0.109239 0.020834625 0.12599286
0.08915376 -0.1861097 0.24333476
8.036503e-05 -0.113376394 -0.17226203
0.13237983 -0.15934417 0.2051438
-0.1407425 0.0027376416 0.07837674
0.21647073 -0.032274056 0.1960867
0.07808238 -0.18380006 -0.081328616
-0.24544692 0.020754809 -0.0013585809
-0.08561637 0.14531283 -0.25264066
0.13935488 -0.029844511 -0.044969097
0.008981224 -0.07831659 -0.28837305
-0.07262956 -0.008521283 -0.28252444
0.2599742 -0.08681703 -0.08164132
-0.05498921 0.13268468 -0.033775948
0.28843835 -0.09850185 -0.047939204
-0.10158126 0.18164769 -0.2345937
0.15209337 -0.08721764 -0.2149982
-0.2043354 -0.037034936 0.21773836
-0.1741795 0.027291061 -0.24140146
-0.049382582 -0.05958029 -0.27765474
0.15570793 -0.00866985 0.257503
-0.19161302 0.13967247 -0.12766752
-0.20461589 0.12833054 -0.12087943
0.16462359 -0.2207486 0.054022748
-0.16732077 0.24111438 -0.043842655
-0.17727654 0.23819563 -0.027154475
-0.018108457 -0.03685025 0.2712786
0.099033676 -0.14229411 -0.2449484
-0.11900965 0.19610332 -0.18970783
-0.07289035 0.21992305 -0.09399097
0.049507678 -0.21316706 0.18717505
0.20487322 -0.1263168 0.13143495
0.24956384 -0.11986939 -0.07892135
0.24311854 -0.036647465 0.12435154
0.21100532 -0.23359805 -0.039046712
-0.08133548 -0.11302132 0.14321262
-0.062183544 -0.1343197 0.15806973
0.019381909 -0.07565543 -0.28850794
-0.18309265 -0.014235578 0.05463545
0.20907782 -0.08446795 -0.1460396
0.13895927 -0.23489265 -0.030574223
0.025664149 -0.11060403 -0.26417673
-0.15531492 -0.00031107524 -0.09121943
-0.0008051607 -0.06432949 -0.28490528
0.056969877 -0.08703215 -0.292695
-0.015141774 0.19718684 -0.18019712
-0.1853993 0.16035913 -0.11305847
0.17824872 -0.19532876 0.06975418
0.26698843 -0.0994557 -0.07166238
-0.08053173 -0.007772136 0.117535785
-0.13368034 0.23926042 0.020770237
0.2435461 -0.06157246 0.14750916
0.02022205 -0.1860915 0.1359728
-0.0024113723 0.13515224 -0.2504082
-0.06224415 0.18767951 -4.6966048e-05
0.2128256 -0.055107642 -0.1605371
-0.25454462 0.13450131 -0.027336298
-0.12610179 0.018799797 0.08742642
0.005784634 0.16923484 -0.24222063
-0.22575445 0.16362476 -0.041626293
-0.08036541 0.2089558 -0.010185658
-0.25517967 0.023680475 0.14100246
-0.20896831 0.003140165 -0.03882761
0.07490217 -0.18053637 -0.0870826
0.16227022 0.0020893062 0.2089885
-0.08089686 0.19926123 -0.23676112
-0.008177131 0.033390347 -0.12947218
0.10606637 0.02016248 -0.273167
0.1534269 -0.17263225 -0.157626
0.19412626 -0.06348538 0.24616863
-0.013462144 -0.0484182 0.27034956
-0.13230886 0.15237746 0.20961298
-0.053670563 0.14365947 0.23605359
-0.1423376 0.2591669 -0.05245265
-0.110835895 -0.02075187 -0.26232097
-0.18575877 0.21294908 0.10373862
-0.21441416 0.09001188 -0.17988122
0.023645999 0.01531138 -0.27035016
0.21793813 -0.03983939 -0.16414905
0.032656606 -0.19743559 0.15108944
-0.19532076 0.036135018 -0.223578
-0.25701517 0.025111906 0.016949879
0.18028179 -0.2491597 -0.006875958
-0.17121464 -0.058407962 0.14859083
0.28742856 -0.041227665 -0.023518266
-0.017108737 0.0755405 0.14262317
0.018280573 0.10438865 0.18578011
-0.19285855 -0.032782976 0.091592304
0.119817205 -0.24421401 0.086037256
0.022932634 -0.005144123 -0.27444914
-0.1211608 0.20846577 0.13714376
-0.087238364 -0.034695193 -0.27325276
-0.20874663 -0.011364671 0.036130305
0.2246136 0.02651637 -0.139818
-0.25254586 0.13438767 -0.03155633
0.17613856 -0.0563834 0.26823556
0.094904006 0.07482189 -0.26291257
0.15975729 -0.017043184 -0.02929591
0.09183397 -0.2249264 0.19053993
0.062329873 0.13315554 -0.25004318
0.15335049 -0.017449379 -0.25894564
-0.06992421 0.021051947 0.14147547
-0.15722926 0.011657149 -0.2438323
-0.2348348 0.004663924 0.045014035
0.073224925 0.034702405 -0.12159771
-0.15564024 -0.0023712905 -0.19929999
-0.14491801 0.116831966 -0.24809012
0.07424541 -0.016452711 -0.27921972
-0.2494197 0.029094115 -0.030806817
