# .PCD v0.7 - Point Cloud Data file format
VERSION 0.7
FIELDS x y z
SIZE 4 4 4
TYPE F F F
COUNT 1 1 1
WIDTH 1000
HEIGHT 1
VIEWPOINT 0 0 0 1 0 0 0
POINTS 1000
DATA ascii
0.036478963 -0.050164215 0.21432605
0.19053583 -0.09871693 0.07185574
-0.101785645 -0.007711209 0.3635211
-0.029291783 0.12746115 0.23337549
-0.14311373 0.18906778 0.32099733
-0.22321944 0.05078001 0.062759005
0.22305848 0.08749441 0.16316853
-0.039096333 0.14524092 0.235883
0.11823394 -0.07323116 0.19203517
-0.0350935 -0.1560272 -0.13440098
0.1134289 0.038884748 0.22332785
-0.20467544 0.12952232 -0.16608325
-0.041063715 0.102585696 0.19478825
-0.008247051 0.022914398 -0.3225305
-0.22824055 0.12776135 -0.017139696
0.27675536 -0.056117896 0.068744496
-0.20929326 0.17217067 -0.0023122719
-0.1895104 -0.05242876 -0.16333106
0.27123022 0.039281543 0.108154096
-0.06873008 0.04684685 -0.055465933
0.024677424 -0.070791475 -0.31235775
0.28094915 0.014887975 -0.14477392
-0.24643964 0.018800696 0.36294279
-0.25045586 0.01280149 0.37225673
-0.07240464 0.17507948 0.29941213
0.31518343 0.036693603 0.028373647
-0.19170468 -0.029520849 0.020229442
0.27628267 -0.105001464 0.024607819
0.14130777 -0.019674616 0.21453248
0.17732516 0.0012958654 -0.26389372
0.049178936 -0.049419098 0.15540223
-0.2156925 0.056627497 0.32229415
-0.16094507 0.17535149 0.22425494
0.07873574 -0.076973535 0.13688555
0.11648017 0.03072653 -0.17045069
0.09528515 -0.11510286 -0.2486104
-0.06848277 -0.09638333 -0.2270111
-0.223118 0.035525944 -0.16265546
-0.06848829 -0.061617274 -0.29768363
-0.0751656 -0.0067134243 0.22141515
-0.05569395 -0.09428309 -0.20503789
-0.16471215 0.15330787 0.22117633
0.11139307 -0.17979144 -0.044398278
0.07673195 -0.025542751 0.23237452
-0.19215468 -0.0077509754 0.16583733
0.08406171 0.07714652 0.22633858
-0.08194755 0.06678889 -0.14877295
0.10306148 -0.11411954 -0.026987582
0.29087636 -0.031801563 0.044906065
-0.20501423 0.13869776 0.2420245
0.26317164 -0.061995473 -0.17572941
0.02165358 -0.0793221 -0.28905478
-0.23881234 0.091832064 -0.05924649
0.072029576 0.11675545 0.23774974
0.084474556 -0.17538661 -0.06067722
0.16064474 0.02408606 -0.09248295
-0.24159364 0.05030707 0.35869226
-0.23088223 0.115684696 -0.010028494
-0.18492284 -0.04622231 -0.083353534
0.24295962 -0.13963635 -0.03256639
0.04617159 0.079972066 0.08300428
-0.10258192 0.107658416 -0.031896222
-0.1461688 -0.01404022 -0.23824178
0.027372742 0.14161964 0.20027979
0.08765645 -0.16553837 -0.04219727
0.080776915 -0.008812489 -0.29903245
0.055647913 -0.07117248 -0.30999264
0.09045435 -0.033193395 -0.3112354
-0.028914258 0.0087149 -0.12745513
-0.22913441 0.096077904 0.08353301
-0.15956739 -0.018003177 0.1552548
0.2543165 -0.115103066 -0.07914947
0.30405274 0.027279494 -0.11141674
0.0077009434 0.028957808 0.2369122
0.063306995 -0.12734398 -0.21354248
-0.21081217 0.0950341 0.36273426
-0.010364047 -0.06378182 -0.31158683
-0.078738764 -0.034596205 0.050166667
0.13195504 0.095604844 0.19287173
-0.034734417 0.14368151 0.25238812
-0.20208877 0.10441028 0.15887816
-0.0546254 -0.1010494 -0.25700656
0.29731125 -0.03913003 -0.1072857
0.31013227 -0.0019921223 -0.004603426
0.0017368423 0.082480915 0.067153804
-0.062282775 0.06325211 -0.3095731
-0.10444227 0.007152363 0.3620336
-0.13120973 -0.0012984578 -0.2717637
-0.0685094 0.044064317 -0.055500966
0.295276 -0.049704567 -0.101866566
0.24229567 -0.07965345 0.11882442
0.020764904 -0.079019874 -0.31015474
0.28374034 -0.044453137 0.058090277
-0.15774897 -0.06696783 -0.19343673
-0.20986503 0.04202123 0.19268315
0.004938114 0.045805294 -0.33238855
-0.08423686 -0.0012989176 -0.29774258
0.0495118 -0.06838625 0.14739953
0.090151824 0.12287335 0.20210175
-0.13486451 0.21280819 0.33616844
-0.096306406 0.057353713 0.042862877
-0.052333836 -0.04411042 -0.11157841
0.10420095 -0.13151254 -0.25696957
-0.07163456 0.13883358 0.17338637
-0.23025626 0.08110669 0.1216029
-0.2217306 0.08091476 -0.06699974
0.10484855 -0.1794339 -0.05327086
-0.042616956 0.14952376 0.33864325
-0.20399146 0.14372331 0.11411919
-0.16933686 0.19769439 0.33361316
0.10862883 -0.06441357 0.043471657
-0.2247786 0.070773214 -0.056422442
-0.22538199 0.14311121 -0.07421902
-0.085270986 -0.009216223 0.25120592
-0.14194053 0.17281538 0.1187927
0.16666056 -0.09576391 0.14879622
-0.16092503 0.0060946136 -0.24847257
-0.112277046 0.10019288 -0.049281534
-0.03834561 -0.045495085 0.17581093
0.18745185 0.06324087 0.16586605
-0.035179615 -0.061003175 0.0870876
-0.20674182 0.12646338 0.35857368
-0.07241986 0.17407076 0.29243654
-0.03239919 0.060499698 -0.31929323
-0.21458101 0.12600547 0.17469496
0.3210645 0.028879857 -0.06886849
0.29118118 -0.08980417 -0.019536274
-0.045061603 -0.030670455 -0.30881318
0.036347993 -0.04593069 0.15780814
0.14433588 0.021541353 -0.11136457
0.22399619 -0.07926252 -0.22083354
-0.1901812 0.1467293 -0.14450128
-0.1717005 0.122098856 -0.22246253
0.031808022 -0.057214953 0.13360572
-0.038071074 0.0012370939 -0.29431912
0.20332706 -0.12347857 0.05589373
0.15279034 -0.14431918 -0.20752884
-0.16097291 0.005990956 0.31813824
0.28530902 -0.039486572 -0.033102136
-0.24664822 0.031285286 0.36148104
0.2511562 -0.10925824 0.009539631
-0.18388595 -0.04085432 -0.048624706
0.21576455 0.026958888 -0.26655248
0.14117791 0.08706997 0.21074314
0.22991134 0.028207652 -0.2334456
-0.23060921 -0.012743161 -0.14116466
-0.16606 0.11531146 -0.23067202
-0.110341065 -0.030145423 0.15399654
-0.15548037 0.0052100606 0.18855476
0.08475907 0.050758347 0.22859392
0.12029013 -0.10023747 -0.28510317
-0.09749462 -0.07344881 -0.036603197
-0.17554116 -0.051431682 -0.10451708
0.014383784 0.16685982 0.33061352
0.18517545 -0.009085746 0.18889844
-0.17279044 -0.0077820695 0.20277315
-0.20000096 0.0022333877 0.20439416
0.021821778 -0.047206424 -0.13707727
-0.017933508 -0.086009026 0.10449371
-0.20534854 -0.03415388 -0.03532439
-0.08797973 0.06798364 -0.29704183
-0.10252604 -0.0935255 -0.0143192895
-0.10422546 -0.083583504 -0.24766894
0.18183653 -0.02487437 -0.023188213
0.22971633 -0.13483937 0.008307534
-0.11455674 0.021608854 0.3613756
-0.19121316 0.017953737 0.19788827
-0.039353754 0.0831417 0.34618825
-0.21924846 0.11201024 0.161117
-0.009389048 -0.07204437 -0.17871433
-0.23572825 0.0007952336 -0.13797444
-0.11926261 -0.056127463 -0.27032527
0.033004604 -0.088341 -0.3058697
-0.09807566 -0.13789345 -0.11855573
-0.049597766 0.040658403 -0.3129894
-0.14091356 -0.01171499 0.23088996
-0.19386415 0.12511572 0.051550865
-0.17287494 -0.027035294 0.069971874
0.10243239 -0.09242858 0.0017968157
0.25700817 -0.13509853 -0.040067352
0.23998472 -0.10367606 0.09412862
-0.025759293 0.01396422 -0.3175717
-0.13892218 -0.056635275 -0.25264475
0.03214082 -0.050442047 -0.3152707
0.19134825 -0.05692959 0.17839807
-0.03076703 0.056575168 0.2949266
-0.16278838 0.10498817 -0.23653936
0.250578 -0.061007 0.1173628
-0.13221966 0.012299913 -0.2707852
0.037036553 -0.04329306 0.11391971
-0.036080085 0.041952096 0.2779137
0.07680248 -0.13304481 -0.2458936
0.22512333 -0.1467793 -0.11498274
0.15053159 0.031305198 -0.0042341915
0.047082737 -0.11902824 -0.20321073
0.25140977 -0.10568653 0.07698829
0.09916106 0.026506234 0.22798596
0.2051133 -0.030081041 -0.25804257
0.16155322 0.024611095 -0.083855204
-0.017025124 0.034754273 -0.14160398
0.31473094 0.003824981 -0.071892105
-0.111158796 -0.13029236 -0.08884762
-0.013845929 -0.08395288 -0.30380157
0.05136292 -0.017196078 -0.31966603
0.122750424 0.0060641593 -0.104635015
0.30471945 0.033684365 -0.066133134
-0.015287784 0.07678938 -0.32344362
-0.04814863 0.119279094 0.22267306
-0.22428632 0.09094593 -0.13319819
-0.19041154 0.0897166 -0.20378667
-0.14642492 0.17339501 0.115018085
-0.17884271 -0.021548802 -0.2310263
-0.04700538 -0.06599915 0.08593713
-0.14480709 -0.048388083 -0.09903305
-0.21797955 0.06258928 0.09189864
-0.0043378337 0.15267949 0.3342591
0.053764865 0.012610353 -0.32429442
-0.22704305 0.015333922 0.13525385
0.19834341 -0.07714312 0.1608941
0.11392208 -0.06953387 0.13825427
0.15272157 -0.024975294 -0.2925252
0.13256676 -0.035460483 0.19544537
0.17393836 0.040661056 0.002503724
-0.25001374 0.008939474 -0.027593814
-0.092492 -0.08659755 -0.20269322
0.25606358 -0.12274089 0.027351016
0.059239473 -0.11775443 -0.10889246
-0.2398831 0.028597055 -0.12421557
-0.2161241 0.023553304 0.10369308
0.11227917 -0.12838991 -0.07886083
-0.0037211636 -0.1221211 -0.12644623
-0.06853024 -0.0923834 -0.26609918
0.1206106 0.061731182 0.21945553
0.005763613 -0.08531386 -0.3058181
0.02511074 -0.16948219 -0.122823074
0.09567516 -0.06315295 0.13803147
-0.16673954 -0.019705746 0.13109872
0.11792091 -0.089893386 0.14058657
0.11908592 0.12056776 0.21094587
0.11080106 0.016796071 -0.31681836
0.05906227 -0.038973995 0.20326363
-0.21186341 0.09408669 -0.10681892
0.0376129 -0.17507388 -0.13969284
-0.23250596 0.008227738 0.08004039
-0.06571309 -0.06009062 -0.27673256
0.084893085 -0.12213263 0.02726618
0.27161252 -0.09614817 0.05223116
0.16396669 -0.011990315 -0.28943333
0.18111253 -0.014026216 0.1682537
-0.01770304 -0.07732277 -0.30593368
-0.18436374 0.11481398 -0.16906096
-0.12476284 -0.03321428 0.09988506
0.12730837 -0.048197232 0.21339932
0.29440507 0.0029502437 0.0542205
-0.120280035 -0.003057171 0.05308693
-0.06097706 0.070590965 -0.1195297
0.27213705 -0.063765086 0.07565659
-0.067111 0.053515166 -0.026911251
0.12744994 -0.041675866 0.21585663
0.06970023 -0.09813295 -0.29871368
-0.2030506 0.115352646 0.05696601
-0.052524943 -0.14916447 -0.11731119
0.21744709 -0.037045937 0.15974963
0.22262524 -0.11030624 0.035559893
-0.018415732 -0.16164507 -0.1442206
0.15686417 -0.018489333 -0.26985884
0.06024974 -0.10741401 -0.2932365
0.26651332 -0.09940949 -0.14433345
0.12516142 -0.11507916 -0.026761468
0.24337997 0.027075207 -0.21791948
-0.042030465 0.1064981 0.06687427
0.05676988 -0.16358504 -0.09431912
-0.25145534 0.013554719 -0.03155084
-0.075275764 -0.001892894 0.2833072
0.15696475 -0.036314033 0.20518883
-0.040294938 0.022100301 -0.31439582
0.2580613 -0.123484775 -0.13433892
0.005211868 -0.08238787 -0.18197374
0.081209995 -0.013585232 -0.31726003
-0.21187645 0.005915019 0.05898359
0.06816005 -0.07347514 0.16751458
-0.037772164 0.16729459 0.3360248
-0.2380146 0.054670267 0.110325836
-0.17995442 0.012935272 0.32523635
-0.07949315 -0.0019298531 -0.027541438
-0.22472103 0.08167 0.19479671
-0.08983471 -0.06554174 0.007863684
-0.113479145 0.16255304 0.13633561
0.1972355 -0.020788414 -0.26704386
-0.085537106 0.14570618 0.20799749
0.16181031 -0.10895032 0.07214703
0.14471751 0.09004942 0.20917599
-0.18273865 0.1025489 -0.2122371
-0.14772536 -0.04529504 -0.08792605
-0.0028498122 -0.04353031 0.21023774
0.28235495 -0.040356614 0.06313986
0.013621331 0.13711958 0.21931978
0.20205718 -0.04399239 0.17317173
0.2872574 0.023203317 -0.1685929
-0.21921699 0.08747118 0.24892075
0.07396308 -0.101844154 -0.102010325
0.29030934 0.053505946 0.08237268
-0.2213592 -0.015635088 0.03295697
0.2583059 -0.07593678 -0.17609562
0.23204644 -0.13606478 -0.16038156
-0.04813666 -0.022973202 0.099250324
-0.046662405 0.11955007 0.1887061
0.01030747 0.13255937 0.21966264
0.08392359 0.026247792 -0.15915054
0.19119328 -0.10003634 0.13513006
-0.18387142 0.0699308 -0.21612743
0.16888084 -0.14648986 -0.19027558
0.07191363 -0.09454899 -0.10661431
-0.178691 0.0760737 -0.22176106
0.23525546 -0.13389574 0.011032602
-0.11341486 -0.018093938 0.35339257
0.063262634 -0.17469679 -0.09266792
0.100279406 0.00497231 0.03050307
-0.16593236 0.16703485 0.10807462
-0.029287592 -0.12573117 0.08439519
0.30635425 -0.0052349935 -0.1097018
0.25928482 -0.04552195 0.106260546
-0.19187263 0.18292235 0.33772865
0.20328577 -0.023040615 -0.236579
0.14545117 0.042627286 0.21068642
-0.18695492 0.04646828 0.3660051
0.18198548 -0.008058917 -0.005955079
-0.20152155 -0.037073635 -0.04881113
-0.09867367 0.15046218 0.15218584
-0.1994386 0.13768108 0.33885005
-0.08900739 -0.1223104 -0.13087848
0.24185473 -0.12151823 -0.037587166
-0.04267551 0.037738387 -0.31490782
0.123959705 0.007122406 0.001118409
-0.09821538 -0.073819034 -0.025923075
0.13676251 -0.13621311 -0.15550601
0.03118275 -0.10080006 -0.29835224
-0.16347484 0.089399375 -0.2085027
-0.014486834 -0.092150904 -0.1511213
0.09758637 -0.067406714 -0.30273038
-0.18466364 -0.034175448 -0.13954486
0.035976037 -0.092838064 -0.1806437
0.10374065 0.06328422 0.068898715
-0.20969748 -0.026096566 0.008388773
-0.07379395 -0.14223167 -0.10638534
-0.22840673 0.10326935 0.06781347
-0.06874102 0.029526684 -0.068763405
-0.024279008 0.074230656 0.32020712
-0.04361866 0.07452436 -0.31671128
-0.100100085 -0.11109278 0.01627623
0.19795145 0.058786098 0.18212666
0.09063522 -0.065255985 -0.2849694
0.10066324 -0.11886096 -0.22546965
-0.19295381 0.14522001 -0.15970175
0.044179372 -0.08139408 -0.30942556
0.11810559 -0.12658401 -0.15608758
0.031950604 -0.022382518 0.23469123
-0.22219363 0.14308687 -0.004629551
0.064567976 -0.17558452 -0.096522875
-0.16088124 -0.028493652 0.08069901
0.13738975 -0.09703076 -0.28004804
-0.15686794 0.0030952338 0.30529785
0.08508044 0.050877646 0.058647044
0.16404817 -0.09012938 -0.24368487
0.044191062 -0.12516537 -0.23015021
0.19184227 -0.11991726 -0.23154622
-0.057888716 0.14670219 0.34057826
0.04443077 -0.14365034 0.088622585
0.030604951 0.028766006 0.05867657
0.13887516 -0.07053545 -0.28656635
0.28712937 -0.05136156 -0.13063742
0.077884056 -0.1472459 0.031847466
-0.22724569 0.11927547 -0.10105969
0.16171207 -0.13008611 -0.09842559
0.2395196 -0.12633444 0.04052426
0.23581465 -0.012968311 0.14281058
-0.043671858 -0.0013645788 0.2282591
-0.21425296 0.16327839 0.04499445
0.05778347 -0.14747137 0.08542461
-0.14108738 -0.022349106 -0.09336014
-0.21235193 0.07847519 -0.16874069
0.11619209 -0.018137744 -0.30827236
0.0028712288 -0.08554065 -0.30535734
0.26241785 -0.07353034 0.09318958
0.011650366 -0.053274278 0.19860664
0.2267315 -0.084284514 -0.21575297
0.06358308 -0.072978385 0.16175564
0.20248997 -0.1409707 -0.18691114
0.2982019 0.023949584 -0.14449397
0.009300278 -0.07812263 -0.30976477
0.24058042 -0.0010989953 -0.23534092
0.044261646 -0.12214111 -0.21394254
-0.061528474 0.09078647 -0.3070998
-0.023922926 0.084104985 0.28988338
-0.126384 0.039923772 -0.026339583
-0.10180049 -0.08746793 -0.22825108
0.0041478765 0.07903248 0.33941254
-0.042273186 0.010546313 -0.3129081
-0.062425118 -0.1497345 -0.13838737
-0.124879986 -0.0011044313 0.3317693
-0.19896916 0.012594732 0.26023394
0.11153357 -0.14966305 0.04410172
0.2923731 0.026056184 -0.140077
-0.19304837 0.1849087 0.33927312
-0.14529344 0.12180672 -0.23846397
-0.023180647 0.046007253 -0.1441502
-0.20820226 0.15028389 0.043692566
0.0012614052 -0.16446246 -0.12954724
-0.19697872 -0.02759642 -0.13662496
0.14037676 0.025083803 -0.13383667
-0.041432187 -0.027345361 -0.1454334
-0.07233904 0.20500153 0.32739836
-0.154282 -0.020255378 0.1488906
0.15805356 -0.07716317 0.14624111
-0.12163095 -0.11036915 0.030286813
0.088618964 -0.18120612 -0.093593955
-0.04048732 0.09915282 0.27477813
0.007034235 0.050825916 -0.17641777
-0.052612085 0.014640265 0.27882877
0.1930137 -0.09718581 0.08479438
-0.09021649 -0.10784704 0.084164985
0.11535048 0.040981945 -0.32075575
0.3091145 0.04075007 0.033097815
-0.12718475 0.18656015 0.2917529
-0.23020263 0.080916226 0.12300366
0.22318453 -0.11697803 -0.0009582964
-0.03726756 0.042776924 0.25573733
0.01929568 0.012402203 -0.32458755
-0.012470906 0.13515145 0.3371937
0.15614644 -0.13170609 -0.11285011
-0.042455204 0.014598957 0.3420762
-0.24062274 -0.00063312316 -0.12081279
0.15219557 -0.0245983 -0.27048874
0.2813644 0.0078905225 0.084240064
-0.14697255 0.16486752 0.27876827
-0.23121253 0.14507775 -0.12645681
-0.02678654 0.07743769 0.27471897
0.23440902 0.026606293 -0.22563854
-0.19108711 -0.0041918694 0.35987666
0.15205374 0.040005792 0.20795271
0.08706453 -0.13704844 -0.06765228
0.25283125 0.06375747 0.10508127
0.123932935 -0.08943739 0.0120857805
-0.03761448 -0.08648212 -0.25625888
-0.1475967 -0.026004221 0.120862305
-0.13785927 0.18877633 0.3144945
-0.21264727 -0.029706681 -0.021482257
0.1075179 0.023515338 -0.3189738
0.25493282 0.06471653 0.102595106
0.12981538 -0.0933121 -0.029501865
-0.03782572 -0.124485336 0.078188576
-0.20495376 0.139852 0.21803688
0.24781482 -0.13060252 -0.14514661
0.10579608 -0.060381968 -0.079657085
0.09180414 -0.05522222 0.06216884
0.26763776 0.02016966 0.109438404
-0.14313854 0.060962096 -0.23473299
0.08901971 -0.17078592 -0.02110458
-0.23775536 0.03814675 0.11539981
0.23674302 -0.130489 -0.1650161
-0.22687933 0.1140594 0.01971191
0.29380038 -0.042466402 -0.11711069
0.09520952 -0.07889123 0.17413284
-0.21938547 0.15254653 -0.0027334727
-0.07908226 0.025341962 -0.3007168
0.19110401 -0.14560807 -0.11652372
-0.2111181 0.03230912 0.1618368
0.16101997 -0.011390734 -0.29146555
-0.17753506 -0.0065021324 0.20337303
0.07931639 -0.03376653 -0.16531326
0.25964606 -0.016979275 -0.2049461
0.032280605 0.00629402 -0.3241118
0.023637084 -0.04390835 0.11996443
-0.20235583 -0.04068252 -0.17121764
-0.19342054 0.022949282 0.33256844
-0.21903408 -0.026335075 -0.1564423
0.061236434 -0.11000904 -0.22991312
-0.2470556 0.001888587 -0.027119622
0.19195944 -0.015605677 -0.2731235
-0.16690484 0.12678863 -0.22762568
0.1385606 -0.049452 -0.0036127784
0.13338171 0.10124283 0.21265133
0.015524996 -0.021581108 0.2337245
-0.24672024 0.046131514 0.022460405
0.11654527 -0.124982424 0.025162876
-0.21104264 0.04613303 0.35598812
0.28357702 -0.0072242636 -0.17150931
0.19366612 0.0083837295 0.15977593
-0.104652025 -0.13046737 -0.117888644
-0.11352966 0.16963747 0.14610821
0.27665433 -0.08827422 -0.12916741
-0.15193704 0.12435332 -0.23242639
0.20204502 0.015601464 0.17713273
0.26631016 -0.078463115 -0.106105566
0.018253794 -0.028229726 -0.16762628
-0.18773603 0.18649809 0.349451
-0.0039579757 -0.095899686 -0.25458565
-0.21655603 0.054343738 0.31261018
0.11898134 -0.05770017 -0.29781318
0.07557524 -0.013854467 -0.3179092
0.12223595 -0.17740747 -0.01589271
0.21230964 0.02747575 -0.24615791
-0.0077742795 -0.11020664 -0.27343142
-0.04530859 -0.07531788 -0.2062924
-0.08518744 0.09897223 -0.2916803
-0.09919641 -0.08216847 -0.18929455
0.25300902 -0.016189484 0.122016706
-0.13531932 -0.046585243 -0.2628886
0.04416393 -0.13094328 0.10561412
0.10135788 -0.13403425 -0.25126666
-0.1958764 -0.04260656 -0.07715679
-0.20064482 0.1462112 0.10275248
0.27027684 -0.06360382 -0.16122247
0.11223196 -0.07677116 -0.026733922
-0.22565074 0.11393187 -0.11374912
-0.030392386 0.06957547 0.037831847
0.120372176 0.03825669 -0.31901976
0.14157145 -0.096971154 0.0756035
-0.02336096 0.08953025 0.20235865
-0.24636404 0.0029601464 -0.09828535
0.19274363 0.0051237238 -0.28947273
-0.245305 0.034333847 0.046038494
-0.21046993 0.12516576 0.23353939
0.10528667 -0.10605858 -0.1462903
0.1666165 -0.089823 0.089842275
-0.16812521 0.1760529 0.3486375
-0.11425359 0.010055926 0.36271638
-0.14730714 -0.04522616 -0.2547667
0.044222865 -0.14219174 0.098312944
0.1902324 -0.09461228 0.09510858
-0.049639355 0.13769454 0.18327464
-0.004265335 -0.16262835 -0.12648366
-0.17053291 0.016257765 -0.23898984
0.28562495 -0.10356897 -0.071214505
0.08310643 -0.023850406 -0.3145085
0.035810493 0.02570714 -0.32732442
-0.21246642 0.093065366 0.32071695
-0.026959669 -0.05644475 -0.17148675
-0.049491394 0.07357428 -0.16251431
0.21858928 0.026446821 -0.2651904
0.121341385 -0.15256174 0.02005063
0.017883955 -0.052703585 0.20380537
0.17509899 -0.017349841 0.17231598
-0.097593054 0.20160106 0.32563472
-0.05699859 -0.14834577 -0.11942178
-0.069116056 0.032259326 -0.28513166
0.045791633 -0.12244696 -0.21343732
-0.22732274 0.07360817 -0.13411011
0.07692717 0.026830582 -0.16079275
-0.14540124 -0.031357225 0.052593686
-0.10535242 -0.008348742 0.08078681
-0.13061172 -0.0019373206 0.31610405
-0.17661273 0.16553587 0.17734757
0.07304487 0.13390604 0.2271611
0.19947901 -0.082147844 -0.24501725
-0.0027596932 -0.16617405 -0.14830565
0.050258007 -0.05706844 -0.31296048
-0.21878015 0.06916832 0.30199838
-0.20116086 0.16490407 0.3534223
0.2591557 -0.012209466 -0.17263421
-0.043954633 -0.0645441 -0.11890024
-0.17630614 0.17137603 0.28089142
0.22612217 -0.13402419 0.01252986
-0.21527898 0.07990471 0.066933736
0.26197603 -0.08210322 0.08794877
0.089742154 -0.106969856 -0.26344323
-0.20417535 0.13728282 0.27590907
-0.096673615 -0.06957087 -0.020105122
-0.04888211 0.16784276 0.3072017
0.13096306 0.029516328 -0.3141551
0.0036605839 -0.006333584 0.23723127
0.18542144 -0.014500855 -0.04739445
-0.027581891 0.13766904 0.272512
-0.16132356 0.090383634 -0.24072568
0.20945303 -0.13984096 -0.045004018
-0.042770773 -0.0842836 -0.23282298
-0.18898964 -0.020305147 -0.045288444
-0.16358471 -4.0892388e-05 0.27205595
-0.033703286 0.023374964 0.35269699
-0.09574773 -0.034232445 0.15398043
-0.17694312 -0.039124284 -0.03492039
0.054066513 0.018232694 0.23718365
-0.024329463 0.110286124 0.2387444
-0.1668633 -0.033281833 -0.103982896
-0.13720025 -0.09323346 -0.005326405
0.17808941 -0.026745306 -0.27747408
0.09371215 -0.12590261 -0.26781687
-0.1813815 0.16895184 0.3027366
-0.21221924 0.012363002 0.08555778
-0.033447534 -0.04823726 0.1507251
-0.17535678 0.040161308 -0.23138264
0.22952537 -0.09081596 0.12245011
-0.11207287 0.1072897 -0.28094515
-0.0027500237 0.042687483 -0.32574493
0.18496098 -0.093278445 0.09767074
-0.18992746 0.12492668 0.2510525
-0.2064962 -0.017386084 -0.0603482
0.011625466 -0.06239393 -0.31422693
0.102474555 -0.10832927 -0.2861704
0.118407615 -0.13886657 -0.19599761
-0.22303177 0.054993454 -0.09531246
0.116497345 -0.06972009 0.14339541
-0.046925697 0.021845652 0.33383423
-0.1279283 -0.073484726 -0.17446928
-0.047228552 0.011167799 -0.29204628
-0.11930446 0.17663741 0.3434547
-0.22831167 0.069269665 -0.1337352
0.26612547 0.041948635 0.11525984
-0.09608001 0.08604935 -0.2928364
-0.0486522 0.016248686 -0.29190338
0.12377663 -0.13974826 0.017502377
0.05317228 -0.101006694 -0.2987671
0.008044871 -0.16731139 -0.1374255
-0.1062078 -0.018412007 0.20276527
-0.22459912 0.053137943 0.035615608
0.3056685 0.010680238 0.025452333
-0.13298674 -0.09877369 -0.062256344
-0.21052662 0.13465239 -0.14858589
-0.19806731 -0.0015913706 0.37287912
-0.09949842 0.026392547 0.052896593
0.24969393 0.010546953 0.1000108
-0.24605851 0.017720861 0.025123242
-0.120457776 0.17072126 0.14157423
-0.14014822 -0.01969685 0.17721893
-0.029089015 -0.0006705791 -0.31553963
0.11978029 0.066460945 0.075749986
-0.04471952 -0.007845277 -0.31068283
-0.17677642 0.16247952 0.13725647
0.051365133 -0.12719485 -0.23170778
-0.03164007 -0.11704564 -0.15235214
-0.11059593 -0.033470914 -0.031625442
0.18410937 -0.12683101 -0.017492857
0.113259956 0.056630816 0.05756692
-0.15429898 0.0051321415 0.36749575
-0.21920596 -0.023306485 -0.16227232
-0.09421514 -0.0716479 0.061161358
-0.01981029 0.101215504 0.2946835
-0.06504995 -0.08391916 0.05214629
0.13271177 -0.09247004 0.14787294
-0.21926785 0.12846695 0.35964778
-0.16883689 0.16147529 0.06970945
-0.2165699 0.1339232 -0.12244408
0.04491273 -0.08643076 0.091081575
-0.10421502 -0.06448695 -0.2028547
-0.18993227 -0.051208798 -0.1715901
0.12463767 -0.08743196 0.16390032
-0.12643738 -0.07615504 -0.18802543
0.04096629 -0.06687066 -0.3122406
0.052645426 -0.08157237 -0.122490965
0.00056676427 -0.10346701 0.07701864
0.014385174 -0.0327758 0.13846292
-0.11878616 0.18766084 0.3420904
0.14252558 -0.024111466 0.2135937
-0.18630062 0.16156025 0.20598064
0.1660279 0.0038555781 0.20052533
-0.20769726 9.273493e-05 0.16449684
0.1286401 -0.134855 -0.2457307
0.23950742 -0.12595582 0.04168877
0.18588586 -0.14825267 -0.15474284
0.06553952 -0.046269365 -0.31329158
0.18328644 0.033266403 -0.2793519
0.26343992 -0.10179107 -0.008568653
-0.1716835 -0.010393092 0.3649889
-0.12441224 -0.07448153 -0.17591031
0.14413016 0.02488501 -0.12859845
0.0006924686 -0.09072017 -0.18869868
0.2964 -0.0037034145 0.045504823
-0.08203808 0.16391915 0.20582908
0.2434795 -0.0041604643 0.13581549
0.022927113 -0.04543596 0.12194488
0.08797853 -0.00040631267 -0.1300253
-0.23786499 0.087056324 -0.0029573455
0.010261659 -0.09895318 0.11062049
0.12100913 -0.17963691 -0.033895407
0.3090532 0.04606629 0.037736915
-0.0009829908 0.11005541 0.33897185
0.08339072 0.051518142 -0.32663327
0.1606131 -0.103715874 -0.029263416
-0.058993742 0.10139008 0.035468668
-0.19818757 0.0040015187 -0.20951682
0.010937111 0.06444579 -0.3422899
0.22726686 -0.041054588 0.14909606
0.24685687 0.00045074982 -0.22929284
-0.009147981 -0.09470084 -0.24928936
-0.14479582 -0.062296357 -0.23748694
-0.13335991 0.18374246 0.26802942
0.20493135 0.04828222 0.15286152
0.15021612 -0.04158003 0.20719709
-0.22776878 0.12481979 -0.0052138753
-0.042538792 0.18218371 0.33475545
-0.15212156 0.18449411 0.29849806
-0.22038034 0.064547434 0.28511345
0.10688454 -0.17392552 -0.011792274
-0.21868402 0.063671395 0.078475274
0.08678603 0.02875954 -0.1631435
-0.20914225 0.13434577 0.19639814
0.025929669 0.046140734 -0.18152831
0.18916541 -0.08635213 -0.25131533
0.2769547 -0.056945734 -0.00026046849
-0.09125759 -0.07406857 -0.062210053
-0.17905942 0.16406442 0.1774265
0.00045059627 -0.13154107 0.095876314
-0.13966249 -0.05247187 -0.18147296
-0.17517504 0.04431418 -0.23119333
-0.22127478 0.04315763 0.25681293
-0.16008794 0.19406046 0.3330764
0.23015045 0.016346877 -0.22575323
0.23030888 -0.10880509 -0.164769
0.020709518 -0.02732459 -0.31930125
-0.020606138 0.120374 0.2837684
0.10293974 -0.100771986 0.046045333
-0.20939347 0.13388126 0.1981389
-0.14072661 0.056108367 -0.2623339
0.12337774 -0.11996652 -0.0057109436
-0.1782617 0.13444087 -0.20852163
-0.23305562 0.057815537 0.1665035
-0.082489416 0.08299721 -0.3001473
0.11485469 0.11098651 0.21760441
0.1806281 0.1014078 0.18553463
0.2369978 0.058163587 0.1235406
0.26583844 -0.13088453 -0.07619529
0.2960467 0.017375613 -0.094490804
-0.060927156 -0.1279947 -0.10906295
-0.10100123 0.05999549 -0.2899344
-0.23191126 0.03750313 0.16703121
-0.06884534 0.04683403 -0.050266538
-0.21082124 0.113810815 0.26919967
-0.08243836 -0.088184305 -0.19996555
-0.075447 0.0071293013 -0.30194232
-0.11015024 0.03280325 -0.26248083
0.18075368 -0.042314477 -0.27112398
0.008192845 0.12210997 0.20189883
-0.227386 -0.028160304 -0.09096653
-0.021098735 -0.12349696 0.113971286
-0.02777414 -0.12258182 0.108714096
0.22863708 0.0039869193 0.15291667
0.14889483 0.004590917 -0.1512004
0.11388907 -0.108570896 0.029192371
0.19399053 -0.114157744 0.096624464
-0.14522247 -0.037232857 -0.25985324
-0.15010089 0.17779048 0.22051431
0.22031413 0.050158635 0.1645063
-0.11739572 -0.0326445 -0.25824583
-0.11861104 -0.095668204 -0.092393786
-0.23934698 0.03535794 0.09964134
-0.03165481 0.15683034 0.19968748
-0.105551854 -0.016228504 0.10865176
-0.0073364084 -0.052480105 0.18139522
0.06989248 -0.1616953 -0.13067064
0.26902962 0.020188386 0.06936173
-0.18170018 -0.039491646 -0.037495043
-0.15021428 0.17526905 0.121367484
0.049953382 -0.11401003 -0.28606495
-0.047598045 0.11224074 0.2049899
-0.17443487 0.10569754 -0.22190103
0.15253326 0.0013057746 0.18720327
-0.21306998 0.13361746 0.07144958
0.28711906 0.057311554 0.088508554
0.17880432 -0.05071201 0.18850157
-0.101152755 0.15793444 0.14782369
0.06888186 -0.10682954 0.08444614
0.14022294 -0.04847161 0.20807827
-0.2487399 0.03186502 -0.09252934
0.29244766 0.03412373 0.07281158
0.30817685 -0.021640128 -0.07026345
-0.1912324 -0.052086636 -0.15051642
0.05041341 0.018687911 0.23751272
-0.07292222 0.07610316 -0.035825863
0.27927005 -0.054664217 -0.015563433
-0.07074067 0.16406764 0.33986133
0.1880182 -0.000888754 0.16365695
-0.18213254 -0.034305524 -0.17000052
-0.19440745 0.020270243 0.3698981
0.16427277 0.0356265 -0.008632807
-0.21798891 0.0052169566 0.14407475
-0.17493007 0.04103418 -0.23172417
0.082281984 -0.044661634 0.22299705
0.13240261 0.10853188 0.21241651
-0.1296653 -0.07169778 -0.167474
0.080261715 0.12954973 0.205582
-0.16574976 0.20292932 0.33261555
-0.14981899 -0.019889876 -0.25848714
-0.10177272 0.00793816 -0.28903016
-0.088026024 0.0008707107 -0.29591098
0.22662172 -0.008252633 0.12605338
-0.21267271 0.026939811 0.25666776
0.009985622 -0.1067103 -0.12875803
0.01616652 -0.16661072 -0.118533924
0.26182687 0.0061656865 -0.21355566
-0.18331972 0.16716902 0.31229097
-0.025275517 -0.105072774 -0.27368584
-0.074261144 -0.075269155 -0.2860472
-0.22448197 -0.0020137173 0.08268572
0.24705422 -0.021037057 -0.22040637
0.18015134 0.08106339 0.17043594
0.045874827 -0.10492682 -0.29567346
-0.23091984 -0.021006893 -0.03431492
-0.12175846 -0.10263602 0.046444915
-0.12544724 -0.02380881 0.16270588
0.1253764 0.05317117 0.050203253
-0.11011709 0.1749832 0.23342265
0.075846136 -0.013863991 0.23506784
-0.19440258 -0.026793748 -0.10114552
-0.010983077 0.15619554 0.33453736
-0.22266191 0.097170345 0.16758308
-0.22274852 0.063065186 0.26319498
-0.22838455 0.059553005 0.21103269
-0.04566936 0.123591326 0.2503077
-0.12950931 -0.008887681 0.13171814
-0.14483239 -0.02956064 0.026759097
-0.19645058 0.12164893 -0.18426163
0.1096128 -0.025217071 -0.0928824
-0.040002882 -0.02215221 0.18713929
0.25620314 -0.083182946 0.095814146
-0.057389066 -0.11754086 0.0921491
-0.20749936 0.0850964 0.3635682
0.25614575 0.07271011 0.11861588
-0.21050781 0.020631185 0.24664542
-0.20654477 0.14109509 0.14760332
-0.07395197 0.073010236 -0.0500239
-0.17971803 -0.03670441 -0.15239322
0.043771468 -0.14287262 0.0928401
-0.105138585 -0.117754176 0.007968587
0.16882972 0.09722455 0.19859391
0.28932217 -0.008102498 0.061364554
0.2733841 0.061104856 0.074794404
-0.025701638 0.1235885 0.25104037
-0.24129795 0.0509633 0.07891695
0.18070878 -0.11631865 0.0672742
-0.23741846 0.08950432 -0.07821657
0.19234519 0.070432305 0.18633689
-0.092791915 -0.026990894 0.027699664
-0.057320908 0.15518034 0.33951157
0.09565238 0.07666495 0.09465412
-0.1912764 0.117637426 0.25868183
-0.21371767 0.029515048 -0.18233019
0.23461682 0.009990773 -0.2465827
-0.17303604 0.079819985 -0.22815096
-0.041088186 0.154041 0.26260853
0.054316983 -0.050658416 0.15290357
-0.040624928 -0.01913349 0.074362196
-0.1224294 0.012782478 -0.27703202
-0.20841604 -0.013680031 0.086726665
0.3195197 0.03865574 -0.006242601
-0.04727439 0.041055717 -0.3137119
-0.21782263 0.1531177 0.0033289532
-0.22973445 0.082934715 0.12218013
-0.18914229 0.07508109 -0.20871428
0.2603849 -0.11933474 -0.13656409
-0.13997152 -0.025740994 -0.025641426
-0.21179663 0.016332297 0.22158647
-0.21307611 0.16272056 0.01158271
0.25799733 -0.13443741 -0.03844336
0.009204832 -0.054823916 -0.3155438
0.20160711 0.049288277 0.17932698
0.1715727 -0.14693972 -0.16303037
0.07954604 -0.13277191 -0.22131884
-0.08154435 0.14348544 0.16619001
0.11849944 -0.058459148 0.18135817
-0.10300511 -0.028506424 0.0059404243
-0.036021166 0.024625983 0.35279116
0.07167599 -0.12256998 -0.19197758
0.14464909 -0.07514376 0.1863135
-0.07520033 -0.010252035 0.10346696
0.2703018 -0.07206118 -0.15593138
0.2886704 -0.023720656 -0.0630808
-0.23953673 -0.014808609 -0.0805622
-0.200108 0.16537058 -0.033257727
-0.20170249 -0.008954758 -0.2040371
0.26836416 -0.0069548464 -0.19807453
-0.17565033 0.18265088 0.34864187
-0.099449106 0.109651685 -0.013777796
-0.123155504 -0.026573988 -0.2557561
-0.11746227 0.16628337 0.16075847
-0.22004159 0.017053328 -0.17476334
-0.060547817 -0.083443664 0.054874655
0.06551142 0.11396339 0.23437501
-0.2055171 0.11931858 0.32164952
0.016340813 0.02085687 -0.32528242
0.28630102 -0.092023954 -0.086320646
0.049601346 -0.14452559 0.09154916
0.2533708 0.008877192 0.09448929
-0.10650046 -0.0055203396 0.31714603
-0.07383086 -0.04628917 0.025002137
0.034975722 0.03489971 0.23630938
-0.10529904 0.2128441 0.33768648
-0.015699849 0.10680415 0.34089917
-0.034800492 0.092667274 0.0500403
-0.1632509 -0.012720477 0.35797423
-0.24403398 -0.006236084 -0.094504595
-0.06396376 0.0055061355 0.34376845
-0.19448888 -0.028363 -0.11641064
0.14205101 -0.13941817 -0.16077279
-0.121588945 0.022210123 0.36204046
0.015825933 -0.09061491 -0.21114111
-0.11219225 0.16836333 0.3179337
0.22309832 -0.081719555 -0.22079286
0.08269171 -0.05868089 0.16090085
0.30802378 0.037475873 -0.034284078
-0.11947131 0.17731062 0.2332566
-0.21502203 0.038777936 -0.17696093
0.30523255 -0.01694823 -0.097225115
0.10033347 -0.0016228872 -0.31545508
-0.16515985 0.0005946404 0.27370462
-0.0034149634 -0.109343626 0.1130475
-0.22299765 0.107525654 0.12614755
-0.02040777 0.14200571 0.33721
0.22949483 -0.0667773 -0.22002628
-0.053742934 -0.09727489 0.10186446
-0.20252243 0.12783082 0.35796937
0.087967955 0.090308934 0.22475879
0.09187277 -0.09672886 -0.2957195
0.25036046 0.013316404 -0.19931695
0.27051488 0.05304509 0.07744752
0.18309474 0.100792214 0.18556724
0.10601194 0.07255419 0.20246793
-0.2109954 0.12639125 -0.047256745
0.21418594 -0.048561998 -0.24404366
0.11074139 -0.004301416 -0.10764147
0.03209297 -0.16732766 -0.109582745
0.08421522 -0.14028902 -0.07047163
0.11952866 0.09594031 0.19677861
0.09046102 -0.060991395 0.15843843
-0.17660695 -0.027386587 0.061088726
0.09342889 -0.08131825 0.024385473
-0.24307899 0.070865735 -0.0679158
-0.07628212 0.079691544 -0.042573623
-0.09448773 0.028224763 0.05785167
0.049641687 -0.016436962 0.2376238
-0.1875151 0.17183146 0.07148983
0.03749365 0.0132491905 -0.30650604
0.056134988 0.059730444 -0.3172634
-0.099735685 0.112327315 -0.00078248355
-0.16452305 0.17096674 0.18650644
-0.0014556876 -0.12627152 -0.12591183
-0.25210047 0.014749874 -0.06408008
-0.119187266 -0.061847284 -0.14319627
-0.018966096 -0.16057342 -0.13779065
0.096066386 -0.11384202 -0.28323826
0.2740623 0.04065352 0.10445213
-0.19979589 -0.015792638 -0.20523496
-0.25200608 0.025603315 -0.019117193
0.21929394 0.028914675 -0.24696496
0.11076681 0.004257448 -0.31423393
-0.0395993 0.05474314 0.026414411
0.29542387 -0.07330767 -0.04311207
-0.029736502 -0.0044231466 0.23192313
0.22871219 0.052484103 0.15759596
-0.20700885 0.15456088 -0.11542357
0.28619525 0.0481551 0.087692216
-0.020043353 0.043826804 0.10465456
-0.13242035 0.21052256 0.32822233
0.11662184 0.026015347 0.2230928
-0.20118 0.15638341 -0.09703387
0.26445815 0.057443224 0.120250486
-0.13443094 -0.021462956 0.17431279
-0.056718238 -0.1423957 -0.11102027
0.15509553 -0.10232762 0.046694934
-0.1773367 0.030302884 -0.23030926
0.30103558 -0.026232691 -0.10719281
0.044257544 -0.056461632 0.2072618
0.3076979 -0.008342772 -0.002065251
0.13354516 -0.04875291 -0.29455045
0.17576331 0.034457557 -0.28417817
0.19863832 0.031141149 -0.26740384
-0.25332636 0.021766026 -0.033108577
0.20373873 -0.023276888 0.17323384
-0.2431116 0.064998224 0.004305393
-0.22574419 0.11050174 0.07823492
-0.012127956 0.11434848 0.33962885
0.10290983 -0.11072196 -0.25600612
0.09881548 0.032100208 -0.17313407
-0.22404632 0.110436656 0.10153481
0.12222083 -0.09095215 -0.28831238
-0.22930485 0.1069085 0.042654417
-0.21884234 0.085516885 -0.0014618943
0.27549526 0.008433095 0.094445616
0.11479387 -0.12692432 -0.073606856
0.08896086 0.051335517 -0.3182441
0.17176636 0.00024939867 -0.11831904
-0.22003955 0.09875771 -0.14211743
0.18686426 -0.12235757 0.032887224
0.056899294 -0.051742215 0.16315469
0.01506646 -0.0538301 0.13651378
0.19106528 -0.09378682 0.1454673
0.09381346 -0.031109681 0.22819296
0.25117636 0.015558783 0.098934814
0.2065327 0.029840795 0.17437479
0.17141065 -0.12290946 -0.20751768
0.21298607 -0.102051385 -0.22338657
0.056555737 -0.17280383 -0.09124046
0.11458109 -0.0747197 0.1903132
0.12070129 -0.031877708 -0.06449739
-0.19646406 0.15216163 0.19411445
0.1576289 0.0065436442 0.05017734
-0.24913716 0.03866719 0.3661072
0.021712953 0.054419953 -0.3446162
-0.07806835 -0.032310966 -0.2788963
0.09306918 -0.1464575 -0.0062326216
0.041904967 -0.105296455 -0.29521668
