# .PCD v0.7 - Point Cloud Data file format
VERSION 0.7
FIELDS x y z
SIZE 4 4 4
TYPE F F F
COUNT 1 1 1
WIDTH 1000
HEIGHT 1
VIEWPOINT 0 0 0 1 0 0 0
POINTS 1000
DATA ascii
0.041117992 0.13226642 0.27160746
0.08393509 -0.29376498 -0.23932432
0.0019485562 -0.017942393 -0.03592398
0.018709594 -0.016456291 0.16481057
-0.019117424 -0.114362694 -0.19566846
0.08585351 -0.018441569 0.21784455
-0.037935678 -0.11184539 -0.2906477
0.08624956 0.031160567 0.059570335
0.16046466 -0.15635435 -0.16592206
0.055697605 -0.023413116 -0.081705675
-0.022364736 0.04925355 -0.10073609
0.029903146 0.14399506 0.24899536
-0.094758086 -0.08470375 -0.08929283
0.09587006 0.16821536 0.24039102
-0.0019284176 -0.20900726 -0.22676788
-0.08631145 0.100469835 0.02646338
-0.051863953 0.07611055 0.21662779
0.044793252 -0.25515082 -0.2563517
0.17811449 -0.06883226 0.16541684
-0.19497196 0.18844426 0.14307491
0.053133205 0.14989893 0.1301564
-0.041848887 0.065286465 -0.103684545
0.23494618 -0.02031246 0.09646004
-0.04629312 -0.07482341 -0.002499973
-0.19699416 0.2259391 -0.009240522
0.07366829 -0.027224522 0.18439499
0.032664374 -0.22091785 -0.17024721
0.073857896 0.22298324 0.20727263
-0.044370856 -0.06885956 -0.030293658
-0.047409806 -0.04072822 -0.02256634
0.0898715 -0.096700355 -0.28314763
-0.027131142 -0.13554046 -0.13919783
-0.2409712 0.07684903 0.0042378153
0.015333203 0.016401347 0.16059564
-0.13635528 0.23849969 0.1493772
0.052800138 -0.033378623 -0.07360048
-0.09391152 0.05920099 -0.086031005
0.22186497 -0.044673514 0.10284466
-0.19928579 0.20742139 -0.0647284
-0.021272322 -0.032437216 -0.21596833
-0.16376653 0.1443587 -0.16606644
0.20269789 -0.021168934 0.16366279
-0.011679032 0.089702226 0.26959988
0.1165514 -0.027708277 0.015393275
-0.1358461 -0.021808418 -0.07652668
-0.037775315 0.108829565 0.2666447
-0.18024363 0.21763815 -0.026175937
0.015201109 -0.17299795 -0.11268544
-0.001150752 -0.12420518 -0.16597031
-0.04527475 -0.108401194 -0.16980422
-0.03986328 0.12843297 0.0796986
0.03201737 -0.28379667 -0.24071717
-0.23626563 0.12242825 0.071671315
-0.0847354 -0.11913069 -0.011747776
0.08191661 -0.03567658 0.009834
-0.026282381 -0.09596118 -0.16098735
0.03532501 -0.21672654 -0.16050105
0.116565436 -0.059014842 0.18441208
-0.13099284 0.03687785 -0.19564328
0.042449035 -0.05032682 0.12974398
0.0018585806 -0.20500125 -0.17814006
-0.16454425 0.17576575 -0.13128763
0.14922407 -0.17318738 -0.14950378
-0.032347217 0.17137389 0.11625921
-0.10528521 -0.08920607 -0.15686789
-0.17955817 -0.032138605 -0.12565124
-0.1826444 0.24892995 0.010985043
0.10803216 0.1767253 0.23291533
-0.06002346 0.020799862 -0.22895926
-0.16337818 -0.0047936104 -0.16690642
-0.044679917 0.08563637 0.24405587
0.16522321 0.14815949 0.21170524
0.051688526 -0.063450046 -0.009873986
-0.10060853 0.06170718 -0.21971501
-0.057076175 0.05323905 0.16275589
-0.10479735 0.14524268 0.23984747
0.24741656 -0.024417648 0.047223035
0.0291205 -0.25060043 -0.22299829
-0.19978298 0.047376193 0.008490384
-0.17853577 -0.017937321 0.054480836
0.077139795 0.011012722 0.052021552
0.19367489 0.009202603 0.1581249
-0.13348164 0.111114904 -0.20154984
-0.13365999 -0.07393621 -0.015486356
-0.061470058 -0.041047446 -0.20368226
0.06393503 -0.30664545 -0.24085747
-0.17687993 0.25578475 0.01551481
-0.026357971 0.13383824 0.087545134
0.12231607 -0.074420124 0.16579811
0.17101379 0.15237653 0.19892916
-0.13841686 0.051869757 0.11127256
0.04085227 0.08510412 0.16443788
0.12118978 0.046559468 0.054916736
0.10202841 -0.2205005 -0.14077578
-0.07105371 -0.11418657 -0.1470799
-0.06240019 -0.09635812 -0.175849
-0.06317437 -0.018063137 -0.02923418
-0.20648889 0.16684921 -0.0876714
-0.21346582 0.17217995 -0.06571083
0.21751067 -0.041592494 0.116819
0.1551982 -0.12461025 -0.21587196
0.07699274 -0.07470015 -0.26145577
0.10170953 0.031189866 0.26131892
0.01547171 0.19416901 0.22415516
0.080807164 -0.20063563 -0.1294424
-0.10721446 0.10948965 0.21428306
-0.08810486 -0.059264816 -0.16896836
-0.1668285 0.11693475 -0.14071922
0.06190569 -0.22239819 -0.18353651
-0.018711312 0.04593838 -0.11457196
-0.08600012 0.04785135 -0.021563873
0.036109332 -0.043949038 0.019910105
0.1721781 -0.097053036 0.1357462
-0.045719367 -0.12786534 0.02124463
0.18225005 -0.1035737 -0.13010994
-0.22733538 0.16522467 -0.02989113
0.18719521 -0.08080404 0.14174746
0.011759297 0.027666857 -0.10397337
-0.107120894 -0.07875028 -0.092419736
0.09026095 -0.09085718 -0.27320436
0.10534209 0.19461061 0.20742412
-0.17975056 0.16047044 -0.13980108
-0.012865143 0.10029644 0.2736429
-0.17898785 0.001768606 -0.043407537
0.21438628 0.08601907 0.18850522
0.2223608 0.0049449233 0.14366546
0.20583774 -0.07989341 0.100994244
0.10964512 -0.019314097 0.22945352
0.06477118 -0.048223607 0.0371163
-0.0706072 0.21249063 0.22025174
0.20926107 0.094724275 0.15750928
-0.02429153 0.005823541 -0.21491027
-0.1981558 0.048815243 -0.14115341
0.1477835 -0.17594199 -0.12375198
-0.15741707 0.22600925 0.14160186
0.15063006 -0.084558584 0.1314003
0.052471977 0.12368676 0.11230735
0.06116549 0.071423255 0.09953467
0.013021118 -0.053354274 0.0034010124
0.054719076 -0.11613517 -0.019999113
0.20306045 -0.09767585 -0.025696581
0.19394061 -0.056278728 -0.11569619
0.18058798 -0.052612115 0.17850406
-0.02878996 -0.13763437 0.023916975
0.08521728 -0.044863503 0.16862868
-0.13598478 0.26543793 0.110677846
-0.15209895 0.2105971 0.16999894
-0.14875995 0.11526859 -0.20349874
0.11642998 -0.12139682 -0.29105392
0.08044235 0.12538768 0.26111394
-0.1308695 -0.07749617 -0.13112983
0.17670186 0.14057156 0.18594854
0.13945098 -0.09676956 -0.22304544
-0.17959286 0.0068762777 -0.15762295
-0.23651652 0.084303126 -0.0835992
-0.18046437 0.22780642 0.09705507
-0.22704247 0.17041807 -0.020921543
-0.18221992 0.0015815547 0.055336617
-0.23647001 0.053223655 -0.08230346
0.0091881035 -0.074276134 -0.22636625
0.08501923 -0.017152648 0.16356698
-0.044019435 0.016196527 -0.048481006
-0.054720923 0.078609556 -0.08893222
-0.18084717 -0.029617582 -0.096987754
-0.062517054 0.013284277 0.20035194
0.13767618 -0.16038081 -0.12218334
0.004380304 -0.16527624 -0.11863077
-0.10956431 0.054722816 0.09555357
0.117625594 -0.014051475 0.074036494
0.13498071 -0.1917958 -0.23652558
0.07165398 -0.21212326 -0.11760237
0.21923071 -0.06465253 0.07630759
-0.06265104 0.10603333 0.25138605
-0.06368172 0.23725949 0.17598405
-0.046347044 0.03126994 -0.2179701
-0.21325278 0.12192485 -0.06584238
-0.14790346 0.16630507 0.20802574
-0.2229833 0.16197751 -0.05235372
-0.10256256 0.14937314 -0.043041386
0.008035054 -0.0015693444 -0.23065107
-0.14805284 -0.044187568 -0.16352479
0.022246402 -0.010213081 0.15969166
0.06901937 -0.080933884 0.03818278
0.018123668 -0.07919762 0.17057213
0.059250634 -0.20503955 -0.11528993
0.08645724 0.15065844 0.25023362
-0.16997157 0.004640998 -0.037185155
-0.08649196 -0.002854675 0.1800694
-0.07775063 0.12801793 0.008273255
-0.14585309 0.045461234 0.057532176
-0.17562297 0.01806177 0.059305433
0.05792855 -0.008044524 0.17784084
-0.00861282 -0.24928565 -0.24277441
-0.11577271 0.08262691 -0.21299809
0.003004775 -0.13902736 0.048438538
0.06869457 0.12741919 0.26534674
0.0755312 0.06580518 0.09085248
0.21858013 0.092515506 0.15365602
0.11982503 -0.015321112 0.06505757
-0.117212236 -0.085951075 0.011030361
-0.0062167183 -0.094828814 -0.26985765
-0.20692381 0.13451523 -0.10850806
0.09938596 -0.17008695 -0.017627504
0.15227649 0.1253772 0.22422527
-0.0776262 0.10737218 -0.031817462
-0.024809618 -0.040047903 -0.21162458
-0.22389862 0.028176477 -0.0999967
-0.06349957 0.08201665 0.21442486
-0.08015547 0.11251737 -0.06500596
-0.07691715 0.09987133 0.07116433
0.1398112 0.14089619 0.22883645
0.052647922 -0.16976342 -0.06501005
0.1635846 -0.13804968 0.05824561
0.052493848 0.0105343675 -0.069916785
-0.10979306 0.23344807 0.18028925
-0.013843569 0.26352173 0.17702878
0.10125547 0.086117476 0.24309815
-0.20327598 0.038280636 -0.1365197
-0.18185894 0.05126448 -0.1569108
-0.078192584 0.102010176 0.23360053
0.0731256 -0.02858048 -0.065108605
-0.13976894 -0.06828731 -0.01345601
0.18709156 -0.10937393 0.09518785
-0.036025673 -0.11276975 -0.14084493
-0.16814907 -0.026320698 0.01319555
-0.20037295 0.18518436 0.078443035
-0.16405535 0.029525958 -0.17173474
-0.016112722 -0.213178 -0.21353932
0.14732961 -0.14085226 0.06069975
-0.16740896 0.014882806 -0.16672684
0.18456966 -0.1017322 -0.12036168
0.19087774 -0.023613792 0.14689381
0.031585474 0.035191588 0.12276945
-0.17787506 -0.033991687 -0.12569143
-0.010383112 -0.22742009 -0.22808473
-0.021232836 -0.14876373 -0.24711087
0.05717008 0.20476076 0.21386045
-0.0045763166 -0.1936438 -0.17005095
0.033957478 -0.10553948 -0.013079471
0.046431564 -0.2765559 -0.24801883
-0.15325662 0.017539013 0.13999894
-0.16457424 0.16886501 0.19248661
0.0030478875 -0.04481649 -0.3177193
-0.07676337 0.15163803 0.01560212
-0.0634551 0.10253981 0.08601176
-0.09618483 0.11785362 0.23460756
-0.0380697 -0.031655736 -0.19407146
0.13488397 -0.11278565 0.11372105
0.14031295 0.027515668 0.24459781
0.15542729 -0.08385728 0.13138881
0.12293748 0.17129399 0.2276408
0.029203013 -0.12181284 0.092296265
-0.24436665 0.067787245 -0.028899541
0.050960287 -0.26380903 -0.23708458
-0.106761195 0.15861753 -0.013634629
0.1399053 -0.16917107 -0.016578753
0.25132373 -0.025485968 0.015027394
0.019724209 0.09043132 0.27874193
-0.06562167 0.089848 -0.09022973
-0.14952494 0.0979523 0.14021212
0.11466719 -0.076891 -0.22367293
-0.025391495 -0.13159357 -0.2862642
-0.024104523 0.086564645 0.26175776
-0.14410712 0.0023721922 -0.18106237
-0.0037419032 0.10947544 0.10619168
0.17784138 -0.13019477 -0.11970777
-0.006195999 -0.13794734 -0.1743272
0.06010904 -0.06861654 -0.026938949
-0.055955302 0.25800464 0.18599267
0.08003522 -0.007368709 0.22861727
-0.08071801 0.121407315 -0.026953954
0.12633094 -0.15771869 0.01949409
-0.22960335 0.08474907 0.038340792
-0.08048602 0.028934928 0.19055675
-0.005015634 -0.14061473 0.045158513
0.039228987 0.031034537 0.11686814
-0.15844345 0.1247347 -0.18419269
0.13916703 -0.07111323 0.1486302
0.0046504927 -0.08391908 -0.27233112
0.11659654 0.05761694 0.06890713
-0.22455376 0.12299568 0.09575957
-0.24846828 0.14116605 0.026815157
0.13154857 -0.18173176 -0.04747666
0.15257105 -0.13707072 0.068017796
-0.15835719 0.124685265 -0.17723778
0.0413016 -0.056759648 0.1327773
0.020478573 -0.058521092 0.020119606
-0.06360002 0.021055307 0.19561563
-0.19333239 0.17956863 -0.10566945
0.23675688 -0.018060142 0.09439449
0.14801683 0.05474634 0.23676294
-0.17725724 0.16911243 0.15077455
-0.06032578 0.027035262 0.155089
-0.057943597 -0.12414202 -0.12408636
0.08846707 0.0006931321 -0.072838016
-0.0055377404 0.26343712 0.18600686
0.13934502 -0.049086303 0.17824616
0.14276889 -0.18073602 -0.30353677
0.081076 -0.06354779 -0.23834513
0.1342848 0.068038635 0.08599399
-0.10497682 0.008122344 0.1776563
-0.22075172 0.06026317 0.009500792
-0.15994452 0.003633391 -0.17043623
0.1318969 0.040072642 0.046626832
-0.013910127 -0.054950465 0.17489804
0.040392745 -0.07954535 0.04264322
-0.07985814 0.079172686 -0.09858964
0.07342196 0.017233143 0.2521058
-0.019817641 -0.16322103 -0.16734144
-0.052128606 0.18394539 0.07201161
-0.12728868 0.117264315 -0.18301189
-0.0018774841 -0.23420201 -0.25100964
-0.0673258 0.098500706 0.23943909
0.12081759 -0.0810625 0.1540892
0.23586887 0.05662385 0.14458992
0.0002512128 -0.26035535 -0.24086633
0.09401476 -0.06368165 0.14798938
0.15722327 -0.068801574 -0.15942958
-0.019056663 -0.2052319 -0.20695618
0.14486626 -0.1679021 -0.019049136
-0.12256158 -0.04910537 -0.07150427
-0.10927436 0.23646504 0.17727527
0.09239612 -0.29424566 -0.24593638
0.12837669 -0.20098391 -0.2546726
-0.095513225 0.09057624 0.18266088
-0.13915436 0.11268078 0.033227257
0.016802091 -0.08168519 0.097752854
-0.17538078 0.21869445 0.1261184
0.10222913 -0.20893711 -0.24976589
0.023654964 -0.08374993 -0.32067525
-0.020585902 0.16012892 0.26445234
-0.0518661 0.26066926 0.15958884
0.19878317 -0.058145743 -0.05698376
-0.1899987 0.140564 -0.09800031
0.032905646 -0.031408798 0.149883
-0.13025607 -0.045941476 -0.17560963
-0.16511561 0.26970366 0.025772672
0.0081356345 0.0036018214 -0.21878117
-0.04107815 -0.1984097 -0.23867506
-0.19375321 0.20221841 -0.084453516
0.0032908176 -0.07846424 -0.31675476
0.13193832 -0.18997309 -0.28428143
0.0148283895 0.1650891 0.11678705
0.02670236 -0.25190365 -0.22755486
0.105598055 -0.18080904 -0.3052068
0.018303076 -0.12571958 0.09500926
0.10098931 0.18995678 0.23418227
0.009326142 -0.015035734 0.1756235
0.042578313 -0.19683497 -0.15794453
-0.018934557 -0.20979299 -0.21329562
-0.06629592 0.0067200703 0.1679085
0.17089178 -0.14373451 -0.06250019
0.23152073 -0.025941188 -0.0019063973
-0.03540711 0.101713926 0.26481956
0.08351405 0.0040615774 -0.0655772
0.12555252 -0.18570347 -0.055385895
-0.06878697 0.08151793 0.10669404
0.22038594 -0.05759635 -0.07379155
0.1870467 -0.073711 -0.10574845
0.04795649 -0.049435295 -0.0601871
-0.14092395 0.21779272 0.17159922
-0.22871263 0.04376675 -0.029854259
-0.025397379 -0.2296288 -0.24585064
-0.18447764 0.07140375 -0.15359168
0.072152406 0.14676017 0.25633848
0.17613587 0.082043044 0.21217561
0.1290541 0.048456296 0.25170416
-0.15204145 0.101152696 -0.18850608
-0.124006286 0.07791743 0.06480484
-0.1974633 0.17408401 0.11355922
0.2091829 -0.04609318 0.13226932
-0.070888475 0.012442203 -0.06450915
0.19499055 -0.10891746 -0.047311738
0.074019246 -0.03465992 0.057924945
-0.13458787 0.15817818 0.21970329
0.087173 -0.06968953 0.11283892
0.124085724 -0.22454737 -0.29271442
-0.014548227 0.2398085 0.1904113
0.080826946 -0.2333085 -0.22432828
-0.0015991481 -0.11799882 -0.23729455
-0.027380226 -0.12716916 -0.21835603
-0.21659322 0.1602491 0.07792128
-0.15946192 -0.048548296 -0.10174312
0.038784314 -0.22066377 -0.16311574
-0.009743166 0.04041586 -0.11004867
-0.04042898 -0.23400964 -0.23954329
0.0025692594 -0.13060476 0.032947727
0.12234773 -0.07478889 0.12835775
-0.040140364 -0.116824694 -0.0811157
-0.14916708 0.010485087 0.13300061
-0.0060208743 -0.2466189 -0.24465019
-0.11650248 0.12480307 -0.03634067
0.08053187 -0.24119028 -0.27281004
0.058219306 0.23267554 0.21847023
-0.16817312 0.005141751 0.103438646
-0.091410756 0.108713366 0.22947323
0.02137649 0.02201959 -0.08564285
0.16332746 -0.0901075 -0.1731782
-0.069426954 0.27681646 0.13767071
0.05775231 -0.13582495 -0.0053303037
-0.21710083 0.19483493 0.059282966
-0.012438277 -0.25053886 -0.22827962
0.14469118 0.10517899 0.23278192
-0.18252993 0.11753654 0.10692364
0.23160067 -0.03784622 0.08303075
-0.1678374 0.24367803 -0.024308205
0.03877204 0.17852016 0.2495708
0.079487786 0.12396077 0.12131568
0.10242845 -0.11091948 -0.29252037
0.0023610834 -0.08748799 -0.165638
0.03547439 -0.111841224 0.10173157
0.00518524 -0.07869187 -0.22637138
-0.0016325988 -0.18170312 -0.14960846
-0.02420873 -0.07876567 0.006403027
-0.20062174 0.0145232305 -0.13695474
-0.07800389 -0.051468004 -0.19445688
0.07524747 -0.25331783 -0.21875925
-0.109663725 -0.06663525 -0.11301776
-0.15260242 -0.046101596 0.037080146
0.05225099 5.4305816e-05 0.20585006
-0.076030344 0.05830224 -0.21224459
0.22205113 -0.06929397 0.044991527
0.123431236 -0.20848998 -0.24347973
0.053991 0.16958113 0.25147548
0.18017821 0.067780115 0.1858923
-0.13435215 0.028445797 0.06826851
-0.1819473 -0.016823834 -0.14438099
-0.033808887 0.21908051 0.22424336
0.029285442 -0.06286003 0.08769463
-0.21468179 0.068694614 0.029893667
-0.19003305 0.13759935 0.15635122
0.059422635 -0.28941652 -0.23533301
0.10082272 -0.23611872 -0.2033526
0.23125502 0.009634299 0.08757327
0.1671998 -0.13234097 -0.1782025
-0.13139023 0.27830476 0.0966426
0.20712718 -0.090776645 0.061581574
-0.07025956 -0.111419335 -0.10526666
0.11835842 -0.09110904 -0.24277486
-0.18245135 -0.0017198465 0.07659268
0.05439885 -0.029629204 -0.2204325
0.2066417 -0.08742059 -0.031975538
0.19051115 -0.11654872 -0.0042100307
0.062133595 0.118991695 0.11206008
0.12982863 0.026714329 0.25010273
0.10504058 -0.061075054 -0.2084833
-0.24829488 0.1387149 0.031586207
-0.2149786 0.11867803 0.06862736
0.07943536 -0.034834426 0.1140239
0.09883365 -0.14850312 -0.31649786
-0.036239333 -0.18046772 -0.21917923
0.039308105 0.13670059 0.27032164
0.21563856 0.03829182 0.13631794
-0.18320201 0.12979856 0.12521273
-0.06423372 0.12962832 0.049835265
0.1665647 -0.15061219 -0.040415984
0.06583073 -0.19282514 -0.08809614
0.20310864 -0.08072405 0.10774729
0.19121063 -0.11524012 -0.015567835
-0.21493267 0.13715038 -0.048496246
0.11142884 -0.052090134 -0.18953422
-0.18788221 0.0032735353 -0.04769851
-0.23829852 0.11166167 0.05799814
0.15658547 -0.12280374 -0.21131063
0.22013077 -0.067972235 0.06287638
0.22907177 0.07605172 0.15870765
0.12125352 -0.21156298 -0.24776262
0.082614824 0.03055657 0.2625594
-0.22427513 0.06475533 -0.10823003
0.15479976 -0.07720725 0.14098772
0.042088423 -0.057022583 -0.23759009
-0.008918317 -0.13008817 -0.29070938
0.26480705 -0.012365251 0.06743638
-0.18747179 0.03217744 -0.008378067
0.036346763 -0.10972321 0.1049546
0.018280854 -0.119195394 0.10560943
-0.052866455 -0.121498376 -0.2734505
-0.066614 -0.014494709 -0.19385952
-0.104743555 -0.09505046 -0.12126015
-0.015338807 0.10804523 0.104972124
0.10332587 -0.2032391 -0.15314955
-0.024720304 -0.08310987 -0.017234547
-0.24155916 0.10478922 0.04214743
0.1247347 -0.11805072 0.09749947
0.06495931 -0.047596853 -0.049604453
-0.018731996 -0.11767154 -0.29399756
0.14929368 -0.1138693 0.11628699
-0.08509096 0.0044790674 0.19354971
0.17079487 0.05350813 0.21721813
0.20764923 0.028030664 0.14449629
0.107284114 -0.0903132 -0.25363395
0.09701802 -0.018207975 0.22625354
0.02159772 0.017494533 -0.07186305
-0.16268139 0.24750355 0.09659733
0.18502223 -0.08554994 0.13875489
0.065381095 -0.09596289 -0.0006689013
0.21805857 -0.07195626 -0.024481805
-0.0038916338 0.19277391 0.24482955
-0.11925593 -0.0645186 -0.023711288
-0.08198158 -0.06627107 -0.003551555
0.17758873 -0.082750104 0.15008377
-0.22063825 0.12720528 -0.089107
0.0643551 -0.0855949 -0.33210382
-0.12967858 0.2296923 0.16717331
0.23569068 -0.027458388 -0.022937933
-0.12802485 0.007183371 -0.17151186
-0.19968452 0.07032815 -0.13703167
0.049014222 -0.24568188 -0.26151913
-0.15696442 0.156808 0.19986027
-0.056694802 0.097259365 0.24769342
-0.003664254 0.06562159 0.25535098
-0.1330407 0.053819455 0.022056296
0.122976325 -0.08781753 0.10783114
-0.15999193 0.15949993 -0.15277918
0.086682744 -0.17901313 -0.04406814
0.13541299 -0.004146146 0.21609657
-0.12320099 0.13697417 0.013546128
0.22391275 -0.068470456 0.02393822
-0.13165659 0.14018054 0.2185928
0.06401043 -0.02657309 -0.20993093
0.21783313 0.0985129 0.16260262
-0.20515119 0.2188156 -0.07492398
-0.107243516 -0.06904655 -0.14947343
-0.04596954 -0.114368126 -0.083412655
0.10329131 -0.070123345 -0.22513802
0.12019321 0.19741648 0.22104672
-0.16657256 0.12726913 0.17517494
-0.020266244 -0.08084773 -0.18998526
0.01933307 -0.10086257 -0.31232655
-0.034558248 0.058589783 -0.10813399
-0.00538127 0.22528632 0.20255853
-0.20151637 0.20576079 -0.04875222
0.12396611 -0.11523347 -0.27139288
-0.15086913 -0.039086647 0.03998701
-0.16899353 0.23519205 0.035787486
0.13668767 -0.19021367 -0.20044057
0.21477571 0.09157202 0.19413625
0.16055414 -0.1236661 0.095333636
-0.17848499 0.09681684 0.069431685
-0.22731599 0.12101251 0.04687401
0.10638812 0.06611235 0.24442178
-0.06587655 0.24870767 0.16401444
0.07460425 -0.00800822 0.2225028
0.003048402 -0.10343007 0.10545973
-0.008489674 0.051965423 0.22608101
0.058371548 0.22989239 0.21994124
0.06619066 -0.040526908 -0.05702352
-0.04382346 0.070199646 0.12715274
-0.13665779 -0.007575307 -0.18325841
-0.01746552 -0.25463033 -0.23792024
-0.19174854 0.23544258 0.018461505
0.1408279 -0.016196843 0.22846857
-0.029901812 0.014704657 -0.053247176
-0.057056624 0.15589054 0.052980844
-0.023276543 -0.19595738 -0.20278838
0.24635044 0.019238904 0.064807355
0.015341383 0.0005935235 -0.21911028
-0.06364464 -0.013979047 -0.21421085
0.1706518 -0.11490441 -0.015639534
0.02836055 -0.23939379 -0.25400293
-0.02987469 0.14358206 0.082963176
-0.19085725 0.084361486 0.077529006
-0.033892807 -0.117140375 -0.12403972
-0.12517828 0.18149568 0.21958306
0.10559082 -0.23602687 -0.28244337
0.12286311 0.19297725 0.21219683
0.18036932 -0.12884119 -0.1040769
-0.1239352 0.2603647 0.13334267
-0.09531715 -0.06177806 -0.18502174
-0.2448096 0.15189008 0.031358726
0.19725505 -0.09570229 0.10099152
-0.05671274 0.12661801 0.06427975
-0.042587664 0.14017028 0.13901031
-0.08767465 0.007773871 -0.046804667
-0.0062757754 0.10941337 0.16528937
-0.03984457 -0.023662526 -0.21699592
0.15417448 -0.16638638 -0.1324841
0.16278644 -0.11314997 -0.19001555
0.15142205 0.13504085 0.22307873
0.08418038 -0.07350009 -0.25161293
0.12167568 -0.019469608 0.042586327
0.08637886 -0.0030562875 0.20569322
-0.10457382 0.2465048 0.16952638
0.21604115 -0.067678265 0.084124126
0.14550377 -0.082925126 0.16309308
-0.15197814 0.042962577 0.085216194
-0.00938514 0.08195457 0.2664405
-0.011881833 -0.14453599 -0.11769392
-0.03216162 -0.07218106 -0.17395316
-0.14139788 0.149948 0.2130855
0.039156083 -0.04734015 0.08279689
0.15769216 -0.1078433 0.090076536
-0.13457483 0.11862673 0.0152899055
0.079991125 0.18137132 0.23972328
0.091798924 -0.22372727 -0.21604869
-0.197879 0.011365048 -0.045023374
0.050570376 -0.024314048 0.12592724
0.20487404 -0.00787535 0.16613387
0.17503715 0.10687603 0.18871418
-0.11429471 -0.08120313 -0.15953648
-0.16250917 0.03778323 0.08993332
0.09666094 -0.10241944 -0.28500873
0.2536709 0.005138446 0.0498794
-0.08280395 0.24960266 0.15245053
-0.15363738 0.28907934 0.07361175
0.037701327 -0.22971869 -0.21684775
-0.040642317 -0.121396564 -0.15879133
-0.10738678 -0.0921382 -0.14542697
0.055654246 0.023409102 0.10071669
-0.09930984 0.10922756 0.22220482
0.051651955 -0.055808198 -0.23744704
0.001429457 0.0040025716 -0.22882785
-0.17809063 0.1266323 0.16138136
-0.0417332 -0.11195177 -0.07613715
0.063666776 -0.10357962 -0.32448408
0.10696372 0.06421792 0.26407635
-0.14717416 0.04459733 0.060056258
0.07519464 -0.3098544 -0.23007427
-0.16252314 0.13215719 0.1522197
0.011688314 0.07288676 0.12203043
-0.09314624 0.1587285 0.24647847
-0.07475765 -0.0050827404 0.18932068
0.11034259 -0.17534228 -0.023605471
0.09932882 -0.21931955 -0.2874548
0.1666056 -0.14144146 -0.16979389
0.096030466 0.14055143 0.24939045
0.025776286 -0.08994821 -0.3187554
-0.06367011 0.06630092 -0.048301343
0.011530351 -0.074436314 -0.24930076
0.11555847 -0.09890272 0.11943468
0.13924901 -0.17362508 -0.029471643
-0.01012047 -0.06695867 -0.19853199
0.017274614 -0.24224633 -0.2534296
0.11147585 -0.05900544 0.14101622
-0.027680563 -0.109004624 -0.29489014
-0.16793172 -0.03815923 -0.14564407
-0.06921362 0.13778897 0.033988256
-0.046944644 0.0045305896 -0.04356419
-0.033840302 -0.101483114 -0.1773363
0.12001736 -0.20642506 -0.119952336
0.0784728 0.21843377 0.2049297
-0.10958486 0.0003400568 -0.0021430785
-0.18539654 0.09173887 0.09682306
0.105784126 -0.1928807 -0.11638827
-0.0290203 -0.15762736 -0.18890569
-0.1417836 -0.055978775 -0.15980522
-0.025211586 -0.057111427 -0.011921534
0.11977122 0.15894501 0.21343206
0.038456127 -0.26240855 -0.25146225
0.10091006 0.080583215 0.26489043
0.016166318 -0.030391188 0.17736433
-0.12716676 0.2170259 0.18525071
-0.045730952 -0.14993885 -0.2726102
-0.20498939 0.116966955 0.117606565
-0.08017109 0.25936133 0.14347222
0.04170403 -0.19261454 -0.11423429
-0.0856026 0.121003896 0.24474935
-0.042579435 -0.20775759 -0.24972054
-0.1421351 0.042976033 -0.013648859
0.0033003134 -0.13852157 -0.0682969
0.14300993 -0.16132031 -0.2608394
0.013518647 -0.07942052 0.16515455
-0.22186975 0.049740374 -0.008929656
0.006259919 -0.11264029 -0.064294
0.13898145 -0.18629497 -0.22294009
-0.025625192 0.04690371 0.1644893
-0.06797052 0.26672974 0.17140785
-0.01380319 0.20689225 0.23581849
-0.11964095 0.08535255 -0.21070503
-0.16103633 -0.04084019 -0.08960016
0.072998784 -0.029376978 0.17224841
0.036854133 0.23707059 0.19788463
0.1428663 -0.18346407 -0.110305704
-0.17155948 0.015746828 -0.025938284
-0.15399961 -0.06315669 0.007773193
0.09385034 -0.10678436 -0.31937012
0.09410976 0.14008932 0.25018728
0.07646854 0.13463588 0.13014783
0.11048389 -0.19729069 -0.1476076
-0.18139711 0.20894611 0.1329174
-0.19020759 0.19842248 0.1359828
-0.22810349 0.14612025 0.10109709
0.19453356 -0.11124363 0.01839222
0.115509726 -0.22429046 -0.27741894
-0.17055748 0.12579045 -0.13341223
0.14839098 -0.17612581 -0.08132566
-0.18761219 0.17197512 0.16533366
0.11271358 0.040947422 0.24208973
-0.17954396 0.16044681 0.17691459
-0.15822169 -0.010887347 0.07743957
-0.089762434 -0.09899505 -0.10607478
0.13004267 -0.053755224 -0.17784801
-0.21016166 0.18006915 0.12369094
-0.023932703 0.062943794 0.22856745
0.04484906 -0.19992091 -0.1604778
0.16549785 0.11845618 0.19539087
-0.10961791 -0.069634005 -0.08294517
0.13840492 0.023311 0.24525274
0.048768107 -0.12810192 -0.039220843
0.02926399 -0.07145362 -0.31459066
0.0069831125 -0.07958394 -0.25952733
-0.1567951 0.074504204 -0.17982425
0.10462098 -0.20468049 -0.27997613
-0.02896281 -0.005297743 0.20113769
0.15751012 -0.13214913 -0.0929363
0.032161657 -0.07365032 -0.32738584
-0.08014251 0.08615745 0.17975391
-0.21418937 0.14434007 -0.08973192
0.13917571 0.0064283907 0.2398154
-0.2050673 0.013713738 -0.049088396
-0.005448434 -0.059061654 -0.18367405
-0.118865885 0.08795763 -0.1888108
0.0630926 -0.08916845 -0.31741974
0.13333349 -0.0024428568 0.23832616
0.1153263 -0.0008685621 -0.047511976
0.07847505 -0.096888065 -0.29596195
-0.21321756 0.13551077 -0.09724306
0.21908936 -0.04683323 0.107889324
-0.107667334 0.06081971 -0.19364801
-0.08141817 0.09372874 0.21663311
-0.17156436 0.20644516 0.10828524
0.22701348 -0.050978813 -0.06047557
-0.11710158 -0.08947275 0.0054169856
0.1444663 -0.17253684 -0.24321207
0.07335964 0.10219549 0.10535594
-0.19446476 0.06397592 0.038004063
-0.13425247 0.17471936 0.21743406
-0.13945214 0.04509876 0.14469515
-0.20930478 0.13882656 -0.10222743
-0.12829545 0.2392036 0.1568197
-0.075671956 0.092301406 0.22091278
0.23161948 -0.018781265 0.045133177
-0.03908415 -0.017890066 0.17347029
-0.11646739 0.10148911 -0.19947614
0.14695092 -0.14505383 0.048518326
-0.01826514 -0.021891303 0.2014638
0.20464799 0.0018325744 0.17015864
0.18221824 -0.0743336 -0.11807096
0.18515627 -0.12527144 0.031478897
-0.2384043 0.06342917 -0.08077533
-0.08400595 -0.083426796 -0.17727463
0.14050777 -0.10089221 0.13600518
0.09395263 0.18877873 0.23248857
-0.01774815 -0.05421287 -0.0378951
-0.19987726 0.16007026 0.15127838
-0.07966542 0.24066809 0.19077909
-0.041892376 -0.107894205 -0.27825868
-0.07210049 0.09047847 0.1274756
0.071157485 -0.14552854 -0.005228157
-0.0039605587 -0.12279224 -0.05471903
0.014928834 0.009610259 -0.058214936
0.021216512 -0.0742311 0.053678323
-0.013556098 0.030012807 0.14703447
0.1005829 -0.04838814 0.13797626
0.13583748 0.04155634 0.24739087
-0.07369004 0.27257296 0.16182438
0.0124880755 0.12834077 0.27747557
0.06281088 0.117127724 0.2713511
0.14447053 -0.14192212 -0.25322872
-0.21860573 0.1560961 0.075667635
0.11790697 -0.16807805 -0.0056707733
0.1973822 -0.036953937 0.122638114
0.033562627 0.13349196 0.2730483
-0.15332276 0.023650747 -0.020945674
0.18172637 0.020170966 0.20341033
-0.16710526 0.2547049 0.0701741
0.2266865 -0.031161016 -0.025920412
0.0023977011 -0.09103732 -0.31130454
0.09847288 -0.20628765 -0.15339786
-0.10979717 0.24299644 0.16918015
0.020331461 -0.13501707 -0.044806197
-0.1534998 0.19372757 0.18927608
-0.073904306 0.10399224 -0.05748487
0.0046188375 0.16678497 0.24059145
-0.14347707 0.12885366 -0.18455938
-0.03168932 -0.17490749 -0.20446046
0.23148836 -0.051399454 0.051696084
-0.21617141 0.117051944 -0.101811856
0.13553666 0.14448576 0.20971373
0.03854406 0.11659577 0.2773521
0.14427932 -0.18168448 -0.09904121
0.19366886 -0.08313225 -0.092789434
0.2408947 0.053954273 0.13702676
-0.18167561 0.0067420355 -0.038473714
-0.04904099 -0.22306968 -0.24147364
0.017786412 0.077335544 0.11837035
0.06623503 0.139405 0.2611426
-0.07937115 -0.0088702645 0.17808868
-0.0942904 0.1725385 0.043284673
0.2122592 0.042916648 0.17202654
0.16423933 -0.09943816 0.1022929
0.07937484 -0.019122375 0.20963988
0.01177607 -0.17210418 -0.11630705
-0.22213124 0.18155795 -0.016048832
0.030013042 -0.09247412 -0.31898323
0.0980628 0.16577026 0.22060129
-0.17917767 0.1340575 0.1676292
0.1831769 -0.07019651 -0.06728248
0.12738468 0.14656179 0.23331036
-0.1354755 0.024324967 0.17056641
-0.1335986 0.2264767 0.16756298
-0.14841911 0.24843489 0.119653344
-0.19208005 0.10572986 -0.13950883
-0.14006715 0.24010952 0.14242116
-0.18869634 0.13348895 0.15524077
0.012411661 0.013210778 -0.06271729
0.103201285 -0.20883134 -0.1976985
-0.15324776 0.0802008 0.007373061
-0.16526154 0.26303238 0.051204514
-0.021310188 -0.1799912 -0.22811794
0.028523885 -0.074949145 -0.28088105
-0.14937213 0.10010678 -0.19106673
0.013114341 -0.23484185 -0.21438034
0.2209466 -0.041928656 0.0037423274
-0.028679667 -0.132256 -0.20838527
-0.028767481 -0.13677545 -0.13050623
-0.23444714 0.15439115 -0.023817865
-0.022581551 -0.03327423 0.20067905
0.15043424 -0.1616965 -0.22772197
-0.038351636 -0.08657586 -0.06005423
0.13875169 -0.18649882 -0.092013925
-0.06333129 0.19109678 0.06788933
0.15225476 -0.16810544 -0.17545277
-0.009887842 0.16270423 0.2628429
0.10519812 -0.19744372 -0.29823017
0.24073881 -0.033372153 0.056162104
-0.16949081 0.26462775 0.021384282
0.19208914 -0.11306759 -0.050793517
0.103301756 -0.03974786 0.20172207
0.22382812 0.070713855 0.1642011
0.1082036 -0.17976463 -0.079279676
0.20115122 -0.05775863 0.08519284
0.013991542 -0.05275019 0.18233849
0.02190133 -0.2357033 -0.2488958
0.13281582 -0.019910073 0.22801737
-0.08514564 0.1422099 -0.015390441
-0.17641316 0.20390874 -0.07377951
-0.25028977 0.09908425 0.0037184474
-0.04702166 -0.05271879 -0.18214099
-0.15467179 0.25883386 0.01482275
-0.071795635 -0.055383433 -0.19470236
-0.043472473 -0.13677981 0.009194122
0.10142089 -0.24936786 -0.27569538
0.0420263 0.04979168 0.1763127
-0.19431296 0.22316076 0.06580831
0.19329071 0.113801435 0.1730238
0.077192254 0.15904358 0.24976555
0.16997215 0.02182103 0.21687536
-0.20902269 0.18153259 0.12460906
0.050194696 0.009693523 -0.06291272
0.124723986 0.044677988 0.05274096
0.11453396 -0.12228133 0.08023893
-0.06519542 -0.1157944 -0.107420556
-0.16447176 0.017487215 0.045020554
-0.16432427 -0.04579303 -0.13840635
0.24463461 -0.028539546 -0.014881888
0.23650558 -0.013362573 0.033046022
0.04930358 0.10634006 0.27789596
-0.11611572 0.04314054 0.16644464
-0.24824597 0.09547799 -0.05083232
-0.07562827 -0.09612472 -0.08700402
0.1867926 -0.03664305 0.1809558
-0.07023574 0.010146343 0.1653532
0.101248115 -0.2305412 -0.17549412
-0.10375033 0.06276311 0.016199522
0.19049224 0.03831576 0.1961551
-0.030365696 -0.17809847 -0.20289251
-0.1370246 0.1413961 0.1895171
0.18001567 0.13412826 0.20417592
0.21551284 0.10846117 0.18267155
-0.053977095 -0.046572816 -0.041300576
0.12468313 0.11137602 0.24423072
-0.24951097 0.08344599 -0.028474467
0.0781892 -0.027993944 0.19242056
0.04456102 -0.18345217 -0.09617782
0.04225436 -0.051683377 0.13042727
0.025929723 -0.09676231 0.15053606
0.04704939 0.15191963 0.1276346
0.09411182 0.04746069 0.13676332
0.16900323 -0.14442052 -0.14459142
-0.081173725 0.015877606 0.1599984
0.06813186 -0.26812592 -0.24515998
0.22053911 -0.038530976 -0.03444199
-0.11216839 0.02710365 -0.047099818
-0.036679305 0.0910689 0.25723678
0.25456864 -0.018120978 0.060399637
-0.118788324 0.102971904 -0.19960907
-0.11467251 0.12170946 0.22190617
-0.2150097 0.06498534 0.023493094
-0.023719583 -0.13941966 -0.12667182
-0.048918292 0.016571088 -0.21196496
0.21372211 -0.02122165 0.09947647
0.15086937 -0.16768903 -0.038934123
0.024588527 0.13998657 0.27111685
0.07898393 -0.19858544 -0.086546384
0.15747616 0.011496044 0.227833
-0.13188273 -0.018444095 -0.1838719
-0.009074754 -0.09935602 -0.2055436
-0.04560859 -0.06291047 -0.17773733
0.124038205 -0.2088557 -0.19386598
0.13943388 -0.20938113 -0.29073012
-0.10967851 0.019554613 -0.20522955
0.08159386 -0.059768263 -0.011132247
0.09310681 -0.087077305 -0.26392543
0.17629372 0.14489935 0.19254842
0.018863743 0.08671443 0.27779186
0.07043306 -0.1184558 -0.30211392
-0.21631959 0.16695833 0.12182887
-0.07079039 0.14305718 0.25872168
-0.022057204 0.061919164 0.15640393
0.1875595 -0.12140051 0.051192187
-0.03726196 0.16522981 0.07655471
0.030342804 -0.10588646 0.1348902
0.16611744 -0.058677398 -0.14805345
-0.13607608 0.03468121 0.16131113
0.10138292 0.11173537 0.120698854
0.09528518 -0.2467934 -0.23992026
-0.019039141 -0.1464201 -0.15652059
0.037221696 -0.0063863886 0.11695872
-0.030113185 -0.007212832 0.16635613
-0.060585376 0.011571759 0.16505148
-0.12033985 -0.036024105 -0.18419866
0.011207815 0.0029257655 -0.21984896
-0.22569998 0.13412936 0.059538487
-0.009253183 -0.1394038 0.031302862
0.16352032 -0.12672572 -0.19297682
0.09025185 0.1833216 0.21659705
-0.08576834 -0.06885846 -0.027481535
0.04496819 -0.21990654 -0.15509571
0.0021473104 -0.05160762 -0.32748327
-0.018946255 -0.21152635 -0.21578665
-0.08322575 0.17159683 0.07202137
0.078662895 -0.036870055 -0.049205948
0.19931352 -0.094839476 -0.065757655
-0.078896895 -0.0125229 -0.2090552
0.008760146 -0.118558735 -0.040634822
0.0011888422 0.008421312 0.14693636
-0.16026159 -0.028895013 -0.16166721
0.23913158 -0.009259403 0.099042945
0.14006047 -0.18254335 -0.24642864
0.0611138 -0.014555327 0.014044799
-0.012368185 -0.13543443 -0.22253227
-0.068263106 0.08267395 0.20783532
-0.19694228 0.22472695 -0.014997912
-0.16464736 0.09958573 0.13155629
0.11284896 0.08000238 0.092379786
0.17250374 -0.109528065 -0.16196433
-0.0892299 -0.022898529 -0.038482394
0.11465128 0.10944946 0.25047943
-0.10596946 0.018781682 0.19282542
0.012148173 0.23069188 0.22143242
-0.0061276057 0.006813664 -0.2325441
-0.21887623 0.030692002 -0.037622567
-0.01402827 0.07964052 0.26233536
0.13088326 -0.18933034 -0.074794725
0.11447301 -0.11053328 -0.32582906
-0.14173907 -0.04708863 -0.16758172
0.11441188 0.017827073 0.25335398
-0.22379093 0.061967444 0.008940152
0.07100875 0.17376363 0.2263002
0.09004955 -0.03570178 -0.19621651
-0.1001992 0.014916456 0.19396412
-0.0833097 0.12795138 -0.03158227
0.022992713 0.16111897 0.11940885
0.041530352 0.15418454 0.26122463
-0.09703781 0.2827518 0.13176657
-0.13863058 -0.069770455 -0.117461964
-0.036359757 0.030644093 0.17596672
0.16630217 -0.09625203 0.13984378
-0.012760166 -0.0010057377 -0.23295768
-0.10221128 0.09246314 0.16196327
-0.1907472 0.031450346 -0.14865075
0.13141932 0.047671992 0.057415318
0.1302896 -0.1986999 -0.3052273
-0.20244803 0.18741402 0.01081209
0.19573334 -0.10244777 0.085283965
0.064891785 0.197875 0.23579249
-0.023245778 -0.08985511 -0.30411187
-0.052208398 -0.008028529 0.2087759
-0.03514374 0.25523406 0.17261934
-0.23947665 0.16086476 0.014191638
0.08892192 -0.097852156 -0.33440867
-0.07286858 0.016021386 -0.22193025
0.24640796 0.012088887 0.053227402
-0.10445315 -0.084581316 -0.09872598
-0.025508353 -0.12600365 -0.20534945
0.17735139 -0.13355464 -0.09198569
0.13179243 -0.06834877 0.1797872
0.14585544 -0.067113176 -0.17337014
-0.19488437 0.073097 -0.14198391
0.08168199 -0.019321535 -0.06877704
-0.22732228 0.14487074 0.051069006
0.15108037 -0.17241238 -0.07280588
0.026504658 0.14603472 0.14112496
-0.21601571 0.11730888 -0.10194311
0.21354294 0.048064064 0.1431685
0.11454563 -0.15298866 -0.31935474
-0.030337716 -0.049697045 -0.042643484
0.0009101461 -0.10729955 0.013598096
-0.04205382 0.034923393 -0.22620118
