# .PCD v0.7 - Point Cloud Data file format
VERSION 0.7
FIELDS x y z
SIZE 4 4 4
TYPE F F F
COUNT 1 1 1
WIDTH 1000
HEIGHT 1
VIEWPOINT 0 0 0 1 0 0 0
POINTS 1000
DATA ascii
-0.10660619 -0.12752762 -0.022788446
-0.015682137 0.032998193 -0.08832755
0.22249936 0.16724165 -0.08896435
-0.43497866 -0.040312923 -0.079181865
-0.29022124 -0.017917732 -0.10202301
0.14747243 0.19771966 0.08583562
0.21676287 0.130057 0.17438024
0.35025218 0.047297243 -0.049381815
0.2931666 -0.05597348 0.074550636
0.3476391 -0.043878235 0.026639903
-0.17250115 -0.087932214 0.060160894
0.33233643 -0.0006013922 -0.068801686
-0.30533516 -0.06232405 -0.13079871
0.31474295 0.15354447 -0.08733187
0.036091562 -0.072749875 -0.03936829
0.11807895 0.13260542 -0.023310997
0.12108542 0.16582379 -0.07580724
0.13593332 0.062758185 0.17233396
-0.4510833 -0.1424608 -0.0030396937
0.12575732 0.06841444 0.17059538
-0.023449918 -0.095589176 -0.03729863
0.03620823 0.05851701 0.09048087
0.07249342 -0.050239682 -0.050697103
0.27471513 0.10815405 0.11821415
-0.21471332 -0.029619703 -0.11646692
0.25015107 -0.06353195 -0.029395381
0.22891681 0.025058294 0.17530484
-0.30120352 -0.11477345 0.04671028
-0.23862308 -0.050627824 0.058790863
-0.29421994 -0.0709559 -0.13200228
-0.45024818 -0.12973732 -0.038012158
0.057025697 0.07778599 -0.06671265
0.04150444 -0.056265067 -0.059822913
0.30287576 0.1813092 -0.07335514
0.15994951 0.025311358 -0.07330222
-0.36430532 -0.14109007 -0.14132673
0.13097385 0.16049966 -0.083214834
-0.18718925 -0.14681134 -0.06283623
-0.09500749 -0.09929048 -0.07934914
-0.020648414 0.07218458 0.059173707
-0.4641731 -0.09927186 -0.00786543
0.3543322 0.000711282 0.027612612
-0.1544942 -0.09655952 -0.103243455
0.2667286 -0.06313032 0.07490708
-0.16985677 -0.1448287 -0.0051096366
0.26123428 -0.0044443295 0.15759829
0.08355192 -0.055465262 0.05284755
-0.15995976 -0.017958313 0.06798507
0.34610966 0.054815758 -0.08323845
0.3060252 0.10356952 -0.11007364
0.26249212 -0.061606176 0.0834939
0.14127968 0.04700675 0.17244768
0.23233034 0.23160617 -0.00077384245
-0.08449467 0.07303169 -0.023012258
0.25748742 0.03382113 -0.11035468
0.26623905 0.15429959 -0.0119869225
-0.44666192 -0.10523537 -0.11949189
0.30987296 0.17546192 -0.07179134
-0.3718955 -0.13817015 -0.14314567
0.1944673 0.15288618 -0.09652374
0.06965733 0.028332604 0.10296623
0.23732682 -0.04478647 0.12450417
0.10967253 0.11310444 0.11366515
0.27531716 0.1470083 -0.10322118
0.3478206 0.014221802 0.043382496
0.23790054 -0.0067635407 0.15754479
0.32679814 0.04289775 0.12835091
0.028816197 0.02491075 0.09801657
-0.46077794 -0.10301059 -0.023623833
-0.13372602 -0.0020212822 0.070290856
0.29002514 0.07666798 -0.11309992
-0.22089647 -0.004095898 0.042860515
-0.002527682 -0.087293945 0.031024396
0.16566885 0.19436273 0.105543755
-0.035654113 0.047183238 0.07489686
0.14824924 -0.011664963 0.12217994
0.112060435 -0.046540514 0.05651023
0.3492139 0.021222394 0.017463883
-0.009239322 0.051779304 -0.08018025
0.11893915 0.08037391 0.12199915
-0.117854565 -0.100909755 -0.08757394
-0.44814175 -0.10123 -0.11803597
-0.27996024 -0.16929074 0.005485162
-0.28144336 -0.18250094 -0.03131493
-0.18298481 -0.039306637 0.068127565
0.3154791 0.15371019 -0.043245338
0.24818604 0.0866553 0.1876219
-0.08288088 -0.035493374 0.07977735
0.28658313 -0.0019200206 -0.085162595
-0.263774 -0.073234275 -0.12920673
0.029414237 -0.019985275 0.08982156
0.2455397 0.19866848 0.14354646
-0.15997206 -0.13184392 0.020957155
-0.4481731 -0.105342105 -0.10843275
0.11012816 -0.047973555 0.054605518
-0.12433692 -0.07887942 -0.10380168
0.274435 0.18829143 -0.078246124
0.022844233 0.10357657 -0.023723226
-0.25241956 -0.03531719 -0.11920475
-0.4327139 -0.17340071 -0.06387769
-0.2721742 -0.17579798 -0.0142169045
0.26376736 0.18684353 -0.07823814
0.17253904 0.120444655 0.16666034
-0.4479694 -0.10095535 -0.11988956
-0.18880808 0.0021815903 -0.09916036
0.29210544 -0.041846253 -0.03911461
0.30565634 -0.019796224 -0.061840054
-0.30632877 -0.095670596 0.049873922
0.24445944 0.22147202 -0.034523055
-0.38913932 -0.21676788 -0.04579827
0.20028 0.08374537 0.03914519
0.17015421 0.1361809 -0.10554578
0.1797335 0.16143264 -0.088936485
0.12194875 0.19921213 0.05139907
0.07581192 0.020088552 0.102582514
-0.15498602 -0.016108025 -0.11042971
0.34771866 0.046763375 -0.07939862
0.05788249 -0.054739375 0.062614225
0.22632858 0.23520164 0.040047064
0.12092476 0.1483208 -0.047043454
0.14774512 -0.01282346 0.12841633
0.34159452 0.011047903 0.095133334
0.32759786 0.053138845 -0.09951448
0.13506112 0.2055517 0.012074514
0.058856744 0.05693694 -0.07751017
0.33764637 -0.04701685 0.05297577
-0.16249427 -0.0628285 -0.115068816
0.26267716 0.1818947 -0.081924886
0.1706843 -0.0720038 0.10670057
-0.029082082 -0.080919296 -0.06700965
0.007152717 -0.09042999 -0.016362939
-0.13978085 -0.12254111 -0.07413055
-0.07232172 -0.114191666 -0.037000578
-0.116582215 0.06414167 -0.011998485
-0.24778715 -0.008375281 0.03502336
0.2171785 0.03131577 0.1767082
-0.062724 -0.01598196 0.084192745
0.3249489 0.02268386 0.06517522
0.08500774 0.026986368 0.104351945
0.3391201 -0.005748625 0.12273953
0.21383314 0.057152167 -0.12358876
0.09936024 -0.010876373 -0.06984135
0.29062855 0.16071044 0.118488505
0.072387084 -0.027593078 -0.06949239
-0.4075249 -0.21065503 -0.017745536
0.059250403 0.101064794 -0.043641098
0.23579088 -0.028544165 -0.08513584
0.11951646 0.13576232 0.14416257
-0.052581444 -0.08916293 0.047927134
0.35264513 -0.0019326154 -0.049539555
0.2902026 0.12168658 0.11683756
-0.00016343185 0.057051037 -0.07696353
0.062387336 -0.063881345 0.046541434
0.22789334 -0.0660769 0.09345085
-0.04635974 -0.09894551 -0.051053856
-0.22550973 -0.06657186 0.06158477
0.0019423869 -0.004908108 -0.093511336
0.2312819 -0.07494388 -0.01640141
0.1732431 0.18362659 -0.06728936
0.21955445 0.11077589 -0.1168931
-0.17801794 0.041931015 -0.0412929
0.14438282 0.19080484 -0.045811146
-0.42823267 -0.16782583 -0.108621456
-0.115918875 -0.02223835 0.077629186
-0.45611653 -0.10086175 0.01102561
-0.41704267 -0.04378545 -0.098981895
-0.37726763 -0.124110155 -0.14537355
-0.18813463 -0.1406522 0.017288372
-0.11537915 -0.005626481 0.07432135
0.17746507 0.18429507 -0.067402005
-0.45967585 -0.06663875 -0.015617952
0.26600376 0.12693404 0.10810966
0.3134402 0.034596726 0.16905695
0.07615539 0.11530217 -0.027419962
-0.23385067 0.007870327 -0.08399848
0.17920579 -0.023227867 -0.07282861
-0.055860206 0.029291205 0.07757555
0.10323586 0.1679414 0.10607841
-0.09818207 -0.101637594 -0.07817468
-0.020317761 0.06525198 0.06619929
0.3367323 0.015331429 0.12013842
-0.33812428 -0.1896637 -0.006144141
0.13180836 0.078038305 0.16963057
-0.08590526 -0.10740603 -0.063002974
0.034875613 0.11081375 0.023921855
0.24367198 0.14980139 -0.10116552
0.2505256 0.23183057 0.09752576
-0.04954641 -0.046960067 0.0781405
-0.05603903 0.0822335 -0.018095097
0.18619253 0.12852159 -0.11069455
0.23643401 0.23847225 0.049287893
0.28175363 0.11968819 -0.11049354
0.32058942 0.037955467 0.09233418
0.10341776 0.16007456 0.116965495
0.18750489 0.027535602 -0.12439731
-0.20845659 0.030116538 0.0029689772
0.3283941 0.0007298833 -0.07194437
-0.23713276 -0.14667648 -0.09654601
-0.26818278 -0.1636067 -0.09183867
-0.15679315 0.029162707 -0.07748358
0.13285328 0.055155434 0.17167516
0.0063457233 -0.016064987 0.09115537
0.2900162 0.05127273 -0.10809792
0.32601193 0.12503934 -0.053233825
0.118077315 -0.050529372 -0.017183252
-0.004619514 0.055736553 0.0802693
0.12446594 -0.053468373 0.0048785084
-0.36286423 -0.02723408 -1.0155562e-05
0.040127516 0.005665338 0.0972189
0.13578026 0.19400887 0.084168784
-0.3261428 -0.15852785 -0.122652285
-0.036322087 -0.021358877 0.08620356
-0.052644387 0.08446886 -0.0013087383
0.13691433 0.15561882 -0.08890927
0.21824478 0.20895565 0.11604884
0.07617531 -0.03340043 -0.064368084
0.16308917 -0.038837284 0.14136289
0.12721777 0.04607461 0.14096357
0.07068531 0.11926356 -0.01440103
-0.25679082 -0.16363217 0.005551659
0.18806984 -0.045600954 -0.085216485
0.05321818 0.11280613 -0.021306878
-0.32015598 -0.18362795 -0.0030306675
0.22187746 -0.028663533 0.14268103
-0.13155177 0.018575732 -0.09242571
-0.35201213 -0.09028056 -0.1401951
0.2136298 0.20628597 0.117084265
-0.13812223 -0.12612605 -0.06676429
0.2567706 0.04441219 -0.113568835
-0.373205 -0.10401956 0.041266534
0.21777837 0.1351217 0.0039176643
-0.4130416 -0.064168826 0.015240111
-0.27620345 -0.16062693 -0.10015684
-0.28972322 -0.12107656 0.045307405
0.14516628 -0.04741852 0.024162954
-0.2378512 0.02305994 -0.04886205
-0.037462346 -0.053578015 -0.09046518
0.14687844 0.021012526 -0.06962856
0.2166185 0.058047343 -0.12320115
-0.04424451 -0.07111637 0.064107195
0.32131281 -0.050233416 0.0119986255
0.27379972 0.026627615 0.17539993
-0.44999743 -0.056402292 -0.09526098
0.28303692 -0.061685093 0.06427671
0.15719093 -0.010027759 0.15933843
-0.06148472 0.050628223 0.061051276
0.13503942 -0.025945712 -0.047288183
0.21034667 0.10539132 -0.1186974
0.15343374 0.20889238 -0.002758236
0.15687533 0.116209924 0.16421065
0.21447457 0.11909866 -0.11550729
0.16537376 -0.06043257 0.110873096
0.27877292 0.13935216 0.1779098
0.24356484 0.046941523 0.1819198
0.2382553 -0.0709578 -0.020682575
0.29778633 -0.022103494 0.13650014
-0.2839009 -0.08498005 0.05344363
0.21178092 0.06540028 -0.12356816
-0.26642495 0.0056624427 0.008930799
0.13984269 0.0993408 -0.070701845
0.29947543 0.14488249 -0.10389457
0.1818605 0.01173452 0.1695352
0.24025217 0.09781017 -0.1174178
-0.21317574 0.009937275 0.03321375
0.11035254 0.18826 0.07462985
0.0003459803 0.10141107 -0.00014184194
-0.09769037 -0.10945491 -0.0676637
0.11886966 -0.046611104 0.052982405
-0.4296453 -0.1536404 -0.130837
0.258374 0.23803854 -0.0030959619
0.30560207 0.100678705 0.14822325
-0.4182678 -0.19756058 -0.09732432
0.14858896 0.19014367 0.10086055
-0.32768282 -0.1961961 -0.067654096
-0.07411623 -0.105480924 -0.058393247
0.1495455 0.004493533 0.16614164
0.09338337 0.01038042 -0.07840874
0.047405165 -0.041159946 -0.069309786
-0.25903976 -0.016882066 0.038155813
0.2743835 -0.06061193 -0.012147523
-0.13307694 0.055285458 -0.039069388
-0.09646102 -0.061252106 0.07179756
-0.089169316 -0.01421807 0.081412084
0.15329295 0.21040766 0.008024106
-0.27926385 0.0046140235 0.00010391641
-0.19065356 0.029045649 0.021246502
-0.27404928 -0.039910913 -0.12102741
0.117205545 0.070553705 0.15678217
0.2735994 0.06481429 0.18786845
-0.11352319 -0.02940905 0.077425584
0.24640381 0.16635782 0.014312568
-0.42653373 -0.14761384 0.030975854
-0.024273058 0.017833427 -0.09391389
-0.42425856 -0.113115385 -0.14517975
0.28756952 0.19553064 -0.07331615
-0.43101314 -0.16168517 -0.10273543
0.28301424 -0.04279232 0.112397455
0.10327965 0.13036418 0.12004789
0.07305884 0.07703345 0.093165584
-0.07512989 0.049489077 -0.07329429
0.09686658 0.05082204 0.10605137
0.10126299 0.15775377 0.07204655
-0.04946693 -0.03619015 0.08149834
0.030251231 0.018476065 -0.08833035
0.04626288 0.07604675 -0.06670152
0.21956034 0.21603888 0.1046456
-0.31195274 -0.18418589 -0.007801488
-0.30740425 -0.034518726 0.03310793
-0.19659175 -0.07835363 0.062117133
-0.16423643 -0.14558794 -0.017100804
-0.32813475 -0.112664536 0.045599118
-0.09613187 -0.12210433 -0.039346408
0.09449873 0.16812673 0.09676982
0.1148811 0.1908082 0.07197212
-0.40534955 -0.057041034 -0.12099044
0.22767451 -0.06162803 -0.049537405
0.20244443 0.2248804 0.0066368557
0.087548725 -0.059647065 0.041236997
0.334452 -0.03961275 -0.009271353
-0.31703565 -0.13452527 -0.13236623
0.28150794 0.17995048 0.13985215
0.084283695 0.0683614 -0.072821625
0.11148253 0.19559565 0.051457502
-0.25186852 -0.12788658 -0.11667779
0.1758482 0.13504918 -0.10659853
0.1791305 -0.017611405 -0.08508456
-0.4536365 -0.08843497 -0.107906125
-0.23461322 -0.15048374 0.018780394
-0.15775754 -0.060044646 -0.114520095
-0.12392124 -0.13128431 -0.0047031525
0.14816073 0.0024396428 0.16552268
0.25760397 0.044877656 -0.11349572
0.21907674 -0.08231945 -0.0049888194
0.2236317 0.05974024 0.18231432
0.083196364 -0.05955304 -0.02775494
-0.31354934 -0.030650977 -0.11153681
0.25744456 0.20824069 -0.057819206
-0.0046580103 -0.095286556 -0.0056972844
0.21434276 0.08043695 0.07952798
-0.22820242 -0.066480525 -0.12458222
0.21700151 -0.0045694346 -0.10593967
0.2702805 -0.029611815 0.13395984
0.0997833 0.022778103 -0.07856743
-0.13094693 -0.014157762 -0.10854298
-0.14440367 -0.13155651 0.013989659
-0.12407385 -0.120244816 0.026322002
-0.40999767 -0.16469751 -0.1387412
-0.021538414 -0.046726014 -0.089245155
0.27971303 -0.01903372 -0.07450244
-0.12318502 -0.119067006 -0.06860653
0.27917373 0.019415243 -0.09928398
0.014336775 -0.08039135 -0.04045207
0.021165473 -0.019191328 -0.08717824
0.33800977 -0.04354208 0.0069497256
0.35381767 0.031220743 -0.03823856
0.1348342 0.11509482 -0.07077072
0.17847788 0.17410044 -0.07816624
-0.06374819 -0.08822679 0.05103441
0.17022878 0.10172563 0.1723119
0.27943453 0.21397246 0.07714161
0.16614205 0.1894369 -0.05661784
-0.058291316 -0.1065565 0.019135432
0.15762551 0.12471469 -0.111987345
-0.3379487 -0.12684752 -0.1384893
-0.063299425 0.081157014 -0.0012714375
-0.004853762 -0.036849525 0.08281991
0.12645718 0.08430174 0.1670074
0.16794494 -0.013727547 0.1573836
0.22260772 -0.07082267 0.08596705
-0.42624754 -0.080473796 0.022709874
0.2951223 0.2000078 -0.0031921251
-0.4259329 -0.11981476 -0.14283799
-0.29921648 -0.026430594 -0.10994269
0.13117595 0.036973275 0.1334205
0.27673134 0.16049103 -0.008492299
-0.0879897 0.026343916 0.070480786
-0.22128843 -0.093641646 -0.12170165
0.17871147 0.07437407 -0.12649135
-0.37260312 -0.050651878 -0.121004164
0.32332093 0.083625816 -0.108212315
0.098213434 0.026020726 -0.08037699
0.30983096 0.036731303 0.1728042
-0.29920843 0.0036382843 -0.017339364
0.23422799 -0.073376745 0.07071755
-0.38490847 -0.15959802 0.028759573
0.18316834 -0.0727763 0.01176069
0.2253872 0.10163356 -0.118395716
0.34607846 -0.00441229 0.09828887
0.28718507 0.17601025 0.10824262
-0.4182603 -0.13724726 0.033500817
-0.16554846 -0.0005824444 -0.10337169
0.29058307 0.13570495 0.17228389
-0.20850313 -0.03766152 -0.11896745
-0.36343247 -0.016841764 -0.06610161
0.20990287 0.010213185 0.16838184
-0.44814616 -0.13705727 -0.03635143
0.18658587 0.1827839 -0.0707084
-0.27779046 -0.13271232 0.04024118
-0.15210453 0.051081058 0.0012471721
0.10892776 0.12330085 0.07681588
-0.18206874 0.04207173 -0.0062982193
-0.22329687 0.015650038 0.02172031
0.24567589 0.23411627 0.085430935
0.27082044 0.09441368 -0.11474636
-0.3245391 -0.19357432 -0.024602763
0.32997322 0.042749368 -0.013733879
-0.1669878 -0.030176388 -0.11418161
-0.13604431 0.026197838 0.05148453
0.20785215 0.20355178 -0.04953854
0.32721236 0.12568495 -0.06327841
-0.020834165 -0.09734697 0.015641602
0.18804553 -0.015661672 0.1549598
0.2530095 -0.06628611 -0.01852685
-0.45024276 -0.13194636 -0.033007763
-0.34778768 -0.07578621 0.041474946
0.110185735 0.113817856 0.108371556
-0.055599555 0.0189711 0.08164512
-0.028595023 -0.017376602 -0.096625015
-0.16584735 -0.012193532 0.06576149
-0.13474001 -0.1366711 -0.023957541
-0.222273 -0.15940957 -0.0058185193
0.2860888 0.20631571 0.047013756
-0.39324406 -0.15910935 -0.14292192
0.31187072 0.08096042 0.14833608
0.091127686 0.012079115 0.10315036
-0.336398 -0.16452318 -0.122200854
0.24594335 0.043845784 -0.11571653
-0.03490124 -0.09897106 -0.039583407
0.29746032 -0.009988145 0.14888568
-0.32125878 -0.19557352 -0.056968722
-0.33638278 -0.1578431 0.028461937
0.1063909 0.11707463 -0.035889957
-0.29301405 -0.18477875 -0.02593624
0.18466717 -0.09081692 0.042152017
-0.25751832 -0.1756478 -0.04021054
0.3126472 0.069631755 0.1686
-0.2727922 -0.025253026 -0.11158399
0.2851879 0.17737618 0.034905095
0.13091916 0.14639913 -0.09536165
-0.26166737 -0.085893214 0.055575874
0.22563928 0.015346142 -0.11195988
-0.26002663 -0.033692583 0.048482787
-0.31267738 -0.016398521 0.013150156
0.07502669 0.11766977 -0.02337756
0.021881683 -0.011240636 0.09331318
-0.026138484 -0.08303459 0.049137678
0.3555402 -0.022327358 -0.0125334
-0.14838669 -0.0053919577 0.067512505
0.19715169 0.22347008 0.007808955
-0.24375838 0.0029354014 -0.088185735
-0.18139227 -0.1467106 -0.0008927249
-0.15727048 0.016320726 -0.09175559
-0.2647296 -0.096921705 -0.1291641
-0.3758637 -0.16369557 -0.13636191
0.14232871 -0.04193956 -0.016072769
0.09435952 -0.06360064 0.006716157
-0.44100675 -0.17419432 -0.0027747066
0.30440313 0.10001291 0.15831947
0.28602535 0.17112581 0.12766819
-0.21680889 -0.1603222 -0.014650657
0.1576906 0.21150202 0.00650647
-0.113635086 -0.0629426 -0.105829775
-0.29442778 -0.18715116 -0.035588674
-0.11991143 -0.0007572877 -0.10361356
0.009663178 -0.0066141286 0.09264338
-0.3767985 -0.049995217 -0.119420886
-0.319413 -0.027137963 0.020947449
0.29329896 0.11679164 0.17847896
-0.05599772 -0.038818397 -0.09899572
0.31572133 0.047789354 0.1688272
-0.35024565 -0.12618673 0.040916402
0.1390634 0.111528784 0.16138014
-0.056160793 0.06658074 -0.056277853
-0.39255732 -0.0907879 -0.14303546
-0.24497767 0.02202869 -0.044429086
0.27946842 0.22574262 -0.023237264
0.019058544 -0.07542671 -0.046207473
0.24488369 0.029148525 0.17705272
-0.44481745 -0.074155234 -0.11735077
0.042054966 0.01085829 -0.08769123
-0.3498454 -0.020844204 -0.002826282
-0.27305278 -0.10792424 0.050111122
-0.3999735 -0.21824455 -0.05996785
-0.2902986 -0.031653836 -0.11468608
-0.361652 -0.049325306 -0.121007055
0.33150068 0.116627455 -0.0733068
-0.22547118 -0.13830212 -0.10031279
0.13619202 0.021117434 0.13366942
-0.41937622 -0.1885156 0.010887049
0.015384816 0.053992294 0.08651775
-0.11720156 0.030487789 0.055798475
0.02040031 0.06309044 -0.07454831
-0.2520444 -0.03951673 -0.12102826
0.29004186 0.22037238 -0.013285499
0.04548072 0.079318106 -0.064251095
-0.12176313 -0.13271256 -0.015388396
-0.24595827 -0.096057855 -0.12588304
-0.05988877 -0.0011949154 0.08529438
-0.15231544 -0.13837413 -0.051343463
-0.27324185 -0.01412133 -0.10155376
0.13191731 0.020600736 0.1654156
-0.25375035 -0.16202483 0.0071659745
0.32253245 0.14852838 -0.08187512
-0.19288951 -0.14840902 0.0030989514
-0.4072154 -0.14876117 0.031833217
0.079429045 0.071241036 0.09711588
-0.2231019 0.02671878 -0.051293425
0.11880039 -0.026038276 -0.05411976
0.3429054 0.076408796 -0.06319727
-0.1067473 -0.104414664 -0.07930652
0.075368784 -0.026981916 0.08587413
0.31609228 0.05026501 -0.101394355
-0.08699016 -0.08166105 -0.08962597
-0.20158756 -0.14855403 -0.07206331
-0.21450719 -0.09479656 -0.12001265
-0.40060842 -0.048902325 -0.11250709
0.29343346 0.2127613 -0.035193745
0.33900407 0.062176537 -0.09327711
0.08653624 0.053209934 -0.07840924
0.28443953 0.008767713 0.16449134
0.17491226 0.059616543 -0.12851754
-0.22740224 -0.049714386 -0.12266444
-0.427554 -0.03597944 -0.06856355
-0.29988417 -0.105885975 -0.13434602
-0.3141186 -0.14778894 0.033214327
-0.040263724 -0.023112023 -0.098041765
-0.08332723 -0.11961496 -0.005045153
0.12654196 0.1463602 -0.08274095
0.20837039 -0.08539111 0.054471787
-0.33423087 -0.022863286 -0.09605141
-0.06579891 -0.05195162 0.07592694
0.21066412 0.018485505 -0.11676244
0.24349022 0.16912656 0.16533118
-0.26456964 -0.105805196 0.05114962
0.10513227 0.1265978 0.06101551
-0.2930397 -0.11147855 -0.1323782
-0.19326267 0.033221964 -0.058259055
-0.31030568 -0.15154062 -0.12159799
0.11942581 -0.040344216 0.06459979
-0.04153392 -0.017631974 -0.099292815
0.2207113 0.15876044 0.0040350957
0.21649261 -0.030153258 0.14211163
-0.043571115 0.08354873 0.023242425
-0.20248105 0.0050672656 -0.0956272
0.19009973 0.033258274 0.17514907
-0.011632721 -0.09500892 -0.028074361
-0.10860469 -0.12849236 -0.015488174
-0.24040419 0.02435781 -0.037154578
-0.25110903 0.01656323 -0.060644194
-0.040029015 0.023182293 0.083968304
0.35861823 0.009618041 -0.023332318
-0.30022326 -0.041172635 -0.12098528
0.096099384 0.026555719 0.10541935
0.3556536 -0.023834137 -0.008911901
-0.42306867 -0.17506595 0.02140716
0.23770544 0.14146417 0.17569113
-0.24712662 -0.16940574 -0.062815145
-0.22416092 0.0292481 -0.037060283
-0.2932655 -0.047093797 -0.12426887
0.29173195 0.13443401 0.1704812
0.30606136 0.09897861 0.14882332
0.2813692 0.06967106 -0.11395151
-0.027565936 -0.09043741 -0.052347668
-0.46447003 -0.064756736 -0.048002005
-0.17470135 0.031380408 -0.06896448
-0.26789495 -0.15836622 0.017032798
-0.12707038 0.05826239 -0.033795435
0.004182846 0.0571469 -0.07751126
-0.004487226 -0.004003741 0.09153444
0.009095922 -0.08931415 -0.020810995
0.11253926 0.021626933 -0.07631863
0.32924095 0.010520825 -0.078426436
0.25654173 0.0768704 -0.11740534
0.18523985 -0.07644999 0.0053213453
0.15403663 0.2027158 -0.024297599
-0.035017837 -0.039659873 -0.09438289
0.15332368 0.2100594 0.05122613
0.1593003 -0.034561045 0.066853434
0.29378703 -0.025200633 0.13405223
0.19578129 0.21752487 -0.01365042
0.066611916 0.09259986 -0.055908043
0.11942483 0.07227649 0.1129369
-0.28965804 -0.00975387 -0.09154723
-0.24703303 0.0044800104 0.022544324
0.23607707 0.005152972 0.16513398
0.3076815 -0.01306384 -0.06764594
0.27826193 0.07445043 0.18962592
0.19762443 -0.09155278 0.034019858
-0.19194704 -0.038050033 0.0657634
0.2693344 0.08586729 0.19011784
0.02957816 0.08585203 -0.054635264
0.1963909 -0.07932775 -0.039422266
0.2450344 0.1781078 -0.082983285
-0.42906332 -0.16462153 0.023122901
-0.02517528 0.09308256 0.00032871397
0.32857957 0.08606224 -0.10536241
0.29364252 0.13305448 0.15996262
0.1465523 0.1682632 -0.078133225
0.07666604 0.10192465 0.074735574
0.22743295 0.22452155 0.09414414
-0.43586147 -0.06388724 0.0045429463
0.017646713 -0.0464938 0.07716697
-0.16641387 0.011044754 -0.09468441
0.15751708 0.17312713 -0.07518122
0.12796274 0.13168527 -0.059456978
-0.0022755903 0.04857754 0.08398542
0.11909607 0.18947929 -0.034511518
0.13437517 0.18227132 -0.056565147
-0.42572385 -0.042661365 -0.018825034
-0.14858264 -0.017706523 -0.11046076
0.20659247 0.22891387 0.0375914
0.05687485 0.060273647 0.09607901
-0.30830467 -0.12734593 -0.13237143
0.059270207 0.1086705 0.05628131
0.065293215 0.10917024 0.060017593
0.22848223 0.065333486 0.0997048
0.27753764 0.07320766 -0.04007339
-0.35075322 -0.09313593 0.044419933
-0.44854504 -0.05729052 -0.00899966
0.34602422 -0.03238854 -0.017085843
0.3256223 0.101147465 -0.10336028
0.35117382 0.010640093 0.027578996
-0.26776254 -0.17646177 -0.021144668
0.29423454 0.1408753 0.13791023
-0.41044635 -0.2106698 -0.02457756
-0.16420172 -0.14507815 -0.039959934
0.21750745 -0.02949744 -0.091115385
-0.34473363 -0.18245742 -0.10967802
-0.35851735 -0.09984795 -0.14201887
-0.07673551 -0.0057299254 0.08275341
-0.050795693 -0.09334135 0.042774
0.3509588 0.0044996445 0.04310211
-0.24838898 -0.114931904 -0.12214702
-0.3393756 -0.18494156 0.0028841866
0.3019577 -0.05807176 0.018286604
-0.09736553 -0.10840626 0.035909798
-0.011951088 0.00040619684 -0.094328575
-0.25497133 -0.09125046 -0.12809646
0.02387417 -0.08164752 -0.027954236
0.19385175 0.0061309594 0.16663896
0.30997223 0.15984094 -0.017840678
-0.38705254 -0.1311842 -0.14674255
-0.38321978 -0.020343093 -0.049625043
0.012487951 -0.042611282 0.07958148
0.1061909 0.14220998 0.072237186
0.23096655 -0.05136751 0.11729277
0.10135083 0.1311995 0.13194285
-0.1915892 0.039056897 -0.036869556
-0.32657504 -0.18684576 -0.006113984
-0.40720817 -0.17966938 0.01894878
0.3587318 -0.013878331 0.029400809
-0.45921424 -0.11174227 -0.014904736
-0.16733834 -0.035138518 0.07034319
0.016360566 -0.009256372 -0.089749046
0.042933334 0.11409177 -0.0016536404
-0.33712196 -0.1712921 0.01687206
-0.08296265 0.053337034 -0.06655437
-0.22969249 -0.010299302 0.044398706
0.022069525 -0.0870321 0.0027699184
-0.42422384 -0.19137686 -0.0836302
-0.041799735 0.074372575 0.046058945
-0.04047575 0.08844234 0.0043854816
0.0017212102 -0.071423076 -0.062347904
0.10144096 0.18009341 0.019866178
-0.018624231 0.008462601 -0.09448793
-0.428394 -0.06839236 0.012576344
0.33605316 0.07090438 -0.023561794
-0.078678 0.036653545 -0.083998345
-0.2618045 -0.09721604 0.053482726
0.122969605 -0.018154124 -0.058038704
-0.404798 -0.087802306 0.032055568
0.24089035 -0.07451861 -0.0065015336
-0.11289078 -0.12968245 -0.012025713
-0.44644216 -0.114557326 -0.09981449
-0.17042245 0.0415329 0.010360082
0.15130061 -0.026611665 0.13441773
0.21673517 0.008833942 -0.11194665
0.28042546 0.20623417 0.08768314
-0.41735196 -0.037701316 -0.08799253
-0.04504144 -0.038406473 0.08120193
3.2349556e-06 0.049634967 0.084152386
-0.0031300355 0.033928618 0.08930171
-0.3285878 -0.086703636 0.04755457
0.34787548 -0.01852634 -0.039861742
0.031119598 -0.07679303 0.03515359
0.2906221 0.09932206 0.18473707
-0.35923612 -0.20784605 -0.05755958
-0.3615948 -0.10850904 -0.14324047
-0.10435488 -0.107675076 -0.07404712
0.22386569 0.020354709 0.1730959
0.35880795 0.0012527857 -0.03489796
0.023484757 0.08707416 0.064094156
-0.10543312 -0.0674203 0.06925832
-0.25460297 -0.050711162 0.055344637
-0.18981592 -0.14629975 -0.06667957
-0.09257645 -0.103439905 0.04065698
-0.094891936 -0.11362367 -0.05889988
0.3252472 0.1362665 -0.07333552
-0.44939718 -0.14582346 -0.0074315993
0.1431889 0.20311336 -0.013496441
-0.37220958 -0.20185398 -0.013423937
-0.15307662 0.051697955 -0.028686177
0.09860899 0.15723553 0.09219975
-0.43716788 -0.17147379 -0.03641455
-0.06434073 -0.082339264 -0.081176825
0.24689865 -0.03668905 -0.07189126
0.22389027 0.030721592 0.17707203
0.18251821 0.08454336 0.17899446
0.09926135 0.16355646 0.07313957
-0.31174353 -0.17616658 -0.099959835
0.16020493 0.15435681 0.14610308
0.2825011 -0.031450946 -0.060104065
0.29054913 0.15615982 -0.012775949
0.05072478 0.11629716 0.024058549
-0.44343558 -0.12076145 -0.10718639
0.29708 0.06639378 0.18492426
0.18115443 -0.04571967 -0.035499673
0.08278885 -0.064400256 -0.016296338
0.19055037 0.00010015086 0.16375998
0.14662811 0.18735063 0.104320854
-0.10291612 0.027775576 -0.08830341
-0.049107783 -0.0136778075 0.08584996
-0.41639242 -0.15898879 0.028444923
0.0052907555 -0.085631266 0.029935632
-0.4035662 -0.2068665 -0.09539702
0.06620812 0.08557137 0.084083326
0.280885 0.03605083 -0.10529384
-0.3878606 -0.07888658 0.032829646
-0.21760072 -0.09074414 0.05774046
-0.34352136 -0.05188901 0.032571517
-0.33303007 -0.006977645 -0.061027255
0.17664683 0.17092218 0.13970172
0.24240068 0.07386944 -0.03219246
-0.34178355 -0.010652818 -0.06614068
0.34234905 0.004549507 0.10454531
-0.0928309 -0.042207837 0.077953264
0.21698675 -0.07954701 -0.018262817
0.27392593 0.15621382 0.17119323
0.32171622 0.06331515 0.118149795
-0.2478578 -0.16350588 -0.0780735
0.23695485 0.23569992 0.06839223
0.33591852 0.02276305 0.10902093
0.09946096 -0.020973487 -0.06452051
0.26028362 -0.04372995 0.118799664
-0.0056661814 -0.0032426098 0.0915084
-0.2796422 -0.1571809 -0.106122315
0.083184674 0.029875906 -0.0813787
0.14130059 0.18264277 -0.058386844
0.10243691 0.14738983 0.12920323
-0.13791491 0.057000514 -0.02285333
0.338056 -0.043153815 0.076074734
0.26604265 0.23696657 -0.00877577
-0.011693572 -0.09777438 -0.0006502671
-0.32837477 -0.17598385 0.010313911
0.054742362 -0.012283009 -0.08151002
-0.43232638 -0.16560873 -0.08440162
0.032849927 0.104845986 0.04201475
-0.33034918 -0.18986292 -0.08924601
0.29080206 0.020905532 0.17172529
0.14625733 -0.010676034 0.13416812
0.23940982 -0.06459854 0.09023281
0.042347904 0.032345306 -0.08541718
-0.25261074 -0.00888132 0.03329034
0.23752728 -0.010689779 -0.09659895
-0.44828132 -0.08742078 0.019570401
-0.20180482 0.0282704 -0.063402735
0.35889795 0.013152592 -0.03338763
-0.17266747 -0.04505278 0.0695447
0.04518778 0.0882598 -0.055876426
0.20831443 0.16243811 0.15766397
-0.4382465 -0.06095899 0.00038317806
0.28574422 0.10867573 0.1860187
-0.3727458 -0.19811589 -0.006235141
0.067179106 -0.0671115 0.03590746
0.35323566 0.008180863 -0.055132236
-0.2730677 -0.0400846 0.047678474
-0.18213998 -0.1465714 -6.735822e-05
0.2136055 -0.08453625 -0.0032023801
0.007278469 0.09799898 0.035583276
0.298203 0.07252263 0.118511505
0.1524763 0.1911203 -0.049355634
0.22652303 0.23335688 0.061634466
0.14155903 0.011936251 0.11623845
-0.31591552 -0.0014107393 -0.05813287
-0.06666773 0.05236095 0.057915647
0.3307725 0.031159252 0.12668765
0.11743483 0.068740815 0.1592676
0.18311611 0.21879801 0.00447173
-0.14660425 -0.14026125 -0.015815213
-0.069736816 0.023945732 0.07611624
-0.14854915 -0.13056332 0.018140139
-0.14235629 -0.13197279 -0.057871167
0.23483159 0.220422 0.10768932
0.11140744 0.19636756 -0.002611955
0.25767714 -0.040381547 -0.06214795
0.2469325 -0.017555058 0.14870186
-0.12772085 -0.08770625 0.05970966
0.2780943 0.15402077 -0.099749334
0.163001 0.08648482 0.17434399
0.3185166 -0.009189798 0.14594162
0.096825466 0.11979469 0.06354513
-0.23625648 -0.046434958 -0.12278718
-0.036702283 0.023680763 0.08455133
-0.30383956 -0.11968861 -0.13325797
-0.20247202 -0.09442461 0.05712952
0.23220569 0.015342959 0.17053954
-0.007026509 -0.09375424 -0.026834745
-0.23558669 -0.03164352 -0.11740835
0.18813305 -0.044781327 0.13363779
-0.35210383 -0.022870488 -6.11556e-05
0.2803018 -0.04458542 0.11060492
0.016047822 0.103765935 -0.014221793
-0.3545594 -0.11081438 0.04315667
-0.124352805 0.01021961 -0.098826416
0.33041114 0.035015624 0.120477475
0.33522567 0.029007938 0.032203574
-0.2485148 -0.041095745 0.054607082
-0.19183482 0.002978068 0.048760757
0.18552037 -0.07285207 -0.0048849434
0.22414857 -0.026094157 -0.0910441
-0.11270482 0.042099033 -0.07271784
0.1362915 0.074513786 -0.07064985
0.20720817 -0.08640104 -0.0050321072
-0.24540094 -0.16404651 -0.07436301
-0.33110955 -0.005255644 -0.05519117
0.26945397 0.09652654 -0.11462537
-0.43211073 -0.18215813 -0.048226964
-0.10578861 -0.12755619 -0.016923206
0.3042879 0.027655747 -0.0958864
-0.21827626 -0.1211649 -0.10934536
-0.4181018 -0.12566157 0.034930617
-0.16860566 0.027098315 -0.077342756
0.20435947 0.026322315 -0.12059468
0.10861658 -0.03219291 0.07625922
-0.0991954 0.012148709 -0.09784303
-0.26706827 -0.016905313 0.034800556
0.2078832 0.20455627 0.11614037
0.04279582 0.05013387 0.09532003
0.34720126 0.0673392 -0.07323548
0.28503117 -0.05056078 0.09550103
-0.34658808 -0.17058846 -0.12166081
-0.35235578 -0.018217267 -0.011110262
0.10620711 -0.059680536 0.0067620915
0.18202141 0.18866105 -0.063264824
0.22392105 0.010226087 0.16817948
-0.16850276 -0.040837973 -0.11563481
0.33758402 -0.047525417 0.029934604
-0.113788486 -0.07907269 0.06397956
0.14542498 0.15507181 -0.090221986
0.0835165 0.06842767 -0.072791636
-0.025696784 0.045926817 -0.082800485
0.14741263 0.073466465 -0.07753416
-0.01745534 -0.07412325 -0.069053285
0.09929501 0.15871015 0.08393549
0.21070151 0.12560256 0.06903072
-0.23386152 -0.16827902 -0.031017566
0.13627817 0.02307826 0.12857363
-0.26614082 0.009845368 -0.00044088135
-0.14259878 -0.13696975 -0.045049746
-0.20889287 -0.0634565 0.063643046
-0.4361533 -0.17080842 -0.04518727
-0.19044587 -0.13949527 -0.079793066
0.027836328 0.085738264 -0.05428643
-0.41762307 -0.18440379 0.016709091
0.016856253 0.04719471 0.09066508
-0.29434368 -0.075446606 -0.13256319
0.28581655 -0.057849046 0.07501064
-0.05763289 -0.096192196 0.040758725
-0.23363231 0.01771521 0.009771701
0.30511072 0.18878946 -0.049062148
-0.2376289 0.0099671 0.020980457
-0.23707406 -0.05526449 -0.12431727
-0.3589574 -0.04614686 -0.11901472
0.20428346 -0.07089663 -0.049409434
-0.04087333 0.078342944 0.038373224
0.31584033 0.16579576 -0.07337805
-0.10567201 0.064321876 -0.033850934
0.08526128 0.005357514 0.10119176
0.22467974 -0.059634317 0.10689701
0.3160119 0.03935531 -0.097679004
0.1275081 0.17033361 -0.07233823
0.20495588 0.11022905 0.038870867
0.20642999 0.18113548 0.14314741
0.31393248 0.034639202 0.16857593
0.09639272 -0.03408972 0.07663106
0.24033447 0.024942946 0.049205057
0.3529903 -0.0108427135 -0.0388603
-0.42646104 -0.07469559 -0.13375142
-0.21125615 0.009589838 -0.08821637
0.26236662 0.16793823 0.056126148
0.35512927 -0.0106603615 0.047833033
0.3420638 0.023186566 0.06412258
0.03995797 -0.03644281 0.08195952
0.13019724 -0.045821484 -0.017724855
0.06567615 0.057564087 -0.07741102
0.14122222 0.005233789 0.13391867
0.1920194 -0.059589908 0.11779195
-0.30149195 -0.14386578 -0.12351453
0.112558745 -0.04516189 -0.034142934
0.2732354 0.16190308 -0.09560579
-0.37734634 -0.21137871 -0.07829298
0.263792 0.16733228 -0.09162923
-0.3492494 -0.1845638 0.0053075547
-0.4504479 -0.055032335 -0.012609368
-0.15530466 -0.027255956 -0.11264481
0.07475728 0.12321922 0.030863376
-0.29690087 -0.026062554 -0.110053785
0.028745284 -0.036569495 0.08233621
-0.2893351 -0.0032041196 0.009420773
-0.31328407 -0.00402412 -0.072611265
0.10528201 0.18219776 0.08382454
0.18347996 0.060513932 0.17835498
0.008585333 0.0994575 -0.023249796
0.17296486 -0.041157737 -0.006920246
0.17936918 -0.07959721 0.054471865
0.006331279 -0.03686411 0.08275995
-0.23768008 -0.11860494 -0.11769822
0.18789893 0.18823615 0.12730333
0.15802048 -0.028649041 0.09101391
0.29698536 -0.058661036 0.012222541
0.16280232 0.13842738 0.15632965
0.062468447 -0.033461325 -0.069155164
0.17235206 0.15170063 0.15215127
-0.15283473 -0.0699198 -0.11246494
0.32899845 -0.043021765 0.084451996
-0.097032525 -0.00043294104 -0.10311607
-0.08130042 -0.10968 0.026441144
-0.4553116 -0.11380322 -0.03811403
-0.00611873 -0.068937294 -0.06910013
-0.42835903 -0.0379158 -0.07697868
-0.33302173 -0.18474098 0.0007004267
-0.25606003 -0.12614089 0.043089706
-0.37537932 -0.19144309 -0.11487596
-0.24773997 -0.17189674 -0.027373217
0.16415617 0.2073259 0.07644188
0.04365837 0.03653854 -0.08477129
-0.24991289 -0.15468825 0.017350053
-0.20163697 -0.118227534 0.045450866
0.21509176 0.10451641 0.08941058
0.22021805 0.23286352 0.025165884
0.30228934 0.10160077 0.16981126
-0.3870162 -0.097138286 -0.14431441
0.27959722 0.020629624 0.17222844
-0.19570613 -0.110178374 0.049738478
0.108977176 0.10513215 0.13680498
-0.30782786 -0.032891992 -0.11390847
-0.3183021 -0.12605055 -0.13498381
-0.36152998 -0.20860116 -0.056761794
-0.22001824 -0.12372039 -0.10848855
-0.26028982 -0.018202871 -0.10750681
-0.2865241 -0.027071739 -0.11161279
-0.19117488 -0.12284146 -0.09878078
0.18952239 -0.029887132 0.14548281
0.053534847 0.11728916 -0.0016906143
0.3063488 -0.027681714 -0.051395085
0.26635435 0.032727305 -0.10777418
-0.4394262 -0.15922736 -0.048189703
-0.39759418 -0.2088389 -0.097665735
0.2622984 -0.06311296 -0.017861959
0.02564515 -0.050673228 0.07222343
0.2492965 0.22179653 0.11577664
0.15760669 0.032917667 0.172376
0.22607295 -0.064833626 0.097214915
0.13659917 0.14294319 0.1453947
0.27221215 0.12124717 -0.110857256
0.16684219 0.18235369 -0.06738887
0.217506 0.046743866 0.029053172
0.18044657 -0.046966303 0.13277793
0.31419295 0.169538 -0.070122965
0.17728311 -0.06448182 0.03494085
-0.39497986 -0.088848315 0.034543473
-0.434167 -0.14577106 -0.11645324
0.31209692 0.15615539 -0.024640813
-0.062959425 -0.0963108 -0.06589538
-0.27137083 -0.17636031 -0.06796217
-0.075441785 -0.04933335 -0.10085166
-0.2394214 -0.015944842 0.044999212
-0.35126486 -0.20216772 -0.07839393
0.09923945 -0.050913926 -0.033651102
0.12877333 -0.020122621 -0.054741263
-0.1076158 0.014743332 -0.09691099
0.28747705 -0.063358195 0.04352589
0.12724817 0.13905895 -0.07114873
-0.08171566 0.037015256 0.06493418
-0.23829949 -0.0028817991 0.03376649
0.095924616 -0.04556384 0.0645158
-0.2514696 -0.106078245 -0.12530664
0.094586246 -0.060899712 0.029755741
-0.44619483 -0.061124258 -0.003323034
0.0008762421 -0.08197532 0.040961783
0.17817044 -0.080053665 0.06408875
-0.2281604 -0.16565515 -0.04673047
-0.31881106 -0.027889838 0.022006463
0.23931798 0.15847038 -0.006679644
0.18514796 -0.07670601 0.0065631308
0.10948789 -0.05740892 -0.006626507
0.24667309 -0.035045177 -0.073640525
0.12800862 0.18234421 0.100307286
0.045044772 0.09185815 0.070299424
-0.12507667 0.058167957 -0.036475837
