# .PCD v0.7 - Point Cloud Data file format
VERSION 0.7
FIELDS x y z
SIZE 4 4 4
TYPE F F F
COUNT 1 1 1
WIDTH 1000
HEIGHT 1
VIEWPOINT 0 0 0 1 0 0 0
POINTS 1000
DATA ascii
0.061733752 -0.06515618 -0.08637531
0.3408206 -0.07790528 -0.07405333
-0.3108312 0.23078093 -0.061725903
0.14243762 -0.21015967 -0.09532591
0.09279087 -0.097546466 -0.08250975
0.3365763 -0.057803154 -0.0972699
-0.3954706 0.19703995 0.029862395
-0.19843034 0.21228006 0.016189426
0.3283429 -0.09718448 0.10547607
-0.35734183 0.17828782 -0.07431211
0.13145381 -0.09431105 -0.14914384
-0.26462424 0.048458908 -0.017434338
-0.17397197 0.080771595 -0.08098159
0.0765882 -0.19310664 0.047322527
-0.15555982 0.08420931 0.094989456
0.07817915 -0.14136781 -0.024292417
-0.3942141 0.13239537 0.06301582
0.1522584 0.017794443 -0.018015651
0.010643163 0.09738086 0.0047916393
0.33658534 -0.09074286 0.008735792
0.1369485 -0.072207436 -0.132318
0.34416503 -0.07552396 0.078741886
-0.030970221 0.06403158 0.08312652
-0.18002167 0.20200056 0.017231232
-0.08040437 -0.014275368 0.07582088
-0.37856972 0.22862412 0.016142728
-0.022734672 -0.08910463 -0.003357975
0.2359492 -0.09926534 0.057271924
-0.41036916 0.14163642 0.050559174
-0.38970947 0.18104039 -0.06621883
0.2608898 -0.16094242 0.13733645
0.2792811 -0.07187834 0.11987562
-0.20652406 0.060215566 -0.06966321
0.036800347 -0.12171018 0.0070756255
-0.037663877 0.10630333 -0.04588886
0.25555944 -0.17888464 -0.15205248
0.031719197 -0.06250585 -0.080983296
0.10013693 0.027756058 -0.054818634
0.25157458 -0.063161865 -0.02069306
0.012712248 -0.040414512 0.08402305
0.09450446 0.032579362 0.049872227
0.035657138 0.08350925 -0.003295533
0.13112211 -0.05190332 0.085335284
0.07933424 -0.18214133 -0.048960514
0.30533746 -0.04515134 -0.10923721
0.07406795 -0.13634874 -0.03420334
0.104042664 -0.14710894 0.1106081
-0.026366558 -0.029070403 0.08185403
0.13713899 -0.14918725 -0.13553277
0.10427509 -0.13334423 -0.10447616
-0.16105199 0.037699666 0.08359052
-0.2625615 0.2232865 -0.045896295
-0.20963769 0.21344471 -0.017256953
0.18983969 -0.24789852 0.06575609
-0.2409941 0.13690224 0.09793574
-0.26812047 0.04679799 -0.006234024
-0.1124949 -0.03792135 -0.013920357
-0.3586978 0.2396874 0.08565503
-0.13072784 0.027906992 0.085225694
0.35327405 -0.033095635 -0.020347187
0.0922659 -0.21411802 -0.030920869
0.12024143 -0.2043398 -0.08731704
-0.09611826 0.15617195 0.0007218684
-0.23279706 0.22912231 0.027346743
0.2653068 -0.21262681 -0.11581455
-0.22712009 0.21544029 0.05259474
0.28004247 -0.13772665 -0.1543289
0.14409837 -0.128445 -0.14484127
0.2753516 -0.19343321 -0.13079132
0.18692933 0.009482449 0.015927017
-0.024370719 0.11543226 0.01606412
0.28983825 -0.072755486 0.00697048
-0.11201652 0.12318288 -0.06741163
-0.020026954 0.037322007 -0.08495216
-0.40615025 0.1648768 0.06752177
0.084907845 -0.007873257 -0.08451826
-0.15375468 0.003253768 0.059305105
0.29085478 -0.16489628 -0.1363741
0.13680637 -0.20866235 0.081927285
0.23845576 -0.26857865 -0.0009238269
-0.29953745 0.06439312 0.026012396
0.116798714 -0.11174962 0.078571714
0.026325542 0.0291275 -0.08162675
-0.20560256 0.18465193 -0.05547538
0.289797 -0.07330805 -0.04491511
-0.058869854 -0.01614713 -0.07656404
-0.05585785 0.08281418 -0.07407289
0.13385181 0.006487068 -0.05884039
0.19434655 0.02154514 0.038888317
0.2540748 -0.014845812 -0.10512177
0.20625392 0.047419686 -0.02919293
0.005023582 0.07530362 0.05884484
-0.15338384 0.1041224 0.094720945
-0.049723584 0.11333528 -0.04505999
0.015135063 -0.027144805 0.087170996
0.1985363 0.032869495 -0.02084142
-0.19610886 0.21036704 -0.002644915
0.3420626 -0.023524655 0.020161714
-0.02895563 0.11171111 0.03646173
0.29356852 -0.040856875 0.095441245
0.30399776 -0.07926894 -0.13254653
0.28035757 -0.19671655 0.068907686
0.11497904 -0.04454464 -0.09180027
-0.13401301 0.15721509 -0.045390047
-0.04778672 0.10698207 -0.05143073
0.07735899 -0.18673478 -0.032809857
0.016891906 -0.10764622 0.020350689
0.080954 0.042236067 0.047032617
-0.16240591 0.03321265 0.080237895
-0.061163668 -0.058573402 0.039193198
0.34856927 -0.052859355 0.057111714
0.09416146 0.02359118 0.058734193
-0.3309775 0.25820297 -0.046703607
-0.011203093 -0.04955715 -0.074823156
-0.17322561 0.006641347 0.049772937
-0.0037579087 -0.006504369 0.08976785
-0.042221636 -0.045607198 -0.06415695
0.15305544 -0.20999335 0.08988443
-0.1361328 -0.0020523113 0.063585445
0.2795836 -0.18569683 -0.07967397
0.1984332 -0.15630504 0.037787784
-0.032097965 -0.075939044 -0.03452305
-0.10571216 0.15756178 -0.01747334
0.34945264 -0.041434374 0.045305207
-0.3811717 0.12672774 -0.039465602
-0.37050423 0.16990651 -0.07068493
0.31327522 -0.00920727 0.027244046
-0.2825032 0.11130154 0.09033352
-0.11562561 0.028112492 -0.079159096
0.14817029 0.01863891 0.0183636
0.28819475 0.0020532524 -0.050551537
0.2093886 -0.15138428 0.057265338
-0.23718107 0.207979 -0.04832614
0.14162965 -0.061136656 0.08578449
0.061125807 0.025526866 -0.07454147
-0.41524017 0.14441137 0.03650358
0.2080088 -0.024056867 -0.12792179
-0.17990728 0.18404667 0.05816024
0.22940603 0.041131116 -0.017925346
0.07510287 -0.14183603 -0.01830247
0.28663278 -0.041751664 0.09929447
-0.11903037 0.13612178 0.07115361
0.20238315 -0.12290251 -0.15221056
0.0797059 -0.18100198 -0.05644502
0.023758823 0.006500499 -0.08845111
-0.07521776 -0.0007971831 0.084041364
0.09854905 0.03915596 0.03807351
-0.35348627 0.14585468 0.09102884
-0.31215838 0.24535446 -0.050003015
0.0026445247 -0.057797734 -0.07483814
-0.41397732 0.13074127 0.019480119
-0.1736426 0.14276451 -0.0731683
-0.33523902 0.18777668 -0.07653506
-0.3677391 0.2469207 0.03862991
-0.07005389 -0.02658622 -0.06605131
0.07083784 0.013408831 0.07676594
-0.25482914 0.07719758 0.07844702
-0.0058218166 0.0146158505 0.08995505
0.09276284 -0.15427901 -0.104481444
-0.13540214 0.08828287 0.09438893
-0.10932763 0.07031881 -0.084200345
-0.22845115 0.08334644 0.089176245
-0.19279435 0.14079385 0.09257771
-0.40814373 0.17770521 -0.029952958
-0.0076688263 0.065106414 -0.07157456
0.22737332 0.016133321 -0.084748566
0.25760633 -0.020560652 -0.10897151
0.31548518 -0.03072948 0.06984847
0.13955158 -0.24189697 -0.02336078
0.23247595 -0.061351214 -0.140155
-0.38758284 0.19251041 0.08854401
0.16004683 -0.07194596 0.1414845
0.04083503 -0.073621534 -0.078946196
-0.32320598 0.16810863 0.09983835
-0.16257805 0.14249116 0.08447623
-0.28235006 0.09352719 0.08025905
-0.20307714 0.012944335 -0.014117437
0.24595809 0.008001799 -0.08209964
-0.4005467 0.12307632 0.038788322
0.18888775 -0.09464147 0.14055349
-0.062443778 0.10485972 0.06934871
-0.05932758 0.0041334955 0.08773634
0.010573641 0.053106528 0.07514601
0.03727683 -0.11570233 -0.03429947
0.19765021 0.016357152 0.09516923
0.20913135 -0.19744302 0.038083203
-0.26339355 0.05596337 -0.035261713
0.16185153 -0.02865273 -0.10445113
-0.12242769 -0.00080392684 0.07009429
-0.19141233 0.03257102 -0.056067914
0.08747527 -0.17310928 0.04410066
-0.15420167 0.020542203 0.074052334
0.07703102 -0.20280616 0.03352554
-0.38786268 0.20964846 0.049643345
-0.39703038 0.11702916 0.01710249
0.010950671 0.013518637 -0.087997004
0.277947 -0.010272955 -0.08426332
-0.120748006 0.16958518 0.011934401
-0.30818218 0.17371544 -0.07745231
0.051962554 0.07227082 0.018693106
0.058231186 -0.13157313 0.015886422
-0.0872041 0.13827567 0.048535306
0.04632529 -0.030181734 0.08808272
0.20091373 0.020652948 -0.09629982
0.32534364 -0.07587793 0.10700177
0.29771277 -0.16717096 0.10135867
-0.2814308 0.11644668 0.092474595
-0.066573486 0.11036881 0.06629328
-0.35222614 0.19500698 0.101710856
-0.15875974 0.10854639 0.09473238
-0.3301981 0.09030738 -0.02845292
0.19666216 0.02787854 0.0046415855
-0.37803435 0.22890492 0.027323697
0.22815767 -0.22752275 0.10725947
-0.05901054 0.12311195 -0.03916047
0.29499355 -0.12365859 0.13521881
0.1868136 0.015919486 -0.09129119
-0.11182274 0.059049558 0.09349079
0.25770718 -0.20038606 0.04836796
0.1933927 -0.091144115 0.14041087
0.2897815 -0.07563969 -0.13438979
-0.08090062 -0.036121666 -0.053006675
0.35360906 -0.033313442 0.008705744
0.25018817 -0.24389787 -0.054861963
-0.2518825 0.07042991 -0.057559233
0.27290866 -0.06347765 -0.13221127
0.014436318 -0.06913419 0.07074888
-0.40118688 0.19164382 -0.050698563
-0.13866636 0.17069976 0.04422593
-0.20745568 0.14654449 -0.077335484
0.005153089 -0.094238915 0.038578864
-0.27875623 0.2567148 0.016246784
0.28247017 -0.14974608 0.13734008
0.09150534 -0.16265449 -0.0014538419
-0.13228045 0.118287094 -0.07552852
0.11053786 -0.15961735 -0.12168284
0.10523431 0.039772626 -0.029229263
0.11608116 -0.22939602 -0.018174496
-0.045682088 0.033638187 -0.086381264
0.07150842 -0.03392105 -0.09039585
-0.0801338 0.123506464 -0.05148549
0.19442499 -0.2029084 -0.12620056
-0.026842281 0.095066406 -0.05261317
-0.39683154 0.121589 -0.01453906
-0.25959277 0.05989349 0.060666014
-0.2053784 0.09579102 0.09489709
0.11046316 0.022308046 -0.0547731
-0.2296558 0.2293444 0.001212362
0.33055595 -0.027750837 0.05014183
-0.19597986 0.006536446 0.015284019
0.19790147 -0.04574184 -0.14048089
0.22415307 -0.042743217 0.12226929
0.027323777 -0.11099374 0.027742192
0.18805759 -0.036216505 0.12929146
-0.08112054 0.124211535 -0.05128067
-0.1526421 0.14497025 0.0799835
0.089422174 -0.10683085 -0.07604322
0.19122411 -0.15440284 -0.14643641
-0.15151882 0.069012254 -0.08183187
0.2800194 -0.06735775 0.0069585876
-0.28354037 0.071371555 0.05916944
-0.29408833 0.07048288 0.048666373
-0.28394 0.2594586 0.0066434555
0.11228971 -0.11845841 -0.10956091
-0.16105281 0.11022492 0.09475914
0.19501366 -0.18297791 0.12290016
-0.00049017015 -0.068716705 -0.065460086
0.21749786 0.04809711 0.0046850634
0.06712482 0.0046112644 -0.08308532
-0.09386839 0.10042818 0.08472064
-0.2805309 0.05316503 0.018008605
-0.3444174 0.27305052 -0.018551497
0.17278805 -0.25298843 0.038607243
-0.017810807 0.039523322 -0.08387352
-0.23036605 0.041963965 -0.042291157
0.27691722 -0.0872502 0.1272028
-0.33533612 0.27855247 -0.005911401
0.1311285 -0.10702518 -0.14817925
0.07101559 -0.113394715 0.058774527
0.1687888 0.006490863 0.01984539
0.1242859 -0.079113334 -0.09364256
0.21663348 -0.2047772 0.0070774923
0.3049663 -0.12693468 -0.075560294
-0.06922975 -0.029902982 -0.06387582
-0.27995086 0.16874324 0.09932625
-0.16310023 0.18092926 0.049680296
-0.2782398 0.22740662 0.07330511
0.05852057 0.05840128 -0.04361384
0.26520362 0.020444922 0.015941115
-0.11965499 -0.03569201 0.010199156
0.2220089 -0.20580737 -0.1341036
0.18782516 -0.12800287 0.13921003
0.16061826 -0.23536244 -0.07457908
0.24135895 -0.25909865 -0.06862082
-0.124436215 0.040558808 -0.080636956
-0.41221967 0.16819106 0.0039583044
-0.29243705 0.05954762 0.016155466
-0.24221814 0.059348088 0.06963531
0.24830349 -0.2518725 0.018412562
-0.006581748 0.05810527 -0.074356064
-0.3758605 0.11184206 0.044208843
0.09738734 -0.061625443 0.086321115
0.26341155 -0.08439496 -0.14387703
-0.22739622 0.14927933 0.09663018
0.20281808 -0.09114345 -0.15134265
-0.22042572 0.20687242 -0.0395918
0.20722145 0.017878506 -0.09573645
-0.088320926 -0.0046024364 -0.07376677
0.2798037 -0.12567224 0.13650437
0.13649577 -0.04333118 -0.088433824
-0.25791496 0.040876154 0.019495102
0.22233592 0.03577503 0.044847526
-0.071157895 0.019307455 -0.08493367
-0.04638506 -0.030307345 -0.07355007
0.10402688 -0.1348761 -0.075241566
-0.3651121 0.12329494 -0.046186335
0.03672079 -0.11675935 -0.029468969
0.21740283 -0.088425845 -0.030535132
-0.14918992 -0.019080846 0.016045954
-0.27532485 0.18978798 -0.07319601
0.12712255 -0.040137388 -0.08824072
-0.292596 0.098712355 0.08027916
-0.01945948 -0.07700514 -0.045330048
0.13075747 -0.0631497 0.0852813
0.07936247 -0.20909463 -0.018090488
0.036299117 0.05518565 0.061128773
-0.23124689 0.06767273 0.08015893
-0.081363834 0.09919238 -0.07198538
-0.03893388 -0.06378428 -0.04838108
0.19415012 -0.16507193 0.02804165
0.07365568 -0.2066381 -0.010536231
-0.40499774 0.176311 -0.046528146
0.28899783 -0.18164346 0.07919152
-0.051032614 -0.051241223 -0.05545355
-0.23361579 0.026900958 0.0067554563
0.121134914 -0.19234076 0.09108525
0.2436327 -0.06978918 -0.030460255
-0.30481803 0.066129394 0.0066710226
-0.3230709 0.2319471 0.089656085
0.13545194 -0.07059918 0.08706696
-0.23233433 0.2206591 0.049629014
0.09561655 -0.0074790637 -0.08345668
-0.0084174555 -0.09580525 -0.015719287
0.072053485 0.03802861 0.057925407
-0.102162294 0.0500592 -0.08435976
0.11695683 -0.22888903 0.01588353
-0.3298077 0.22069536 0.0962299
0.13529767 -0.15509337 0.122746356
-0.073241696 0.037176516 -0.08550979
0.12197667 -0.11597883 0.13451293
-0.031879805 -0.046946447 -0.06777214
0.17904063 -0.030968243 0.12947394
0.19655304 -0.010923673 -0.12373155
0.35122553 -0.036424506 -0.041360844
0.05169735 0.00052100024 -0.086078554
-0.34316143 0.14103343 0.09100535
-0.37536913 0.17270337 0.097015336
0.071057394 0.030561088 -0.066281386
0.10341988 -0.19785199 0.072665125
0.22818817 -0.27386814 0.02807782
0.18735065 0.011788866 -0.008898023
-0.10977045 0.16075851 -0.013979703
0.098470695 -0.11366532 0.0686499
0.039858326 -0.084146194 0.06920237
-0.3958978 0.19713709 0.015767908
-0.30461913 0.14362922 -0.07525514
-0.2726211 0.25324526 0.0073465477
0.19470134 0.021450147 0.050836302
-0.27983698 0.19662556 0.093149535
-0.29989028 0.068183266 -0.017353943
-0.36516392 0.12217816 0.069825
0.024991823 -0.10987977 0.027246282
-0.4136124 0.14371657 -0.018751001
0.22544086 -0.27239078 -0.04933261
8.847671e-05 -0.021297183 -0.08632574
0.18759063 -0.14610326 0.13568713
0.1757443 0.0077698403 0.004598426
0.045935698 -0.051563088 0.08467751
0.33608702 -0.09044895 -0.01060925
-0.38758224 0.15359987 0.08545568
0.274428 -0.11656373 0.13623206
-0.29079467 0.17500845 0.09969654
-0.16656265 0.11931069 0.09414413
0.13732097 -0.20697269 0.08411869
0.3409438 -0.08013397 -0.03449889
-0.11736124 0.16470398 0.027318992
0.19780405 -0.17908102 0.1252079
0.07049061 -0.023424996 0.08737501
0.09078102 -0.21440727 0.017531097
0.2550533 0.023161398 0.027810657
0.18069045 0.0063228505 -0.116034694
0.2295085 -0.1499384 0.13787118
0.33411434 -0.050194025 0.080868095
-0.02216095 -0.081635036 -0.034490872
0.088046655 -0.1738146 0.07218714
0.3392705 -0.08105929 -0.06865907
-0.06657197 0.03460568 -0.085729875
0.30260736 -0.034072194 -0.098424055
0.023286382 0.037712827 0.07960021
0.10867215 -0.042223163 0.08608641
-0.113323405 0.109201305 -0.07548364
0.11578729 -0.112410866 -0.10447047
0.16536793 -0.25728056 -0.011445299
0.087495536 -0.18533108 -0.08733593
-0.25188717 0.067402564 0.07213659
0.08050442 -0.00042792002 -0.08332702
0.2319166 0.012959722 -0.0859666
-0.35589123 0.23903927 -0.066075034
-0.1362708 0.060970645 -0.082410246
0.29765224 -0.14135242 0.06724313
-0.18782735 0.011563469 -0.032373533
0.19427066 -0.12012964 -0.030558027
-0.18605591 0.07121255 0.09133443
0.21177663 -0.20475572 -0.1312717
0.1770362 -0.2010283 -0.1211328
-0.27847928 0.25132456 0.038472835
0.30915743 -0.07233672 0.110507436
-0.20655683 0.06952099 0.08775794
-0.02869131 0.1025341 -0.04497649
0.25100926 -0.054376975 0.119991325
0.1293769 -0.15911518 -0.12865214
0.060698643 -0.0016197027 0.08395519
-0.0416027 0.07407882 -0.0750827
0.24002984 -0.2381782 0.10192793
0.20542936 0.046540916 -0.03920581
0.113174155 -0.1930248 -0.09551059
0.19077851 -0.25728166 0.05000982
-0.3907316 0.2071472 0.005863367
0.28252423 -0.18244594 -0.09766203
-0.056453984 0.13386627 -0.003459861
0.32743156 -0.10984815 0.04843307
-0.037381116 0.12162012 -0.013812454
0.2437204 -0.23040517 -0.11870305
-0.12477372 0.06974976 0.09395103
0.06431853 0.065665424 0.017416619
0.28536275 -0.18889794 0.08960423
0.33816952 -0.03196949 0.049955666
-0.075026564 -0.026803786 0.06852826
-0.24950445 0.07564265 0.07926796
0.25312424 -0.09240448 0.13421437
0.31114408 -0.11163544 -0.1355904
0.01886312 0.019684907 0.0861783
0.03125326 0.0024020951 0.08873824
0.03462853 -0.0024734153 -0.08907163
0.104505636 0.04324324 0.01744709
-0.3686295 0.24561599 0.033600602
0.2000308 -0.25141054 0.068697535
-0.19963486 0.03852411 -0.056923456
-0.3152429 0.11439106 -0.062072895
-0.28440928 0.05522602 0.017182508
0.08267264 -0.18929642 0.068884894
0.14640026 -0.09497393 0.14149866
0.07896934 0.00083558104 0.07992134
-0.13318765 0.13279836 0.07994173
-0.1365986 0.01992078 -0.07092318
0.31642905 -0.038133923 -0.094935745
0.111840695 -0.06649054 -0.09179163
-0.0418823 0.057409547 0.08696332
0.25447336 0.022922875 0.03007646
0.007448923 -0.1056059 0.004601091
0.07431243 -0.19084996 -0.055798035
-0.31435424 0.11677962 0.08547927
0.3163567 -0.13254762 0.089717686
0.2879341 0.005703388 0.0241806
-0.19257045 0.026161535 0.06266225
0.14448026 0.020937143 0.017477524
-0.014692402 0.053520642 -0.079575375
0.2796079 -0.07178079 -0.13491444
-0.35697567 0.11201263 -0.038383197
0.14092785 -0.20327368 -0.102152064
0.21893767 -0.14985467 0.13774164
-0.25796378 0.21989785 -0.047049362
-0.062642805 0.036982886 -0.085836895
-0.056356303 -0.070394255 0.011626158
-0.28226337 0.064690724 0.049688406
-0.33840093 0.11114738 0.071976714
0.35615465 -0.042099416 0.007513217
-0.2978177 0.19011508 0.09868429
0.33283064 -0.058664516 -0.10458343
-0.25140324 0.23938912 0.027825443
0.31258714 -0.12865016 -0.08362167
0.10075743 -0.13128133 -0.06860576
-0.3179108 0.1778411 0.10055121
-0.37319526 0.23554385 0.06216419
-0.175654 0.018572913 0.063964985
-0.09410392 0.15132274 -0.017497826
0.13182043 0.012185408 0.048371464
-0.40949312 0.12471436 0.027357891
0.25927904 -0.04149392 0.11032636
-0.24072227 0.20087823 -0.056976378
-0.14610642 0.095014356 -0.082919106
-0.059293672 0.083896905 0.081910454
-0.050744552 -0.023759387 0.079514734
0.05371933 0.054371715 0.052201286
0.05851583 0.005959618 0.08256875
0.12637936 0.021428104 0.041064374
0.31564683 -0.04968681 -0.10831803
0.2391846 -0.26454055 -0.044663057
0.32885897 -0.09031593 -0.11496601
0.10045017 0.040426478 -0.034138918
0.15644215 -0.032533318 -0.08637785
0.079567425 -0.01797373 0.0855056
0.023036776 0.08186294 0.038545854
0.29969022 -0.077938944 0.027727958
-0.18518163 0.082940035 0.09399486
-0.004090548 0.052268315 0.080862276
0.16880931 -0.028437326 0.09604944
0.2600241 -0.056912344 -0.040159628
-0.29420486 0.12205427 -0.071748845
0.3145871 -0.13384154 0.05872732
0.07058697 -0.20242903 0.021676574
0.20922387 -0.17477198 -0.14376077
0.05630051 -0.072481856 0.07983685
-0.37790653 0.22630765 0.0729267
0.27700114 0.01512927 -0.018025976
-0.28720635 0.13646547 -0.07633893
-0.14490569 0.057337463 0.09197906
0.26398662 -0.22755072 0.08608165
-0.35079607 0.117414966 0.071953826
-0.14072175 0.0076055597 0.06947884
-0.30480203 0.06641713 0.017168049
0.33874142 -0.08081678 -0.08801312
-0.36464208 0.16648291 0.09658214
-0.18121476 0.028241418 0.069541335
-0.24818797 0.17321761 0.09401258
-0.22752188 0.07437612 0.08590569
-0.036897816 0.10946024 0.048497587
-0.11252616 0.16285606 0.023769865
-0.26395333 0.14678413 0.09870263
0.15234137 -0.015295766 0.06363118
-0.28439954 0.055451877 -0.0037941248
0.2223983 0.019539962 0.07451783
0.2511023 -0.046003133 0.115571246
-0.37633148 0.117594674 -0.030703304
-0.3214951 0.2210983 0.094199136
0.022579871 0.08816358 -0.0177429
0.028406434 -0.097611435 -0.055114362
0.092699 -0.16538368 0.07268582
0.085149564 -0.2129244 0.003646725
0.08983456 -0.016723478 0.08252849
-0.4052741 0.1770082 0.06541647
-0.12873855 0.15167923 0.06045105
0.11148639 -0.011519534 0.07706851
-0.39042684 0.20983191 -0.028489517
0.1985334 -0.22538118 0.09751284
0.3324578 -0.083941035 0.09919057
-0.1705453 0.16836254 -0.05404476
-0.15755737 0.031487033 -0.07023731
-0.35596907 0.25069404 -0.052161522
0.2410798 -0.0365223 -0.1258681
-0.4024333 0.17844507 -0.050648976
0.054600812 0.027826363 0.07404296
0.13962232 -0.15052477 -0.13563012
0.0051456382 -0.09255057 0.041522745
-0.060657825 0.003758095 -0.08246918
-0.077902876 0.13673699 -0.03351649
0.09446519 -0.21809107 -0.011151866
-0.062271837 -0.062835775 -0.02420994
-0.04775212 0.12887944 -0.006362906
0.10680816 -0.14834094 -0.12692939
-0.19628909 0.21088582 0.018107489
0.33060494 -0.09538762 -0.013686899
0.25602427 -0.2378169 0.018181063
-0.37546957 0.2365896 -0.021398036
-0.3182019 0.10116192 0.07219579
0.13341738 -0.09545598 0.1389869
-0.022038955 -0.08003852 0.038100302
-0.121764235 0.14784911 -0.048475686
0.10695856 -0.08221276 -0.08942247
0.19839804 -0.2042466 0.11232752
-0.29307744 0.18905807 -0.07610131
-0.35701013 0.2671303 0.027363129
-0.057038125 0.120998465 0.04851259
0.13073266 -0.003362242 -0.06928436
0.25412259 -0.064762704 0.018298242
0.05038422 -0.010819676 0.088070445
-0.052214216 0.124218665 0.038111422
0.30576754 -0.11321436 0.12973799
-0.26155278 0.08909917 -0.06699881
0.2633674 -0.09880894 0.13411711
0.005462555 0.027234115 0.08662029
0.027684452 -0.10651911 0.03808889
-0.0751324 0.076280095 -0.080708936
-0.3673966 0.25100347 -0.017111044
0.19371146 -0.17236173 -0.14091265
-0.09382123 0.14693014 -0.028721185
0.087122545 -0.16487151 -0.09905077
-0.32368627 0.110679865 0.07755185
0.21672392 -0.20471221 0.017412448
-0.053044364 0.05525454 -0.08404629
0.23940359 -0.2667364 -0.0028222578
0.23734026 0.035593923 0.017590988
0.11100859 -0.206775 -0.074996985
-0.1922119 0.20640004 0.027683146
-0.12383054 0.08663502 -0.083310224
0.07337059 -0.19946171 0.03858162
0.07423162 -0.13646667 0.02723361
-0.079610154 0.13041587 -0.043365933
-0.29192936 0.13768992 0.09683242
-0.04154669 -0.06354972 0.048493166
0.02309329 0.01503328 -0.08569573
0.09413122 -0.15093014 0.030057326
-0.049606454 -0.06756159 0.03416368
-0.1841171 0.15798464 0.08330091
-0.11377324 0.034422494 -0.080947004
0.18226361 -0.08475579 0.14077054
0.18351516 -0.042160843 -0.14175901
-0.07897708 0.04008227 0.092363134
-0.028015804 -0.08516594 0.015952902
-0.07971226 0.009147271 0.086799085
-0.25937656 0.04148396 0.017145742
0.20613009 -0.04784786 0.12941149
-0.1957252 0.16520427 0.08327309
0.103476524 -0.14665501 0.086699344
-0.20792691 0.024530128 -0.03567962
-0.00037398617 0.049768593 -0.07756843
0.30437887 -0.024412397 0.06988838
-0.07648417 0.028490506 -0.08468331
0.27839562 -0.048758727 0.10788454
-0.09951891 -0.042330477 0.028366126
0.23811476 -0.18917829 -0.06504952
-0.25457203 0.07859106 -0.062363297
-0.20303956 0.14998932 -0.07567745
-0.057170603 0.058422625 0.090256095
0.349833 -0.06485581 -0.020285815
-0.05683676 0.040614862 -0.08599652
0.013125206 0.012599591 -0.08804074
-0.27956584 0.14504844 -0.07802358
-0.39954096 0.14344092 -0.04595471
-0.19953762 0.05471606 -0.068911396
0.029295307 -0.074062936 -0.073738374
-0.18783934 0.077184334 -0.07882442
0.35779592 -0.05226957 0.010302913
0.13272156 -0.005625967 -0.07051196
-0.28892234 0.07384035 -0.03976496
0.091832675 -0.20903093 -0.04874854
0.25139928 -0.24297704 -0.034199785
-0.10730249 0.16238692 0.006868425
-0.19199596 0.023176301 0.059065487
0.07819949 -0.19720003 0.04992257
-0.30258036 0.13809766 0.09588559
0.20533662 -0.14994308 0.13699687
0.24317485 -0.15672721 -0.15288077
0.098786466 -0.010779271 0.07944108
-0.32334787 0.08128849 -0.01730054
0.23518586 -0.18015932 0.13151252
0.14729013 -0.22738793 -0.075169735
0.30272803 -0.1456545 -0.098492615
0.24720971 0.030080453 0.01759849
0.057947986 -0.115961276 0.048425354
-0.40214244 0.17824416 -0.051087677
-0.16615921 -0.0024935897 -0.028906383
-0.13176163 0.10283125 0.091797575
-0.14340477 0.05149104 0.09080546
0.17756094 -0.11700157 0.14001726
-0.14243127 0.17165717 -0.032294616
-0.32573417 0.11573697 -0.05848311
0.15640035 -0.16980821 0.12041369
0.2776157 -0.19076933 -0.107334584
-0.41690072 0.15818234 0.028103426
-0.103249185 0.074341305 -0.084166326
0.26748553 -0.19109425 0.13053396
0.2663908 -0.21387048 -0.06398802
0.30616122 -0.1402596 -0.084847026
-0.1748686 -0.0050874352 0.014827748
-0.21833754 0.056245852 0.07655668
-0.16220744 -0.0017153905 -0.034938853
0.25527605 0.017001215 0.045199554
-0.35708624 0.26891488 -0.017041918
-0.33534262 0.27651498 0.038184326
-0.052984122 0.076678745 0.083879784
0.21830143 0.03896293 -0.051832758
-0.3841347 0.21607709 0.055276446
0.34049487 -0.08181586 0.08611276
-0.14105806 0.002404204 -0.055846967
-0.37661505 0.1059204 0.006029633
-0.35500178 0.10715161 0.056757156
0.20498168 -0.06462649 -0.14610009
-0.27875075 0.25658816 0.005134693
0.28253725 0.0038179487 0.040215064
0.0861156 -0.076732844 0.08268035
0.12305264 -0.2136181 -0.07505363
-0.25675356 0.19182543 -0.06844374
0.16608427 -0.0524268 -0.14788608
0.1360081 -0.19217584 0.098740585
0.0643232 -0.06584976 -0.08662704
0.18934515 -0.18483017 -0.049883015
0.22298327 -0.0117922 -0.11566619
-0.115941465 0.14242387 -0.051164065
-0.104375534 -0.027639378 -0.046322852
0.28314486 -0.19391179 0.10541629
-0.29018083 0.26287037 0.0051482874
0.07107798 -0.19759044 -0.048097182
0.33716863 -0.018291987 -0.02298995
-0.2093203 0.030364385 -0.043002725
0.2066281 -0.13770992 -0.15155503
-0.010742461 0.09088575 -0.047445744
0.12640329 -0.09089004 -0.14029048
-0.13341403 0.1357863 -0.06594983
-0.26106104 0.08108495 -0.061356634
0.23447329 -0.053613167 -0.13631576
-0.18996039 0.15465069 0.08709384
0.30784324 -0.08667048 0.11850361
0.12701634 -0.0902533 -0.13254492
-0.23898354 0.07451685 0.082314186
-0.10415497 0.054522373 -0.08445154
0.10282172 -0.22311716 -0.006795933
-0.34397975 0.124236405 -0.056738954
-0.34192285 0.09693149 -0.028420653
-0.11121783 -0.019349962 0.058974147
-0.09515027 0.11540643 -0.06667749
0.26377144 -0.2273424 0.07641603
0.25156766 0.018046638 -0.058593687
-0.24213827 0.1958759 -0.061982658
-0.032571666 0.087330945 0.069297
0.04463462 0.07720247 -0.013622875
-0.31953686 0.16603947 -0.07655008
0.09351425 -0.16384715 0.07178936
0.24086581 -0.25201452 0.078918904
-0.2850408 0.19709782 -0.072164916
-0.22978847 0.17098556 -0.07253281
-0.2277005 0.13749999 0.09752955
0.010686352 -0.037495434 0.08463013
0.17087972 -0.10408286 0.14103591
0.22924261 -0.18697724 -0.14406848
0.007603246 -0.09869446 -0.034395248
0.35672688 -0.054040957 0.007501581
0.19840959 -0.2218978 -0.11512413
-0.10876072 0.0078000105 -0.07351805
0.2614642 -0.104385085 0.13630193
-0.15959956 0.12486688 -0.07759685
0.21069498 -0.08264459 0.13849081
0.0057888175 -0.0006428983 0.08950616
-0.3563124 0.25164387 -0.05045681
0.2203813 -0.10552189 0.13945654
0.048298717 0.045561835 -0.063083045
-0.056399427 0.017778695 0.09042132
0.13230745 -0.0819224 -0.11177303
0.114208765 0.035794985 0.02363109
0.08501059 0.009373874 0.07386847
-0.3275962 0.20895565 0.09937766
-0.06031982 0.099268526 -0.065226756
0.2064756 0.045019742 0.015972888
0.1645263 -0.115176655 -0.15007211
-0.38624835 0.11471011 0.036777113
0.2872911 -0.09770646 0.048448794
-0.13219838 -0.01561793 0.04881115
0.16538478 -0.08799167 0.14131778
0.22146106 -0.10197377 -0.059735633
-0.35500985 0.20779401 -0.075795166
-0.3247589 0.1817635 -0.076894216
-0.016834922 0.0031268876 0.09022846
0.33443964 -0.07831809 0.09582431
0.24626148 -0.2507853 -0.058949377
-0.21658695 0.17590004 0.084448345
0.20644441 0.04531424 -0.051791567
-0.23096034 0.09737915 -0.076515324
-0.23854741 0.22624077 -0.024774307
-0.4083489 0.16471894 -0.0414183
0.036570635 0.046762343 0.06917737
0.2021552 -0.23074058 -0.11004673
0.1836337 -0.021347344 -0.13267738
0.078286 -0.07650184 -0.08635499
0.07439964 0.035055 0.058758546
0.080767095 -0.036011707 -0.09069406
0.2800289 -0.1930267 0.11860751
-0.065514006 0.12279654 0.05201579
-0.016360905 0.04268661 0.08622782
0.034903772 0.02616828 0.08114355
-0.08376695 0.14120811 0.040404443
-0.37779695 0.11644755 -0.026752697
-0.3819272 0.13885343 -0.05063579
-0.22174303 0.050741903 -0.056201287
-0.07695945 0.14507614 -0.0034966276
-0.35731742 0.17938407 0.10008347
0.025227793 0.08896626 0.0070367493
0.12653533 -0.13480349 0.12988618
0.093945265 -0.021765258 0.08337905
-0.1761141 0.031908017 -0.06238998
-0.1964568 0.092689164 0.09481445
-0.08130707 -0.026247492 -0.06121734
-0.24142808 0.108492196 -0.07737161
-0.053659063 0.12322343 -0.03465432
0.23065722 0.027059183 -0.06321912
0.30180034 -0.006081699 0.03800734
-0.048346613 -0.016300267 0.082856745
0.19674431 -0.017352281 0.11810957
0.18959919 -0.13997045 0.008514578
-0.33891857 0.116374716 -0.05306976
0.1117605 -0.1187144 -0.12095328
-0.3441886 0.16435243 -0.07363757
-0.18062715 0.13695942 -0.07669213
-0.21268415 0.027071703 0.04861014
-0.038342223 -0.017350953 0.08415989
-0.15827107 -0.011027728 -0.01767613
-0.15834685 0.04726263 0.08774291
-0.09752825 0.15638109 -0.0035334441
-0.40385497 0.16371205 -0.048075322
-0.15658079 0.16420431 -0.050437685
-0.07849447 0.06553504 0.091996714
0.07304818 -0.032684162 -0.09043642
-0.1254657 -0.032386743 -0.0064876606
0.09099084 -0.167138 0.050842166
0.06465869 0.03870037 -0.062117774
0.16659784 -0.1999632 0.10462351
-0.29421806 0.07105613 0.04967907
-0.196491 0.04308156 0.074971564
-0.09028348 -0.017945616 0.0694017
0.19853646 -0.26701254 0.038019724
-0.3971707 0.14351909 -0.04713905
-0.30589366 0.20908295 -0.07127024
0.016037637 0.042358696 0.079412825
0.20674957 -0.2025236 -0.13079193
0.21035874 0.016787594 -0.09513487
-0.4124066 0.13570337 0.038472556
0.26215312 0.011970189 -0.059502106
0.13987117 -0.23833233 0.027797122
0.21224716 -0.04931195 -0.13905974
0.24782221 -0.24767959 -0.06326715
-0.30472943 0.06780063 0.027665135
-0.049932588 -0.05818367 0.049869034
0.12730946 0.03071488 0.016565846
-0.34435803 0.21847689 -0.0740783
0.20139956 0.034923304 0.029978726
-0.35754693 0.12413175 -0.05043759
-0.41731036 0.15817341 0.016231582
0.046675235 -0.018853946 0.088138655
-0.077441044 -0.05885649 0.0112169245
0.22332652 0.0009324684 -0.10534111
-0.18810405 0.118327655 -0.0814662
0.18969843 -0.25245747 0.058471374
-0.12869461 0.1670863 0.038509183
0.21336481 -0.033714138 -0.13183926
-0.06511878 0.052723534 -0.0856058
0.1454946 -0.037429914 -0.08642333
0.28861675 0.009449204 -0.0027459804
-0.3111342 0.26870668 -0.015468473
-0.022617225 -0.08760803 0.017367207
0.24300006 0.027143547 0.038022146
0.06043205 -0.023784202 -0.089993685
0.27209193 -0.12379347 -0.15324016
0.23351206 -0.0049379747 0.095270455
0.08879806 -0.17235479 -0.10292793
0.0479537 -0.089200795 0.06843383
0.0025138808 0.018741734 -0.08762466
0.19784945 -0.15938847 0.13286468
-0.0359237 0.11284107 -0.036344763
-0.36710984 0.24456821 -0.050503228
0.24526982 -0.05849235 -0.13621649
0.22096185 0.036523 -0.05402035
-0.23939519 0.03722458 -0.025118906
-0.24603005 0.18737994 -0.06800059
-0.084298246 -0.0042573255 -0.074889965
-0.28453165 0.18420064 0.098097585
-0.18671313 0.03807242 -0.062209528
0.1126829 -0.19863378 0.07912606
-0.25255498 0.24221037 0.0066835666
-0.30115363 0.26015386 0.049577843
0.03558105 -0.058030844 0.08162937
0.29296404 -0.17505929 0.08937234
-0.32146922 0.14155251 0.09485983
-0.17175077 0.012518413 0.059042513
0.34420216 -0.050621156 0.06852049
0.057439428 -0.13194992 -0.018166156
-0.0033165985 0.0695989 -0.065703236
-0.21918452 0.17642993 -0.06679593
0.027222874 0.029016573 0.081848055
0.17863488 -0.08353787 0.14093524
0.28892702 0.0086147 -0.018051097
0.12167536 -0.21632935 -0.0693993
0.25361076 -0.15703611 -0.15363833
-0.050423592 0.052456494 0.09081798
-0.27197084 0.17736153 -0.07677426
0.21895692 -0.27974525 -0.01063606
0.19082579 -0.008855175 0.11542234
0.34230632 -0.07799273 -0.029082365
0.15068044 -0.17590003 -0.12642698
-0.3360647 0.17752223 -0.076253235
-0.35488003 0.11682876 0.06980849
0.08078698 -0.21128185 -0.0029894093
-0.19901896 0.17641002 -0.059740562
0.23608485 -0.2160396 -0.044523794
0.25433135 -0.23310854 -0.10732314
0.20373353 -0.054226667 -0.14276694
0.23463382 -0.09153492 0.13735709
0.3320945 -0.096244834 -0.017176686
0.0070638107 -0.10548075 -0.0033085435
0.2473089 -0.15842533 0.13737595
-0.3297723 0.13523085 -0.068155356
0.22523482 -0.039644077 -0.13191107
-0.015724862 -0.09180302 0.015943585
-0.06493555 0.118543684 0.05693036
-0.0217353 -0.07599403 -0.044897016
0.28893876 -0.036917694 0.094531775
0.26522025 -0.21342154 -0.10554743
-0.38182417 0.21464778 -0.06139606
0.24134007 -0.09198144 -0.14983144
0.28272557 -0.09112412 -0.14281549
0.10267403 -0.19569843 -0.08521093
-0.19843386 0.13021623 -0.08033208
0.35165665 -0.043496363 -0.049370203
0.23650391 -0.21569678 0.007102902
-0.16795193 0.062435 -0.07865036
-0.019410167 0.050137762 -0.08111345
0.21986164 -0.18652311 -0.1419005
-0.33546486 0.08324401 0.017146386
-0.19282186 0.0049467455 -0.007116505
0.13277838 -0.08077566 -0.11640606
0.23008336 -0.10708287 -0.07914026
0.309328 -0.08754672 0.118478976
0.29679504 -0.075416945 -0.13235967
-0.3741812 0.23733549 0.0043393085
0.324917 -0.012346151 -0.02947609
-0.2602464 0.09517464 0.088101104
-0.41625008 0.15872447 0.038476095
-0.2165546 0.06805945 0.085419446
0.3242607 -0.10595028 -0.10736108
-0.28909257 0.23368248 -0.049855463
0.10746334 -0.22095752 0.027239423
-0.051555376 -0.058276534 0.04849978
-0.2941529 0.265118 0.010940696
-0.024192022 0.008454398 0.09048692
0.17350718 -0.021539621 0.12254407
-0.15358697 0.1877769 0.0027208906
-0.052184224 -0.019553803 -0.076896295
0.26272509 -0.22684154 0.03774854
-0.26720503 0.24831566 0.027355013
-0.17055319 0.104475975 0.095570035
0.15218508 -0.036255654 0.07786698
0.22858486 -0.27279896 -0.043624524
-0.36935735 0.24607 0.00492563
0.12693459 -0.09171636 -0.111357294
0.26165593 -0.13874099 0.13804774
-0.3850446 0.14898492 -0.056921102
0.23637398 -0.19124644 0.12789166
0.15043777 -0.062544204 0.10734398
-0.04257669 -0.07728065 -0.01376761
-0.0680172 -0.017111767 -0.07376299
-0.36012042 0.26356545 -0.0063209124
-0.29458848 0.061095957 -0.0038111592
0.08910588 -0.029668676 0.08676476
0.22205058 -0.23542199 -0.11553
0.14601837 0.021873632 -0.013389911
0.12634963 -0.16051053 -0.12676711
-0.35040167 0.20923328 -0.07546932
-0.13605349 0.07205413 -0.08336381
-0.23504832 0.06399902 0.07607727
0.13929257 -0.08449275 0.13450728
0.33316725 -0.09995772 0.05708969
0.20144244 -0.19439319 -0.1334491
-0.28996438 0.2565257 -0.017625986
-0.0053883363 0.036400758 0.08589565
0.30643013 -0.15157156 0.105423324
0.20954072 -0.24346754 0.085260786
0.10341988 -0.11756411 0.06777703
-0.08684539 -0.0084701395 0.07738551
0.28730452 -0.124758296 -0.15312669
-0.0376479 -0.061211087 -0.052949227
0.06973789 -0.20241323 -0.0034398611
0.1911467 -0.18578678 0.018305795
0.23870744 -0.26872176 0.008744856
-0.13974364 0.16470717 -0.039828006
-0.037295178 0.036954347 0.09105915
0.13021065 -0.23208353 -0.043888487
0.2441023 -0.1464378 -0.15363799
0.099112615 0.02777948 -0.055354007
0.21063033 -0.25043437 0.07809625
-0.12023572 -0.01359237 0.060224406
-0.2347689 0.09140615 0.09112014
-0.11395446 0.08579452 -0.08309675
0.27774563 0.0071216472 -0.052038293
-0.22476988 0.17123002 0.089739494
0.12524252 -0.06468008 0.08544268
0.23419155 -0.0019627044 -0.10226203
-0.011714303 -0.014417661 -0.08626502
0.16626135 -0.25653526 -0.024824368
0.056809384 -0.12952518 -0.02389338
0.3060019 -0.05291728 -0.11502358
0.1929655 0.02554002 -0.0660293
0.23546408 -0.088375576 -0.14950578
-0.2838806 0.06503834 0.048659332
-0.35486478 0.11716059 -0.04614586
0.17825311 -0.09482243 0.1408812
-0.35007167 0.19644092 0.10165288
0.19660741 0.028481148 -0.006665707
-0.03809855 0.003529926 0.08915793
-0.12045931 0.12877841 -0.06629053
-0.10500229 -0.009788019 -0.06298899
-0.1886215 0.026683781 -0.052693803
0.1538695 -0.0014845126 0.04991636
0.29844835 -0.15253696 -0.11302775
0.15527664 -0.0110935485 0.057672005
0.13882096 -0.23047842 0.047980513
0.15926695 -0.032792684 -0.09022588
0.2356698 -0.07657994 0.13275819
0.2996227 -0.078591414 -0.034507826
0.31809154 -0.11612804 0.11728392
0.1959382 -0.22219387 -0.113770574
-0.21920638 0.09368418 -0.07755857
0.061139133 0.06265622 -0.0312238
