# .PCD v0.7 - Point Cloud Data file format
VERSION 0.7
FIELDS x y z
SIZE 4 4 4
TYPE F F F
COUNT 1 1 1
WIDTH 1000
HEIGHT 1
VIEWPOINT 0 0 0 1 0 0 0
POINTS 1000
DATA ascii
-0.1196261 0.015582755 0.017689656
-0.057874393 0.19689521 0.03436906
-0.009837046 0.122527465 -0.05100852
0.26290783 -0.21447879 0.041775916
-0.010046859 -0.020491995 0.09132742
-0.14564279 0.034012947 -0.0019304877
0.019764964 -0.034219157 0.10577024
-0.21112697 0.22986153 0.032610442
0.019823011 0.004980532 0.09353213
-0.19553782 0.12059977 0.05807363
-0.09900681 0.19650729 -0.19977193
0.10502802 -0.12986837 0.15008047
-0.27729198 0.18609257 0.009540742
-0.17284876 0.16947977 0.060449786
0.15626839 -0.040134925 0.07479735
-0.23741367 0.14731112 -0.16175812
-0.19180553 0.18458341 -0.1935935
0.022976736 0.032046948 0.07742733
-0.07848303 0.18909788 0.050803706
0.102889486 -0.055444006 -0.040232047
0.30945483 -0.21470596 0.18319501
0.23484221 -0.32787627 0.13553064
-0.07253016 0.06385414 -0.123935446
0.21610083 -0.27959028 0.054096006
-0.18560968 0.015857738 -0.13364033
-0.07641284 0.17229448 -0.18891026
-0.017792305 0.17017798 -0.06711035
-0.082507424 0.2630728 -0.12689279
-0.17918366 0.2633567 -0.06869891
-0.09788192 0.048343815 -0.12344825
0.21121757 -0.19516478 0.01805988
-0.1492946 0.2272238 -0.19573799
-0.26087338 0.0578461 -0.10113264
0.024218978 -0.024863007 -0.07558498
0.13722599 -0.24641736 0.06549923
-0.062829904 0.224691 0.0016261436
-0.25269115 0.13269462 -0.08490996
0.09630808 -0.0048939856 0.085102566
-0.11543623 0.03515501 0.03270279
-0.043523714 -0.07653809 0.031738475
0.18803574 -0.17551138 0.18640666
-0.20353256 0.020645626 0.00932875
0.044799488 -0.036389522 -0.0666316
0.015457681 -0.04211924 -0.072490565
0.02191959 0.043394167 -0.07752366
-0.13789758 0.28025237 -0.0132335555
-0.1837587 0.050638717 0.030393291
-0.007722395 0.18925826 -0.05056655
-0.0673282 -0.014898963 0.056209203
0.052394066 0.03635752 0.06470682
0.09998231 -0.07498072 0.13570277
0.08001595 -0.1996333 0.06892366
-0.13636042 0.13465105 -0.0633197
-0.0312686 0.21625437 -0.09195233
-0.2087101 0.2324146 -0.041180067
0.10352909 -0.172148 0.1460865
-0.00909462 0.12286457 -0.040483907
-0.01501817 -0.10646511 0.03690972
0.13987349 -0.25667298 0.11601097
0.23889287 -0.20476158 0.20444241
0.18109159 -0.07067152 0.10314633
0.20002612 -0.2518757 0.03808691
-0.25541723 0.090084486 0.00012081888
0.05818979 0.04604568 -0.033714425
0.058483146 -0.019178297 -0.06264328
0.2536209 -0.2111421 0.20822363
-0.08542153 0.15889312 0.043688253
-0.06422499 0.063964024 -0.17800482
0.061221857 -0.16404615 0.10638421
0.20643364 -0.16225569 0.18261282
-0.054504152 0.22786854 -0.013828897
-0.048230335 0.17584492 0.0031620308
-0.05632096 -0.06705287 0.0021260334
-0.12863843 0.014370252 -0.1462399
-0.026289986 0.0033196185 -0.09560522
0.20965672 -0.32047936 0.112206824
-0.012366656 0.20190924 -0.06022624
-0.06887051 0.25628972 -0.092413075
0.23470797 -0.2233603 0.030882481
-0.066823065 -0.057115454 -0.012641261
-0.0562823 -0.06716239 -0.008479958
-0.044049446 0.20696458 0.010372079
-0.2899659 0.088881016 -0.067563765
-0.26480308 0.19049978 0.022575114
-0.011039614 0.110357866 -0.07224636
-0.13012789 0.22836244 -0.20522994
0.109632626 -0.09583635 -0.033999585
-0.14463393 0.15633108 0.07020932
0.26544562 -0.14918163 0.13973282
-0.09763177 0.1509274 0.05243399
0.15656699 -0.2699913 0.1360449
0.23444758 -0.32790855 0.13533019
0.023804918 0.081024505 -0.04967789
-0.12369933 0.15977547 -0.11939137
-0.22941084 0.0768964 -0.17854528
0.2232334 -0.112900764 0.05334266
0.250013 -0.27305287 0.2084162
-0.115386374 0.007304099 -0.07752211
0.24179424 -0.23232551 0.03486892
-0.030840592 0.14387956 -0.16054781
0.14278637 -0.0824323 -0.018608915
-0.12730636 0.15102702 -0.11008995
0.119772345 -0.10472299 -0.028957292
0.25033024 -0.26193988 0.044748444
-0.004681655 0.09575902 0.029540041
0.24906033 -0.16868769 0.04066593
-0.1524762 0.125535 0.07672069
0.26510686 -0.28381327 0.055017203
0.08799638 -0.11803054 0.14157744
0.23669663 -0.24085794 0.21564814
-0.094638005 0.09472414 -0.19647683
-0.10103145 0.037144944 -0.15696968
-0.16916919 -0.0033334307 -0.12072656
0.13320306 -0.08673882 -0.02464523
-0.17923531 -0.002060367 -0.07851778
0.222891 -0.2526516 0.036960945
0.13781394 -0.026686758 0.013464315
0.00062711537 0.111893 -0.010741857
-0.09045664 0.2694884 -0.13482423
0.24747002 -0.12875427 0.12157044
-0.15210643 0.12192341 -0.07239306
0.08704925 0.02978825 0.013019242
0.321369 -0.21632737 0.16434251
-0.08186469 -0.042237908 -0.012575576
0.001478338 -0.08939254 -0.03938071
0.0946053 0.02189194 0.03401775
-0.09743793 0.06993485 -0.18920572
-0.01889134 0.18395428 -0.12342611
0.100448065 -0.21038863 0.04568494
-0.27056748 0.14123887 -0.12190908
-0.17543748 0.08028022 0.06768118
0.031102251 0.060881987 -0.061341994
0.058655616 -0.1783451 0.049725052
0.24961063 -0.1729033 0.039850205
0.31324917 -0.22723639 0.17919555
-0.17812032 0.011282536 -0.05536181
-0.21209781 0.231259 -0.04089115
-0.025538586 0.13213031 -0.12420969
-0.063406505 0.23590375 -0.1345609
-0.18562062 0.18254195 -0.20956403
0.22152826 -0.22457151 0.027420709
-0.055255555 0.18293525 -0.16639224
-0.25877 0.14026748 0.020439744
0.21519898 -0.30421668 0.18604062
0.2967073 -0.2704525 0.13451411
-0.18315576 0.06599944 0.05837936
0.23115318 -0.18035385 0.025480723
-0.023998437 0.18717863 -0.022691637
-0.061298374 0.24836637 -0.09231825
0.060588878 -0.1742151 0.09291618
-0.13059594 0.038812682 -0.17600472
0.02408439 0.013617833 0.08976006
-0.021847341 -0.00039885513 -0.09353499
-0.20841506 0.18490669 0.047520023
-0.072811306 0.2291789 0.004759839
0.10933911 -0.07431007 -0.03637465
0.31975898 -0.23022972 0.16582121
-0.21567152 0.037876364 0.008860675
-0.29722363 0.10858176 -0.11808286
-0.19004059 0.021948373 -0.01180576
0.0041913707 0.082959615 -0.077194825
-0.08795037 0.098918915 -0.19490457
-0.18394248 0.16056468 -0.16365816
0.1814835 -0.061731108 0.064164385
-0.26840615 0.17390274 -0.06411078
-0.25250903 0.055624988 -0.03914755
-0.08148559 0.17744151 -0.19143648
0.28673258 -0.29173657 0.11360231
-0.09071942 0.24637534 -0.16680807
0.31838444 -0.22715715 0.17106034
-0.22486 0.03879826 -0.12916441
0.05669913 -0.16242675 0.014300678
-0.27641886 0.17921259 0.016057713
0.111788005 -0.11031164 -0.030708706
-0.15166268 0.21717392 -0.21019238
0.01560514 0.018447313 0.08660926
0.0352148 -0.13420412 0.09690236
0.22217093 -0.23063976 0.20883012
0.23694071 -0.28258598 0.20552589
-0.2521744 0.110199586 0.014934888
0.09193655 -0.20394616 0.045793977
0.060709164 -0.096267864 0.12782988
0.103394344 -0.048043024 0.12027048
-0.2313349 0.03490869 -0.028769948
-0.12961192 0.03793962 -0.17555386
0.30619153 -0.24496748 0.16436018
-0.06663857 -0.05704807 -0.00071151694
-0.035396166 -0.08395868 0.037082307
0.03366603 -0.13324457 -0.008052803
-0.08765486 0.24571364 -0.0058942083
-0.08223023 0.2502046 -0.019483514
0.236339 -0.1290038 0.1394657
0.20576052 -0.12661631 0.15596454
-0.06465359 0.06548275 0.057718206
-0.09612998 -0.02733726 -0.033055045
0.09329469 0.009650228 -0.018512784
0.06592452 -0.07926801 -0.050732374
0.2263925 -0.28277636 0.2059084
0.33229122 -0.21999156 0.11935319
-0.14396074 0.2979231 -0.0689431
0.3285638 -0.23317508 0.14301644
0.124489844 -0.21863113 0.035149887
0.077775925 0.0129974885 0.07579436
0.29747972 -0.28963873 0.09657386
0.07882326 0.037444886 0.023394234
-0.2835498 0.18308468 -0.0021388289
0.029586697 -0.076280355 -0.05530317
-0.048110466 -0.06463529 0.04403879
0.079102375 0.037471633 0.008440826
0.13089775 -0.13791156 -0.018693045
-0.0529667 0.0401654 0.06817245
0.08356279 -0.023769656 -0.048087098
0.18131195 -0.2659063 0.054687098
-0.13255236 0.09688953 -0.20426719
0.078717224 0.030407637 0.047080085
0.06737622 -0.005681295 0.096524835
-0.11946937 0.1786913 -0.08173993
0.28568098 -0.16317359 0.11099502
0.13030547 -0.09525068 0.14667773
0.27402037 -0.24844557 0.21007164
0.18400852 -0.30023903 0.11567811
-0.26572815 0.12063615 -0.17049125
0.22030012 -0.3247197 0.10286779
-0.048813157 -0.012610704 -0.08772517
-0.052717805 -0.026324341 -0.077267416
-0.21846306 0.1432355 0.04636161
0.24326351 -0.1722125 0.03484852
0.24028334 -0.3122403 0.07425628
0.02838407 -0.07698913 -0.054675177
0.15011793 -0.10408618 0.1515642
-0.13732259 0.2516753 -0.17271517
-0.29974538 0.1499268 -0.048366778
0.072253995 -0.18503162 0.03610087
0.006617032 -0.008935198 -0.084335215
-0.03344489 0.10063249 -0.16855623
0.23436546 -0.27295506 0.21096087
0.12708159 -0.055532217 -0.022858687
-0.1597019 0.07350437 -0.19489942
-0.081307255 -0.042783387 -0.012474099
-0.07763659 0.24089523 -0.009005821
0.06002419 -0.08515245 -0.049768176
-0.14479688 0.01029062 -0.15145136
-0.20502035 0.22789519 0.034126557
-0.0057315608 0.1475641 -0.13433039
-0.06904059 0.24143974 -0.1373431
0.06844319 -0.04191062 0.118217945
-0.03736121 0.088369414 -0.11114118
-0.20418666 0.2567024 -0.032447204
0.22412533 -0.112306185 0.12490246
-0.2785674 0.07352101 -0.08827588
-0.13141504 0.27394313 -0.009902728
0.1391573 -0.039970413 0.09756791
-0.1480284 0.24402502 -0.1663149
0.020470165 -0.008062073 0.098957285
-0.013088496 0.16119699 -0.1342969
0.019568315 0.030256951 -0.0828923
0.25682753 -0.29760835 0.16091676
-0.27709097 0.074512504 -0.068500794
0.21565317 -0.11598554 0.13926482
-0.03677222 -0.032821316 -0.07615384
0.02348236 -0.14460488 0.04612519
0.12576431 -0.060232613 0.12456624
-0.061228655 0.24835677 -0.060877997
0.01507875 -0.1109045 0.08973988
-0.18699865 0.23330526 0.03351078
0.27220052 -0.24851754 0.048370533
-0.25216076 0.1201662 0.019264435
0.2558681 -0.32210854 0.09296013
-0.06286162 -0.01718788 -0.08179769
0.15032887 -0.19614698 0.008133041
-0.0012823906 -0.085592754 -0.04189247
-0.1817429 0.136376 -0.22606713
0.032723486 0.05618393 0.05366554
0.16128676 -0.096621305 -0.007875742
0.21241656 -0.29656515 0.07114061
-0.22914508 0.11238676 0.035847902
-0.2732612 0.18799508 0.016109765
-0.122749835 0.102095135 -0.2045546
-0.293587 0.11128127 -0.12818986
0.0029430827 0.008184226 0.08986273
0.19929658 -0.23337811 0.026919873
0.14662418 -0.26435786 0.105880804
-0.26288745 0.08476835 -0.014352276
-0.07499376 -0.011703706 0.05075274
-0.13229635 0.29646587 -0.041128162
-0.077207334 0.2640253 -0.071565
-0.014650069 0.20351703 -0.04371303
-0.18053381 0.14135574 0.06371193
-0.1396847 0.046957046 -0.18022804
-0.09293832 -0.014394119 0.027473155
-0.09931303 0.21104851 0.038730055
0.14460514 -0.12563124 -0.016957775
0.15227878 -0.086936794 -0.012119654
-0.08146583 -0.042837065 -0.0024557156
-0.08454715 0.2721878 -0.09261528
0.16997162 -0.28709942 0.113773294
0.11220503 -0.20002307 0.14399284
-0.3020422 0.1406086 -0.030006237
0.2011448 -0.28054035 0.060118962
-0.026430143 0.20179747 -0.11276744
0.014513582 0.09379309 -0.047797143
-0.21447739 0.02111217 -0.012510113
0.10189615 -0.17058612 0.14524865
-0.12856506 0.022196127 -0.1315248
0.22422709 -0.32775107 0.10369168
0.045534857 0.019766577 0.08185293
0.048811078 0.062065165 -0.027452907
-0.11685399 0.17726178 -0.10056575
-0.13218437 0.016546546 -0.13517249
-0.23136847 0.19554058 0.037147224
0.13400263 -0.24427259 0.06627025
0.18619849 -0.1363673 0.002403375
-0.28549477 0.08062409 -0.09809694
0.2801614 -0.31108016 0.08971751
-0.0066322745 0.17221071 -0.11700998
0.066075444 0.049767386 -0.0047536576
-0.08336248 0.040054087 0.054170456
-0.08143131 0.0746909 0.050905835
0.11523993 -0.10609495 0.14937076
0.26611376 -0.27775773 0.18045597
0.1828978 -0.25090414 0.18626049
-0.16037473 0.19647972 -0.22057632
0.21996526 -0.10226765 0.108187735
-0.032217845 -0.048269656 -0.06484332
0.23158024 -0.28892407 0.058364805
-0.11704089 0.033479072 0.030828752
-0.021055242 0.029643547 -0.10206485
0.31442413 -0.19086504 0.13021721
0.12448151 -0.17485122 -0.0027967491
-0.0057908664 0.07934486 0.047312226
-0.11938038 0.10281117 -0.20409226
-0.11667948 0.2608019 -0.17267476
-0.20644788 0.036140524 0.020115322
0.07958604 -0.19079147 0.036529735
0.006239356 -0.08682049 0.093635745
-0.11950796 0.12232771 -0.2101966
-0.0071660834 0.16364324 -0.10029183
0.15354292 -0.10704645 0.15306306
0.14578047 -0.2322847 0.03758699
-0.038482208 0.174225 -0.018972348
-0.25434124 0.05439645 -0.049002644
0.06700364 -0.1843547 0.046104215
0.16790943 -0.058369905 0.097276926
0.3095664 -0.24344836 0.06666923
-0.13351837 0.13813518 0.07831913
-0.21193983 0.09540541 -0.20253535
-0.19415896 0.17227162 -0.21236894
0.07238194 -0.142324 -0.01791932
0.0038422407 -0.11788768 0.06675796
0.0021711534 -0.053114574 0.09771312
0.08463114 -0.15111072 0.13696064
0.18710223 -0.073140785 0.099321894
-0.2913541 0.103010565 -0.040266834
0.26136458 -0.1395978 0.09813126
-0.26598185 0.1383679 -0.13632636
-0.30035836 0.13969633 -0.020840598
0.036301028 0.001663792 0.09604129
-0.13738951 0.010328322 -0.15395595
-0.054914802 0.095313355 0.04650629
0.18337041 -0.09409086 0.13495447
-0.032430116 0.16253375 -0.15395065
-0.06280854 0.22981012 -0.0069825933
0.2716163 -0.31712773 0.0949127
-0.028176155 0.1304592 -0.078031
0.029104535 0.07240617 -0.05025557
0.064501606 -0.102970324 -0.04134926
0.19938459 -0.2650927 0.046647824
0.2605549 -0.21948712 0.21255799
0.023346933 -0.021527296 0.10350942
-0.037662584 0.19911088 -0.13581003
-0.04728366 0.18890621 0.026110709
0.30400446 -0.25249752 0.15433955
0.082382664 0.010910366 -0.035293743
-0.16340242 -0.004086389 -0.11332272
0.22240902 -0.13567674 0.15816164
0.011929095 -0.051140375 -0.06846081
-0.15703404 0.05208838 -0.18179256
-0.21079047 0.15391798 -0.1627038
-0.006212648 -0.11258424 0.0066585904
0.14354515 -0.05873914 0.11774665
0.048561413 -0.02141539 -0.067189746
-0.18208341 0.17401268 -0.16960543
-0.007276676 0.19578362 -0.03904875
0.0075649633 0.0879642 0.030078143
0.06048816 0.020531982 -0.05305768
0.16904145 -0.27706495 0.08135047
-0.2677296 0.16000986 0.019039342
0.15113169 -0.18902409 0.0037435899
0.23829383 -0.32284856 0.085769884
0.057534676 -0.07663448 0.12547372
0.102492146 -0.22148553 0.080128655
-0.26255497 0.07274005 -0.029209774
-0.24602033 0.048181098 -0.039214034
-0.07212878 0.2390786 -0.1474807
0.004696874 0.004162463 -0.088315636
0.16665626 -0.17308736 0.18001454
-0.08996891 0.12821625 -0.19865201
-0.20452532 0.034777217 -0.14400685
-0.19720148 0.10395037 -0.09568893
-0.17341888 0.26316687 -0.08032518
-0.1481989 0.17291471 -0.16484621
-0.0925258 0.05194966 -0.12510556
0.22382946 -0.3171448 0.16720718
-0.03351886 0.13454135 -0.104029156
-0.101291716 0.25012687 -0.001348384
0.29939896 -0.2156741 0.06682858
0.16262059 -0.046111915 0.035222936
0.22743829 -0.11017323 0.0665608
-0.017576504 -0.09044135 0.06344331
-0.15754944 0.11881756 -0.21610104
-0.17416634 0.1858137 -0.22229987
-0.15220349 0.19614375 0.052947238
0.01615044 0.046231855 -0.08057285
-0.016765438 -0.089932494 -0.024892297
0.23239243 -0.13099651 0.045567174
0.24420054 -0.21410275 0.20917104
-0.10482335 0.046047594 -0.18012543
0.24714954 -0.13724923 0.14111914
0.16851702 -0.2080021 0.18276313
-0.07763444 0.2638752 -0.10303413
-0.2271467 0.11022275 -0.21035276
-0.059274986 0.08605374 -0.18199316
-0.25501296 0.21867816 0.013985724
0.027695086 -0.12978676 0.090730675
-0.023329621 0.06982462 -0.1049098
-0.18098204 0.09368841 -0.20548241
0.15654935 -0.20970696 0.17596957
0.039804183 0.06506372 0.033338968
-0.0075068963 0.19271533 -0.081167564
0.2560737 -0.15956654 0.16622269
-0.032015454 0.018378673 -0.10157392
0.08817724 -0.19430296 0.11628658
0.23796812 -0.16625062 0.032443255
0.15558912 -0.25096065 0.15873252
-0.13554284 0.05852743 0.023518514
0.22835049 -0.14609988 0.030764403
-0.14946252 0.10082261 -0.20784913
0.14361374 -0.03453723 0.08439956
-0.06711522 0.23258018 -0.0068152035
-0.16130483 0.16589308 0.06385509
0.10286096 0.014261217 0.03410296
-0.2224953 0.05728357 -0.15956491
-0.03026316 0.15140998 -0.07836154
-0.15694913 0.22253004 0.03992394
0.2505219 -0.15590909 0.04856552
0.16972032 -0.10363167 -0.0032294998
-0.03422735 0.12260413 -0.12530626
-0.026996689 0.19950698 0.003828371
-0.18762428 0.013098446 -0.033332873
-0.29642165 0.09297807 -0.080439955
-0.12164183 0.21164516 -0.21344371
0.07026842 -0.010111794 0.099375166
-0.13804929 0.21203618 -0.030154856
-0.23831324 0.053581912 -0.13892809
-0.10363539 0.04663353 -0.18040085
-0.041750714 -0.014437686 -0.087200455
-0.092571475 0.2286184 0.018675515
0.057152394 -0.17151052 0.089776374
0.20752136 -0.21867836 0.20170599
-0.2044325 0.16745485 -0.20142885
-0.031409774 0.14703125 -0.08272594
0.043822356 0.06698759 0.022972304
-0.25146016 0.20298536 0.02827302
0.19763745 -0.093733884 0.031623736
-0.003433068 0.1612137 -0.12251662
-0.022097072 -0.100351065 0.02342123
0.1606943 -0.20696566 0.0138879325
0.19088939 -0.25261667 0.039579626
-0.06031848 0.09103708 -0.13423684
0.14355725 -0.2543271 0.13610697
0.02122845 -0.14246133 0.046592694
0.30090445 -0.2545318 0.061350573
-0.24279892 0.072858535 0.0028038458
-0.0009747319 -0.054908525 -0.065815225
-0.15061356 0.25152284 -0.12621348
0.26843324 -0.26072556 0.20826098
-0.022712747 -0.09740177 0.0007574824
0.08161558 0.017834269 -0.028668506
-0.30522835 0.10280417 -0.07803806
-0.29424733 0.08924194 -0.10453241
-0.19953468 0.036089238 0.028879348
-0.08920333 0.26742652 -0.13668562
-0.18916854 -0.009026521 -0.072326176
0.13921283 -0.038843248 0.0959516
0.21536537 -0.24852274 0.20702516
0.32318458 -0.20485368 0.11274352
-0.049700644 0.17876507 -0.16301964
-0.14518851 0.1443594 -0.22250299
-0.04500025 -0.074727654 -0.013747258
-0.199964 0.27140227 -0.0015298433
-0.09125161 0.13060877 -0.19935764
0.09081921 -0.06034452 0.12802537
-0.21577068 0.19887306 0.0425249
-0.21857727 0.03386459 -0.0005908413
0.07912415 -0.058848478 -0.051214065
0.06993144 -0.13257049 -0.024038017
-0.13773385 0.16370027 0.06807483
-0.08472746 0.17966615 -0.19337937
0.12417481 -0.2275928 0.048164736
0.24954727 -0.13755749 0.06816568
-0.09966144 0.049433455 0.0460591
0.21098913 -0.28704885 0.062298935
0.083891466 0.016704293 0.06512134
-0.16667835 0.2620814 0.016139299
-0.16366011 0.06908769 0.026126632
0.22729465 -0.14056654 0.16077965
-0.16408932 0.23427533 -0.15342347
0.12738892 -0.22282454 0.14494112
-0.1003521 0.2443657 0.0052416436
0.17305183 -0.1770567 0.18293786
0.24536107 -0.27919054 0.20598868
-0.23179407 0.08045617 -0.18105906
-0.09377769 -0.02708771 0.0076445346
-0.16782029 0.03051075 -0.16100381
-0.05154516 0.13764147 0.011170172
0.0247717 -0.14596592 0.050380547
-0.21305285 0.027700886 -0.12374571
0.20738742 -0.14489965 0.17057161
0.0890865 -0.11844305 0.1421061
0.06565804 -0.0813747 0.12948999
0.2615862 -0.31937504 0.08982923
-0.021921666 -0.028055092 -0.080635965
-0.12405439 0.17056614 -0.07238729
-0.031419408 0.10885776 -0.16909441
0.25325686 -0.13734883 0.07589304
0.15315409 -0.039469518 0.025635445
-0.28557113 0.1442236 -0.0014575038
-0.17360686 0.12603022 0.06815416
-0.05733053 0.13930094 0.012577509
0.018252822 -0.059714664 0.10606932
-0.07976322 -0.040660776 -0.03244646
0.17417021 -0.21028267 0.18587886
-0.13659346 0.17937866 -0.2227613
0.03876415 -0.11056543 -0.03443681
0.012659971 0.013543924 0.088976204
-0.05606315 -0.0010020239 -0.09423943
-0.0057614828 0.07826551 0.04838055
0.19025618 -0.18514925 0.1899167
0.25530693 -0.16214481 0.16987489
0.33229616 -0.2107127 0.12688255
0.11489214 -0.022837166 0.094437234
-0.101001464 0.28767902 -0.09285429
-0.015359941 -0.06881426 -0.052145045
0.24178648 -0.13453679 0.14267017
0.090685315 -0.028621338 0.10870247
-0.09361067 0.2047801 0.042249642
-0.060956478 -0.023828302 0.058489077
-0.27155504 0.18832189 0.018994173
0.037986595 0.034247413 -0.06747695
0.048360333 -0.010326335 -0.06777461
0.037700843 -0.07076589 0.11592278
0.015661871 -0.07047272 0.10471498
-0.29213968 0.16675813 -0.011391136
-0.11012195 0.13299547 0.042804614
-0.17692629 0.13967486 0.06534055
-0.03465476 0.122099295 -0.1254319
-0.24557449 0.2263385 0.020664692
0.06104573 -0.090458296 0.12773031
0.19978495 -0.13386534 0.011615245
-0.074940495 -0.04556159 0.016828924
-0.18907416 0.060966194 -0.18075435
0.1619338 -0.043232515 0.04462283
0.13965712 -0.06439657 0.124162644
-0.1878321 0.05866112 -0.1792141
-0.0015714375 -0.02790291 -0.0803435
-0.08979039 0.2773409 -0.098255314
0.32036346 -0.2378359 0.15019457
0.08703363 -0.08498363 0.13666318
-0.046053026 0.1605338 -0.021581732
0.17701569 -0.09314284 0.13650072
-0.009992282 -0.002315961 0.090168096
0.32219502 -0.26214775 0.09196214
0.23340717 -0.1659148 0.18058649
0.043088604 -0.006227312 0.099954136
-0.14012347 0.008315764 -0.13528177
-0.01871522 0.15302038 -0.145158
-0.10794117 0.028455341 0.036724467
-0.24325213 0.08865714 0.012866118
-0.14568509 0.27520424 -0.0032953282
-0.2863099 0.08688049 -0.061096385
-0.07581261 0.20722185 0.032570526
0.19386522 -0.07608306 0.052208643
0.101838335 -0.018818514 0.097077206
0.15336469 -0.037439547 0.029767646
0.0836449 0.015778566 0.06661805
0.2930438 -0.17012642 0.11918008
0.0503079 -0.006056577 -0.06705228
0.035081763 -0.15590419 0.053322855
-0.052603263 0.24085334 -0.08169996
0.29297268 -0.1886634 0.07783003
-0.07185158 0.08563196 -0.18694517
0.017595315 -0.11272058 -0.022232631
0.26851794 -0.2060381 0.045408
-0.10152367 0.22796585 0.023811743
0.19125979 -0.09718666 0.1338126
0.130205 -0.16332443 -0.010041812
-0.031673208 0.21276169 -0.018282639
0.022550946 0.066316016 0.048055362
-0.29137284 0.0864897 -0.08835271
-0.13045387 0.2348107 -0.19988681
-0.097441584 0.26636022 -0.1561273
0.03783052 0.052574135 0.054108165
-0.11555854 0.2972566 -0.08793785
-0.29463896 0.10013081 -0.12292277
0.20666102 -0.15905814 0.012970959
-0.14937718 0.2790012 -0.09726177
-0.13618885 0.24657533 0.020105874
-0.067242146 0.09939963 -0.18672584
0.0046361918 0.090235345 0.029378328
-0.27563563 0.11546659 -0.16093703
-0.097953424 0.0016653478 0.033208016
-0.29885268 0.15989761 -0.029762631
0.048357524 -0.029136956 0.11131345
-0.17118192 0.055437077 0.014911974
-0.19903386 -0.0036501857 -0.04880015
-0.16534485 0.22735885 0.03724753
0.06236583 -0.16828687 0.017728752
-0.1411632 0.23261867 -0.12646395
-0.0070882863 -0.0091439355 0.092210405
0.2690611 -0.17076357 0.17083912
0.13303868 -0.033344176 0.09348565
-0.1656309 0.026099818 -0.15750839
0.19390011 -0.27461508 0.18756494
-0.19596773 0.13815407 0.057141133
0.22401252 -0.32204774 0.1566633
0.17919013 -0.1973416 0.009951716
-0.05822927 0.19567183 -0.1628661
-0.15938145 0.25755933 -0.115939915
-0.022762537 0.16264851 -0.07168733
0.13993216 -0.11190235 -0.020376943
-0.24717246 0.044589017 -0.09434261
-0.12933856 0.008872613 -0.061984103
0.1348914 -0.18761407 0.004140584
0.020795956 0.0891615 -0.041944515
0.013776901 -0.07479626 -0.054853585
-0.11013541 0.11302249 0.034331705
-0.19195843 0.18600136 -0.19060151
0.069868065 0.046167344 -0.0009950225
0.181592 -0.26005328 0.18220176
-0.23327342 0.24293992 0.012456371
0.030350009 -0.12254703 0.1004147
0.31724575 -0.24392307 0.14473206
-0.1311067 0.215082 0.04253888
0.078375384 -0.17512476 0.01281087
0.12304051 -0.005958971 0.019008985
-0.28750703 0.11141634 -0.14203462
-0.071984135 0.18225123 -0.1822792
0.28621638 -0.27559185 0.14526522
0.1441456 -0.23891693 0.15366527
-0.05382971 0.22760387 -0.014378583
0.109751396 -0.10628944 -0.032193147
-0.26787636 0.20878689 0.0010901558
-0.1202039 0.14062397 0.07699624
0.07269391 -0.19255386 0.07627753
-0.27070734 0.09125653 -0.01935316
-0.13275956 0.10816692 0.0399186
0.27209687 -0.2378421 0.047115732
-0.06228682 0.23637652 -0.01997773
0.16173427 -0.102271646 0.14840712
-0.13085555 0.056943413 0.02668
0.005768742 0.10876823 -0.027964784
-0.28476724 0.08108075 -0.07829388
-0.06906081 0.070291884 -0.1565369
0.211526 -0.16098094 0.1810822
-0.00828852 0.037327588 0.07639292
-0.012544573 0.09215946 -0.08990077
-0.24255614 0.13954708 0.03306448
-0.09976042 0.2650996 -0.16243254
-0.2550787 0.22015722 -0.0023409463
-0.013699625 -0.057082836 0.08650425
-0.24825561 0.14392509 -0.16042925
0.11652416 0.00095260446 0.041635975
-0.260351 0.1069917 0.005205516
-0.103169866 0.24073061 0.011362876
-0.30146328 0.11533456 -0.10244295
0.14140792 -0.08313239 0.13841772
0.0063693374 0.10638081 -0.04420319
-0.24422464 0.06619776 -0.0052074613
-0.07432973 -0.039723616 0.030022928
0.15691353 -0.05222912 0.0135673
0.14110664 -0.25589636 0.12607105
-0.28028104 0.07564009 -0.096768595
-0.22534192 0.21708243 0.03470869
-0.033054586 0.123211905 -0.093714766
0.27679256 -0.16675016 0.07731216
0.3110691 -0.18808913 0.1175961
-0.24967082 0.05434444 -0.12289175
0.22010341 -0.1334712 0.029093256
-0.09865731 0.26821372 -0.15566953
-0.22216634 0.23124136 0.030680591
0.2648484 -0.30819252 0.06720417
0.3133081 -0.1993776 0.10057299
-0.025936488 0.010004206 0.0825197
-0.12447717 0.16839343 0.067528486
-0.12771259 0.113803394 0.040751997
0.23625627 -0.3016931 0.06604676
-0.2520469 0.11417849 -0.19042197
-0.094847105 0.24453339 0.0011077859
-0.1626129 0.2615321 0.015418912
0.003928715 -0.12442618 0.04795788
0.06880452 -0.039019972 -0.05692715
0.17581822 -0.2861628 0.15138952
-0.102550775 0.263938 -0.019813506
-0.27562135 0.10997415 -0.010045779
0.12340931 -0.21070457 0.026321966
0.19099498 -0.122799456 0.15726618
0.045833234 -0.16038962 0.02499904
-0.17994669 0.15764752 -0.22979838
-0.30170268 0.10540559 -0.0583734
0.101884514 -0.024204843 -0.03389908
-0.09483393 -0.012665701 -0.06699478
0.13159472 -0.06446999 -0.021787416
0.16943537 -0.28657973 0.113502234
-0.12679741 0.22335504 -0.20925401
0.16744275 -0.23885226 0.034417424
-0.040443778 0.11826149 -0.17369184
0.049622804 0.023349144 -0.061434966
0.20863272 -0.24899001 0.035681024
-0.043585714 0.088380545 -0.17515989
-0.19588593 0.14004156 -0.2271378
-0.17336102 0.054932352 0.018214686
0.13262753 -0.17890708 0.16400504
-0.21133892 0.024178462 -0.1194039
0.2507904 -0.30523607 0.06670023
-0.15433843 0.12314793 -0.11903661
-0.052132532 0.19511497 0.032954648
0.24734561 -0.13205205 0.07223186
-0.08934791 0.24796587 -0.16346411
-0.07190072 0.18603303 0.0514277
-0.22225264 0.1813261 0.042437408
-0.19823588 0.001609992 -0.034401506
-0.13648298 0.24986419 -0.177799
-0.106922865 0.046387628 0.041435942
0.03966247 -0.13012291 0.10642048
-0.26804104 0.06354494 -0.0870263
0.23460464 -0.2217596 0.21057221
0.14753252 -0.19551495 0.17148049
-0.2801419 0.076583534 -0.075975336
-0.1734728 0.11228419 -0.09053438
-0.123429194 0.20193653 -0.21603625
0.10281661 -0.19392192 0.1366368
0.28202927 -0.16861583 0.15464425
-0.26704794 0.068267174 -0.050965082
0.14503078 -0.043859925 0.0033854109
0.13198714 -0.07258421 0.1325127
0.23623687 -0.23348366 0.03361959
-0.12812302 0.2110472 -0.21829058
-0.03424339 0.1435841 -0.019147592
6.2127176e-05 0.11387629 -0.03729616
0.20476405 -0.26777637 0.1982608
0.288277 -0.20582536 0.060898338
0.0058979453 -0.011361399 -0.084026605
-0.09440012 0.24380922 -0.17375325
0.18280557 -0.24020672 0.18826194
-0.2411048 0.14894769 0.034252685
-0.13103124 0.0680822 0.02841299
-0.06499147 0.08005755 0.053508252
-0.24196775 0.18149234 0.03367127
-0.0015807133 -0.012028361 0.09468216
0.1586614 -0.123380564 0.16153955
0.18183398 -0.18146978 0.18679722
0.13624948 -0.0733108 -0.020870958
0.14454955 -0.2503281 0.14382409
-0.2075417 0.051110707 0.029333925
-0.11752533 -0.0071984027 -0.04205752
0.2599168 -0.15693843 0.15902491
0.010076799 0.019802243 0.08568536
-0.0550075 0.23275428 -0.024123197
-0.10274078 0.28600764 -0.12675205
-0.16964866 0.21087438 -0.1869914
0.031533726 -0.062218897 -0.06260936
0.29210576 -0.28174672 0.122064605
0.26492605 -0.29006088 0.15941735
-0.0644743 0.010158065 0.06406659
0.049196355 -0.06975806 0.121263884
-0.18685701 0.18876263 0.051424474
0.32412362 -0.20084879 0.1505619
-0.09497283 0.226387 -0.18456927
0.15038194 -0.1990105 0.009853129
-0.08091898 0.16943832 0.054905623
-0.018497625 0.15208794 -0.1454687
-0.20367296 0.032991707 0.02112649
-0.13754486 0.012815443 -0.023177085
0.088222444 0.026538657 0.037255004
0.11013944 -0.11879935 0.15132129
0.27511793 -0.2472501 0.20956358
-0.129385 0.29034424 -0.034115896
-0.21373144 0.010594568 -0.055824436
-0.19792758 0.051198855 0.039948564
0.013789528 -0.13328132 0.056552175
-0.21166202 0.25967863 -0.012182694
0.081875905 -0.030764055 -0.0509111
-0.13803947 0.082786016 0.02755069
-0.13442077 0.2987296 -0.059431057
0.032699432 -0.14685956 0.016225504
-0.30498493 0.14023127 -0.05653075
0.12325653 -0.08048968 -0.029582141
0.2834953 -0.16333738 0.098283075
-0.0833471 0.05732366 -0.18234448
0.12532224 -0.009276849 0.055750977
0.18627903 -0.08411243 0.024272626
0.29699817 -0.27707407 0.1213716
-0.07138037 0.24999392 -0.12793607
-0.11014068 0.24089786 0.014661711
-0.27950418 0.1930802 -0.0060032443
0.10130414 -0.13522463 0.14857352
-0.15174712 0.05404606 0.007929123
-0.045339804 0.21149987 0.004207328
-0.11166635 0.04467597 0.037625633
-0.15064856 0.20933853 -0.21574815
0.21287864 -0.11813378 0.14482565
0.0012378844 0.17449969 -0.096105956
-0.14891961 0.23229845 0.03348042
0.014060442 -0.13563377 0.03294266
-0.106417656 0.29249072 -0.08812918
-0.081421554 -0.013324285 -0.07681607
0.11910987 -0.0010137534 0.034272175
0.23931085 -0.18623629 0.02981276
-0.24953361 0.04564305 -0.07877563
-0.0440817 0.23057081 -0.090611435
0.23561913 -0.21045406 0.029280137
-0.084620945 0.14718312 0.024229342
-0.23259561 0.17973545 0.038140275
-0.13946202 0.07357625 -0.19474185
0.20137742 -0.099905394 0.12875322
0.056852393 -0.04295406 -0.062352214
-0.3058871 0.12678854 -0.048705783
-0.04680904 -0.07631409 0.005780169
0.043756887 -0.024035843 -0.06932483
-0.108182944 0.06646634 -0.18906206
-0.058149494 -0.022661582 -0.078538984
-0.19859758 0.20432563 0.04405454
-0.0487435 0.1599693 -0.17026775
-0.099202916 0.03779527 -0.17583242
-0.21787144 0.049728367 0.016531894
0.31908154 -0.20784698 0.09864482
0.1412553 -0.14656068 -0.013735529
-0.11430613 0.18302448 0.060805768
0.15178956 -0.22907586 0.16769558
-0.2188134 0.24252826 -0.030764468
-0.1195471 0.028991604 -0.1709218
0.15878126 -0.2761486 0.11463492
-0.03146351 0.2202316 -0.058754355
-0.12883934 0.2789343 -0.018026644
-0.1272944 0.022921978 -0.13263085
0.10823853 -0.21141638 0.038982056
-0.19855472 0.0703814 0.047669638
0.053229254 -0.15198791 0.0015434151
0.13449898 -0.05707326 0.11920103
-0.01067259 -0.11145296 0.023712415
-0.23846309 0.05070335 -0.13369392
-0.20995738 0.20836619 -0.030330377
0.08032534 -0.037178986 -0.05161276
0.23368636 -0.25611746 0.215946
0.19385444 -0.16700676 0.18419252
-0.17792904 0.2661912 -0.06576472
-0.05868229 -0.051452223 -0.0430397
0.18119997 -0.2540296 0.18400885
0.19941895 -0.3110254 0.108116366
0.31247523 -0.2691038 0.07691925
-0.1494162 0.08185574 -0.1991293
0.20264475 -0.31881282 0.13536848
0.20594995 -0.113813214 0.14438964
-0.042586796 0.045707263 0.06855281
0.15594794 -0.15635048 0.17361678
0.12383917 -0.033861704 -0.016322596
-0.2606406 0.06950398 -0.1387865
0.2546753 -0.1546361 0.16035658
-0.045074992 0.08382107 -0.11571774
0.0052713174 0.10059269 -0.057205316
0.22615358 -0.2996818 0.19192503
0.27037314 -0.29892713 0.13193406
0.25357702 -0.1435382 0.06670259
-0.20618851 0.023070568 -0.12364907
0.18779227 -0.2736558 0.05976261
0.109183244 -0.19551069 0.017376043
0.23019956 -0.19609348 0.025638215
0.27138087 -0.29873616 0.061403994
0.1346465 -0.22402595 0.034985065
-0.15993744 0.05627729 -0.18413123
0.19929926 -0.10329655 0.023789117
-0.038981427 0.14369115 -0.011227283
0.12405895 -0.05952328 0.12449402
-0.14954802 0.19499332 0.0536093
-0.23929577 0.13770652 -0.18975201
-0.003883754 0.041507464 0.07520789
-0.08726228 0.12163329 -0.19709298
0.29277697 -0.25921407 0.05774983
-0.12504289 0.2977977 -0.05315122
0.1490197 -0.12935542 0.16363743
0.11690381 -0.013709742 0.079585895
0.0823412 -0.18616599 0.025625229
0.2818242 -0.17148553 0.08010957
0.21516074 -0.32827145 0.13564408
-0.13053568 0.15470302 0.072571285
-0.16415042 0.08460222 -0.20079967
-0.06264882 0.23821397 -0.023558095
-0.024252355 0.18736629 -0.12779339
0.0066549135 0.107135564 -0.04029843
-0.1606816 0.13027507 0.07290287
0.15921688 -0.08193662 -0.0052994895
-0.06292164 0.23416504 -0.01415655
0.26218247 -0.26027155 0.047314137
0.24682009 -0.14572749 0.052162524
-0.0015704202 0.04479404 -0.09360782
0.06475954 -0.16168971 0.0055623003
0.17980006 -0.27950197 0.16663885
0.06797209 -0.0036525195 -0.054238982
0.31780022 -0.26264963 0.08103267
-0.23035678 0.12749197 -0.20933528
-0.19512454 0.18773325 -0.18112446
0.23632687 -0.32899174 0.12088035
-0.08366392 0.016726553 0.05183685
0.1487998 -0.045366798 0.096973106
-0.24916449 0.04589122 -0.08872304
0.24628665 -0.2164991 0.0340791
0.03527057 -0.07264111 0.11486695
0.12823957 -0.22825131 0.045283154
-0.060574383 0.13566558 -0.18405698
-0.27463323 0.08839221 -0.029121857
-0.24775025 0.21797499 0.027971994
0.07222437 -0.17219116 0.11433846
-0.14885251 0.22839546 -0.05338878
-0.1142038 0.24911273 -0.18558496
-0.20768018 0.0051139845 -0.059371848
-0.008550039 0.08014814 0.047864623
0.10104698 0.013394972 0.002670525
-0.19074275 0.06584301 0.052826017
0.15749548 -0.25622615 0.059543565
-0.1946754 0.26792806 0.013020096
-0.17420602 0.0023274033 -0.08002339
0.055917688 -0.064798065 -0.05719844
-0.11295311 -0.0039957254 0.007793606
-0.17974453 0.100242175 -0.20902663
0.29939103 -0.23156106 0.1946934
-0.08261814 0.15959552 0.03953956
0.29430887 -0.19982135 0.18952195
-0.16159728 0.2559593 -0.105744645
0.15346292 -0.11554814 -0.013877837
0.048476312 -0.15361696 0.09806925
-0.16352732 0.2902592 -0.02178833
0.17744042 -0.12140771 -0.001653942
0.23285356 -0.21314792 0.20732355
-0.045312274 0.16079125 -0.022842133
0.1453554 -0.114040315 -0.01774257
-0.040426366 0.17747903 -0.008992266
0.27127242 -0.23752275 0.21315825
-0.22905159 0.10181075 0.03285497
0.12842254 -0.22357634 0.038422067
-0.15951483 0.10970043 -0.21263249
0.1814584 -0.16795473 0.18264337
-0.3004375 0.13731141 -0.0709654
-0.106387146 0.21627441 -0.19961224
0.25576624 -0.3193402 0.0822786
-0.19216362 0.029874425 -0.14663324
0.12903772 -0.0776358 -0.02674881
-0.11447782 0.24138464 0.016314024
-0.11273552 0.220887 0.034502007
0.02718635 -0.13848804 0.0061852355
-0.28549182 0.18412998 -0.011292315
0.13856353 -0.060188334 -0.015327232
0.038931474 -0.06368903 -0.060914837
0.13006313 -0.18092081 0.0004481542
-0.10750347 0.29256165 -0.08082071
-0.15436141 0.11334433 -0.2135045
-0.1923909 0.17563547 -0.20943995
-0.030598821 0.124355525 0.011494282
0.1689934 -0.2705181 0.15968405
-0.044295285 -0.07029875 -0.028058667
-0.16957486 0.12802841 -0.22124857
0.19617584 -0.08203411 0.046521213
-0.12983455 0.14180355 -0.08211889
-0.07300753 -0.008109949 -0.08626547
0.11435715 -0.0033149987 0.0027621284
0.08436925 -0.13616419 -0.023150036
-0.09599413 0.2644597 -0.15617318
-0.19013634 0.08320469 -0.19808032
0.25571552 -0.30274686 0.1533375
-0.038952403 0.16764645 -0.030544998
0.23940264 -0.16238834 0.03489132
0.051105984 0.04965015 0.046814103
0.2103225 -0.13837777 0.018816365
0.018357132 -0.06581643 -0.06079014
-0.016064724 0.1296348 -0.044032376
-0.064266704 0.067563884 -0.1816784
0.020167833 -0.12545894 0.08425699
-0.20050608 0.15383132 -0.22255585
-0.14383417 0.12197433 -0.21515004
0.23749453 -0.1319718 0.05252508
-0.09079518 0.2578097 -0.15607116
0.18985754 -0.2943621 0.16690624
0.06541052 -0.1853821 0.06627915
-0.15329845 -0.0034269672 -0.13182043
0.090333186 -0.19106041 0.122382104
0.072161056 -0.04190212 -0.05522752
0.2262513 -0.11076696 0.11863308
0.25130835 -0.17614709 0.18369438
0.052993648 -0.11927054 -0.030691246
0.11988392 -0.11512341 -0.027228072
-0.093038075 0.045433655 -0.15685987
