# .PCD v0.7 - Point Cloud Data file format
VERSION 0.7
FIELDS x y z
SIZE 4 4 4
TYPE F F F
COUNT 1 1 1
WIDTH 1000
HEIGHT 1
VIEWPOINT 0 0 0 1 0 0 0
POINTS 1000
DATA ascii
-0.04132873 0.24411838 0.06536422
0.19370666 0.12995894 0.17776048
-0.1509422 -0.2811487 0.07871337
0.047304783 0.10510683 -0.03341111
-0.09756387 -0.119127564 0.0065296995
-0.18525979 0.20471975 0.00094816537
-0.0006531318 0.09869543 0.074426964
-0.30077267 0.016194895 -0.08136662
-0.0169314 -0.1378561 0.093963854
0.18390954 -0.10869252 0.13156615
-0.29149917 -0.13359901 -0.056398038
0.15420698 0.06342726 0.0045207716
-0.15255903 0.20307948 -0.07606344
0.037818905 -0.06862882 0.11167277
0.15864053 0.14150648 0.004913265
0.075445 -0.15417628 -0.09380436
0.18712147 -0.07656934 0.041159056
-0.05961554 0.2371239 -0.017983198
-0.23758748 0.091421776 -0.14397351
-0.11757705 -0.19005136 -0.098676175
-0.2735012 0.046515655 -0.11744103
-0.24477707 0.120720886 -0.097467825
0.008016974 -0.1206265 0.0035213635
-0.22393493 0.15766543 -0.029885616
-0.10588398 0.08129025 -0.14669582
-0.14812022 -0.24908835 -0.105758324
-0.31424963 -0.011061615 -0.062266435
0.0921597 0.037691876 -0.007488526
0.0075014685 -0.25516072 -0.024866411
0.11673657 -0.11778011 0.018254846
-0.1503659 -0.27755153 -0.018119998
0.0016067812 0.20184332 -0.099069044
0.25402582 0.13289572 0.026024532
-0.13591498 -0.07873531 -0.0706682
0.1055454 0.02633939 0.015585525
0.040760074 -0.24933912 0.14740029
-0.25048327 -0.18199123 -0.023750622
-0.026674759 -0.19732742 -0.032167815
0.04786915 -0.21250685 0.1690505
-0.1804225 0.14398502 -0.120452516
0.14070126 -0.13196847 0.13885145
-0.031477816 -0.19559528 -0.059262197
0.058450263 0.18233882 0.112784736
-0.07282813 0.097548194 -0.12540977
-0.15855666 -0.2645815 -0.0765446
-0.18969718 -0.07409831 -0.15238148
0.037686437 -0.0055267285 0.09201844
-0.27466765 0.028656967 -0.124658875
0.37383765 0.1497741 0.10209462
0.30862555 0.17008045 0.068833634
0.14912204 -0.17356874 0.120744206
0.293902 0.0433856 0.087432005
-0.10862608 -0.27203944 0.050504636
0.041365787 0.07356296 -0.14235017
0.31413114 0.085543156 0.1203564
-0.16164328 -0.18221527 -0.14215082
0.22776435 -0.06740629 0.05753684
-0.12034929 0.08067633 -0.15772319
-0.15124428 -0.2803713 0.046300095
0.21697885 0.078414656 0.01505697
0.060608707 0.06473409 -0.0809852
0.21760155 0.059586704 0.017165221
-0.30269548 -0.13697727 -0.012336132
-0.061919 0.19933379 -0.0986582
-0.10007792 0.16397019 -0.14997676
0.24192008 -0.040522076 0.05967825
0.18364972 0.24305491 0.18031125
0.021974344 -0.102981485 0.02274466
-0.22095156 0.0866888 -0.16678764
-0.09136814 -0.017458614 -0.11742115
0.22928853 -0.037185848 0.039441306
0.009833136 -0.27729487 -0.032240536
-0.020665452 0.13701409 -0.11394974
0.18134871 -0.1592075 0.07479638
-0.010415709 -0.25692612 0.12404088
0.21291707 0.10777083 0.20659703
0.03597148 0.05689789 -0.14282796
-0.01588413 0.052911825 -0.10124067
-0.016878095 0.21024898 -0.06931056
0.28540212 0.14617865 0.03996702
0.23836742 -0.0088285245 0.1467036
0.04255969 -0.2402322 0.16672465
-0.16348994 0.042535786 -0.17520666
0.2133751 0.20338437 0.037976965
-0.031706795 0.2336574 -0.043475594
0.29082078 0.056079812 0.128011
0.24820824 -0.028618816 0.06068418
0.2426665 0.15618332 0.022042857
0.045213286 -0.2802222 0.052336406
-0.045387693 -0.16521741 0.088488154
0.061811887 0.21113072 0.055293437
-0.24959357 0.12077118 -0.0495761
0.26424798 -0.0024273181 0.11022316
0.35268673 0.14047508 0.15194884
0.2776169 0.11952838 0.03963255
-0.019663524 0.08181623 0.050733358
0.028101726 -0.27373436 -0.02308524
-0.10475563 0.16566993 -0.1303707
-0.20170745 -0.07201249 -0.1580952
0.13517481 -0.057966623 0.19245332
-0.15327659 -0.03999118 -0.14887723
0.29916614 0.05472541 0.10443802
0.07033287 -0.07163039 -0.01964571
0.13394552 0.08021305 0.18105415
-0.25416365 0.08306212 -0.12391205
0.1996945 0.25123397 0.06238846
0.15625307 -0.07566281 0.024632392
0.08176136 -0.02689338 0.0871283
0.06713023 0.14168906 -0.07093639
-0.15542592 -0.25921094 -0.090979636
0.18625998 -0.041370995 0.154225
0.164843 0.096865535 0.1878071
-0.1815815 0.11084297 -0.15264897
0.15196872 -0.07071795 0.16055474
-0.021069951 -0.120950155 0.061593793
-0.13466527 0.1883981 -0.13052118
-0.24121396 0.15695271 -0.05188481
-0.030315954 0.053099327 -0.08973744
-0.27398393 0.107302904 -0.031063912
-0.10918715 -0.005089399 -0.079072535
-0.26012057 -0.19591965 -0.03239078
0.08102199 -0.0050880513 -0.046360604
-0.17990975 0.14281799 -0.15521413
-0.11321596 0.23972115 0.01790751
-0.16562003 -0.26501602 -0.06235955
0.1972737 0.08363636 0.20245229
-0.2652588 0.12909509 -0.052600667
0.13849318 0.16148509 0.15240917
0.31852764 0.13302065 0.16350994
-0.1923026 0.0425235 -0.16633713
-0.26046976 0.13953683 -0.045516476
0.075242855 -0.24951398 -0.007247497
0.19960414 -0.011931631 0.18325177
-0.06103662 0.13776743 -0.11527787
0.09380933 0.002609582 -0.08592764
0.188075 -0.0911813 0.046684466
0.1579854 0.18836795 0.0931074
0.20171613 -0.12443656 0.06561097
0.051945403 0.22016321 0.00085003604
-0.043735523 -0.3012731 0.00598982
-0.28003103 -0.1232403 -0.09227226
-0.3091301 0.024357306 -0.03768057
-0.24930015 0.019125171 -0.13807829
0.13034461 -0.085063346 -0.075204276
-0.15457419 0.055027597 -0.17235962
0.207916 0.0020945398 0.18500233
0.15816958 -0.18166389 0.096705355
0.13089958 -0.22781587 0.041960597
-0.198069 -0.07803106 -0.0014549281
-0.06442714 0.13485086 -0.11643318
0.19753833 -0.09259041 0.030448824
0.151361 -0.123709366 0.02865036
-0.28710815 0.10094947 -0.036900673
0.30456868 0.14494254 0.19348702
-0.22596864 -0.16579007 -0.14404248
-0.112539776 -0.024245718 -0.12673996
-0.2940662 -0.13196567 -0.05231988
0.36881956 0.152105 0.105062105
0.21569154 -0.09727158 0.08202596
0.18433224 0.17453133 0.042341765
-0.08102004 -0.002269006 -0.12589578
0.299409 0.16065435 0.21514529
0.08548749 0.1367108 -0.06087691
-0.2439208 -0.17235564 -0.11670127
0.22879918 -0.037036393 0.039017577
-0.009190305 -0.1317652 0.09601812
0.085337326 0.18014503 0.13341905
-0.22451624 -0.044099092 -0.18171565
0.13503532 -0.09537047 0.20561588
0.062184654 0.061590727 -0.07641522
0.05127394 -0.1730912 -0.09994759
0.010700604 -0.11325974 0.10334148
-0.1747973 -0.2721801 0.05404317
0.10569629 -0.2093664 -0.002734808
-0.1512054 -0.19698733 -0.114985935
0.13813885 0.0082183555 0.19005048
-0.09484242 -0.2596428 -0.06805257
0.17558461 -0.06997533 0.013411085
0.35158935 0.14490335 0.113503136
-0.11197171 0.2391362 0.011817717
-0.026373832 0.123103485 -0.10976378
0.10983359 -0.16869077 -0.005859537
0.009135946 0.07986518 -0.15003766
-0.10798109 -0.27884054 0.10653961
-0.042379584 -0.29112008 0.07914606
-0.28401423 -0.03423908 -0.12061609
-0.17789753 -0.18848225 -0.14345272
-0.014585488 -0.2571994 0.12629806
-0.17188904 -0.2197213 -0.12609075
-0.014372018 0.23047386 -0.061826598
-0.11182031 -0.25582623 -0.09759649
0.101191826 0.19469783 -0.020701684
-0.097263984 0.064654656 -0.111814156
-0.23329653 -0.23878418 0.027793469
0.062440746 -0.21754402 0.13894133
0.2054448 -0.11382394 0.08629451
0.29616693 0.047344584 0.09079212
0.16312884 -0.11810957 0.15253028
0.10327935 -0.12934102 -0.0829784
-0.15466127 0.043817367 -0.0073764324
0.049806498 0.22122651 -0.027108975
-0.068355694 0.23098071 0.057085227
-0.13810755 -0.096038744 -0.11854545
0.17819369 0.19404145 0.18068367
-0.080722116 0.23945767 0.0021760303
-0.13869578 0.05301811 -0.006192997
0.21654482 0.24150844 0.065595336
0.21125795 -0.039014187 0.15993962
0.053241093 -0.2148469 0.18016072
0.059328552 -0.12725173 0.056234967
0.16887526 0.22962776 0.13300402
0.10113195 0.1520787 0.15446506
-0.16718315 -0.034402277 -0.011564512
0.13940814 -0.15766431 0.15391025
0.26960793 0.1729396 0.028971769
-0.058783423 -0.282256 0.13214241
-0.051563274 -0.113469765 -0.16425888
-0.13800119 -0.260868 -0.041644525
0.20296852 0.24525435 0.09138426
0.022037772 -0.2242785 -0.043329936
-0.1631693 -0.05531799 -0.0087264
-0.08420391 0.04407442 -0.051527593
0.094643034 -0.17224091 0.168633
-0.035406355 0.086593494 0.041645844
0.11987386 -0.17241971 -0.0010460877
0.01040305 -0.25862956 0.09705727
-0.16991583 -0.15511918 -0.15114671
-0.20628259 0.1082013 -0.1353913
-0.15671647 0.053801265 -0.1732864
0.1282524 -0.043428246 -0.08196499
-0.042309012 0.20976877 -0.10980591
-0.09798917 -0.09666377 -0.064490825
-0.17185432 -0.21750014 -0.12745753
0.0355211 -0.051711872 0.0989395
-0.031581018 0.13433951 -0.1192094
0.33831984 0.16514133 0.13094264
-0.0703325 0.041486003 -0.0760299
-0.25929913 0.0842415 -0.113885835
-0.17579272 -0.25198013 -0.08686235
0.18112865 -0.030465236 0.010842331
-0.08708952 0.17243573 -0.12465304
0.18884736 0.00020764598 0.010592576
0.015014276 0.13481069 -0.09414796
-0.12237119 0.19576901 -0.124746084
0.14014547 0.046880726 0.16590956
0.27644134 0.14932777 0.2104387
-0.24345897 0.113595426 -0.10779071
-0.053018045 -0.29508498 0.05274061
0.3169337 0.17569792 0.04396309
0.06486531 -0.22351488 -0.02216541
0.088688724 -0.0049275155 -0.06439865
0.23820254 0.15943775 0.19479734
-0.19637449 -0.26321837 0.05924299
0.17383967 0.0784691 0.1947084
-0.036084864 -0.13448144 -0.091775514
0.1307211 -0.08863311 -0.07452328
0.17322524 0.068284675 0.19580726
0.0041640624 -0.18244225 -0.03193953
-0.048797216 -0.2742345 0.07503299
-0.13228711 -0.2664647 -0.08832889
0.22303063 0.17993537 0.20617922
0.2752285 0.034434497 0.057480067
0.28534153 0.048836567 0.12947065
0.16430874 0.20748463 0.1600319
0.17316025 0.12857515 0.18772174
0.070243984 0.17899589 -0.043054953
0.18991081 0.16352895 0.17123157
-0.17781982 0.08967221 -0.17860071
0.13799794 -0.06518722 -0.07401113
0.07631171 0.05127119 -0.121448725
-0.16434 -0.06180873 -0.00612672
-0.103395835 0.17870632 -0.121934325
-0.22930233 -0.18585801 -0.06878184
0.24463764 0.07771905 0.19833587
0.10390856 -0.1377888 0.19551237
0.07094162 -0.22645457 0.15765871
0.13951261 -0.17131609 0.009156872
-0.13393651 -0.28093386 -0.057232898
-0.031788453 0.13086562 -0.0941893
-0.14028706 -0.27978548 -0.047184158
-0.24810058 0.096872196 -0.12059142
-0.16287512 0.18124412 -0.11665545
0.06841091 0.21358256 -0.023471864
-0.23305601 -0.21286996 -0.060568422
0.15098454 0.14496662 -0.005934439
-0.035452597 -0.16857783 0.08362603
-0.23483996 -0.19945982 -0.090150386
0.07069832 -0.11167656 -0.015659569
0.16186343 -0.08224286 0.19989172
0.1624728 0.19229169 0.0897749
0.053288225 0.05544676 -0.13378236
-0.080372944 0.03409286 -0.13062558
0.22492155 0.21036553 0.03422884
0.3389922 0.15498431 0.07136335
-0.08967008 -0.021371571 -0.19306968
0.25264952 0.22691078 0.029170278
-0.13255492 -0.13874829 -0.12730455
-0.07692178 -0.29155162 0.10512251
-0.08594061 0.22821243 0.048479225
0.009328455 -0.1630496 -0.06805911
0.2606343 0.19429003 0.22499779
-0.17757994 -0.054285094 -0.16916892
-0.2382252 0.12577884 -0.059783228
-0.13430052 -0.2522325 -0.102556266
0.15319744 0.047164395 0.006228664
-0.13756695 0.14783855 -0.1416496
-0.24540968 -0.015772387 -0.17581502
0.21372014 -0.037617434 0.15730636
0.10087898 -0.15654865 0.19652918
0.20238382 -0.0071737566 0.16106126
-0.26304758 0.039539132 -0.14078219
0.04684618 -0.12783052 -0.0047564693
0.11748672 -0.08303261 -0.08205091
0.27086678 0.08767727 0.18793386
0.019219387 0.22711396 -0.048651468
-0.16141248 -0.2754144 0.020620162
0.3594332 0.15931717 0.048967794
-0.11975128 0.08079585 -0.13344102
-0.022818074 -0.2641099 0.10511645
-0.18305248 -0.093287215 -0.16663218
-0.10620272 0.0045756535 -0.12129262
-0.09047072 -0.19624497 -0.10256953
0.0744087 0.053746562 -0.071553454
-0.08413443 -0.26899487 0.11737723
-0.29722217 -0.014700368 -0.09551474
-0.2799976 -0.13382187 -0.08114719
0.26824063 0.18588656 0.02855305
0.085069284 -0.22171329 0.17998584
-0.06819889 0.10028255 -0.12321761
0.118502155 0.03140413 -0.095038
-0.124722995 -0.117522225 0.016640488
-0.14453837 -0.036671653 -0.10632042
-0.101668015 0.12931792 -0.15524675
0.18083228 -0.14934094 0.040477984
0.23844671 0.15689205 0.19493817
-0.11425642 -0.15911114 -0.058233775
0.15519533 -0.14627703 0.13961609
0.2056306 -0.02831695 0.023066932
0.1398616 -0.043443967 -0.071841665
0.04672669 -0.07679237 0.12336776
0.024422662 0.20173584 -0.058418654
-0.083108656 -0.055836122 -0.13825892
-0.3047153 0.016227752 -0.036424037
-0.12925798 -0.25427657 -0.10050518
0.14680684 0.166961 0.16231169
-0.14323959 -0.27822837 -0.05349209
0.27134466 0.05697297 0.16153789
-0.19738482 -0.24331716 0.05121653
0.29021007 0.18704744 0.036476277
0.07183982 -0.030784179 -0.011708934
-0.011715239 -0.29894045 0.018183734
0.23145512 0.15037423 0.21157077
-0.23545045 0.058851864 -0.16822816
-0.25071776 0.10575571 -0.06526614
-0.22415814 -0.21722022 -0.07191519
0.094341904 0.045006566 -0.014505788
0.018916622 0.2133533 -0.07880939
0.15872279 -0.19725114 0.057434566
0.06017501 -0.25742447 0.025635459
-0.013845612 0.124049455 -0.074564695
-0.13599306 -0.11274513 -0.12327997
0.061870433 -0.254021 -0.014158782
0.008329637 -0.12885733 -0.023843912
-0.27923277 -0.19054256 0.003962109
-0.1398246 -0.2584398 -0.09642833
0.116409734 -0.236397 0.027323129
-0.10468122 0.17464347 -0.12509365
0.049712542 -0.10836397 -0.02815404
-0.046443187 -0.18640602 -0.02027852
0.27289042 0.04572897 0.10651131
-0.08337976 0.24121463 0.013441545
0.06572106 -0.04924752 -0.0016442048
0.038401604 0.06660121 0.019923735
-0.13181686 0.018015824 -0.13344476
0.12862244 -0.04425175 -0.08166333
0.20548563 0.23135492 0.17819946
0.096794665 -0.15716785 -0.008125942
-0.1482321 0.08875022 -0.17310497
-0.3049134 -0.036671538 -0.07969996
-0.06357198 0.24427852 0.034495864
-0.09146951 -0.025999097 -0.12194425
0.358826 0.14998266 0.06258604
0.008033398 -0.29654822 0.0068317857
-0.11304062 -0.27885473 0.10395676
0.04098786 -0.09239895 0.12282086
-0.08704848 0.24787226 0.04355538
-0.3034929 0.018803375 -0.0382111
-0.27516216 0.017733237 -0.12787805
-0.14550595 -0.12034209 -0.10409611
0.085330114 0.014702419 0.06376796
-0.026689889 0.23321795 -0.046721656
-0.29232785 -0.15031125 -0.03586156
0.14039846 -0.18578653 0.11918021
-0.2112297 0.021345658 -0.18533134
-0.30611092 0.018931145 -0.03539607
0.1445825 0.10474739 0.18313496
-0.3062959 0.06664929 -0.046106454
0.22204857 -0.075521424 0.052880544
-0.16235985 -0.2733404 -0.009088225
-0.1188841 -0.2406937 -0.108348064
0.13587104 -0.12999819 0.18761195
0.34314582 0.16748331 0.0962923
0.111467 -0.19849743 0.14587837
0.038237352 -0.2448341 0.16211739
0.13900921 0.1394519 0.12411696
-0.27808404 -0.036677696 -0.13205636
0.06752724 0.186252 -0.06610426
0.16919638 -0.017371818 0.002982996
-0.25419375 0.05476898 -0.14651613
-0.29172406 0.023062682 -0.096315295
0.11400147 -0.23772837 0.07264024
0.15862454 0.030421391 0.19245896
-0.272651 0.01721759 -0.0958141
-0.2946215 -0.09669167 -0.0364982
0.101613484 0.05116309 -0.10850708
0.18327601 -0.02139053 0.18639831
-0.05023585 0.21952477 -0.09888448
-0.09690841 -0.292196 0.05139139
0.14711165 0.0093954615 0.19746295
-0.00066688063 0.21527164 -0.0004443334
-0.20666161 0.08447651 -0.15441117
0.15610655 0.05717243 0.18877076
0.19324781 0.25361246 0.0704735
0.2632428 0.19056547 0.027143367
0.0023514351 -0.14456931 -0.10602829
0.04851546 -0.14979947 -0.05261002
0.12777936 0.065158665 0.17908257
0.08291207 0.20109846 0.045397703
-0.22682518 0.06377845 -0.17305544
-0.07174535 -0.25508928 -0.06433668
-0.07111316 0.028850729 -0.18094142
0.01648557 0.05370888 -0.08337765
-0.1930166 -0.25616086 -0.019308433
-0.2753374 -0.10721021 -0.069771305
-0.19420892 0.1821861 -0.020939713
-0.053039968 -0.29254824 0.0700423
0.13486199 -0.14399156 0.13627744
0.14212237 0.17802037 0.14088324
-0.081304386 -0.2337628 -0.09544338
-0.11636884 -0.021012457 -0.07335328
0.1449139 0.024336385 0.17057297
0.05911271 -0.114658326 0.07488314
-0.20330591 0.16323905 -0.049984604
0.21235353 0.1705125 0.025760287
0.09483299 -0.028662004 0.06095652
-0.014015937 -0.26702863 0.15293245
0.21517152 -0.050049152 0.14165477
0.12792394 0.11503252 -0.015291856
-0.20135061 0.09922895 -0.17143238
-0.10364836 -0.11606761 -0.08379542
0.27366808 0.014729138 0.112716086
-0.08642962 -0.0050572897 -0.11896166
-0.02210957 -0.1547077 -0.1435733
-0.04482923 0.07300145 -0.08215262
-0.16710946 0.19210817 -0.028936805
-0.050119765 0.049169347 -0.17837147
-0.1991794 0.104082555 -0.14743428
0.30105653 0.09645457 0.153837
-0.06397383 0.22481446 -0.08475804
-0.091485225 0.074565955 -0.12275909
0.078147985 0.1924299 0.105790116
-0.024463255 0.040672168 -0.13611804
0.2115362 0.18304391 0.17961231
0.30506477 0.16466987 0.2269062
0.24180567 0.022553416 0.13455285
0.26726666 0.21036646 0.0095522795
-0.045093298 0.00895949 -0.1731261
-0.28699112 -0.0035908595 -0.07433611
-0.26223367 -0.10783872 -0.097922795
0.0011932643 0.10205777 0.075553335
-0.06592302 -0.2705314 -0.074400134
-0.07446605 -0.22323565 -0.07311978
0.28173 0.1567587 0.21117835
-0.21860994 -0.17245398 -0.11649477
0.038872078 -0.28465384 0.043676272
0.22985077 0.21263774 0.21512291
0.03994169 0.07140163 -0.14278245
0.10338231 -0.05422746 -0.028353354
0.038806792 -0.17617667 -0.10951487
-0.19504508 0.1822619 -0.07050898
-0.26997814 0.086314 -0.09332521
0.010427963 0.2102312 0.09443651
-0.05590998 0.24532375 0.049691312
-0.07528074 -0.21400209 -0.073277526
-0.3062725 -0.10042339 -0.053478844
-0.016795369 -0.1391082 -0.14299059
0.19782971 0.17912318 0.19341506
-0.3025858 0.019352773 -0.07611146
0.1691975 0.2528433 0.16752589
-0.09727086 -0.2925264 0.04531846
-0.30294073 0.073269 -0.041205257
0.17346996 0.23222658 0.19893739
-0.26581994 -0.070145845 -0.112626985
-0.089391746 -0.018827895 -0.121744215
-0.10501626 0.15636584 -0.15366356
-0.11721158 -0.16882594 0.03975613
0.013187995 0.05087804 0.065871246
0.04393727 -0.016668059 0.10475485
0.072778076 0.20334156 0.06848634
-0.024634482 0.15558995 -0.11971996
0.09627465 -0.07068437 -0.020834167
0.107576415 -0.19167294 0.16237167
-0.2016075 0.07685207 -0.15978135
-0.21319285 -0.19454467 -0.13107173
0.10485527 -0.15619062 0.19851169
-0.0081798835 -0.27890843 0.11000055
0.3013151 0.10034304 0.15754111
0.13188255 -0.013034992 -0.084265396
-0.036243938 0.07416087 0.021491356
0.02111837 -0.25375354 0.1591216
0.16867222 0.24631861 0.11947983
-0.07109463 0.21945414 -0.01414032
0.22119035 -0.067228004 0.045440055
-0.13538483 0.004973463 -0.11693035
0.060525678 -0.08063975 -0.010132326
0.13449383 -0.10568791 0.002161708
0.05335065 -0.13909194 -0.039766647
0.17257637 -0.103390835 0.016442733
-0.27858904 -0.10628677 -0.06343194
-0.26722458 0.064138226 -0.116793066
0.2137509 0.03230452 0.19375895
-0.05216879 0.056353137 -0.13581651
-0.06161798 -0.14950775 -0.04940188
-0.030021364 -0.15965343 -0.08253085
-0.18889734 -0.24354936 -0.0871055
-0.024139259 0.028473837 -0.16797921
0.13019302 0.09115177 -0.011538459
0.041909393 -0.054301538 0.041685212
0.2761246 0.07440883 0.1720895
-0.072437726 0.18467109 -0.13497126
-0.0904971 0.01161888 -0.16864637
0.16504289 0.20530733 0.16304258
0.0766611 0.20521939 -0.036532693
0.110207714 -0.120597035 0.00037413565
0.0005812252 0.2348914 0.052080166
-0.12435826 0.21416053 -0.0761344
-0.067060776 -0.11345851 -0.10501066
-0.20375009 -0.051337853 -0.016852757
0.26994854 0.05353667 0.16021779
0.016219055 0.21140383 -0.08264983
0.33937693 0.14733215 0.15048988
0.18082638 0.18792327 0.18336916
0.28377992 0.108301155 0.15555541
-0.19436863 0.18913007 -0.056428958
0.05835537 -0.25781757 0.10290674
0.17319544 -0.023478894 0.0058337455
-0.07712771 -0.13539349 -0.14943777
-0.13537064 0.16843183 -0.15034139
0.09727175 0.18893322 0.06311277
-0.15030973 -0.0110894395 -0.15364257
-0.2637893 0.11055333 -0.038395237
0.098868385 -0.09102025 -0.08530832
0.14729744 0.022446757 0.007886416
-0.11395755 0.07968486 0.0064618983
-0.121773005 0.18276149 -0.14035732
-0.10511262 0.25412166 0.035142098
-0.10764755 -0.22462389 -0.08983409
-0.01648165 0.19459336 -0.11096966
0.06242231 -0.2680371 0.00031021723
0.20765482 0.23098812 0.17247505
0.055951092 0.17614166 -0.078313366
0.18866277 0.101208635 0.013525663
0.101962656 -0.16749331 0.16377054
0.088159196 -0.149758 -0.087912485
0.2532038 0.0058682975 0.13752048
0.14014891 -0.0051208446 -0.0058888267
0.03676129 -0.16088575 -0.11265068
0.13307247 0.05154655 -0.021470526
-0.29027903 -0.11402446 -0.030879343
-0.14623094 0.09655965 0.0016041923
-0.09916622 0.11233107 -0.15188503
0.22188324 -0.03528873 0.14613011
0.25418627 0.12546673 0.1908808
0.22368857 0.2347684 0.02263498
0.06937963 0.059665326 0.043624796
-0.06967944 -0.050716322 -0.18209387
-0.0989877 0.25799954 0.024492135
-0.13638207 0.08544864 0.003970017
-0.02871511 0.07884875 -0.07409787
0.103122436 0.049306195 -0.10013723
-0.22342464 -0.23409171 -0.020380015
0.12169926 -0.10510436 -0.06554683
0.06591389 0.21310562 0.0077708587
-0.20894814 0.029760106 -0.18541574
0.20324033 0.20799348 0.19223209
0.05661431 -0.24874486 0.12843281
0.19769111 0.047407795 0.1994975
-0.07696127 0.23048398 -0.049300876
0.2159571 -0.09215109 0.05866274
0.16394657 -0.03938237 0.18548587
0.058288578 0.1790583 0.12585129
-0.20643254 -0.23646097 -0.0611647
0.103526115 -0.16531484 0.16379999
0.050374165 0.21586071 0.061237942
0.19564413 -0.036462422 0.039347533
-0.12135801 0.05699116 -0.14909278
0.13201997 -0.16832137 0.15484655
0.23660724 0.10678768 0.0208973
-0.21721068 -0.10753906 -0.17089204
0.16062236 -0.15484737 0.12142246
0.23452958 0.025365895 0.18084723
0.15503393 -0.07725051 0.18970856
-0.19405484 -0.2385981 -0.089451104
0.017279195 0.2169161 0.10275905
-0.2515512 0.07042458 -0.1382413
0.09244631 0.19822858 0.028949669
-0.27096263 -0.16533262 -0.06342253
0.0053048832 -0.2879678 -0.022416828
-0.101704665 -0.056010965 -0.10044143
-0.12943785 0.14603099 -0.14232384
-0.03809353 0.21893309 -0.015082648
0.0021079334 0.2000083 -0.09975215
-0.124986105 -0.26539645 -0.09021594
-0.03128349 0.09779104 0.051575918
0.14455658 0.114562444 0.15451348
-0.16255 -0.26060873 0.076167375
-0.19717759 -0.18693992 -0.14243084
-0.12094473 0.11892844 -0.16326736
-0.06290407 -0.038380355 -0.18031861
0.12857895 -0.20858993 0.10342894
0.06339432 0.1979367 0.1272492
-0.14928634 0.18507573 -0.12328315
-0.06986608 0.008836991 -0.13358705
-0.29764038 0.0752499 -0.03876777
-0.2530802 0.056756195 -0.10964656
-0.20378458 -0.12771699 -0.14755428
0.063362144 0.17680128 0.1317882
0.017815074 -0.08750927 0.089924954
-0.09038651 -0.14636745 -0.025663687
0.03417636 -0.058580793 0.054123662
-0.20783257 0.1975745 -0.018666316
0.094147146 0.14870149 0.15135792
-0.14812309 -0.28133568 0.041901294
0.16243123 0.21589191 0.120474
0.3121931 0.10560259 0.065023266
0.18157786 0.25579754 0.09981837
0.2718836 0.18818817 0.22442652
-0.19788049 0.16061966 -0.10723806
0.045810882 -0.088128164 0.12520267
-0.14178512 0.08777154 -0.17018053
-0.17806178 -0.021847934 -0.010504489
-0.18054545 -0.0065867915 -0.011114628
-0.017611587 -0.30048287 -0.007772019
0.16661642 0.22518279 0.1373806
0.20325702 0.22160234 0.092516735
-0.2072444 0.14854017 -0.11445328
-0.020606706 0.23409535 -0.037220478
-0.07909433 0.2119117 -0.11108078
-0.2471478 0.018234415 -0.14243689
-0.19233266 -0.017490158 -0.18113735
0.16481672 -0.07871287 0.009104355
0.1582903 0.13584095 -0.0022275518
-0.0417534 0.23450117 -0.037242275
0.05445477 0.21268581 0.0942389
-0.21160224 0.15298744 -0.10074075
-0.17414014 -0.18792395 -0.14305179
-0.05311436 -0.23750325 -0.08052959
-0.06264008 -0.28177005 0.1257688
0.1333432 -0.05959647 0.02074859
0.292187 0.072813466 0.14352533
-0.2755151 5.9947038e-06 -0.13379316
-0.095777705 0.11839006 -0.15098241
0.03741096 -0.09234665 0.015372794
0.18765655 -0.06458197 0.16558988
0.10496119 -0.1801394 0.18274295
-0.32372695 0.019739706 -0.061381623
0.2551065 0.0062435805 0.04760244
-0.2310933 -0.102430634 -0.1690926
0.26156285 0.0033211117 0.12082914
0.06921368 -0.24383445 0.12256573
0.1862904 0.02337605 0.0069575976
-0.29018337 -0.05413196 -0.10743776
0.05964409 -0.24499363 -0.020474542
0.1837119 0.054513805 0.0038490247
-0.2757344 -0.034814164 -0.13712464
0.049307864 0.13226254 -0.0772378
-0.029702913 -0.28290308 -0.04866232
0.17406282 0.24911425 0.17483944
-0.20435792 0.18653028 -0.0063222796
0.07016261 0.031746004 -0.09978098
-0.027775897 0.11977778 0.05905947
-0.19166102 0.03631805 -0.18469885
0.14758964 0.18426831 0.109013535
0.015043045 0.18291515 -0.09988876
0.2521465 -0.009255995 0.1232011
0.15385084 0.017298127 -0.008298615
-0.053618945 -0.28929642 0.09169314
-0.20561832 0.09956096 -0.1690766
-0.02970339 -0.29318348 0.06138501
-0.07067142 -0.036952656 -0.18448226
-0.07609 -0.09183008 -0.12656751
-0.2693039 -0.18867655 0.011791641
0.36995614 0.13462886 0.13223942
0.19876818 0.10507514 0.013569394
-0.012714324 0.21704601 -0.011597684
0.22349028 0.025225542 0.02487139
-0.29181242 -0.15650032 -0.00410697
0.35339457 0.15273878 0.06418162
-0.028091881 0.22763799 0.07811344
0.013042395 0.046881445 0.057539944
-0.000876924 0.21510398 0.080688976
0.13967921 0.08283785 -0.02582477
0.20555295 -0.06523645 0.02892424
-0.2744194 -0.13429101 -0.045208566
-0.23354228 -0.19043565 -0.11020931
0.28263205 0.022431908 0.09225851
0.23392026 0.05329029 0.19388738
-0.04799373 -0.30024436 -0.021775713
-0.2407979 0.05327529 -0.16582388
0.0052098953 0.23215729 -0.0159409
-0.25143075 -0.064521305 -0.14120917
-0.2081192 -0.2432494 -0.030435953
-0.14833683 -0.19463521 -0.13431843
0.16578735 0.19177526 0.1710018
-0.12911348 -0.19376528 -0.1253378
-0.039292343 0.0370079 -0.17856178
0.04195976 -0.11027356 -0.019977653
-0.10559463 0.22928005 -0.03461778
-0.084027246 0.117600255 0.02940445
-0.06805703 -0.057851538 -0.16770212
-0.14961243 0.0465463 -0.0070692874
0.079673894 -0.15511487 -0.09151528
-0.12476754 0.16739927 -0.15102646
-0.30825847 -0.043401714 -0.031995043
0.03721048 -0.029402563 0.09089555
-0.22476171 -0.23697627 0.04115194
0.25173393 -0.020704446 0.11171312
-0.10633106 0.08044538 0.0081902705
0.04267445 0.046702806 0.103707165
-0.07453728 -0.075162746 -0.18123394
-0.23213156 -0.064457424 -0.17746907
-0.28248817 -0.060013544 -0.08105683
-0.017575692 0.23462811 -0.032523155
0.13978982 9.4961506e-05 0.1949938
0.25671175 0.017782444 0.076933116
0.034849882 0.22468187 0.037927456
0.010697409 0.23169611 0.06525331
-0.020755481 0.22130737 0.053674992
-0.18644786 -0.21546315 -0.09805383
0.18736601 0.081444174 0.010341877
-0.12663378 0.23309283 0.02702166
-0.24817903 0.1202254 -0.052522745
-0.03452556 0.21357375 -0.05908937
-0.10760141 -0.26830068 0.10529263
-0.2950269 -0.008965627 -0.059820984
-0.04265523 0.23787959 0.0692727
-0.31320995 0.044152655 -0.04247109
-0.14791097 0.09562286 0.00093788054
-0.294381 -0.12341832 -0.013561583
0.019938597 -0.09304716 0.10171382
0.29619563 0.06851496 0.1322478
0.22377759 -0.059734963 0.11695743
-0.2964209 -0.10149775 -0.07429505
0.19459099 0.20323542 0.05173228
-0.24820854 -0.16286704 -0.06693308
-0.2693187 0.01666527 -0.13925634
-0.0004157341 -0.107742935 0.07707177
0.14711334 -0.19068475 0.10171033
-0.26117283 -0.07347903 -0.12050257
-0.15462722 0.22007729 0.014498751
0.10844183 -0.2329636 0.011243538
0.24483767 0.07528127 0.17499688
0.34362108 0.13529848 0.11512856
0.008215997 0.22724101 0.09671763
-0.30882594 -0.050798338 -0.02947862
-0.27154762 -0.14807713 -0.08606438
-0.20375152 0.16732937 -0.08679949
-0.19776851 -0.14293249 -0.142731
0.2174689 0.13706802 0.018083032
0.13161096 -0.029472219 -0.08215713
0.17992193 0.25026083 0.14454162
0.111596115 -0.21642815 0.0033404005
-0.0043142396 -0.27690718 0.11388032
-0.16149102 0.19828679 -0.018951984
-0.10447298 -0.28940696 0.07833975
0.3340429 0.11601975 0.104505196
0.055331517 0.20394845 0.1239738
-0.12197466 -0.26668 -0.08909274
0.24580057 -0.022628494 0.052000575
-0.13752759 0.0058766706 -0.027574748
0.22961503 0.019911526 0.18144318
-0.20456241 0.11079748 -0.16362917
-0.18927872 -0.084627956 -0.17084278
0.03971669 -0.025108634 0.05339174
0.34189394 0.14555705 0.18879215
0.27151763 0.1682292 0.030246576
-0.2792745 -0.013739138 -0.12977038
0.049531363 -0.24457079 -0.004059464
0.064001314 -0.27278817 0.05531891
-0.19319585 0.00094128784 -0.011948919
0.08144547 0.043093216 -0.061404258
0.0421836 -0.020135809 0.04480403
0.29149094 0.1649314 0.21566962
-0.2220163 -0.23078267 -0.035874866
-0.077178955 -0.13205725 -0.116444916
0.18803109 0.19603899 0.18609579
0.009796752 -0.29415306 -0.0026103754
0.19514975 -0.08120131 0.049753964
-0.13836111 -0.023164133 -0.034494534
-0.033563647 0.11543083 -0.06807317
-0.21343961 0.15407522 -0.09624521
-0.26462883 -0.15565151 -0.038735565
0.19866915 -0.018111294 0.01811495
-0.11774561 -0.2883057 0.061453495
-0.06943553 -0.065235645 -0.16333745
-0.097902894 -0.005133882 -0.1639825
-0.23780313 0.18367748 -0.023020115
0.286097 0.19218224 0.032850236
0.26853168 0.04790136 0.116812825
-0.017703213 -0.1605498 -0.07027607
0.13945833 -0.041677598 0.20053537
0.034532074 -0.038023103 0.08136166
0.01900671 -0.15376008 -0.04293365
0.32692853 0.16541502 0.17248568
-0.079372145 -0.13995971 0.048489932
-0.053476468 0.23523982 -0.032576293
-0.27330086 -0.02713123 -0.14285722
0.26472852 0.1018901 0.19867058
-0.15472627 0.17726262 -0.1327355
0.036662545 -0.01861689 0.06289496
-0.10419168 0.22285378 -0.06246349
0.15635824 -0.021548048 0.17142133
-0.2327585 -0.23306267 0.0036317722
0.083059266 0.023032727 -0.028112717
-0.06380749 -0.2257472 -0.087541685
-0.02446913 0.23973341 0.03732109
-0.26078147 -0.08075079 -0.15602067
0.0238316 -0.2487393 0.11343678
0.28997454 0.12745287 0.19575575
-0.08382869 0.05282482 -0.031402912
-0.26565382 -0.09037121 -0.14583437
-0.11697237 0.23482026 -0.001993839
0.3162089 0.086098604 0.11015045
-0.078110516 0.006526028 -0.1942271
0.22231951 0.220691 0.18797648
-0.13623914 0.048502736 -0.0081779575
0.15986988 0.04350811 -0.010131985
0.20841071 0.23066135 0.093532294
0.0044708317 -0.29582566 -0.002483984
0.1746744 0.03845701 0.1968708
-0.22662023 0.16682507 -0.053781282
-0.056492735 -0.009221683 -0.18102941
-0.13212456 0.1119923 -0.16758744
0.19070147 0.24254891 0.15693049
-0.13830024 0.23276596 0.0075532068
0.09839064 -0.20292094 0.15931047
-0.22988807 -0.17669684 -0.087712646
-0.053910278 -0.158322 -0.13243194
-0.2493417 -0.21723816 -0.004980876
-0.0651065 0.16300933 -0.13939942
-0.058364417 -0.2650015 0.12747435
0.055724327 0.07829109 -0.13364254
-0.30553183 -0.103528984 -0.05296292
-0.1058415 0.24478002 0.014269158
0.059141282 0.21258476 0.09771354
-0.23235016 0.08200233 -0.121875815
0.124703564 0.13421193 0.15063466
-0.11110985 0.24489753 0.023206208
0.25524923 -0.026107538 0.08975889
0.2382396 0.20098676 0.19019745
0.079758935 0.123584256 -0.041059736
-0.0026393041 -0.15698443 -0.041785065
-0.12992084 0.18877663 -0.083810195
-0.32020408 -0.022187866 -0.050779123
-0.15051639 0.090845235 -0.008894917
0.23145176 0.12356857 0.018732639
-0.05664393 -0.27802968 0.13265766
0.21208572 -0.051539745 0.14523141
-0.102059096 -0.1961203 -0.11044112
0.23554946 0.23728119 0.018992005
-0.26477337 0.016175905 -0.14794308
0.04761116 -0.07981746 0.012344007
-0.25618792 0.015297328 -0.16286688
-0.08597779 0.22136977 0.0031089457
0.3414468 0.17175654 0.073129945
0.05408744 0.18579799 0.12581952
-0.11140248 0.12421682 -0.15933257
0.12156415 0.16335005 0.084630035
-0.17687535 -0.2711563 0.048369903
0.17920667 0.12832996 0.02276635
0.17439052 -0.16784763 0.048690405
-0.22047141 -0.16749501 -0.14641364
0.117085055 0.014081829 0.013651618
0.036204696 0.070855446 -0.0783711
0.16352417 0.05604957 0.19260998
0.06396456 -0.1332144 0.039647996
0.26468134 0.14419508 0.029651698
0.15825632 0.17156081 0.12066105
0.040122002 0.08055547 0.0687483
-0.18605305 0.098315634 -0.17591402
0.22583322 0.017720724 0.18268663
0.308583 0.0735699 0.11262871
-0.15206915 -0.28078997 0.073718645
0.047825586 -0.120937094 0.08389927
0.1632812 0.16485946 0.059242804
0.018809903 -0.25801817 0.08979345
-0.14591552 -0.24290732 -0.085925736
0.13790704 0.048519075 -0.01948709
0.20113526 0.24390784 0.10771446
-0.024050873 0.17527185 -0.120238125
0.041060112 -0.114560924 0.104679234
-0.28354585 -0.12792905 -0.032836862
-0.10684769 0.19546355 -0.12949881
0.20337197 0.23291625 0.17542839
0.39031842 0.14005563 0.10395268
0.17952941 -0.056109905 0.1509613
0.20251992 0.12135864 0.015679963
-0.10491945 -0.039016373 -0.17109102
0.27995947 0.10668903 0.06285432
0.3365021 0.14618699 0.15076502
-0.28861496 -0.010498396 -0.072486885
0.23002703 0.17534107 0.20992725
0.10262694 0.19265753 -0.023178438
-0.114539415 -0.19480962 -0.11762299
0.105138525 -0.18882594 0.1705129
0.14978543 -0.02121503 0.20301414
0.20402502 -0.01598899 0.020561201
0.12380931 -0.23518065 0.049500152
0.10178014 0.13791554 0.15673232
-0.17128482 -0.27372316 0.0734975
-0.041178435 -0.29060122 -0.044892933
-0.23615396 0.13483176 -0.048921622
-0.14215165 -0.12214646 -0.13533668
-0.036994476 0.11976792 0.05382205
-0.20154053 -0.09236942 -0.17354085
-0.15950061 -0.16164096 -0.14525495
0.25159192 0.059093777 0.1866687
-0.23652107 -0.19410476 -0.09635385
-0.18086536 0.023988584 -0.010832627
-0.039489422 -0.12248728 -0.1568573
0.070921324 -0.0032704715 0.10369792
0.2403529 0.13432853 0.21200939
-0.055708364 -0.12974343 -0.031743
0.22149315 0.19472243 0.030288635
0.08213307 0.20721506 -0.015194317
-0.096398085 0.07815768 -0.13376717
-0.0055150427 -0.11796578 0.08709484
0.13801849 0.15110032 -0.019476363
-0.09141348 -0.06658708 -0.1167681
0.029286517 -0.17807932 -0.107559375
-0.09424422 -0.1132545 -0.113458596
0.10692681 -0.079654336 -0.08790773
-0.1044443 0.097934105 -0.15197599
0.24355301 0.22041538 0.013606794
-0.25565273 0.05614624 -0.14294448
-0.051022843 -0.27743596 -0.06337364
-0.18948375 0.118295394 -0.1432939
-0.05486352 -0.3003062 -0.023148647
0.026378693 -0.27990624 0.0735436
-0.30524048 -0.06708776 -0.0722355
-0.05390271 0.19047548 -0.12686029
-0.082245275 -0.19010349 -0.09461665
0.0221568 -0.25956446 0.1420144
0.28432593 0.18100221 0.22682613
-0.27497196 -0.18573453 -0.017646361
-0.26048106 0.08936225 -0.10786048
0.070506945 -0.17896487 -0.018168269
0.1719831 0.09549017 -0.0030801839
0.119172715 -0.23559095 0.06943315
0.031532817 0.22421014 0.06439323
0.13847846 0.16218884 -0.0069797346
-0.03636812 0.23984618 0.0075081494
-0.03857302 -0.22130027 -0.07395395
0.0071635763 0.23039663 -0.03611783
-0.15628725 0.054934405 -0.17322206
0.13256226 0.081642814 -0.009028021
0.13135234 0.15592779 0.14338146
-0.029911857 -0.1771973 0.041806422
-0.1405887 0.210675 -0.06750251
0.27922916 0.019681526 0.103282936
0.023481349 0.082136914 -0.11632259
0.077889636 0.10210843 -0.052802984
0.01410574 0.20382902 -0.062449854
-0.24060291 -0.2206978 0.030833025
-0.23756452 0.06722994 -0.16220894
-0.04350895 -0.28291735 -0.055013962
-0.27926588 -0.103988394 -0.110117115
-0.13039494 0.21301702 -0.07168756
-0.10749483 -0.2777761 0.10664261
0.07803187 0.028549444 -0.11034211
-0.07222328 0.16154465 -0.14249949
-0.05034374 -0.29990026 -0.024096133
-0.057991464 -0.14955372 -0.07310515
0.09584846 -0.22941081 -0.0027605856
-0.1025475 0.16014768 -0.15190381
0.20162162 -0.10259941 0.10842134
-0.030943526 0.23121321 -0.06127736
-0.27055967 0.01632975 -0.10005869
0.12952186 0.105166614 0.17538314
0.38005897 0.13268246 0.11327045
-0.19204465 0.08973358 -0.15880498
-0.24974705 0.08073117 -0.13354562
-0.05356024 0.1374688 -0.11092257
-0.1518034 -0.08017488 -0.06630777
0.23820174 0.10511552 0.18859893
-0.2997981 -0.056584403 -0.046662234
0.15465666 -0.05244908 0.19711207
-0.31510895 0.040047366 -0.04288019
-0.19684225 0.06233448 -0.18271728
0.060712297 -0.009767151 0.12186844
