# .PCD v0.7 - Point Cloud Data file format
VERSION 0.7
FIELDS x y z
SIZE 4 4 4
TYPE F F F
COUNT 1 1 1
WIDTH 1000
HEIGHT 1
VIEWPOINT 0 0 0 1 0 0 0
POINTS 1000
DATA ascii
-0.00950016 0.009135255 0.053371023
0.2360495 0.06316603 -0.19130354
0.025678191 0.018832885 -0.2161077
-0.09394259 -0.065931834 0.250814
-0.104898386 -0.028393025 0.24702837
-0.05082306 -0.19884594 0.044045784
0.22485419 -0.15050718 -0.044988148
0.22762634 0.07952475 -0.16993381
0.23533282 0.15294859 -0.14063798
5.766105e-06 0.13995011 0.043131102
0.18144888 -0.037328817 -0.05079174
-0.093947254 0.1681072 -0.091489226
-0.13225049 0.054221205 -0.0005411518
0.13549817 -0.22365008 -0.06451346
0.22920747 -0.08753446 -0.13951701
-0.167831 -0.06545304 0.31489548
-0.15295261 -0.07580727 0.09037014
0.040059686 -0.22200492 -0.041034717
0.1289881 -0.14193907 -0.1417361
0.06300542 -0.0965748 -0.10404184
-0.15378289 0.073655315 0.0050636823
-0.07017072 0.1732633 0.12881468
0.1885511 0.06207899 -0.23544978
-0.14361961 -0.11195761 0.13055389
-0.11160725 -0.08380748 -0.036037218
0.14342761 0.0415097 -0.24616598
0.07170194 0.16054489 -0.22332482
0.24807285 -0.09368812 -0.13902219
-0.16379187 -0.07754131 0.3044425
-0.08274341 -0.11252183 0.15268818
-0.19590102 0.03223238 0.22391568
0.02412153 0.052983157 -0.19095789
-0.09583414 0.053786114 -0.04688646
-0.048456695 -0.13831435 0.0050854655
0.23960358 0.1353854 -0.1595022
0.065221824 -0.07071341 0.044666793
-0.019779518 0.24487998 -0.022484
0.22685783 -0.05335578 -0.16591036
-0.084925316 0.033512767 -0.0128524555
0.014537832 0.24766959 -0.12723893
-0.079727285 0.10442386 0.1713046
-0.025368208 -0.13022645 -0.108239405
0.23056054 0.013041533 -0.20301038
-0.14005798 0.0058673406 0.25898543
0.13074139 0.1161821 -0.07296777
-0.039217025 -0.05157889 0.20030089
0.13864323 -0.08319192 0.004366351
0.12103413 0.23117454 -0.14239395
0.056083534 -0.22805691 -0.045654364
0.013642431 -0.22060733 -0.016330319
0.19787146 0.02975755 -0.23358943
0.15025933 -0.07877328 -0.065974094
0.15598816 0.18346775 -0.15670952
0.060845125 -0.14332213 -0.084254
-0.08315938 -0.15847105 0.25655505
0.08504108 -0.23916323 -0.01489196
0.014274775 -0.15593272 0.1723175
-0.1254203 0.050575033 -0.06907441
-0.15869127 -0.05535149 0.33091787
-0.22201626 -0.05676769 0.14931636
-0.20924081 -0.15528287 0.19562626
0.23900063 0.05671526 -0.1893785
-0.25319266 -0.06343803 0.15793386
0.08543465 -0.22875904 0.03721312
0.23574093 -0.15682407 -0.007591174
0.006022537 -0.142204 -0.027262418
-0.22755398 -0.038804173 0.3083444
0.29391372 -0.04164651 -0.11151832
0.005328167 0.25139317 -0.11230289
0.25675562 -0.009494584 -0.17025898
-0.11587499 0.18764827 0.06654833
-0.1804766 -0.11849872 0.15490708
-0.2610058 -0.04171733 0.28577858
0.07600407 -0.08306697 0.060621995
-0.0358033 0.08730241 -0.17091557
-0.27046773 -0.06646331 0.18428083
-0.004335313 -0.1649451 0.121774375
0.22369167 0.1767969 -0.14004107
-0.029672503 0.10874593 0.06180305
0.059704885 -0.100529306 -0.09937583
-0.09472849 0.096451506 0.1569871
-0.09181047 -0.030882347 0.2358806
-0.03003886 0.064779006 -0.14557031
-0.0037848523 -0.014932463 0.113488436
0.11037498 0.22800611 -0.15163125
-0.23484612 -0.011173248 0.12231354
-0.25858185 -0.048263177 0.28025618
0.10966754 -0.2104637 -0.101127416
0.10514996 -0.062012237 -0.028362049
-0.32109064 -0.08457851 0.20538709
0.17757203 0.11309778 -0.22193685
-0.09244831 -0.15516035 0.050365783
0.023488415 0.114149384 -0.009357016
0.10295495 -0.03837576 -0.08049967
-0.14046599 -0.12811893 0.19937612
-0.2606438 -0.12412176 0.19870055
-0.17166857 0.021706043 0.25112006
-0.08545919 0.09027909 0.18588378
-0.10959703 -0.008666758 0.242919
0.039899774 -0.20463021 0.06509767
-0.1552853 -0.16288151 0.19319898
-0.06815801 -0.0030880554 0.016963622
-0.14575842 -0.07076042 0.061966024
0.20651177 0.026002571 -0.22604762
-0.057294253 -0.0873608 -0.048761893
0.2835246 0.072269164 -0.16128257
-0.10636813 0.07545021 -0.085630745
-0.18018818 -0.061957847 0.09130563
0.28647768 -0.0643106 -0.116663724
0.02240751 -0.1354532 -0.033082128
0.070654936 -0.20096196 0.07245698
-0.08477193 0.13832523 -0.05844975
0.009456534 0.25093374 -0.04655374
-0.27691177 -0.038101763 0.27416778
-0.056844026 0.23978736 0.05769426
0.24302492 -0.14964771 -0.017483085
-0.07037008 0.22009067 -0.0009606367
0.09536956 0.2662433 -0.058751807
0.034131844 0.10312491 -0.05375442
0.042419333 0.26639214 -0.009375503
-0.1262151 0.027084177 0.23787385
-0.17619623 0.05910099 0.20271735
-0.11786632 0.21139024 -0.008289026
-0.046351362 -0.039808393 -0.0007391363
0.027182592 -0.016138598 -0.206448
-0.12458477 0.06654762 -0.010074064
-0.25128308 -0.0075538144 0.16875908
0.23062134 -0.1886932 -0.016134135
0.19109872 -0.19937064 0.031878065
-0.034116797 -0.07072563 0.1937676
-0.26512733 -0.034458954 0.1875317
-0.0029151868 -0.1991483 0.103375986
0.28213024 0.009130884 -0.14438865
-0.004802764 0.026015665 -0.1947398
-0.10125748 0.04469575 -0.10690509
0.11594278 0.23144555 -0.11155343
-0.10168775 0.016188182 -0.06166148
0.1348789 -0.20481028 -0.112980545
-0.067205615 0.09567679 -0.13078079
-0.13474998 0.16591404 0.07308642
0.16722895 -0.2044402 -0.075727336
0.034052886 0.23966104 -0.103394315
-0.016574461 -0.14545514 -0.09764079
-0.07992793 0.024210325 0.20917702
-0.05230605 -0.14798188 0.008048677
0.07422063 0.2917056 -0.04997208
0.1372291 -0.09262154 -0.06092725
-0.07997939 0.16779949 0.119261645
-0.097596444 -0.09147318 -0.030680096
-0.022463717 -0.12744947 0.18272716
0.010611351 -0.22822306 0.050772563
-0.25957906 -0.08285154 0.17174262
-0.005045742 0.12351771 -0.09218645
-0.21089001 -0.022180816 0.25390947
0.06757541 0.071210496 -0.17862402
0.09385606 0.1213137 -0.11157709
-0.016649283 0.13486296 0.037452463
-0.041754566 -0.13506737 0.13690983
0.010020121 0.076268174 -0.15877593
0.13455214 0.09612714 -0.074609995
-0.07639017 0.23718548 -0.020498203
-0.014746944 -0.18273337 0.12373846
0.17730561 -0.026548648 -0.054980457
-0.08094717 0.23533662 -0.033160318
0.05762613 0.25428542 -0.067851946
0.12879027 0.12293569 -0.090095125
-0.11373584 -0.13571078 0.21713838
-0.12679718 -0.17630497 0.22136854
-0.05344987 0.13709836 -0.10485779
-0.21784276 0.008969648 0.09518742
-0.07537671 -0.15671526 0.26865795
-0.10164934 0.02530449 -0.06943482
-0.1335457 -0.07273733 0.2928771
0.112359785 0.029466119 -0.09118638
-0.006993074 0.17770898 -0.17500743
-0.104779676 -0.08713057 0.23698655
0.15168074 -0.16309159 -0.15953383
0.10632536 -0.089484565 -0.15663119
0.15620734 0.22107714 -0.110499576
0.11598285 -0.23018254 -0.061775986
-0.03133243 -0.17234558 -0.0031365529
-0.089411296 0.23097934 -0.024575274
0.10117038 0.0868131 -0.23639351
-0.06343049 -0.01878378 0.19370289
-0.05355137 -0.045032963 0.19218087
-0.016746592 0.22731842 -0.14989954
0.20320933 -0.14830744 -0.1473313
0.039262213 -0.070406035 0.011220314
0.09296784 -0.2347063 0.0054880595
0.037824493 0.033819057 -0.19750449
-0.27064717 -0.06429654 0.18504576
-0.12222835 0.18940394 0.050119095
0.04805802 -0.21348035 -0.028189465
0.1449013 -0.22031035 -0.03872831
0.09990693 -0.048574608 -0.073211804
-0.1459009 -0.06859163 0.32434168
-0.14239146 0.07609515 0.17308034
-0.0046348013 -0.07795451 -0.012500749
-0.26397187 -0.04611997 0.17468861
-0.012238381 -0.027590107 0.033677824
-0.21683511 -0.012229202 0.2687742
-0.31097865 -0.093582146 0.20173821
0.22758347 -0.13050076 -0.13161163
-0.1256542 -0.105530135 0.29700372
-0.27042618 -0.110284634 0.20766121
0.12083864 0.24751234 -0.116410665
0.13007967 -0.021888286 -0.21882969
-0.15146548 -0.10893635 0.1234558
-0.19565341 0.06647561 0.15437299
-0.14948545 -0.16643858 0.20037073
0.18668233 -0.08598955 -0.21072309
0.20001227 0.0670534 -0.2240223
-0.010679358 0.08536324 -0.0040886905
-0.22511347 0.005815405 0.21948631
0.22693938 -0.11724147 -0.14894493
-0.14368379 0.11741868 -0.023216318
0.19038211 -0.06637781 -0.2193977
-0.02805564 -0.13200603 0.17449844
0.10694989 0.17163382 -0.19780174
-0.28225031 -0.12071341 0.18972865
-0.09585865 -0.15969566 0.066882946
-0.13702062 -0.015075375 0.26998797
-0.03569215 0.057319526 -0.17938147
-0.1395118 -0.02851716 -0.045471117
-0.2216641 -0.009717557 0.10511608
-0.06575187 -0.18103425 0.038545657
0.11122977 -0.20840313 0.119446024
-0.0785452 0.2100778 -0.10654118
0.09115376 -0.1809534 0.13780521
0.16328943 -0.04532662 -0.22820878
-0.11608834 0.07159302 -0.098575145
-0.096044086 0.1697389 0.12983544
0.2653491 -0.10036824 -0.06848678
0.004834375 -0.03113099 0.11243416
0.18394218 0.023761515 -0.07914443
0.013233745 -0.098221116 -0.1580683
-0.052413907 -0.18051407 0.10782889
-0.10107801 0.22182103 0.00025485197
-0.037733965 0.25649625 -0.008441649
-0.08532256 0.050681084 0.17993692
0.2355454 0.06841662 -0.1903334
-0.09502946 0.11827133 0.17435631
-0.15766571 -0.08684897 0.102038704
0.1072463 -0.00172782 -0.20003133
0.18689981 0.19675434 -0.15128377
0.24993409 -0.15531123 -0.033709187
-0.16909859 0.11300477 0.11241511
0.2059296 -0.19237311 0.028078416
-0.13253173 0.1243074 -0.036596656
0.092923425 -0.17723316 0.13455087
0.12338926 -0.02999264 -0.20887026
-0.19917293 -0.113319725 0.13452187
0.10021792 -0.1984599 -0.10932446
-0.32100633 -0.061008368 0.21263674
0.14307514 -0.2150949 0.0401329
-0.09132145 -0.15295024 0.04687945
0.12808612 0.1060267 -0.22780643
0.06326968 -0.223218 -0.01662223
-0.29373848 -0.048438314 0.2595973
0.05182834 0.26997343 -0.01970335
-0.06064798 -0.0124863805 0.20698129
-0.12232128 0.19836128 0.028669454
0.123777 0.21047826 -0.1394433
-0.17620307 -0.12172083 0.13495938
-0.08276555 -0.08558342 0.22645114
-0.24100122 -0.1284268 0.19825855
-0.03117278 0.20244868 -0.15432478
-0.07709003 0.0036479093 -0.023423068
0.100632384 -0.08595757 0.036045317
-0.12837821 0.028289674 0.2382928
0.22454044 -0.0116222445 -0.20762329
0.194967 -0.17898779 -0.10126715
0.041212786 -0.21964343 -0.044801153
-0.10088874 0.028774435 0.21857256
-0.030347826 0.075602785 -0.19131492
-0.10883348 -0.09430923 0.036094356
0.0739802 -0.17147215 -0.101677015
0.053456463 -0.20175748 0.11229247
0.21634388 -0.0054452354 -0.217857
0.018830657 -0.19542632 0.116306156
-0.09004511 -0.11188011 0.30160692
0.018531514 0.21133952 -0.18208219
-0.26528502 -0.095394954 0.22642726
-0.015334167 -0.10216516 0.18317886
-0.114860624 -0.13937627 0.08401754
0.110411234 -0.037400503 -0.07046859
0.00742413 -0.2119189 0.019104278
-0.09787187 0.019521242 -0.022272414
-0.07234482 0.032131538 0.19868465
0.16067654 0.010348438 -0.22631401
0.107362084 0.036577668 -0.09286971
0.22836715 -0.03681263 -0.19754075
0.017789805 -0.13618247 -0.109370425
-0.08892239 0.096227035 -0.036893573
-0.075545155 -0.17074649 0.041150514
-0.009304179 -0.020423753 0.040328
-0.24187213 -0.0586188 0.27901733
0.05238127 -0.07152938 0.07850264
-0.19110061 -0.0219311 0.2920116
-0.0052308445 -0.22103712 0.062826164
-0.13267033 0.19752873 -0.018693779
0.22181284 -0.1699959 -0.05972891
-0.16568701 0.114086874 0.11707964
-0.1729133 -0.1447817 0.15663528
-0.05455438 0.23441197 -0.109751455
-0.22306788 -0.119548455 0.15354124
0.2345556 -0.03180726 -0.16490838
-0.14993769 0.1401448 -0.022978868
0.1366959 0.25326502 -0.10209015
-0.0717822 0.07649734 -0.04897889
-0.099121034 -0.0017805196 -0.017034473
0.20096532 -0.08210855 -0.20640212
0.21579249 0.17752466 -0.13297857
-0.063213184 0.20846981 0.11420421
0.11530136 0.096789636 -0.07024991
0.17120211 0.0029791899 -0.24265334
-0.026203385 0.069335334 -0.001392273
-0.22102106 -0.09117877 0.13884361
-0.16312772 0.1516207 0.012791155
0.08287043 0.26882863 -0.04819458
0.10292585 -0.041564647 -0.117574655
-0.24709278 -0.038307842 0.14394152
-0.1156729 0.20927832 0.007233132
-0.17436029 -0.16336825 0.2073741
0.015848793 0.13781631 0.02287159
-0.0011131453 -0.20893505 0.048499595
-0.105369024 0.04605793 0.21349452
0.09228933 -0.12266711 -0.13019976
0.27234858 -0.10583497 -0.088884376
0.08859166 -0.2365372 0.0018653075
-0.2723118 -0.05653659 0.2634966
0.10890954 0.26647478 -0.08359519
-0.17407042 0.12096374 0.08603577
0.074881144 -0.16029695 -0.10570345
-0.15732634 0.0698334 0.010018466
0.12810692 0.17492223 -0.20864753
0.10335559 -0.035994623 -0.081893556
-0.1817303 -0.005996925 0.06546701
0.2722389 0.052125454 -0.1572641
-0.1188877 -0.050250724 0.24513996
0.06386114 -0.19765882 -0.05617645
-0.2339203 0.023519957 0.152804
-0.086055726 -0.03924615 0.23380888
0.2503389 -0.09327298 -0.10101276
-0.05933406 0.24354668 -0.07710025
0.14592393 -0.21050115 -0.09936736
-0.020446645 -0.08477899 -0.028390937
-0.15036424 0.16068293 -0.017883154
0.058204737 0.27948704 -0.02975452
0.1830588 0.020629486 -0.09001409
-0.124218665 0.0677866 0.20670909
-0.21445826 -0.012639845 0.27122808
-0.077754766 -0.047530435 0.17024374
-0.11636262 -0.13747242 0.088838734
0.07547703 -0.19950177 -0.06499482
0.17656966 -0.15994747 -0.1592538
-0.052466203 0.026784034 -0.0016345542
0.05628344 0.25142643 -0.11989077
-0.042033184 0.24019235 0.08076416
-0.033663355 -0.1554071 -0.0048690774
-0.11156983 -0.11271178 0.17427878
-0.059867382 -0.14281575 0.2812114
-0.1251854 0.14474833 -0.05226043
-0.2178593 0.014758077 0.16398314
-0.1024338 0.19596241 0.076604076
-0.15893176 0.13576473 0.08619556
0.13256986 0.23819616 -0.12721036
-0.052306134 -0.19960009 0.051214047
-0.2018665 -0.11523012 0.13700338
-0.0969383 -0.065873384 -0.0567552
-0.21219024 0.011720457 0.08735385
0.13588355 0.25613418 -0.0970872
0.20941378 -0.18201883 -0.049004536
-0.09753917 0.025556155 -0.0629207
0.08913529 -0.21398267 0.02223852
0.27148715 -0.10432854 -0.09220277
0.061171204 0.10322845 -0.05946102
0.17261021 0.17099462 -0.15879318
-0.021196276 -0.14145654 -0.07618498
0.16810237 0.009074792 -0.24387275
-0.120442875 0.03202292 0.2311702
-0.027338259 -0.2142002 0.032681357
0.23624693 0.12684058 -0.14234874
0.020254482 -0.14392821 0.18805757
-0.2071628 0.033907067 0.07547712
0.14331394 -0.18837708 -0.10605721
0.14151967 0.18606043 -0.16238864
-0.078825474 -0.0418543 0.045598947
-0.11705084 -0.11727265 0.17258179
-0.024502909 0.052814208 0.10416664
-0.03259786 0.26335627 0.058321938
-0.0053143078 0.026524061 -0.18939088
-0.16628179 -0.10842291 0.1454978
0.17647588 -0.19691397 0.06501356
-0.16164258 0.13796708 -0.001408054
-0.013873689 0.25412747 -0.090513945
-0.23482706 -0.02480946 0.30116695
0.019435454 0.20845199 -0.1844088
0.1613165 0.23128983 -0.124145254
-0.08617307 0.20481758 0.091237456
-0.19934277 0.07210746 0.0638295
-0.11745929 0.02190867 -0.0373992
-0.1435323 0.12943056 -0.027969358
0.0054516406 0.05747305 -0.14810334
0.10901372 -0.10560606 -0.11049601
0.08582564 0.16448523 -0.22543721
0.1088285 -0.1280457 -0.1526878
-0.033495266 0.09165556 -0.16162299
-0.0319654 0.020724308 0.100643694
-0.10460828 0.09391321 0.18100025
-0.21637493 -0.02153518 0.10450799
0.040270913 0.11311842 -0.19003794
0.149074 0.1491598 -0.19382083
0.18772139 -0.020335328 -0.06330378
0.22767891 -0.03115093 -0.19984576
0.073929325 0.27500516 -0.04535023
0.06539184 0.0096455645 -0.14048454
-0.054481458 0.23092082 0.09549779
-0.21294312 -0.09920088 0.13522097
0.19199274 -0.17000495 -0.1309486
-0.20471634 -0.0077841147 0.27289844
0.21069047 -0.059766524 -0.21002053
0.28191614 -0.0014470008 -0.14264147
0.27474222 0.0015837568 -0.12554932
0.032636534 0.24608655 -0.083408885
0.077545054 0.15721884 -0.22578478
-0.11890212 -0.018936737 0.02398456
0.04787426 -0.23154046 0.04209697
-0.00027039304 0.24852262 -0.11891272
-0.08835893 0.13106997 0.17102154
-0.05300153 -0.1859091 0.10055946
-0.010350906 -0.059308708 0.008572237
-0.14212054 -0.0037317192 -0.053710796
0.06320982 -0.08252045 -0.14039679
0.00061889814 -0.005084022 0.09588735
-0.018107846 -0.080556914 -0.021420704
-0.11541388 0.14867511 -0.063075654
-0.08981014 -0.044932663 0.2396866
-0.18354715 0.005153883 0.26623023
-0.14932925 -0.15732528 0.22835188
-0.1754023 0.059974432 0.20214364
0.06301385 0.20199934 -0.20096596
-0.038167525 -0.15418904 0.020188479
0.17893164 0.05971202 -0.24204259
-0.07353375 0.059604675 -0.08434492
0.1536453 0.10300528 -0.08437506
0.14177573 0.24159184 -0.09146382
-0.19193844 0.008560763 0.2280363
0.14709641 -0.046098124 -0.034984026
-0.010739663 0.18984395 -0.17283227
0.167092 -0.03172011 -0.048627518
0.24725266 -0.15644397 -0.03707874
0.079528645 0.24886847 -0.12292595
-0.135172 -0.026330872 0.032326423
0.064761825 -0.05404558 -0.17462839
-0.12083698 0.20296487 -0.048439924
-0.2447503 0.0038444498 0.17125626
0.21827003 0.12870273 -0.15631917
0.29480314 -0.06748058 -0.10406909
-0.13804296 -0.060955852 0.3237816
-0.038180567 -0.05373963 -0.0045714467
-0.0063071633 -0.12573749 -0.12797034
-0.132959 -0.05794291 0.04230703
-0.10785767 0.18384334 0.09054407
0.23528343 -0.03901211 -0.18805207
0.21113338 0.020121418 -0.22251494
0.084968805 0.07261723 -0.21714088
-0.03331901 0.21860453 -0.14516337
0.015429167 -0.20649344 -0.031592704
-0.111717485 0.1692258 0.060993843
-0.09537393 -0.15668945 0.10079077
0.020135 -0.19038624 0.12512097
-0.19511692 0.016217541 0.24797721
-0.12974387 0.0889874 0.16250402
-0.0069574574 -0.10729043 -0.08141998
0.030252293 0.27386203 -0.0012322037
0.16210523 -0.207495 -0.07703127
-0.16284603 0.06371003 0.20674339
0.17408694 -0.15070628 -0.14330523
-0.09586517 -0.076456584 0.21916032
0.0701853 0.097202696 -0.21420184
0.19052412 0.110034354 -0.2135196
0.01191302 -0.10039436 -0.1379107
0.2377162 -0.17734915 -0.003959277
0.15158173 0.080620185 -0.07984802
0.03776278 0.17491475 -0.20562974
0.1678965 0.14946556 -0.20448424
0.11477687 0.040915757 -0.23159303
0.11160821 0.18160595 -0.18291402
0.13109995 -0.20719875 -0.10945367
-0.07623526 0.22476566 0.061054215
0.063535154 -0.08988787 -0.121818535
-0.16400348 0.08510748 0.009766705
0.014071831 0.07396015 -0.16027492
-0.016635785 -0.17515597 -0.015261871
-0.22308263 -0.15541025 0.18743053
-0.005684009 0.106185295 0.054259226
0.24862005 -0.10036451 -0.13378161
-0.09901253 0.06858791 -0.12511176
-0.055506654 0.015663348 -0.0008015979
0.19184157 0.06116262 -0.23350658
0.09861962 0.25678095 -0.10421419
-0.030746391 -0.14050224 0.16401184
0.26991522 0.09860259 -0.14951998
0.13916531 0.19981796 -0.14631398
0.13816522 0.11520346 -0.076899074
-0.021867333 -0.06340984 -0.002653185
0.0578987 -0.1702039 0.16422619
0.21911563 0.12807974 -0.15595777
-0.26785824 -0.098794766 0.22132745
-0.13564618 -0.053341147 0.28648418
-0.011840165 -0.1458486 0.18954666
-0.010557759 -0.21672428 0.07022581
0.28013712 -0.07908814 -0.082527295
-0.1421218 -0.010698686 -0.050708976
-0.09762014 0.1357486 -0.07197377
-0.10271642 -0.16375412 0.2486864
0.010584777 -0.2288199 0.04842801
-0.14628303 -0.11621529 0.13420112
-0.017840724 0.23111218 -0.10540201
0.0376607 -0.1962159 0.12061671
-0.16989884 -0.019611407 0.28852594
0.096447155 -0.14666647 -0.13300237
0.061057586 0.18678467 -0.21102625
0.08657938 -0.21849181 -0.045452625
-0.16053128 -0.06306762 0.32167313
-0.07437467 0.22938411 -0.09332478
0.07654155 -0.24030688 -0.016559191
0.1545556 -0.21598619 -0.036255468
0.11766125 -0.20966363 0.087456554
0.2813155 0.060021985 -0.146901
-0.019362677 -0.10783983 0.0306791
0.12155866 -0.19601843 -0.12170622
-0.0915297 0.040129792 -0.073265694
0.1095108 -0.23196761 -0.0019614312
0.12676118 -0.21644185 0.05391859
0.092827 -0.06333351 -0.112130135
0.04385854 0.08480433 -0.093335174
0.259178 0.062425543 -0.14414841
-0.03878767 0.11909972 -0.068427674
0.018437179 -0.039372884 0.09771918
0.09388395 -0.09349677 0.05295135
0.14802364 -0.055752255 -0.21873483
0.023148894 0.0906206 -0.08574138
0.24896806 -0.1329484 -0.037590336
0.25335842 -0.045014616 -0.16322865
0.18015054 -0.19289595 -0.09369057
-0.13046879 -0.03153252 0.27225614
-0.0062072393 0.110796615 -0.07376279
-0.03022933 -0.14682749 0.15781397
-0.007917438 -0.1546391 0.16189043
-0.1473837 0.1441654 0.014243721
-0.0991203 0.03292211 -0.074729525
-0.27282965 -0.072724104 0.24604799
-0.11036474 0.077528864 -0.11423231
0.25533974 0.024001846 -0.15037985
0.17610769 0.1209684 -0.2181668
-0.2183459 -0.113182895 0.17018922
-0.08938344 0.2289737 -0.005405009
0.28916892 -0.083809435 -0.09025253
-0.23494506 -0.02821182 0.26952213
0.099629104 -0.22394419 -0.077236995
-0.057179432 -0.08326376 0.19190095
0.28176412 0.014886784 -0.12452448
0.25152645 0.0855205 -0.17023234
0.24693246 -0.027452737 -0.1507841
0.10681251 -0.0780356 0.017624622
-0.0059264605 0.051156286 -0.20451924
-0.11837704 0.0020732908 -0.075378396
0.286212 -0.08510681 -0.09355661
-0.031962864 -0.133448 -0.10069479
-0.2591661 -0.08145972 0.17080003
-0.1936705 -0.04558463 0.3208942
0.12575698 0.24651295 -0.08144407
0.25926092 0.07231266 -0.14263059
-0.008086103 0.16996366 -0.17216283
0.024674667 -0.04377614 0.090445176
-0.06659116 0.21362092 0.04938542
0.13014509 0.18981548 -0.19168498
0.18510495 -0.13195713 -0.18197106
-0.009081569 0.1773817 -0.17325513
0.23635645 -0.14383844 -0.09514316
0.2203699 0.08355578 -0.1998955
0.10233321 0.2078848 -0.1525459
0.25041828 -0.14700842 -0.057280537
-0.095336676 0.0646776 0.19604371
-0.008825251 -0.14821525 0.14067256
0.20291783 0.013526955 -0.20664085
0.016910594 0.06859037 -0.12751542
0.081320554 -0.19652654 -0.072070755
0.08623013 0.0919543 -0.07130071
0.13707162 0.09873414 -0.07569965
-0.05741507 0.07203998 -0.16543877
-0.2598941 -0.0792992 0.23638146
-0.1694265 0.09538707 0.012457551
0.033141006 -0.23765077 0.002452625
0.016163722 0.11592534 -0.13114762
0.025032224 0.2547279 -0.10782529
0.21982558 0.15962537 -0.15948026
0.023780534 0.11758509 -0.0047466913
-0.20098704 -0.17664252 0.16162719
-0.08088128 -0.02429195 0.22270186
0.1684966 0.18090233 -0.1780809
0.010346963 -0.027882723 0.100164644
-0.2023409 -0.055583872 0.29101586
-0.06595844 0.19369157 0.10310745
0.21763593 0.033340883 -0.1896798
-0.08850387 0.048125647 0.17652823
-0.14665589 -0.027098656 0.04180633
0.009610267 0.2607265 0.023699224
0.16749616 0.015651124 -0.07079177
0.17599665 -0.049301215 -0.2277663
-0.073945515 -0.100144856 0.14381993
0.1895633 -0.15374976 -0.11684057
-0.0917574 -0.10077759 -0.05893521
0.23244213 -0.05688965 -0.15614897
-0.024515841 -0.09838433 0.18008235
-0.1565269 0.16373317 0.02328882
-0.1988449 0.05109535 0.12575577
0.043412562 0.23391685 -0.15786237
-0.07372421 0.06107362 -0.14548726
-0.03828262 0.1167818 0.032127243
-0.29230446 -0.06894212 0.22094698
0.13546917 -0.009031901 -0.22878139
-0.12844184 0.076078065 0.0068707746
-0.12719753 0.20323119 -0.022556609
-0.030770974 -0.10173582 0.19820492
-0.0602007 -0.07815247 0.1682351
-0.030726315 -0.2143365 0.044261526
-0.00017541256 0.043041427 -0.2063939
0.28706956 -0.065972194 -0.118078895
0.019759046 -0.03860268 0.05559956
-0.11731327 -0.10557272 0.30181566
0.052843537 0.06877838 -0.111676626
0.030880915 0.10563234 -0.10056475
-0.04297449 0.069459714 -0.17781119
0.003405002 -0.2018771 0.10076243
0.11454579 0.17773606 -0.18691449
0.021749374 0.18773173 -0.17443721
0.14718515 -0.04220577 -0.038814943
-0.054367684 0.2105448 -0.13092032
0.15245233 -0.09008282 -0.20584352
0.2766323 0.060753107 -0.15354115
-0.13932088 0.095819965 -0.017717728
0.15326288 0.04975743 -0.07714446
-0.2398442 0.006893599 0.18754041
-0.011002973 0.05367931 0.067642234
-0.24792837 -0.114626355 0.20071626
0.06624592 -0.050995003 -0.12402769
-0.087377094 -0.1578914 0.04573494
-0.1145722 0.21455653 -0.034865104
-0.06563382 0.001905634 -0.009529406
0.17819954 0.19501764 -0.13154058
0.030577067 0.23844545 -0.1058478
-0.173212 0.13346241 0.030248426
0.26779774 -0.0233816 -0.12571868
0.065621555 -0.056517743 -0.16630258
0.047635265 0.2253378 -0.17442408
0.10705463 -0.059545822 -0.032614782
0.18780178 -0.02181099 -0.23405668
-0.026732663 -0.12375753 0.18252459
-0.14075199 -0.15865213 0.23194101
-0.05283957 -0.17790978 0.11064928
0.033256203 0.23936425 -0.14763062
0.04554968 0.068907484 -0.14694236
0.09204642 -0.06819517 -0.020723226
0.23928887 -0.12429857 -0.07570593
-0.08702325 -0.14318141 0.12603292
-0.22429655 -0.019034537 0.27216882
-0.0452446 -0.14464645 -0.08346948
-0.11176654 0.039357323 0.0039398675
-0.075687945 0.1800651 -0.08865713
0.07904261 0.12052071 -0.04907141
-0.0713072 0.06813568 -0.029554384
0.17735523 0.16078244 -0.16439064
-0.026488457 0.15494289 -0.14816502
0.04140508 -0.039405454 -0.20970641
-0.1724079 -0.0782923 0.09791176
0.20251808 -0.13466862 -0.16562225
0.15200105 -0.20918424 0.05861996
0.18405364 0.1323046 -0.18148026
-0.14835875 -0.18682048 0.19767348
0.1794333 0.13225274 -0.1849252
-0.030030405 -0.20037013 0.010873896
-0.09058995 -0.16196549 0.2487336
0.09152218 0.24891204 -0.120784976
-0.11721671 0.17028292 0.09509462
0.13956043 -0.050449338 -0.19101478
-0.13061957 -0.13302302 0.26498985
0.052334394 -0.06356096 -0.19390264
-0.004525546 0.011970702 0.08789731
-0.10055031 0.12967561 0.16044027
0.119770385 -0.21337055 0.0738853
-0.1501779 -0.07696329 0.0784929
0.0069900313 -0.2051211 0.096536845
-0.24722435 -0.031982414 0.25248173
-0.12606084 -0.035251714 0.26974225
0.18146731 -0.20234996 -0.033405647
-0.084550135 0.22546461 0.032995217
0.1495211 0.056880817 -0.2479213
0.026650105 0.26479924 -0.0756436
0.056886785 -0.18657148 -0.07955488
0.11430298 -0.11278511 -0.015627466
-0.15642558 0.1230275 -0.010860787
0.19053738 -0.17984012 0.00107329
-0.050524287 0.24881826 0.020138927
-0.19747142 0.033830114 0.21774545
0.25021887 -0.15515675 -0.03346488
0.11772632 -0.041003224 -0.19676128
0.10523483 -0.063158065 -0.023444744
-0.04361561 -0.17213015 0.008065731
-0.07552121 0.023589533 0.19003628
0.015608833 -0.11559689 -0.049200505
-0.16314955 -0.180572 0.1956792
0.18209448 0.20775764 -0.1318142
0.23987025 -0.091686636 -0.119388364
-0.036143914 0.20833668 -0.1245098
0.10680756 -0.23448452 -0.018587524
-0.134015 -0.1217788 0.15202983
-0.28577694 -0.055538993 0.25671214
-0.093649454 -0.123688616 0.13650888
0.21940106 0.171136 -0.1335963
0.048944075 -0.09175402 0.08068873
-0.21800259 -0.051487748 0.30047134
0.014170802 0.2282921 -0.16439272
0.23784897 -0.111380205 -0.13810089
-0.031097434 -0.15543525 0.14819045
0.25138712 0.06962252 -0.17513792
-0.23728749 0.010783494 0.18471216
-0.0068350374 -0.20086907 -0.013314539
-0.028499916 0.07724572 -0.18822838
-0.035826046 -0.203933 0.08189113
0.27941108 0.07263271 -0.16627546
0.07540569 -0.10373125 0.06333539
0.07487252 -0.23119822 0.03445711
-0.29514885 -0.06510818 0.22335188
0.04092436 -0.19643505 -0.060401533
0.2202726 -0.15440404 -0.042345863
0.11940158 -0.06899639 -0.0062486613
-0.15654117 0.08520366 0.18359493
0.10757367 -0.092655964 0.038451016
-0.13405764 0.1315268 0.13647279
0.14877279 0.13243473 -0.23112279
0.038858585 -0.15969373 0.14647955
-0.0005416995 -0.1079486 -0.09730302
-0.018803399 0.06740005 0.015275585
0.11615844 0.18904479 -0.1709028
-0.2290456 -0.07393143 0.1389073
-0.15627179 -0.16569185 0.21544631
-0.07181582 0.18223295 -0.11741071
-0.12184617 0.11544524 -0.04164
-0.05221351 -0.146986 0.14432874
-0.0354766 -0.056348253 0.024550367
-0.05262214 0.09374624 -0.113853596
0.11359236 0.1540454 -0.23028071
-0.06991848 0.18013479 0.13266984
0.029199876 -0.15676942 -0.029645588
0.17141013 -0.20029423 -0.08371912
0.026641723 0.22344065 -0.1733543
-0.013633662 0.2477682 -0.11424413
-0.08071769 0.23459084 -0.06833509
-0.10061439 -0.096713945 0.26542604
-0.07435569 0.23491944 -0.08196966
0.0076942933 0.21577847 -0.17394798
-0.05675448 0.23535043 0.07547311
0.2874293 -0.0876411 -0.10605969
0.18535058 0.19544823 -0.12691988
-0.11774268 0.022771545 0.23521124
0.049926914 0.13553809 -0.10677401
-0.2369549 -0.037187915 0.30458176
0.0046983026 0.10020949 0.01294456
-0.15673205 0.13225693 0.09783902
-0.018175937 0.24411063 -0.03419862
0.2296187 -0.15474372 -0.08432638
0.105112486 0.22821935 -0.15338807
-0.008926924 0.032149896 -0.18650119
-0.04729176 0.22771539 0.046240624
0.08159812 -0.16150281 -0.08713025
0.07235414 0.11580815 -0.049737863
-0.025483018 0.06887675 0.0010030938
-0.06757924 -0.106605776 0.16816865
-0.1530291 0.09173911 0.13674301
0.064106375 0.22820725 -0.16531049
-0.046974517 0.06274773 -0.14808153
0.14697914 -0.20253049 -0.113703944
0.01262064 0.1282062 0.025189484
-0.1968863 0.08080063 0.062962055
-0.047011472 0.09506281 -0.15183389
-0.1694104 0.090226665 0.013720576
-0.06554892 -0.07016476 0.19307536
-0.052164655 -0.009644852 0.0044405786
-0.053005442 0.06625194 -0.13534828
-0.23167312 -0.023068946 0.2655651
-0.26409495 -0.04320231 0.17660213
-0.12540628 0.06594693 0.20844392
0.17156698 0.1385277 -0.18586561
0.13467254 -0.11334458 -0.183336
-0.016137717 0.045418993 0.0944394
0.18444109 -0.19631177 -0.05879973
-0.054822035 0.20912075 0.106088914
0.18669343 0.19746213 -0.124004826
-0.11399826 -0.10049825 0.14429462
-0.23579282 0.014523605 0.1800478
-0.084373794 0.10701326 0.16484252
0.020335877 -0.09927246 -0.084358856
-0.19046184 -0.16748664 0.19363485
-0.11089577 0.20957889 0.020697616
-0.055662796 -0.1564507 0.0127966935
-0.09237984 -0.065923765 -0.05298154
-0.017988387 0.0051950086 0.040742226
0.21385157 -0.13609742 -0.102569565
0.090076864 0.034514546 -0.17258914
-0.09673573 -0.096693985 0.12851171
-0.0075669317 0.25858307 -0.075770944
-0.03227377 0.21091017 -0.14987946
-0.09124844 0.08812359 0.16400923
-0.10684195 0.15365571 0.15890312
-0.20473456 -0.11596794 0.13884458
0.15950486 -0.04869743 -0.22641085
-0.0627082 -0.17987584 0.032643113
0.27884048 0.088399805 -0.15345883
0.054695807 -0.18123393 -0.05544266
0.02236025 -0.18918622 -0.04619058
-0.25850233 -0.025177183 0.17404719
0.087802924 0.13839741 -0.21487182
0.033627335 0.1272309 -0.1925518
0.087706156 0.04334673 -0.19772379
0.058445916 -0.008360464 -0.18837596
-0.12493596 -0.06509902 -0.043323666
-0.0621467 -0.00013713748 0.20059088
0.07165576 0.11121486 -0.053359974
-0.17242192 -0.058015645 0.32009992
0.10786569 0.09460502 -0.06953344
-0.20960277 0.013637049 0.23472951
-0.104725555 -0.12686121 0.26255757
0.011815712 -0.04058712 0.10996887
0.02209463 -0.19580571 -0.018585667
-0.09780825 0.22469112 -0.010962664
0.1310304 -0.19335914 0.0727631
-0.3066955 -0.07359122 0.22540846
-0.15364578 -0.07068644 0.08090644
0.07307978 -0.088627405 -0.102268875
-0.20117812 -0.070891626 0.11157778
-0.09909283 -0.11574224 0.25362083
0.016860059 0.24502331 -0.13375552
0.15850188 -0.19602755 0.081414655
0.24789397 -0.06343664 -0.16204056
-0.21066964 0.058483873 0.089360416
-0.20441508 0.020407787 0.07595143
-0.14690667 -0.009946429 0.27276075
-0.21354252 0.018718844 0.122687
0.11962709 -0.18906501 -0.12767006
-0.27455524 -0.104774214 0.21109386
0.0039548343 -0.03503794 0.11431608
0.10539996 0.08850574 -0.07245764
-0.02134759 -0.15856512 -0.013699465
-0.24833956 -0.061170768 0.1519914
0.28426468 0.048100147 -0.14442724
0.23544686 -0.1601594 -0.005879815
-0.07708349 -0.12028616 0.29312563
-0.20050171 -0.035176784 0.32794052
-0.021906119 -0.07163646 -0.011793282
0.062228985 -0.010077184 -0.14566436
0.114542276 -0.015722016 -0.20494986
0.20537981 -0.17957716 -0.0716118
-0.15674272 -0.09467909 0.10845984
-0.19400367 0.06347783 0.052203596
-0.07572791 -0.17788038 0.05299842
0.07104716 0.2231475 -0.1729974
0.12478012 -0.09262435 0.023664417
-0.1881286 0.06769698 0.08182808
-0.1511587 0.0832718 -0.0015289738
-0.16107798 0.14160383 0.06987183
0.1520256 0.096018866 -0.096752085
0.08145875 0.09310802 -0.2229639
0.056572728 -0.028301973 -0.19760773
0.17288904 -0.20623606 0.033439174
0.08328788 0.2877093 -0.060807224
-0.076720126 -0.12365681 0.2942377
-0.22082776 0.023069529 0.19270237
0.053872384 -0.12719041 -0.053888302
0.13878562 -0.16000198 -0.15925355
0.030907204 0.26899752 0.00025118844
-0.097548604 -0.11704613 0.24066448
0.090625554 0.035572514 -0.16827592
-0.10452976 0.10528812 0.17129621
0.092919 0.24407813 -0.12940995
-0.09289628 -0.006184264 0.22625588
0.26174855 -0.07752563 -0.132537
-0.037059832 0.26211748 0.041580986
-0.096134834 -0.030389883 0.23970586
0.013103548 -0.21752028 0.07408117
0.06358744 0.021637222 -0.16580752
-0.14992328 0.13548988 0.10494159
-0.05555964 0.20068261 -0.13343139
0.23435509 0.13452853 -0.1396751
0.093401134 0.032059923 -0.19905911
-0.07835898 0.021804402 0.20874853
-0.05769308 -0.081480555 0.16859064
0.116485335 0.17558241 -0.21398509
0.06934596 -0.17060773 0.15371186
0.2168363 -0.010846648 -0.18997821
-0.13321091 -0.11023538 0.10243928
-0.012028625 -0.11762808 0.19776945
0.019667191 -0.09012893 -0.15063761
0.071648814 -0.064354435 -0.14529216
0.011020015 0.11168088 0.01507426
-0.1782435 0.10238094 0.026111899
-0.094835676 -0.031013438 0.23876145
-0.3018719 -0.066606075 0.23561642
0.06603489 0.28800136 -0.048537657
0.005457116 -0.03894411 0.03775155
0.02065784 0.18442048 -0.17477143
0.09779243 0.2005888 -0.16443786
-0.06809712 -0.15233992 0.022400199
0.061459832 0.2746281 -0.065215126
-0.052609615 -0.12810323 0.16168721
0.21622045 0.0079799285 -0.21824045
-0.06926249 0.18786511 0.10671365
0.21417934 -0.06805049 -0.17428622
-0.2145037 -0.05806977 0.2955367
0.16353686 -0.12526745 -0.1895361
-0.076128714 0.05552051 -0.07678008
0.015268192 -0.13385712 -0.00034437331
-0.17849156 0.076218545 0.16900192
-0.10582032 -0.13766544 0.2745138
-0.07609291 0.200855 -0.113318436
0.062452644 0.24797393 -0.12720749
-0.080156334 0.14915994 0.15557113
0.11579009 -0.13089047 -0.15853712
-0.13397689 -0.097873196 0.30026793
-0.24349591 -0.005530165 0.2056841
0.2240449 -0.118287444 -0.15236735
0.06977345 0.019630129 -0.16174833
-0.023636542 -0.1466635 -0.01034383
-0.19241592 0.029344462 0.18538196
-0.1421179 -0.063308924 0.3284279
0.11618094 0.124744646 -0.24092132
0.13041313 0.1403183 -0.21313609
0.09345426 -0.15941793 -0.12539393
-0.14091994 0.0024007282 0.26164424
0.24374929 -0.13237853 -0.09948715
-0.13172437 -0.08168893 0.3187231
0.0040442036 -0.20394701 -0.02206366
0.016245933 0.016264426 -0.21019326
-0.12357929 -0.10899684 0.29453993
-0.1266058 -0.0069460617 -0.06681298
0.16716373 -0.20288818 0.070903696
0.040729295 0.11795328 -0.19470038
0.14375845 0.23938456 -0.092364214
-0.121651635 0.15922041 -0.03447408
-0.010266016 -0.12285912 -0.12551384
0.059484597 -0.21987744 0.072152466
0.045485344 0.21993594 -0.18106012
-0.23398118 -0.15032175 0.18647406
-0.10306504 0.11318929 -0.028633565
0.09673713 0.07087808 -0.22765452
0.20673202 -0.14985617 -0.08816443
0.09364703 0.26198402 -0.094978675
-0.24949306 -0.05086161 0.15009974
0.22768728 0.10614154 -0.18402101
-0.057749406 -0.13593598 0.031061428
-0.06845226 0.12989855 -0.08472401
0.035824187 0.19272478 -0.19996504
0.28680655 -0.020514442 -0.11398448
-0.032203984 0.061904125 -0.18461302
0.2644052 -0.000440425 -0.13751724
-0.19960542 -0.0045594494 0.08153814
-0.076862454 0.090594865 -0.14494283
0.05955829 -0.07364715 0.0699179
0.11207624 0.05784017 -0.23559861
-0.030024378 -0.16892758 -0.005368979
0.04403218 -0.22889584 -0.033754047
-0.05443753 -0.01693127 0.20309716
-0.25327602 -0.01463936 0.2037371
0.044884063 0.093593314 -0.07852173
0.006622527 0.21799728 -0.17171282
0.15984835 -0.20934623 0.045157548
-0.12964654 0.05549429 -0.09086837
0.0094566755 -0.02940045 0.10378702
-0.13397712 0.12958927 -0.012627965
-0.11808489 0.20715642 0.008958607
-0.032567073 0.10228605 0.06581145
0.06946218 -0.076858915 -0.042793285
0.25624248 -0.057501476 -0.15418205
-0.32318386 -0.08587638 0.20279312
-0.052959 -0.13567615 0.12920342
-0.08351798 0.15540935 0.15601787
0.062177707 -0.23618184 -0.033139035
0.09913685 0.22105838 -0.16657744
0.029293612 0.15501292 0.0076765628
0.029274842 0.0015851893 -0.21603575
-0.050429527 -0.11005593 0.17791316
0.16057514 0.007902241 -0.06731178
0.1025366 -0.18768391 0.102506734
0.11400362 -0.11003711 0.019723434
0.17215036 0.17186573 -0.15826198
-0.1196258 0.19386414 -0.05902286
0.0045552654 0.034794252 -0.17527817
0.17530449 0.14895046 -0.17478764
