# .PCD v0.7 - Point Cloud Data file format
VERSION 0.7
FIELDS x y z
SIZE 4 4 4
TYPE F F F
COUNT 1 1 1
WIDTH 1000
HEIGHT 1
VIEWPOINT 0 0 0 1 0 0 0
POINTS 1000
DATA ascii
-0.17419061 0.07027396 -0.13236503
0.18862854 -0.072831586 0.12781665
-0.07211304 0.24131617 0.109945215
0.19046465 -0.22652768 -0.059531327
0.14015529 0.2348029 0.25859386
0.030542204 -0.14935514 0.14508328
0.15397486 -0.24307105 0.011199885
0.07530811 0.009141506 0.20676552
-0.08499627 0.2234222 -0.13851313
0.2064182 -0.2314764 -0.019319179
0.1854474 -0.24113818 -0.08484253
0.089731365 0.13099638 0.22645152
0.124656774 0.2889836 0.25570628
0.12747653 -0.049663723 0.051172525
-0.04282807 0.020604955 -0.13157468
0.1436133 0.13135588 0.27360404
0.10183423 -0.0063983016 0.17817348
-0.008016894 0.26278156 -0.061897296
-0.057605974 0.18298396 0.24663478
0.09422783 0.17226653 0.14883228
0.15278013 0.20339458 0.25894517
-0.088736825 -0.18965672 -0.24929315
-0.10344889 0.19395557 -0.13270995
0.080621295 -0.2873693 -0.051276464
0.1900707 0.1622921 0.24965383
-0.009737368 -0.123897515 0.013140784
-0.17133121 0.17528357 -0.07863566
-0.1446452 0.13776289 -0.04933172
0.057054568 -0.21513662 -0.25003698
-0.17012212 0.050263878 -0.14364167
0.1070724 -0.19435827 0.13359667
0.0069027715 0.11978816 -0.07039071
0.050408494 0.26267707 0.12583262
-0.0010699208 -0.064257495 0.12590362
0.08674212 -0.057522845 0.014877181
-0.09868024 -0.1443806 -0.2802319
-0.10363295 -0.17493953 -0.2480135
0.1560354 0.03211049 0.15425421
-0.039972402 0.2480502 -0.12707257
-0.103985935 -0.11598942 -0.29118267
0.0483874 -0.2646965 -0.1750232
-0.10557769 0.17495842 -0.2096104
-0.17541376 0.00076357624 -0.0416395
0.072909005 -7.213739e-05 0.20908564
0.02546106 0.09969121 0.2758838
0.14960939 -0.23783891 0.03341173
0.08573922 0.004547937 0.2036973
-0.02624367 -0.0019754423 0.13831644
-0.08813529 0.23050247 0.11247094
-0.093141705 0.2297439 -0.08663008
-0.17473608 0.032103933 -0.16836587
-0.17720886 0.09692779 -0.11423714
0.17526111 -0.093400866 0.15111615
-0.07559513 0.21992417 0.092452645
0.15516642 -0.10088132 0.15983264
0.13457295 0.24936368 0.25833294
-0.07529442 -0.22288279 -0.20670336
-0.06393301 -0.18593284 -0.12872
0.15065102 0.046873387 0.15388921
-0.1890929 0.060785603 -0.1818207
-0.06841434 -0.19385532 0.021526141
-0.05305806 0.16387738 0.2396619
0.1623259 -0.24521174 -0.0080445465
-0.026273815 0.19148932 0.32587913
-0.10247453 -0.09666965 -0.13193984
0.21174733 -0.16777053 0.044857614
-0.055713892 0.1906126 0.2568315
0.05132873 0.26304474 0.2021934
-0.105067536 0.099981315 0.03983577
0.074736685 0.21859112 0.09638713
0.13749814 -0.2232883 0.07484478
-0.060594015 0.22739628 0.33270362
0.13473116 -0.2338463 -0.15386778
-0.054482907 -0.22129998 -0.18524769
-0.18691799 -0.043245982 -0.1018852
0.15472494 -0.25816178 -0.07712438
-0.16889343 0.134128 -0.14343318
-0.07345077 0.17870696 -0.19911423
-0.14043255 0.0044949553 -0.28765514
0.08986785 0.1727937 0.1390664
-0.007263081 -0.20181991 -0.022843799
-0.18068404 -0.06992622 -0.11189581
0.06812761 -0.23404963 0.09790319
0.17953122 0.0055863056 0.16681318
0.18216673 0.031830173 0.16459957
0.11297635 -0.24401197 0.065561615
-0.091427736 0.12594539 0.06490093
0.09392815 0.2744968 0.26914972
-0.11668843 0.18214774 -0.18845291
-0.038225748 -0.14977682 0.07136823
0.089327425 0.001280714 0.18334115
0.10397918 0.12039705 0.1392422
-0.050716016 -0.2499444 -0.1500448
0.08058671 -0.1756132 0.15682855
0.21029681 -0.20647259 0.023147875
0.18821903 -0.12771192 0.10022388
-0.050400708 -0.17900455 0.03892179
-0.09909082 -0.044119623 -0.2871997
-0.018040473 -0.09467937 0.07743984
-0.042408574 0.029562598 0.12057036
0.07661804 -0.12597445 -0.14382227
-0.00041740877 0.04672898 0.20204711
0.11882537 0.14878 0.1689572
0.033588372 -0.1991632 0.058116835
-0.067691036 0.07588073 0.123712204
0.05997486 0.06464652 0.19674556
0.17097346 0.059102036 0.17388676
-0.07124126 0.21020557 0.15366076
-0.029320477 -0.24228993 -0.08010657
-0.06611848 0.22053805 0.22454347
-0.06541983 -0.2259322 -0.15022613
-0.06533032 -0.23619658 -0.17678484
0.03644268 -0.20932992 0.055597328
0.08000939 0.21270536 0.10334471
0.012881584 -0.10048906 0.09474031
0.15590906 0.24814285 0.2493443
-0.1568879 0.051398315 -0.035672873
-0.084581934 0.10719865 0.011338074
0.003034781 -0.24692833 -0.008299116
-0.0440327 0.23220097 -0.15996365
0.022052124 0.0874609 0.20039575
0.007907927 -0.28592864 -0.069828086
0.094337575 0.24529652 0.22111584
-0.070354395 -0.12233243 0.06845646
-0.056334782 0.24829789 0.16572526
-0.004053436 0.011410353 -0.21134748
-0.10962525 -0.16058882 -0.2582947
0.025545053 -0.19554147 0.032944314
0.0005220368 -0.28465405 -0.13189743
0.09477048 0.28510106 0.2671762
0.031684373 -0.14549924 -0.3097644
-0.19125839 0.080705 -0.18726505
0.19609055 -0.084072694 0.14272709
-0.049800985 0.23156975 0.3281258
0.03222595 -0.16401376 0.08062981
-0.06777731 0.111571684 0.15178452
-0.063022055 0.08197809 0.14043431
0.02230951 -0.27068555 -0.0011839629
-0.021643639 -0.17884749 -0.25532657
-0.09361925 -0.031499095 -0.12167781
0.07027996 0.26075113 0.1526079
-0.027331438 -0.13119999 0.066509105
0.0021256558 -0.14379244 -0.30600518
-0.0058506206 0.23575844 0.03338027
-0.1621814 -0.062143605 -0.23150134
-0.055327304 0.060600147 0.070994444
0.077462584 0.12610148 0.22596833
0.03064972 0.13038975 -0.020203047
-0.016270662 -0.054064594 0.084202714
-0.09987198 0.08323731 -0.28571218
0.038929615 -0.014162031 0.07673473
0.14704873 -0.26077417 -0.06469964
-0.021885581 -0.07167723 0.08564069
0.07186163 0.10475972 0.26412886
0.13412608 -0.13647068 0.13178633
0.054728385 0.2879847 0.23541728
-0.15601185 -0.0067470944 -0.27831864
0.031553812 -0.13772948 -0.3148778
-0.079687126 0.0173669 -0.31482264
0.005892892 0.24516292 0.3057512
-0.03804701 0.25439778 0.070320144
0.08497093 -0.020317566 0.07757526
0.058360804 -0.21842921 0.11123773
0.21931191 -0.16460618 0.065574996
-0.021239918 0.13487463 0.33295223
0.14352348 -0.037334587 0.180681
0.1293267 0.13621253 0.13211666
0.06549003 -0.15768601 0.16724697
0.002590509 -0.055473857 0.16770026
0.075490735 -0.035033666 0.20935288
-0.03292848 -0.22887072 -0.23453438
-0.08747867 -0.022238376 0.078556694
0.020142823 0.26917145 -0.0017199356
-3.956269e-05 0.25328583 0.028959185
0.048659645 0.047294557 0.0751697
-0.09462106 0.16183557 -0.20305836
-0.14242785 0.061561547 -0.106107615
-0.0371371 -0.14593574 -0.27489436
-0.0013109978 -0.19043326 -0.017739799
0.0068971682 -0.19308242 0.031983253
0.011510379 -0.23002586 0.027264228
-0.003270723 -0.21315582 -0.25129664
-0.06658502 0.22323525 0.12439864
-0.018748138 0.26024866 -0.07743028
0.14795114 -0.14893535 0.11383326
-0.16193943 0.018010218 -0.0071364343
0.17794992 -0.1445414 0.12137582
0.20405181 -0.10658755 0.104003094
0.01895686 -0.09462521 -0.12857343
0.12731364 -0.24263287 -0.12693772
-0.063515276 -0.20332982 -0.25282133
-0.06518294 0.2432349 0.04222146
-0.032681607 0.25049242 -0.032144137
0.120841086 -0.19660342 0.1216261
-0.10973292 0.14970092 -0.20367081
-0.16060486 0.17147022 -0.15723845
-0.050393745 0.115451306 -0.298584
-0.13747895 -0.064030305 -0.28835583
0.1581163 0.15314811 0.26490697
-0.015590874 0.26425982 0.14371909
0.055594772 -0.15012312 0.16862623
0.032747343 -0.24513204 0.054313347
0.031784397 -0.18229596 0.065648824
-0.14988112 0.17159565 -0.1706487
-0.17817369 0.025024079 -0.018187704
-0.081837505 -0.038090818 -0.31489715
0.13525742 -0.108262874 0.16848125
0.022156881 -0.25320497 0.026180258
0.10742329 -0.24614844 0.067897774
0.10550499 -0.22070484 0.10781436
0.10619232 -0.27621993 -0.03954348
0.021346493 -0.2651126 0.006698637
0.049198657 -0.21879178 0.07066707
0.14045323 -0.22976227 0.060091358
0.10663747 -0.26420462 0.023161711
0.042552825 0.24926244 0.077110104
0.1489559 -0.07108354 0.1504137
-0.0795179 0.10703512 0.070556335
-0.095724866 -0.019481681 -0.14313543
-0.01372058 0.08924055 0.19482791
-0.026595447 0.13574483 0.27439684
0.09448183 -0.2545912 -0.17832495
0.16951297 -0.23447028 0.0155347185
-0.0031971599 0.13250823 0.26744094
0.102251016 -0.081903435 0.19374941
0.1717267 -0.21949928 -0.0096819
-0.0024069387 0.24787706 -0.074446134
0.11918467 -0.12975395 -0.050451208
-0.09289237 0.23245342 0.06312734
-0.12553881 -0.16775665 -0.07266742
0.032062404 -0.16126327 -0.29929313
0.16894278 0.13545468 0.26375523
0.15763488 -0.20537853 0.07992065
-0.10618075 0.021328252 -0.08303054
-0.024871342 0.012315008 -0.3389426
-0.05147137 0.25023332 0.16553599
-0.15193321 -0.0061066137 -0.07386905
0.060558606 -0.22571422 0.0740996
0.13836643 0.09907689 0.16189848
0.05096564 -0.101506546 -0.14479983
0.042793084 -0.037589107 0.035274502
-0.1486513 0.14484541 -0.20726234
0.054574024 -0.2578295 0.017752312
0.021312302 -0.03832671 0.20123002
-0.08009008 0.23777637 0.080935396
-0.018535016 0.24034691 0.057800256
-0.09074914 0.11906347 0.10957633
-0.047901843 0.14338554 -0.27807096
-0.1490166 0.02290659 -0.14562438
0.10796244 0.14529905 0.2808616
-0.15697053 0.024311144 0.031020405
-0.1431592 0.005333889 -0.068678446
-0.05101374 0.1801415 0.32543397
-0.028632842 0.044539407 0.17954181
-0.17288595 -0.027977696 -0.2399041
0.046551224 -0.037549015 0.21149445
-0.065435916 0.19957393 -0.1706324
0.13053617 -0.24754006 -0.07484721
-0.08886193 0.09553278 -0.2872673
0.21368219 -0.23303685 -0.010945822
-0.064377554 -0.17850544 -0.24857663
0.18263084 0.1710979 0.24029946
0.024943747 -0.0600667 -0.1924852
-0.12930623 0.11495501 0.008435027
-0.10063339 0.101285525 -0.27681136
0.037717953 -0.20024817 0.11094709
-0.005372584 -0.19449358 -0.027375896
0.02600257 0.12511718 0.2985261
-0.14644967 0.1794133 -0.15863642
0.15830079 0.23069683 0.25264612
-0.032172274 0.23097853 -0.16007708
-0.15314008 0.029863162 -0.27456656
-0.15027367 0.040359527 0.061611485
0.12673135 0.005502549 0.16778643
-0.02413912 0.050931722 0.18573688
-0.12913144 0.15107746 -0.18506068
0.042080738 -0.26141474 0.041484367
0.122023135 -0.17857562 0.13615502
0.18063816 0.005169274 0.14522396
-0.064605005 0.0562824 -0.04841337
-0.16199982 0.13259989 -0.045479223
-0.16464058 0.017168278 0.006375862
0.08250067 0.2673788 0.27442133
-0.068291426 0.01257264 -0.11987875
0.18334034 -0.13955441 0.095296875
0.03717594 -0.27426237 -0.16002989
0.018041458 0.12592955 0.2896006
0.005909222 0.26004246 0.06472248
0.09427049 0.012265137 0.19938394
0.086930655 -0.23504767 -0.21853095
0.07161823 -0.017755315 0.2107022
-0.047248513 0.2699853 0.32115734
-0.04289053 0.14310493 0.24436615
0.16681004 0.060644303 0.15039286
-0.08861828 -0.17337193 0.008973044
0.11290687 -0.23297985 -0.21493217
-0.16803019 0.04913928 -0.18728925
-0.14390096 -0.05010408 -0.1832842
-0.09505225 -0.18711552 -0.18367814
-0.013677289 -0.01373848 0.16803402
-0.16454619 0.1488976 -0.18729734
0.016890112 -0.21085054 0.05764983
-0.029411681 0.04732032 0.01305454
-0.05396789 0.059074376 -0.17405012
0.13264143 -0.0876526 0.17570746
0.13519007 0.20431231 0.26519242
-0.09759658 0.029133571 -0.11778889
-0.11091006 -0.058031306 -0.28242722
-0.06657899 -0.107417285 0.11531416
-0.12304937 0.21565521 -0.090048924
-0.06611678 0.21964742 -0.10216033
-0.09501841 0.104356684 -0.25458422
-0.10901277 -0.03260232 -0.11434156
-0.037768465 0.0117068915 -0.13970962
-0.18351771 0.051681515 -0.17119204
0.17364255 -0.041716415 0.16545975
0.20540547 -0.048032727 0.14066751
-0.06276731 0.08534566 -0.30691597
0.1013124 -0.27613568 -0.01509045
-0.0238547 0.072533 -0.07823352
-0.10895661 0.21809149 0.07499735
0.0004404508 -0.0013960085 -0.2039746
0.059802428 0.10008829 0.30897415
-0.1312301 0.091118485 -0.051122624
-0.04394474 0.11725005 -0.011798764
0.08412357 -0.030469062 0.028400542
-0.039504208 0.07830805 -0.31849995
-0.06736292 0.21978903 0.32364658
-0.09300452 -0.14478429 -0.25973743
-0.06543539 0.21181348 -0.19355106
0.2099251 -0.07413426 0.13869251
-0.1003362 0.21785083 -0.129774
0.021100625 -0.29221928 -0.074738584
0.073228374 -0.01358666 0.08284809
-0.012251452 0.25599346 -0.09009336
-0.15292738 -0.068153284 -0.13253142
0.0877954 0.0121663725 0.03940495
-0.022002922 0.014132283 -0.33668497
0.19187872 0.13612853 0.24227104
0.05971367 -0.26505712 -0.17062458
0.07633217 -0.28211722 0.0046016504
0.028670153 -0.19609772 0.09882382
-0.17052259 0.0036042102 -0.042071052
-0.027696585 0.240644 -0.14061292
0.01374571 0.118191525 0.010628574
-0.026687264 -0.061556738 -0.20329255
0.098894306 -0.21265498 -0.24999851
-0.11048422 0.18041098 -0.19712806
-0.012043708 0.11329921 0.26578164
0.15353256 0.20686188 0.25812662
0.049972028 -0.27585655 -0.1496253
-0.07441159 0.240226 0.09594219
0.017106932 0.028019158 0.2093076
-0.040507257 0.008688713 -0.33240628
0.12611029 -0.041150607 0.0461458
0.18081222 -0.036795367 0.16275184
0.075052395 -0.108862706 0.19339614
0.054946363 0.091958776 0.044249263
0.09728876 0.006025623 0.17970216
-0.14028727 -0.03794119 -0.12560494
0.06524129 -0.2625657 0.010315584
0.07438718 -0.21878609 0.11804212
-0.0580038 0.061275166 0.13255368
0.18242715 -0.23297454 -0.0038839895
-0.047064252 0.06910138 0.16221294
0.12852465 -0.092996106 0.0066435346
-0.0524251 0.15300483 0.23109712
0.12489244 0.1626322 0.23659496
-0.061484274 -0.06579443 -0.31873256
0.012929007 -0.17663388 0.06846135
0.110722244 0.1133284 0.16216187
-0.037229188 -0.11096415 -0.31207615
-0.19077812 0.014204955 -0.07502814
0.032545157 -0.24579884 -0.21122162
-0.16999033 0.11604206 -0.079584286
0.19567834 -0.060890604 0.14991298
-0.067585096 0.013040968 -0.320592
0.040898707 0.28419814 0.21260828
-0.16300008 0.17122208 -0.15486407
-0.03407965 -0.07935344 -0.32398796
0.10056755 0.24660449 0.18561982
-0.021996392 -0.12055625 0.06784934
-0.057002537 -0.080098644 -0.31652683
0.047965504 0.0078794155 0.08971872
0.056154788 0.24367587 0.08890046
0.20586564 -0.108259186 0.101566285
0.113276936 0.017884146 0.19159424
-0.054559708 0.23774081 -0.14197095
0.22144212 -0.11770841 0.11862491
-0.09139495 0.18809679 0.16481951
0.15513594 -0.13933384 0.14082618
-0.0024367133 0.24135672 -0.034105357
0.034990855 0.2190485 0.045415886
-0.0051804436 -0.12774168 -0.074883886
0.07939401 -0.13290703 -0.14988308
-0.07437722 0.09319219 -0.11880181
0.11942647 0.12555532 0.24710377
-0.031812087 -0.26712704 -0.14003685
-0.026108649 -0.21720216 -0.062125836
-0.079497255 -0.15812303 0.044526443
-0.0786925 0.050036907 -0.051354412
-0.0026028021 -0.11280449 -0.32109445
0.13443196 -0.07350704 0.03326194
-0.10498533 0.040255334 -0.013002342
-0.1638692 0.04918137 0.031369604
0.09309482 0.2766143 0.26911953
-0.08316454 0.089074925 0.096975215
0.08522332 -0.07182824 0.20283122
-0.106065795 0.2191103 -0.11082494
-0.0748841 0.23727675 -0.089615606
0.16555801 -0.24524961 -0.01237137
-0.13122784 0.14700633 0.040214326
-0.19039182 0.08879998 -0.16171843
0.0831616 0.05570586 0.043683577
-0.0999245 -0.059769534 -0.30571204
0.02945821 -0.22887999 -0.23535638
0.1426339 0.21209224 0.261264
-0.029139478 0.0022409167 0.07727283
-0.08014538 -0.09180434 -0.28627315
0.12219624 0.051914632 0.18203777
-0.044250123 0.17199227 0.3224325
-0.1595257 -0.05559155 -0.21368793
0.11534033 -0.24805269 -0.18351841
-0.031115774 -0.08078586 -0.19533834
-0.11083517 0.05651921 0.011102648
0.11563521 -0.1539857 0.13274617
0.14215831 0.21770832 0.24588719
0.0073448117 0.2619215 0.0042037005
-0.059670594 0.09402456 0.1521175
0.07852337 -0.07915122 -0.0018510165
0.108405694 -0.014947704 0.19594035
0.12889814 -0.20142768 0.07662476
-0.120768845 0.21988086 -0.054498035
0.11277461 0.22829619 0.19482262
0.06527266 0.2832496 0.21601927
0.15988481 -0.25613767 -0.07968887
-0.09793635 -0.18782413 -0.19213979
-0.08754961 -0.120873995 -0.12262612
0.12275551 -0.2576704 -0.15003392
-0.07181969 0.23158076 0.32406852
0.05125516 0.1007508 0.31197584
0.12698491 0.17247647 0.27317983
0.040157445 0.09094781 -0.00077378924
-0.056119002 0.09571001 -0.30665994
-0.08814047 0.08991398 -0.009849105
0.16072394 0.13037185 0.25449672
0.124247216 -0.12479805 -0.035032637
0.008530586 -0.22057304 -0.2448407
-0.12481546 0.18044534 -0.18279189
0.13063595 -0.24612892 -0.104076445
-0.16782723 -0.015846308 -0.26471916
0.0053089336 -0.20756209 0.025372833
0.13326892 -0.1853465 0.093119286
-0.10956814 -0.045348592 -0.30330294
0.1972234 -0.24024223 0.0019691163
-0.12943365 0.1881323 -0.16195564
-0.18114983 0.04098731 -0.2407945
-0.06999225 0.22242469 0.0977579
-0.0050549177 -0.13417615 -0.047419306
0.08723603 -0.17701899 0.15520377
-0.06243216 -0.13936873 -0.29323262
-0.09499699 -0.17823999 -0.010530196
-0.08749657 -0.20831008 -0.19478822
-0.021255799 0.2579586 0.31360382
-0.08442229 -0.0325312 0.08194383
-0.14234145 0.11302474 -0.023979634
-0.09820047 -0.16607407 -0.26511928
0.15038806 -0.25765643 -0.106769994
0.12254286 -0.2564036 -0.15660031
0.088046156 0.072715655 0.18561815
-0.08434953 0.1557614 0.15856335
0.1043243 0.124860086 0.15832373
-0.042287182 -0.039178792 -0.3298931
-0.08716223 0.2335392 0.09594703
-0.047872294 0.106287844 -0.30715305
0.09531271 -0.279501 -0.020620117
-0.16535714 -0.0791768 -0.12811445
-0.119897366 -0.121687144 -0.27866566
-0.18458751 0.111313485 -0.12089619
-0.029029876 0.25974572 0.24821897
-0.09834119 0.09273982 -0.2824041
-0.15392406 0.003300649 -0.16262352
-0.10651176 0.19041623 0.064070635
-0.002033938 0.036450017 0.025056023
-0.110746086 -0.013508986 -0.15738621
-0.1142262 -0.00064724154 -0.12568551
-0.07384363 0.20387352 0.21189429
-0.11240976 -0.07602435 -0.29861942
-0.06432883 -0.19113688 -0.03510526
-0.123777695 0.13429758 -0.003953314
0.02222577 -0.063784055 -0.17339703
-0.08520662 -0.21188115 -0.19873552
-0.10660099 -0.19524708 -0.053548686
-0.15515013 0.15458275 -0.15095088
-0.103669986 0.19166401 0.12957129
0.02954493 -0.1324756 0.1576107
-0.14168388 0.19440469 0.006177673
-0.07904485 0.23733735 0.012213283
0.15342705 0.030560294 0.15544532
-0.1427033 -0.1249329 -0.12402097
-0.13390452 -0.114607766 -0.2677773
0.0163423 -0.13514452 -0.3138062
0.008294099 0.02109487 0.07655483
-0.16188464 0.036201686 0.030458601
-0.0151621 -0.2776162 -0.14646181
-0.030843554 0.12712817 0.2529775
2.970717e-05 0.2362412 -0.012972058
0.14651269 0.17949922 0.23760162
-0.027213493 0.20700888 0.2871123
-0.06861192 -0.0362326 -0.32040605
-0.038338292 0.23620118 0.29498035
0.12200551 -0.21671733 0.098104894
0.011718879 -0.049170084 0.18845697
-0.17384464 -0.066181816 -0.12450496
0.03989797 0.28321192 0.20521498
0.10946966 0.1957265 0.15693071
0.06320625 0.0959445 0.026335238
-0.07742711 0.25485554 0.33240345
0.18198518 0.047377687 0.17797744
-0.033071894 0.013608518 0.14334522
-0.03729368 -0.09658421 0.09600839
-0.040660698 -0.100044385 -0.11831276
-0.042270433 0.17859647 0.2786445
0.08898386 -0.057669815 0.20401514
-0.082263865 -0.17817058 0.019479793
-0.04104056 0.0667518 0.17041355
0.07992923 0.31028777 0.26192644
0.049585454 -0.17406651 -0.29984114
-0.050994374 0.20561132 -0.21952175
0.010337163 -0.22900255 0.025452083
0.09089907 -0.25073206 0.02926012
0.08862038 0.1312172 0.27975148
0.07182309 0.104838364 0.27167138
-0.13517427 0.022344282 -0.09267855
0.013643385 0.25104052 0.037630543
0.1062781 0.30049002 0.2605749
0.05552719 -0.06962039 0.20604277
-0.042175606 -0.2574917 -0.17137052
-0.13289508 -0.07916225 -0.13170019
-0.11039604 0.21819188 0.06819146
0.06490848 -0.11175023 -0.061012324
-0.023820361 -0.25036812 -0.13786753
0.11396455 -0.23915285 0.07256044
0.05249438 -0.2090395 -0.25726938
-0.074948594 0.12280666 -0.25511858
-0.0672762 -0.15859225 -0.022445407
-0.09173527 -0.002336182 0.06574961
0.102075465 0.016769238 0.19583958
0.13601893 0.19407874 0.2665008
-0.102919556 0.14673252 -0.24266356
-0.1582821 0.1869232 -0.12741314
-0.020396253 -0.10710476 -0.31829235
-0.0019922415 -0.14235511 0.023435576
-0.09095326 0.23000272 0.099432655
-0.0689145 0.01327859 -0.32001084
0.15849492 -0.2251483 0.04821306
-0.16387752 0.16065179 -0.035018794
-0.091132134 0.086354986 -0.28996053
-0.027570684 -0.114157565 -0.10450241
0.14768232 0.034697965 0.17644852
-0.09664485 0.15563743 0.12953155
-0.076284066 -0.0407001 -0.31716648
0.0014690139 0.05311606 0.20267467
-0.12098085 0.012946849 -0.2956335
0.0686238 0.31187245 0.26118213
0.043637026 -0.067728356 0.20349996
0.041226014 -0.09508001 -0.20100848
-0.15361753 -0.1352235 -0.10862124
0.09146092 0.16332449 0.1381151
0.18347238 0.045598455 0.17566742
-0.14140655 -0.11526554 -0.23383038
-0.16776153 0.073769934 -0.24687786
-0.029782092 0.12492308 -0.028747043
-0.09552197 0.10131019 0.0795323
-0.11465595 0.18288176 0.10071911
0.121276625 -0.10550335 0.17752317
0.17856191 0.17653254 0.253801
0.07244168 -0.20937178 -0.22574669
0.0076401923 -0.25663376 -0.16434649
-0.10203751 -0.11702591 -0.096700534
-0.034634385 -0.2082054 -0.22947015
-0.069518805 -0.1954714 0.00780246
-0.04703876 -0.09822183 -0.1447995
-0.0823817 -0.08147229 0.10862298
-0.11833372 0.21627435 0.037881184
0.007102146 0.104023784 -0.059781615
0.0017313396 0.24352482 0.3075211
-0.13530822 0.21297471 -0.07005401
-0.07194057 0.11883639 -0.28932545
0.012959504 -0.14376779 -0.15235873
-0.04419152 0.24877319 -0.004840311
0.13687001 -0.24473478 -0.058695868
-0.12400974 -0.14250891 -0.21090484
0.136596 -0.17099692 0.1312325
-0.006051905 0.2685268 0.18117113
0.1339733 0.16489854 0.20232177
-0.11764023 0.13466287 0.01106168
0.042958435 -0.28549522 -0.12840727
0.14262234 0.14263606 0.2721901
-0.16446869 0.14749211 -0.11005445
0.024035305 0.13580456 -0.031659193
0.2132804 -0.14801916 0.093118764
0.02792591 -0.023940269 0.08219274
-0.08214664 -0.19713311 -0.032385956
0.14603469 -0.1433613 0.11879113
0.10521097 0.109669 0.14454958
-0.11112006 -0.1202655 -0.123187736
-0.035053343 0.102427244 0.19993892
-0.007346372 -0.107554786 0.03305921
0.06985865 -0.2318618 -0.19172058
0.05017008 -0.1618084 -0.30137157
0.025090177 -0.18367389 0.10206573
-0.012705558 0.25592026 -0.027442327
0.008570512 -0.10962105 -0.32529643
0.20095555 -0.031007575 0.15390764
0.09157485 0.24292704 0.1612023
0.13242155 0.20022115 0.2150668
0.018330138 -0.16220553 -0.29651567
-0.14430131 0.13357529 -0.002952864
0.15331669 0.2463702 0.24153389
0.048884377 -0.09691654 -0.16642942
0.014208586 -0.15462628 0.09296346
0.05930775 0.08298011 0.30432484
-0.058951214 0.18361892 -0.24176449
0.043494023 0.0024633831 0.09219524
-0.029059218 0.23830408 0.06307332
-0.14317854 0.11415998 -0.23947445
0.10860716 -0.042889282 0.19635639
-0.10877447 0.10534884 0.043838646
0.050806835 -0.15132123 0.16485272
0.039479937 -0.087673716 -0.16218795
-0.0010393093 0.24201058 -0.035252273
0.13152133 0.02931944 0.18316646
0.071019396 0.2884972 0.24286598
-0.05728429 0.22636117 0.0071802223
0.09405887 0.11902345 0.29354906
-0.056332804 -0.24304946 -0.19169264
0.16120513 0.22685191 0.2414657
0.023134083 0.28055194 0.21287659
0.013158282 -0.28964266 -0.12059533
0.023650497 -0.05569926 0.19694416
-0.0007111826 0.0046355748 0.19744253
-0.18658337 0.1347724 -0.15517873
-0.04469722 -0.03729184 -0.32931405
0.020819586 -0.23830302 -0.007938274
-0.004345706 0.09023155 -0.0650359
-0.12264978 -0.02774951 -0.29750258
-0.093398586 -0.1832878 -0.2521763
0.050244104 -0.10442561 0.19130796
0.008940656 -0.13577409 -0.1624075
-0.03729301 -0.06787785 -0.19800833
0.006448409 -0.14282262 -0.30736065
-0.0015920248 0.27113664 0.24805182
-0.11826136 -0.08567583 -0.17557162
-0.04005482 0.11362949 -0.28524947
-0.06485648 -0.1339405 0.1013219
-0.081549354 -0.07819497 -0.30949154
-0.06353429 0.21377513 0.23768237
0.091105185 0.1626873 0.11295013
-0.10270653 -0.020321319 0.11736981
-0.06658285 0.15455392 -0.23584148
-0.121856205 -0.12997271 -0.19463608
0.013883648 -0.16094431 0.052166134
-0.045507994 -0.05810729 -0.32574663
-0.022352848 -0.0015697683 -0.34032765
-0.011741099 0.27707365 0.30714127
-0.013823094 -0.27945998 -0.12248229
-0.11359437 0.020346971 -0.29771093
0.026645081 -0.18737869 0.10229695
-0.06696155 0.033284493 -0.31850156
0.09138998 -0.2802468 -0.08580507
0.018415593 -0.06983925 0.13471241
0.0046883007 -0.1112576 -0.32351407
-0.16108164 0.03610603 0.032258872
0.020578533 0.2269437 0.025968902
-0.010439157 0.23434895 -0.015808387
0.11749076 -0.014397572 0.052277774
-0.07968235 0.058693092 -0.15563756
-0.041031647 0.15427995 0.25907212
-0.01479386 0.08191585 -0.17050503
-0.013250293 0.13635387 0.32981637
-0.012058469 0.096258275 0.2189151
0.084244385 -0.28552204 -0.061401203
-0.04682139 0.25098467 0.31178817
-0.12061783 -0.15619405 -0.22242507
0.040731598 -0.18397315 0.13052295
0.13591085 -0.25987688 -0.15275066
0.13829067 -0.26313242 -0.092519835
0.042390987 0.26995233 0.13950716
-0.09765991 -0.18762875 -0.19111009
-0.114105254 0.026285557 -0.06516317
-0.03247883 0.25253958 -0.04422407
-0.050914183 0.067806795 0.15496406
0.05070431 -0.25475943 0.059649825
-0.027128387 0.0460444 -0.31922913
0.045507457 -0.06233552 0.20571217
-0.18191037 0.14858435 -0.10466359
-0.053199403 0.22876236 0.25574848
0.09837452 -0.110175475 0.18801977
-0.079136156 -0.0925058 0.10605382
-0.06445934 0.053166233 -0.29458514
0.053958025 0.235352 0.07117429
0.14251308 0.15443605 0.23930728
-0.050919373 0.24720341 -0.09318308
-0.017410276 0.0026381256 0.17429075
-0.044473484 0.25280055 0.14774562
0.024324073 -0.16351321 0.11890691
-0.1254084 -0.106938906 -0.24259183
-0.06852507 -0.014511576 0.10419065
-0.044279303 0.034201004 0.13635388
0.20805712 -0.15349476 0.06302249
-0.087139174 -0.19597328 -0.17325868
-0.027118964 0.062366262 -0.10637419
0.034388553 -0.24128391 0.06166059
-0.047107518 0.20336504 -0.18481432
-0.03262033 -0.26065388 -0.111269414
-0.08204439 0.20871064 0.18509811
0.14340232 -0.23821783 -0.123927854
0.056096427 -0.0736917 0.2051349
-0.03380381 0.22305192 -0.15665844
0.039363742 -0.220025 0.09307802
-0.023191305 0.23718776 -0.11327639
0.054234922 0.09810725 0.24849245
-0.062018022 -0.06396302 -0.31882653
-0.02096353 -0.13750912 -0.28304255
-0.124883205 0.18452041 0.070357986
-0.09345829 -0.12686223 -0.26911256
0.039100636 0.25291935 0.08183968
-0.112467155 0.16121489 -0.22058406
-0.03425606 -0.065241724 0.09401619
-0.010236221 0.09590129 -0.12786485
-0.14463681 0.033226848 0.06827268
-0.10219741 -0.19467698 -0.055113513
0.101700544 -0.14663225 0.17040639
-0.034368437 0.24562693 0.29488316
-0.13631278 -0.046150327 -0.2918587
-0.10747415 -0.011636086 0.114188656
-0.07072301 0.10882041 0.14204079
0.028979111 -0.1781509 0.053118788
-0.026148653 0.04935027 -0.12785983
0.21004653 -0.14733787 0.06731103
-0.011817113 -0.21904184 -0.02783998
-0.18652943 0.13755156 -0.1450438
0.15353823 0.0017737531 0.17745252
0.006441241 0.08960479 0.048747465
0.05831516 -0.29355332 -0.04620143
0.15241677 0.23337048 0.25436372
0.060702443 0.26070595 0.13663064
0.05350758 -0.21125393 -0.22592267
-0.14621295 0.06316606 -0.26695737
0.14957128 -0.26018345 -0.07456304
0.07648752 -0.12438216 -0.13841058
-0.08956539 0.20873685 0.16256848
-0.004758427 -0.07251206 -0.1431623
-0.15297529 -0.08932572 -0.13178009
-0.101375915 0.17222832 0.13215268
-0.054488376 -0.1533961 -0.02986648
-0.16098982 0.11555397 -0.10831003
-0.1874432 0.030442955 -0.03497814
0.13000093 -0.2166378 0.052522767
-0.032051407 -0.25670978 -0.10181688
-0.12973131 0.060045727 -0.2778847
0.035505157 -0.16783778 0.09061167
0.20767528 -0.17870824 0.030671539
-0.16453749 -0.09988991 -0.101628944
0.015314321 -0.2821304 -0.15159197
-0.10730486 -0.078222856 -0.28056243
-0.12387937 0.11286795 0.018091755
0.09008237 0.287363 0.26852438
-0.031395886 0.06221586 0.18020439
-0.05040614 0.08913967 -0.2896395
-0.19131641 -0.018370101 -0.08922583
0.16311254 -0.2256386 -0.014460836
0.13780043 0.040198006 0.17917423
0.045544427 -0.2922696 -0.09803504
0.046632487 -0.20002902 -0.2671373
0.08097335 -0.082504325 0.20146298
0.14405741 -0.12465379 0.1556014
0.0448659 0.020338003 0.21257281
-0.16524662 -0.104628384 -0.12383314
0.056589168 -0.19106904 -0.2970913
-0.021165634 0.048936356 0.18819556
0.09397955 -0.092489466 0.19493699
0.048780788 0.2919088 0.26724505
0.120730296 -0.0071725314 0.17026289
0.0062011457 -0.068187326 0.16443507
0.019009473 0.30585507 0.27987468
0.109334566 -0.1357337 -0.07796053
-0.09666883 -0.18543132 -0.021112785
-0.031287998 -0.13829 -0.063157305
-0.029132806 0.029994171 0.17142537
-0.097837225 -0.18447725 -0.24298522
0.072402954 0.18541738 0.092195086
-0.098916665 0.22957942 0.025118832
-0.16162294 0.11520952 -0.19409993
0.07355355 0.2821887 0.22246185
-0.078301035 0.024580304 -0.31438813
0.17873846 -0.21033368 0.05176377
0.09341949 0.23650573 0.20734203
0.004604374 0.10174311 0.32630455
0.15892881 0.115317464 0.2705607
-0.041903693 0.10654709 -0.29803106
0.056036144 0.29894558 0.26602954
0.045234844 -0.13193062 -0.002688525
0.008652704 -0.09113158 0.06289194
-0.017800244 -0.01953177 0.13189441
-0.020656021 -0.0874201 0.05505544
-0.10635455 0.20765616 -0.14962018
0.15314543 -0.1299875 0.14693992
0.06861295 0.22362046 0.070154175
-0.02019732 -0.14119723 -0.027832955
0.1312552 -0.031843964 0.18687256
-0.019533718 0.11896357 0.3221288
-0.15041545 -0.05617447 -0.12994322
-0.15197702 0.08435035 -0.2528145
-0.073553115 0.05294044 -0.030453052
-0.027750676 0.0011672976 0.13822776
-0.04236995 0.25426543 0.19806232
-0.031350695 0.030059693 -0.33533707
0.08276876 0.027930604 0.20052586
-0.0022834681 0.26899135 0.12689446
0.17309643 0.012598922 0.16930722
0.063040346 0.29680574 0.27686518
0.02988281 -0.0013581566 0.038248103
0.075939275 -0.2584516 0.06316547
-0.0043604784 -0.13980743 -0.10517941
-0.012483377 0.22937953 -1.6144473e-05
-0.05086122 0.11928658 -0.30731675
-0.051392067 -0.010303259 -0.32792905
-0.010434304 0.0026653046 -0.16961154
-0.005659972 -0.16732693 -0.2891642
-0.063969925 -0.11461902 -0.30318955
0.10963082 0.12965852 0.17292239
-0.016737614 -0.0023183231 -0.3395139
-0.0886612 0.05213311 -0.30298483
0.014706489 -0.16247834 0.08968974
0.20956935 -0.14413476 0.09913999
-0.045893844 0.15511298 0.24840605
0.02805399 0.283161 0.2917237
0.09228761 0.056821667 0.055728458
0.17537317 -0.08151866 0.15505579
-0.006672581 0.08839902 -0.068194866
-0.0009342615 0.13736475 0.28069487
0.05977395 -0.2831649 0.004583087
-0.012032933 0.03845671 0.024187015
-0.09614749 0.18014114 -0.21148252
0.13322082 0.103174284 0.27029583
-0.009148818 -0.24035494 -0.08031817
-0.046136413 0.046274606 0.14718993
0.07543182 0.23530923 0.11579957
-0.00338554 0.16305646 0.30628452
0.068319865 0.058677744 0.030201139
0.17045882 -0.12398865 0.13927405
-0.05354919 -0.22062847 -0.17221974
0.07280128 0.060141496 0.1943582
-0.15035063 0.09549217 -0.105838224
0.18393049 -0.24090387 -0.038361393
-0.16103034 0.113836706 -0.061414845
-0.06363723 0.11534791 -0.054365616
-0.07745801 -0.09961238 0.103428334
0.01753269 -0.25292897 -0.0311097
0.108576626 0.087915674 0.15392292
-0.0854296 0.23466718 0.0021205908
0.20439999 -0.12074701 0.1349253
0.01792555 -0.13693826 -0.31314746
0.04418164 0.02171539 0.21247147
0.081578374 -0.2221568 -0.23841493
-0.06117898 0.08436255 -0.3083124
-0.028695436 0.17935695 0.32866678
-0.13823336 -0.1614902 -0.10069805
-0.092714466 0.10822151 -0.27790284
0.0028128903 0.10287612 0.31619963
0.0060270955 0.30084386 0.29287115
0.21935473 -0.14097868 0.09386172
-0.17902964 0.14503913 -0.08749589
0.0050355415 -0.089426644 -0.19910248
-0.0047059366 0.097231686 -0.08879811
0.055559125 -0.048643004 0.026633073
-0.020381609 -0.0128923245 0.12987621
-0.17059146 -0.076142 -0.09390768
0.014174464 -0.2440668 0.020203058
0.07732443 -0.04593847 0.021863459
0.12015067 -0.1478289 0.15835628
-0.121693976 0.12813866 0.045190446
0.034905702 -0.28123236 -0.0076234275
0.09939831 0.19655174 0.13400742
-0.038849577 -0.22058432 -0.088131584
0.059908975 0.02610193 0.07996304
0.09681906 -0.20771693 -0.22559345
0.17546211 -0.20838657 0.05864594
0.017331066 0.0246012 0.20950648
-0.07180791 0.23971228 -0.028673079
0.11840679 -0.23988469 -0.1489047
0.07278742 0.091292776 0.29259467
0.09701052 -0.032541357 0.02970518
0.0737195 -0.28409782 -0.10022788
-0.046627354 -0.22612146 -0.23454976
0.13383277 -0.26490307 -0.04784531
0.18061952 -0.23561952 -0.007563721
0.00052582077 -0.040348455 -0.16635232
0.1761634 -0.24885452 -0.10333708
0.014847447 0.2556443 0.05486317
-0.037754685 -0.25534242 -0.11633997
0.048054215 -0.25981432 0.049756672
-0.12208395 -0.041101985 -0.10937406
0.123720184 0.25112024 0.26199985
0.027530042 0.080820724 -0.0073860562
-0.03491165 -0.11644739 0.046312492
-0.07029674 0.22184989 0.061306246
0.0007136007 0.24555328 -0.05509465
0.090790495 -0.1935858 0.14081405
0.1677663 -0.18393573 0.06304474
-0.11023316 0.017689085 -0.083113864
-0.0118136685 -0.27174532 -0.1702951
-0.002219001 0.101174876 -0.08572173
-0.16476437 -0.11782935 -0.12006066
0.19458896 -0.110503286 0.1319284
-0.18112381 0.13792603 -0.1736527
0.08597605 0.014118075 0.20210657
0.13558142 -0.11183852 0.16665633
0.14344847 0.18163891 0.23011534
-0.074667744 -0.167537 0.047178805
0.21609718 -0.1119619 0.13549627
-0.013838672 -0.08342213 -0.32869202
-0.016579663 0.09396598 -0.16579853
0.09054008 -0.083670795 0.19817856
-0.18780886 0.04241575 -0.19686982
-0.060357247 0.017507423 -0.32348344
0.13559818 0.13812219 0.25405216
0.11340215 0.01209441 0.06317827
-0.061946645 0.21660285 -0.13114609
-0.081933506 0.20188482 0.18911272
0.038518943 -0.1184944 0.077998616
-0.04762113 -0.21278076 -0.24939457
-0.16467477 0.03597125 0.023683103
0.05089749 0.28940448 0.25216347
0.09234146 -0.26161322 -0.084041424
0.18003647 0.18715101 0.24904223
-0.13620174 -0.08986605 -0.28094193
0.03246586 -0.12978032 -0.16868882
0.14617527 0.106312186 0.14409305
-0.16822676 0.07605649 -0.24510299
-0.10243299 -0.1506179 -0.23760812
-0.10870906 -0.118950725 -0.094287544
-0.17498988 0.14344083 -0.07235517
-0.07615018 0.09622001 -0.294077
-0.062507935 0.06419908 0.07624207
-0.10398652 -0.03006653 0.10534844
0.1390598 0.21735391 0.26173577
-0.1488344 0.021830127 -0.2793971
0.14147796 0.0712418 0.15019141
-0.08789642 -0.111030206 -0.10308698
-0.037441242 -0.17935026 -0.27596396
0.12053395 0.12825003 0.2824784
0.03832986 -0.15663071 -0.30350682
0.15154253 0.20426327 0.25925842
-0.08876775 -0.1771824 0.005097989
-0.08497687 0.16933696 0.16964158
0.19830339 -0.21961537 -0.034704108
-0.058560416 0.13138427 -0.26049596
-0.029404737 -0.043914407 -0.34755495
0.072048545 -0.18695778 -0.30012685
-0.046712376 -0.22233248 -0.20538439
-0.09763261 0.20149402 0.14246108
-0.18880811 0.05136426 -0.1911544
0.1247063 -0.04363359 0.04246319
0.16307344 -0.08746139 0.16003314
0.056300502 -0.23787592 0.087157644
-0.048909385 -0.11510999 -0.30723578
0.007653478 -0.021031648 -0.21001525
-0.15391414 0.018663568 -0.2775419
-0.14121154 0.09124077 -0.061651006
-0.08429638 0.16601098 -0.23959033
0.0265265 0.25564793 0.15027112
-0.14575416 0.06274575 -0.10673397
0.15098096 0.052198656 0.172551
0.051643334 -0.18764105 0.13685873
-0.15696542 -0.07283479 -0.22522551
-0.034688283 0.031267263 0.06004912
0.1107354 -0.06352825 0.017681593
-0.09785304 -0.16733506 -0.1734969
-0.0014453533 -0.14880642 0.006896865
0.1423091 -0.25828502 -0.024280632
-0.10614932 0.08488779 -0.28140837
-0.11145057 0.22438635 0.009160343
-0.042530067 0.2286256 -0.114555866
0.054868154 -0.09435044 0.19776267
0.03449017 -0.2042365 -0.2624437
0.02837644 -0.1858859 0.10774918
-0.16029896 0.1369478 -0.03745812
0.004491255 0.035233866 0.20457806
0.09829805 -0.13495643 -0.10001051
-0.053667076 -0.23830818 -0.21193632
-0.16788082 0.103554495 -0.13686565
-0.12533103 -0.109728016 -0.2806222
-0.076086044 0.21371268 0.12713605
-0.049813293 -0.10132829 -0.1155229
-0.16706191 0.042131998 -0.25994033
0.014838668 0.12958738 0.3206739
0.20038629 -0.0897564 0.13787231
