# .PCD v0.7 - Point Cloud Data file format
VERSION 0.7
FIELDS x y z
SIZE 4 4 4
TYPE F F F
COUNT 1 1 1
WIDTH 1000
HEIGHT 1
VIEWPOINT 0 0 0 1 0 0 0
POINTS 1000
DATA ascii
-0.16812757 -0.0558221 -0.010579823
0.15421817 0.24903747 0.11931234
-0.11852691 0.1665316 0.06743029
0.08555796 0.1925384 -0.0202909
-0.20110679 -0.031498082 0.00093672983
0.0028869458 -0.18646315 0.04057204
0.041785087 -0.20380327 0.0471068
-0.10952579 0.10871357 0.12575902
0.14291221 0.056944065 0.04532579
0.16691813 0.28699973 0.007978885
0.19441217 -0.023422232 0.13797097
0.10170764 -0.014290143 0.14881378
-0.09478949 0.14036113 -0.038976673
-0.19048044 -0.0976096 -0.080510564
0.0008923217 -0.10402333 -0.011344613
-0.21784425 -0.1992138 -0.0967324
-0.030560073 -0.25036335 0.011320979
0.24577795 -0.08287833 0.06239706
-0.07424982 0.13748206 -0.0845791
-0.1572856 -0.10979825 -0.1281927
-0.20561427 -0.06928926 -0.084869616
0.049229994 0.0872278 0.14925891
-0.08015946 -0.3196153 -0.14998701
-0.105414025 0.08238305 -0.09474452
0.27378604 -0.04505035 0.024104545
-0.040594086 -0.29001215 -0.026570411
-0.018277474 0.29159462 0.09791183
-0.035724167 0.2601105 0.091657296
0.27183956 0.0062647955 0.08191985
-0.21017727 0.15623634 -0.088041194
0.15280393 -0.1847593 -0.002027644
-0.21553995 0.02075911 -0.13006777
0.061881237 0.090455875 0.118112564
-0.121716164 0.27478027 0.02905555
-0.07637233 0.064527094 -0.012229733
-0.18501765 -0.054959696 -0.14764372
0.07388719 -0.06231971 -0.06743209
0.086411364 0.16581403 -0.015277183
-0.23837501 -0.19564639 -0.12693837
0.099766865 -0.1534867 0.07973255
-0.024108611 -0.2031605 -0.16400921
0.00035066178 0.17558345 -0.04250383
0.093081884 -0.014690355 0.021747638
0.07123922 -0.22723351 -0.09000703
0.26083103 -0.044629168 0.073258795
-0.1777099 -0.20432515 -0.20712706
0.045450013 0.28832272 0.061989535
0.17504953 -0.13287582 0.0707691
0.09347915 -0.18558739 -0.12679489
0.14368218 0.092747375 0.14096144
-0.04460344 -0.30150583 -0.06515022
0.14601271 0.06797321 -0.008999049
-0.15678667 0.24945606 0.017037585
-0.06715067 0.009049697 -0.10057305
-0.054130655 -0.09226959 0.07001149
0.272664 -0.002863452 0.07389066
-0.22059448 0.09770317 0.015710605
-0.19408497 -0.16291568 -0.23297437
0.13170812 0.31439176 0.0039012523
0.084294416 0.07843624 0.17700164
-0.027701229 0.31625894 -0.027827734
-0.0050589032 0.3204409 -0.018420594
0.1403991 0.12990133 0.15095136
0.2349499 0.20619717 0.053741764
-0.11622136 -0.25876388 -0.2066067
0.24226604 0.025851877 0.14002296
0.2474454 -0.08304483 0.054574624
0.28708032 -0.0029519836 0.025939848
0.13127133 0.2766324 0.08330902
-0.2045134 0.11863071 -0.1493249
0.03994066 0.1703349 0.09910462
0.18462309 0.19015694 0.12505487
-0.06085987 0.14423917 0.14950387
0.15915464 -0.033314683 0.102503665
0.21999635 0.20893975 0.029056737
0.103340015 -0.015697615 0.14144509
0.27866283 0.07690716 0.06714343
0.2376453 0.008171691 0.11527983
-0.13017784 0.26576623 -0.060622536
0.16842294 -0.04816268 0.12485891
0.078619376 -0.0425028 0.1594006
0.20182838 -0.11819137 0.09567791
0.02937095 0.24991907 0.115005046
-0.18797304 0.15144864 -0.10333354
-0.14551099 0.045952328 0.088154025
0.029286005 -0.117985755 0.049008187
0.17611995 -0.016906802 0.114377394
-0.12922856 -0.3175702 -0.20746523
-0.01164622 0.14961946 -0.028114935
-0.023125403 0.3149833 -0.009718764
-0.20578498 0.1781649 -0.061164103
-0.20536166 -0.30566978 -0.05725291
0.26673734 -0.0026731014 0.09404297
0.22053093 -0.11090093 -0.029336615
-0.15187944 -0.25382936 -0.24017338
-0.10920151 -0.3247652 -0.21498466
-0.18853267 -0.1822806 -0.16969274
-0.21424429 -0.06784555 -0.0620701
0.1217478 0.099109784 0.0026482083
-0.068863906 -0.2437196 -0.18696858
0.026178481 0.25819138 0.13101837
0.26413348 0.15485173 0.0037847366
-0.0726751 0.16220471 -0.05603284
-0.02375944 0.11827937 0.14251836
0.016755199 0.20186496 0.12081641
-0.16374646 -0.10498755 -0.0023214659
-0.1334204 -0.102556504 -0.18594892
-0.074271284 0.12862241 0.06700164
0.25558928 0.09982802 0.12023411
0.104035966 0.062817834 0.053151794
0.06970786 0.32396802 -0.022694519
0.25057715 0.111253604 0.1248159
0.26073867 0.07493774 0.117812335
-0.21258646 -0.18196337 -0.20059487
-0.20278761 -0.07454909 -0.021291925
-0.22543025 -0.024095 -0.020752834
-0.17630395 -0.21011497 -0.24287981
-0.010532525 -0.092901334 0.07195252
-0.17332095 -0.3561733 -0.061977133
-0.14153029 -0.2928531 -0.21249983
0.053062618 0.08681317 0.1767541
0.013869694 -0.26692468 -0.044141967
0.1471795 -0.050606295 0.114659294
-0.20600389 -0.31049663 -0.049650766
0.12073326 0.18891126 0.1556482
0.08907828 -0.15872684 0.05583183
-0.23992732 0.007578528 -0.053597447
-0.055968005 0.28977102 0.08165588
0.07792855 -0.008085402 0.11004213
0.06327638 -0.21929194 0.03339427
-0.14037022 -0.1885264 -0.021532925
0.1986162 -0.123144895 0.040558405
-0.13070175 -0.20084047 -0.19838841
0.13438404 -0.14501289 0.07028312
-0.12863989 -0.2589065 -0.21086778
0.21247084 -0.007715939 0.14260578
0.15928976 0.28539988 0.022730362
-0.025160577 0.16581738 0.015120122
-0.22327663 0.010158753 -0.046835825
0.18200587 -0.07380495 0.10376885
-0.041297115 -0.2789438 -0.012438607
0.114671536 0.117261626 0.00049907074
0.094590485 0.13582052 -2.313519e-05
0.20425035 -0.14817165 -0.0018139055
-0.07939757 -0.22709669 0.0043407567
-0.068565756 -0.31538063 -0.063342705
0.22770233 -0.020197714 0.13485666
-0.1253886 0.24859816 0.068025425
0.12823164 0.08401114 0.11481921
-0.07550237 -0.30386752 -0.17111126
0.053004242 0.1870355 0.10198206
-0.10163324 -0.19122733 -0.18768586
0.002111183 -0.09169055 -0.061617184
-0.17110553 0.23363853 0.024647877
-0.18057494 0.20024808 0.042000912
-0.102034494 -0.06377357 0.06593518
-0.15365018 -0.120252825 -0.11707563
-0.066414334 -0.16936834 -0.0024874709
-0.157071 0.08238395 0.013362165
-0.21719593 0.007256831 0.0016492985
0.2428656 0.13040404 0.12713581
0.17585729 -0.1703947 0.010891081
-0.15795 -0.22437258 -0.23949838
0.12918678 -0.13594906 0.09313493
-0.17102598 -0.36163464 -0.05994465
-0.22060539 0.090825096 -0.11437592
0.15795417 0.0014526229 0.12809816
0.17570375 0.033188872 0.14366871
-0.22823706 -0.27251872 -0.050143663
-0.23049137 0.103311785 -0.07415745
0.1157052 0.20478687 0.15515064
-0.12959696 -0.37942615 -0.11175111
0.101982735 -0.18024237 -0.12281979
-0.15011063 0.108116 0.021147365
0.120417416 0.28068683 0.027050667
0.18714137 -0.12053248 0.10020477
-0.1629871 -0.36048272 -0.046570055
-0.17773941 0.18309334 -0.07437525
-0.11906184 0.14220466 0.05321507
-0.22257756 -0.041143056 -0.074248396
-0.09978371 0.021414785 0.05120341
-0.15925792 -0.07720068 -0.17806335
0.15758426 -0.14128248 0.09265667
-0.067238145 -0.1045494 0.0021584833
-0.120080315 0.13758455 0.027087675
0.029436886 0.13426714 0.16819379
-0.16449536 -0.13690238 -0.030876707
0.03250724 -0.055368092 -0.07049139
-0.1588975 0.18397433 0.039194427
-0.1299968 -0.12804249 -0.14536749
-0.11185134 0.28097305 0.0012671389
-0.2114535 0.077262595 0.019656058
0.23470962 0.13562211 0.13617542
-0.1630306 0.21914874 -0.0071944236
-0.06406716 0.30680594 -0.069657646
-0.2286897 0.008842412 -0.010109392
0.11623519 -0.022381395 -0.03302563
0.2646134 0.1302102 0.07579596
-0.20818959 0.17943785 0.015203311
0.15582974 0.250847 0.11319661
0.25015977 0.04274285 0.09980037
0.18725468 -0.11989607 0.07601898
0.19075738 0.22198576 0.11099744
0.15033202 0.18152112 0.14194348
0.022715868 0.31111023 -0.050804157
-0.0783074 0.13561957 0.14182037
-0.15555416 -0.15970536 -0.12617555
-0.06856653 -0.31567737 -0.12568724
-0.06261005 -0.24356873 0.006699146
-0.21746114 0.08538189 0.017371047
-0.09180637 0.23111455 0.07206137
0.28022212 0.03605735 0.0084536085
0.121966004 -0.20152292 -0.051821593
-0.18303412 -0.2245594 -0.18372013
0.18418941 0.24623847 0.023179738
-0.08259029 0.029987315 -0.106760204
-0.11104901 -0.29696387 -0.2039044
-0.18939282 0.09036636 0.03083791
-0.12581347 0.15296026 0.06004231
0.15063472 -0.10479766 0.107190475
-0.14429235 0.006891944 0.09338923
0.018063327 -0.13128822 0.050173298
-0.050201543 0.18157429 -0.063198365
0.1821204 -0.05152833 0.1096469
-0.11017095 -0.31425193 -0.038017605
-0.07094871 -0.16636828 -0.0029810462
-0.053542122 -0.13379335 0.029851642
0.23865002 0.061582223 0.14587954
-0.13414171 -0.30986786 -0.056202263
0.09949916 0.03434143 0.16976985
-0.20745565 -0.08001347 -0.06389172
-0.08989414 0.13399184 0.106588215
0.30067948 0.07828987 -0.0030000955
0.027835118 -0.18059993 -0.14816043
-0.1726182 -0.04370881 0.009532298
-0.104767665 -0.10886747 -0.17740956
0.047455948 0.09237975 0.14199328
0.2507369 -0.025013026 0.11609117
0.009309133 0.108572684 0.16622868
-0.077777304 0.29892114 -0.03832732
0.24187127 0.22289544 0.012314058
0.0075588706 0.20075122 0.11637813
0.10787305 -0.11122128 0.09048131
-0.067320205 0.17268048 0.07128351
0.19830577 0.14570257 0.15760632
-0.10911343 -0.031103423 -0.02944744
0.29065666 -0.03084646 -0.018318824
0.1641538 0.25528276 0.03485055
0.15544267 0.2894911 0.017327413
0.19667237 -0.15056536 0.037226494
-0.025620049 0.1711869 -0.056257486
0.19204897 0.059789345 0.15417886
0.2763019 0.00910136 0.06927881
0.21890344 0.12156482 0.15409097
-0.008775361 -0.101475656 -0.017544635
0.15375532 0.023365473 -0.021619964
-0.13243352 0.07465593 0.11108784
0.054684836 0.08417639 0.14257038
0.08798328 0.13714354 0.0016459478
0.040585987 -0.1813564 -0.12718812
0.0044402746 -0.25532514 0.0050508133
-0.16371642 -0.35601833 -0.08305653
-0.011045084 0.11819175 0.14165677
-0.16480942 -0.04347554 0.011767851
0.21822244 0.1943986 0.10478988
-0.15948886 0.21835437 0.024742238
-0.08808583 0.111896075 0.03469638
-0.16207457 -0.24216999 -0.23299956
-0.031249762 -0.09501423 0.111374795
0.092398405 0.19416395 -0.013235093
-0.06132438 0.30817395 -0.07118349
0.117100455 0.26180014 0.12863511
-0.08243237 -0.31429845 -0.04494801
0.09771638 0.063289165 0.15963285
0.26006088 -0.04596415 0.074592255
-0.11293376 0.2581695 -0.034023367
0.031849664 -0.09721604 0.13207349
0.1561748 0.038601317 0.10273715
0.044375286 -0.18844339 -0.1441047
-0.20564464 0.11552736 -0.14816076
-0.09097392 -0.1531544 -0.16617966
0.01159527 -0.21762842 -0.14939585
-0.005154382 -0.14200523 0.044157304
-0.05551235 -0.17167598 0.0029106145
-0.17335872 -0.17403412 -0.16563225
0.07689309 0.3131129 -0.03193739
0.1662304 -0.1768189 -0.08151982
-0.17924422 0.22604118 0.019861197
0.23225321 -0.12431652 -0.024690546
-0.0850348 -0.3254167 -0.11839543
0.110781 -0.16939077 0.07459767
-0.16011336 -0.3536895 -0.061551716
-0.20780772 -0.0024932518 -0.017092919
-0.11441451 -0.33888182 -0.20881744
-0.18425588 0.02700076 -0.17859876
-0.2205269 0.152562 -0.052538715
-0.15886478 -0.11254471 -0.030126147
0.24075764 0.17585716 0.083545975
0.01868607 -0.13419329 0.051004548
-0.16147225 0.09480293 0.018029472
-0.049554877 0.19857372 0.073635906
-0.22561178 0.14792056 -0.0020935698
0.19181317 0.21010138 0.08119274
0.21397 -0.12666357 0.06866594
0.105840944 0.26398647 0.09256979
-0.108940385 -0.13475694 -0.006863764
0.27807596 0.0019995375 0.059067383
0.056906678 -0.1678839 0.062726095
-0.07465892 0.04328207 -0.09272588
-0.04442919 -0.060522847 -0.09862137
0.058904305 -0.09334842 -0.053488296
0.10733301 0.11792646 0.11120439
0.258149 -0.07807826 0.019337552
0.24941169 0.13075902 0.11038344
0.04147752 -0.17218642 0.037399158
-0.23453157 -0.22762628 -0.09417783
0.113493904 0.3009211 0.032893434
0.25887805 -0.060838223 0.055601694
-0.14648303 0.06616225 0.0031114807
0.224744 0.067140706 0.1529401
-0.12874396 0.24851242 0.02087593
0.01751083 0.20481868 0.122552805
-0.116826616 0.27803048 -0.008174338
-0.18255144 0.00088904216 -0.004065931
0.12989986 -0.19178575 -0.07920084
-0.10704191 0.28381705 0.0073744124
0.20919704 0.07156588 0.13893081
0.22909603 -0.014603456 0.115726165
-0.16959633 -0.07410092 -0.1577409
0.036806777 -0.09081791 -0.07760872
-0.09517044 0.020116594 -0.1134882
0.09670111 -0.2179383 -0.04882718
-0.07049764 0.27618244 0.050419256
-0.11455291 -0.36559454 -0.17268778
-0.07057955 0.28265396 -0.020778257
-0.088988915 -0.1336296 -0.15042381
0.21813446 -0.13723665 -0.022825234
0.255356 0.20348547 0.006786352
0.100872286 0.040769998 0.16496328
0.24594711 -0.083822414 0.059301652
-0.040591687 0.1932243 0.09471319
-0.06585403 0.14226432 0.106682174
-0.20705295 0.17264467 -0.06764119
0.040973682 -0.18160544 -0.1262168
-0.10581873 -0.02504361 0.042476486
-0.10124965 0.23331732 0.06768513
0.026011664 0.27981922 0.094570965
-0.2174168 0.09642823 -0.17216161
-0.09905003 0.036941085 -0.1139934
-0.11698522 -0.3428674 -0.20155713
0.008694369 0.32136855 -0.053515334
-0.2100602 -0.036069073 -0.10966279
0.09553955 0.31035393 0.017319307
0.19479497 0.19691208 0.13833377
0.04361878 -0.1571421 0.060362596
-0.1059884 -0.2763845 -0.015250082
-0.0257711 -0.26495352 0.00011106726
0.012153556 -0.08297527 0.12859268
-0.067384884 -0.2071988 -0.17957127
-0.10617809 -0.31034747 -0.19499579
-0.091283165 -0.1309473 -0.17874798
0.15264815 0.18839058 0.14085987
0.013868962 -0.2669248 -0.04649246
-0.15010186 0.2514376 -0.032831147
0.0784349 0.22057365 0.12868662
0.20075582 0.25011426 -0.0024230448
-0.17901284 0.21399382 -0.07667003
-0.1861301 0.20572038 -0.0704925
-0.24162635 0.091261834 -0.044166286
0.16044672 0.102501616 0.15250628
-0.078460775 -0.2403609 -0.17082763
-0.09390777 -0.3255001 -0.16372174
0.16264725 0.1611244 0.16123754
-0.18330036 0.116990276 0.03828007
-0.17803825 0.12895645 0.042484965
-0.15749863 -0.14584288 -0.03602098
-0.15446053 0.13343593 0.050069448
0.28917512 0.13192129 0.012027681
0.26067626 -0.03626478 0.08463327
0.255862 0.079943925 0.1268773
0.0847125 -0.17236187 0.049379665
0.19869658 -0.02887175 0.1184253
0.120439984 0.16430892 0.15132917
0.10123282 0.29313916 0.0690775
0.13491105 0.107750505 0.107957415
0.16421498 0.23723808 0.12686284
0.10278042 0.13621683 -0.0038440695
-0.09254093 -0.12244821 0.0015191723
0.08466127 0.14935939 0.11945169
-0.14790764 -0.070143655 -0.16100687
-0.19461966 0.19119948 -0.07575703
-0.06884134 -0.302958 -0.16506986
-0.18442474 -0.1767794 -0.10707106
-0.2033169 0.12600616 -0.08014995
0.18325669 0.22657761 0.11581077
0.017313177 0.3191881 -0.051017262
0.07372813 -0.07850695 -0.078534916
0.12387765 0.01642111 -0.0062690983
-0.07567668 -0.14066723 -0.15383022
-0.0075127003 -0.20191793 0.033913024
-0.20898455 -0.17396574 -0.21870802
0.031836502 -0.15497968 0.056689005
0.11684211 -0.20602684 0.006258797
-0.007554935 -0.27727458 -0.029248897
-0.18232056 0.22215587 -0.014894505
0.28630397 -0.028250065 -0.000105378895
-0.049925115 0.28821212 0.0034234414
0.19771458 -0.08697155 0.1168748
-0.18141872 -0.19014731 -0.055742852
0.18525223 -0.008257095 0.13863666
-0.110236906 -0.36289206 -0.17143653
-0.062179975 0.0018136489 -0.09914426
0.057572912 -0.06808385 0.03057976
-0.08033848 0.100041725 -0.089829944
0.14952159 0.00566459 -0.027621994
0.07931087 0.14857334 0.10931705
0.25865474 0.08928785 0.11788954
-0.085862815 -0.16433518 -0.17324151
0.17807733 -0.16981256 -0.019574964
-0.16514593 -0.18676697 -0.14746194
-0.091952465 0.022254072 -0.115603685
0.08386435 0.177648 -0.01889199
0.039690446 -0.19934453 0.048436962
-0.113999136 0.27970275 0.027206782
0.058255285 0.3228487 -0.03632677
0.21284832 0.1634128 0.14542711
0.2399539 0.0074465782 0.13694872
0.15473658 0.12204956 0.13517813
-0.19187203 -0.2028533 -0.21876907
-0.17026451 0.2080835 0.04908723
0.084744416 0.0012993603 0.09995094
0.11888879 0.13552985 -0.007853028
0.20829351 0.005130312 0.12733676
0.2767477 0.15393543 0.004090264
-0.18798772 0.103309974 -0.15263234
0.25929794 0.11198853 0.1034248
0.018055934 -0.17876866 0.028090859
-0.14645769 0.05128677 0.09572652
-0.19931935 -0.09644209 -0.04979928
-0.03283117 -0.1529841 0.015945718
0.028302426 -0.25838917 -0.040108003
-0.061069865 -0.16558789 -0.16902813
0.07842977 0.09402653 0.07840747
-0.14919722 -0.2735676 -0.048014008
0.07235795 0.30776927 -0.03204186
0.17454655 0.22089504 0.09365981
-0.1569453 -0.18661141 -0.19149831
-0.21613474 0.08462466 -0.13098942
-0.21958797 0.14717159 0.012156837
0.019427983 0.10211675 0.16327715
-0.20350415 -0.20092838 -0.19595645
-0.20425615 0.033766896 -0.16526884
-0.009131723 0.3144133 0.016509397
-0.19110319 -0.060748428 -0.12740406
-0.08677225 0.0072327363 -0.116960466
0.19765216 0.12220166 0.16044675
0.26355425 0.11978362 0.03532575
-0.1789518 0.22855824 0.0056400523
0.23323455 -0.117350146 0.0038017093
-0.13635612 0.22969697 0.0685945
0.2742092 0.16961361 0.0063849944
0.26947695 -0.0034988245 0.017113484
-0.03575574 -0.28898773 -0.14120565
0.2028268 0.20535736 0.069132335
-0.19120805 0.2081675 -0.03478482
0.06794102 -0.23494692 -0.031730577
-0.2049434 -0.060865894 -0.014317294
0.11847294 -0.11910383 0.07433726
-0.124143176 -0.14732836 0.0014456114
-0.17739607 -0.20869578 -0.24272817
-0.092297874 0.008204661 0.03602543
-0.12515202 0.049003843 0.10839941
-0.05455131 0.14550428 0.15190893
-0.22869705 0.02840781 -0.09503038
0.2528313 0.16677482 0.06893655
0.17658238 0.19534345 0.15181817
-0.013863128 0.1486556 0.10347919
-0.13868098 -0.35709822 -0.13609432
-0.13976535 -0.14991191 -0.08487971
-0.11970235 0.0050910045 0.044881806
0.066304624 0.24459565 0.1424075
0.21817298 0.17361884 0.13166629
-0.2276589 0.12225213 -0.066717625
0.11941594 -0.20623335 -0.11087939
0.10621485 -0.19157022 -0.03308997
-0.14428662 -0.096258275 -0.17512584
-0.1531347 0.24718526 -0.12361634
0.111779995 0.26822722 0.123994984
0.22834425 0.11963708 0.1482067
0.07771017 0.29132506 0.09886421
-0.21798377 -0.18430993 -0.18584347
-0.10991295 -0.36218676 -0.17250007
0.17723615 -0.12040224 0.102680705
0.07624685 0.026746709 0.1725488
-0.18216239 -0.06762493 -0.13891935
-0.08631462 0.15271856 -0.023619583
-0.03411427 0.16341399 -0.059696026
0.14051409 0.13713604 0.1526934
-0.18339017 -0.002269443 -0.15010245
-0.15574256 -0.13465272 -0.08649452
0.007849646 -0.10230595 -0.019565906
-0.010243464 -0.26471737 -0.14175372
0.19806945 0.2351583 0.023948615
0.022844685 0.30367348 0.08285437
-0.051979613 0.14023675 0.15172355
0.16723377 0.039075024 0.119265996
-0.033573832 -0.22556676 -0.17099342
0.120614626 -0.064670436 0.014392973
-0.13269435 0.25515288 0.056402657
0.007282426 -0.2708204 -0.05410362
0.18366799 0.27032578 0.024107799
0.14898263 -0.024590606 0.08998272
-0.13807186 0.22873847 -0.10843505
-0.12513761 -0.37678882 -0.114299096
0.05272601 0.22903308 0.14069147
-0.06076108 -0.001919011 -0.10056403
-0.1393158 -0.27951753 -0.026643941
-0.11586367 -0.3058935 -0.20379438
-0.20848016 0.10500084 -0.17113405
0.15341222 0.278122 -0.008568375
0.26275 -0.023160694 0.091335915
0.25724477 0.04579922 0.12658243
0.21019255 -0.14161603 -0.07815762
-0.09187074 -0.113535084 0.0022785817
-0.08065684 -0.16861825 0.013205766
0.06520806 0.2913451 0.04109244
-0.07233079 0.15730017 -0.08205592
0.13013873 0.29881302 0.022109874
-0.16997957 0.05889073 0.008701887
0.24645904 0.16996203 0.030232666
0.13102202 0.24554637 0.1386654
0.07960364 0.27023366 0.12989965
-0.012510004 0.18440105 0.091727346
0.2664084 0.035315398 0.050653048
-0.021839492 0.33593383 -0.058259174
-0.016760888 0.15646037 -0.041555796
0.10129772 -0.083548784 0.08105399
0.05539679 0.0873067 0.13634394
-0.16911401 0.10112647 0.038313586
-0.15733615 0.16607821 0.057021502
-0.05215705 -0.1722505 -0.15133636
-0.08758286 -0.32692358 -0.074578
-0.120522335 -0.31938738 -0.22405581
-0.08611668 0.15681966 0.0033422871
-0.11634987 0.20307648 0.059244864
-0.14643332 -0.17324978 -0.17918001
0.07461415 -0.23100036 -0.023206072
-0.08818111 -0.059134398 0.09920429
-0.10453847 0.21978818 0.08553888
0.27047664 -0.04545576 -0.03823277
0.08658009 0.31333658 0.013558967
-0.21099411 -0.060862605 -0.08219805
-0.022205055 -0.09167851 0.009784075
-0.05054731 -0.17936057 -0.15222113
0.0032495682 -0.052394167 -0.08513365
0.21593487 -0.058343656 0.12521902
0.09432626 -0.2193429 -0.011286917
-0.17929046 0.13933069 -0.15024324
-0.15900666 -0.3141536 -0.041880857
0.25069058 -0.09477193 0.005087502
-0.010650405 -0.060186032 -0.10106455
0.106267706 -0.2044408 -0.07690886
-0.16443911 0.17515409 0.035798263
-0.16846788 -0.34463355 -0.055032223
0.05843855 0.18720824 -0.02596124
0.08171952 -0.008906697 0.09340175
-0.122953095 -0.20235004 -0.17826007
-0.06249998 -0.21058777 0.013426616
0.08742724 -0.04041117 0.16178802
0.14338614 -0.17488603 -0.10763026
-0.21774845 -0.25257683 -0.05245899
0.06341788 0.09240643 0.111963905
-0.1305751 -0.078503974 -0.18121429
0.09939373 -0.21136416 -0.07479187
-0.022123268 -0.17819287 0.03371561
-0.10430865 0.102192685 0.06997314
-0.2044729 0.10107639 0.027231788
-0.14763434 0.014918538 0.08614473
0.25053534 0.21468797 0.00922602
0.115525775 0.21494962 0.13608587
0.080783956 0.22696699 0.14769265
0.07689059 -0.0625049 0.13304542
-0.21077418 0.15435503 -0.08861305
0.18077672 0.108896315 0.14111398
0.117302135 -0.08682497 0.095038354
0.24735938 0.11741122 0.077899046
0.13506672 -0.17228918 0.071274415
-0.086252324 0.29298282 0.0050998386
-0.15424569 -0.36427498 -0.060698338
-0.159283 -0.1832857 -0.18813731
-0.20286837 -0.070714936 -0.08948152
-0.123068735 0.0068015745 0.10060394
-0.19006377 0.11524613 -0.13667488
0.1465422 0.28179938 0.04980973
0.15791582 -0.045370236 0.10065622
-0.14489427 -0.21752836 -0.018593265
0.1459943 0.3156823 -0.007870363
0.102735184 0.27262148 0.12159052
0.059889153 -0.2397087 -0.041583896
-0.1497673 0.090957 0.014082607
0.17033254 0.265241 0.056361184
0.16012684 -0.17711596 0.048238683
0.18964852 0.24811222 0.06205226
-0.122370645 -0.04634221 0.076339744
0.03989241 -0.2361821 0.0194712
-0.22730958 0.14386767 -0.003907835
0.078553304 -0.18363638 -0.09887108
-0.16634464 -0.18794781 -0.19184357
-0.06624475 -0.31189862 -0.14231211
-0.123049125 -0.188637 -0.19152507
0.16281883 0.24503879 0.11388066
-0.17090508 -0.018166402 0.014306731
-0.105948135 -0.27068004 -0.20423672
0.18844688 0.02300084 0.12682378
0.08117924 -0.119045064 0.07729053
0.066178925 0.0940511 0.10374037
-0.15192752 -0.36784518 -0.09347968
0.006103793 -0.044789843 -0.066968426
-0.12579016 -0.34315193 -0.18205008
0.12563597 0.09378162 0.11849526
0.17345266 -0.070501156 0.10286923
0.09745317 0.31426907 -0.024697354
-0.03260923 -0.08501407 0.11292702
-0.13552406 -0.3829314 -0.078225136
0.09805978 0.0025388016 0.17260364
0.096414156 -0.061836615 -0.063621774
0.24110141 -0.039217472 0.08284064
-0.11518716 -0.20620963 -0.19566254
-0.17642885 -0.2770675 -0.057999745
-0.23443362 0.065378085 -0.0036541352
0.017361488 -0.26342887 -0.10110171
0.28766668 -0.027882656 -0.0045653093
-0.18778887 -0.061785065 -0.00054210966
0.1351698 0.11703252 0.14436784
-0.030579435 0.12131145 0.1552022
0.12872806 -0.06384531 -0.04462576
-0.030832145 -0.1518216 0.016861195
-0.17817879 -0.023501514 -0.14546019
0.24701184 0.21557522 0.014587851
0.06760175 -0.089079365 0.050334614
-0.124954 0.046604797 0.1079837
0.22254108 -0.07649048 0.08411471
0.13097024 -0.19024368 -0.09413544
0.17498 0.03782014 0.124165684
-0.19683613 0.072510324 -0.13487968
-0.16991398 -0.18893906 -0.1375309
0.053776685 0.3250443 -0.020346954
0.046012465 0.29051176 0.111146756
-0.048155475 0.3140617 -0.073542714
-0.16483712 -0.19199508 -0.19580299
0.13128084 0.066850096 0.10117808
-0.009718593 0.31595945 0.006262599
0.045610193 0.26288682 0.13314244
-0.15222163 -0.057417527 -0.16863677
-0.0455167 -0.25523704 -0.17466454
-0.21780628 -0.01014549 -0.109082274
0.15055703 -0.0006516098 -0.030405924
0.17218657 0.0021224038 0.13600785
-0.050531846 0.14091802 -0.0652521
-0.09102967 -0.22860235 7.308757e-05
-0.07103038 -0.23067376 -0.18554483
-0.06035372 -0.11153435 0.0051854206
-0.06587953 -0.27524295 -0.007577648
0.26004425 0.10857579 0.10348617
-0.16302894 0.24453425 0.012437477
0.024652313 0.14370199 0.10516692
-0.16676863 -0.08471956 0.0029083472
0.1655987 -0.1474459 0.086859435
-0.17463502 0.14846824 0.047577232
0.1003913 0.2554089 0.13894118
-0.11873302 -0.17348512 -0.038767643
0.050917584 -0.06877412 -0.07881903
0.24168509 0.14807752 0.113740124
0.1720755 0.021670962 0.13978766
-0.17987712 -0.07393068 -0.13578042
0.17621976 -0.170911 -0.030683858
-0.16424473 0.15085524 0.05159928
-0.20178923 0.07014468 -0.17587863
-0.16301544 0.21545443 0.052280337
-0.038299765 0.27638134 0.10310501
0.05114148 0.07461481 0.16442835
0.07809763 -0.06730803 -0.07044934
0.028507456 0.118868746 0.10690346
-0.07097147 -0.115523346 0.006075819
-0.21044719 -0.07184053 -0.032923725
0.14829253 0.14594275 0.15711978
-0.23268412 0.10315918 -0.00014331694
-0.22913127 -0.2261202 -0.06885281
-0.019956045 0.16548991 0.019613901
0.29277155 -0.00984294 -0.001048456
0.07768683 -0.059401803 0.019985272
-0.22405139 -0.034432862 -0.07748209
-0.2221233 -0.030408943 -0.08516151
-0.16046444 -0.26641488 -0.20532824
0.033076987 -0.20503832 0.024454312
-0.21722549 0.16097806 0.010197246
0.15693979 0.26672733 0.07256867
-0.059247613 -0.17952366 0.00088367605
0.17900856 -0.033247758 0.112270795
0.10010348 0.29440525 0.06658252
0.21190244 -0.1351834 -0.0762785
-0.10214026 0.12040809 0.13063265
0.16860995 -0.13754305 0.09360163
0.017522994 -0.055494975 -0.079150036
0.26411977 0.13886787 0.06784476
0.061539352 0.12473956 0.110757776
0.031343497 -0.21369742 0.039833203
-0.1260503 0.27175468 -0.0030548987
-0.14022963 0.076245315 0.105469346
-0.16280141 0.16137959 0.05421209
-0.23817006 -0.21150434 -0.07466406
-0.1189014 -0.2751883 -0.21007471
-0.10594629 -0.3251299 -0.18191989
0.008670898 0.30590957 -0.031724658
-0.026489029 0.2716383 0.110405825
-0.11026795 0.10076682 0.010010342
0.18177217 0.27692214 0.010725886
-0.051751718 0.13431542 0.15060817
-0.05950531 0.3076405 -0.044469964
-0.12690863 -0.32943907 -0.09909
-0.049912754 -0.031043693 -0.10870772
-0.06170082 0.28927195 0.07811677
-0.19335091 0.17825145 -0.113940395
-0.027415767 0.12697507 0.09053738
-0.14660546 -0.15791629 -0.059410486
-0.16152626 -0.33657503 -0.09971254
0.11201435 -0.009621961 -0.016835576
0.2528351 -0.07499675 0.050603416
0.2990378 0.009936505 -0.0069946884
-0.22975512 0.017781947 -0.0894774
0.17708479 -0.034396406 0.11138351
0.11884984 0.047471337 0.015117254
0.29424042 0.047833275 0.025463184
-0.13232708 -0.23696123 -0.20770124
-0.1374466 0.24266537 0.061574288
0.12790498 -0.15191358 0.086320505
-0.2391129 -0.22944121 -0.050153896
0.06747041 0.025804708 0.16936785
0.18785962 0.0091385245 0.123830006
0.070184425 0.06774975 0.13050094
0.12697302 -0.17640781 -0.11353016
-0.11224052 -0.33122855 -0.057332978
-0.09687794 -0.15205617 0.012915288
0.26478478 -0.00569661 0.032604393
-0.14886256 -0.34248656 -0.1327465
-0.12424554 -0.28576308 -0.23581333
0.14287972 0.28906184 0.034432944
-0.08619547 -0.08028876 0.09561756
0.25951436 0.12454614 0.09354516
-0.16658476 -0.2184359 -0.21539123
0.28082752 0.0023445862 -0.016883502
0.067459814 0.19128248 0.13806503
0.039733585 0.19514999 -0.033201955
0.055002097 -0.24259906 -0.07220919
-0.030822909 -0.09858914 0.11079953
-0.21530962 -0.06021183 -0.07315409
-0.033933308 0.13316166 -0.03340704
-0.17063768 -0.20027724 -0.20283276
0.004079563 0.14307532 0.013364469
0.2847301 0.120892756 0.032382477
0.126875 0.12881929 0.14393283
0.20734078 0.09026921 0.15835007
-0.21877724 -0.034839127 -0.08999872
-0.1024871 -0.11441091 0.018477652
-0.046803843 -0.24042597 0.012240289
0.29121837 0.11783548 0.01706224
-0.18074548 0.09701044 0.034910105
0.095596805 0.06788754 0.16106474
-0.21689154 0.08111786 0.016903078
0.28360415 0.1526853 0.0061749103
-0.0012295957 -0.1828669 -0.15852249
0.096911475 0.27984878 0.053112827
-0.10169315 0.28683057 -0.05217442
0.11225167 -0.015459726 -0.02377613
0.16394454 0.20975627 0.12616794
-0.02775413 -0.2516658 0.010643713
0.096712954 -0.21793129 -0.015246421
0.16994503 0.28604484 0.005866538
-0.09916355 0.24647067 0.086673774
0.17045443 0.054994095 0.12549572
-0.14297482 -0.36963603 -0.110640794
-0.17761709 -0.054379888 -0.16583018
-0.014946786 -0.036840577 -0.07826175
-0.11581013 -0.3436172 -0.134963
-0.2143091 -0.22020969 -0.095760256
-0.20598756 -0.039837405 -0.11505576
-0.21348472 -0.035310183 -0.10240231
-0.05433304 -0.093985945 0.016191397
-0.06205142 0.17516725 0.025785375
0.19655691 0.14686395 0.15788682
-0.12555653 0.22625561 0.07609129
0.14903505 0.24222417 0.13252752
-0.1826264 -0.010895531 -0.14520194
-0.010677261 0.12320929 0.11830067
-0.21053962 -0.07863846 -0.053656403
0.14495239 0.05110106 -0.010576848
-0.16053382 -0.1641439 -0.07664427
-0.22858517 0.094869 0.006573495
-0.22592573 -0.044151273 -0.05737239
-0.21780954 0.108589195 0.018707227
-0.19499193 -0.011649387 -0.16618681
-0.05711278 -0.12733057 0.0104198465
-0.19140786 0.10570345 -0.16517437
0.12273891 -0.20253964 -0.04577512
0.048438564 0.30596307 -0.018944204
0.024099207 0.26862928 0.12599981
-0.19555801 -0.07729067 -0.09737113
0.11378664 0.23076227 0.13021637
-0.18099713 0.1346413 0.023281055
0.17121443 -0.1738712 -0.04070158
-0.038817715 0.12728073 0.15359794
-0.07862032 -0.18154311 -0.1780902
-0.15764603 0.20385756 0.059952687
-0.21216682 0.1734844 -0.04423863
-0.18399376 -0.23532452 -0.057273205
0.103249654 -0.027528783 0.057319313
0.2912545 0.100486234 -0.0017383569
-0.049407057 -0.08150628 -0.037710637
-0.0048071556 -0.27797022 -0.04878962
0.040429864 -0.09939831 0.03908843
-0.10937468 0.28243792 -0.01809215
0.13256122 0.27380723 0.089108184
-0.13876109 -0.37364146 -0.114650816
0.07815009 0.098445 0.16154556
-0.069368884 0.30464464 -0.077612594
-0.13814728 -0.1343697 -0.027826965
0.097106986 0.05048326 0.16963066
-0.16659157 -0.21224278 -0.23999858
-0.015782844 0.29162768 0.09886872
-0.11511916 0.24100278 0.0792939
-0.15443517 0.120466545 0.045839485
0.2301561 0.15972286 0.12628648
0.10080882 -0.17825033 -0.122818485
0.12904538 0.12974565 0.12098602
0.08396405 0.19562522 0.14520986
0.10676205 -0.13738388 0.085863434
0.072291866 0.06922667 0.1797626
-0.18657105 0.16967827 0.043375403
-0.07316729 0.009118272 -0.10673392
0.22502156 0.12199657 0.15057
-0.18535945 -0.1166049 -0.054838195
-0.060292613 -0.10785226 0.022817526
0.08658781 -0.18196495 -0.10143277
0.23389009 0.21563555 0.039988413
-0.16847016 0.20266427 -0.13781543
-0.102713816 -0.3088623 -0.03348359
-0.14865302 -0.04178176 -0.0039062346
0.055022363 -0.15020522 0.046445616
0.12923643 -0.1723268 -0.08709995
-0.023607032 -0.027286787 -0.060784943
-0.02299588 0.3083028 0.042299323
0.06953381 -0.11127683 0.06812622
-0.038506065 0.289917 0.090989895
-0.0030107375 0.24657378 0.12447873
-0.13421865 -0.28840667 -0.23411253
0.08505724 0.08875498 0.16220732
0.14501111 0.25623593 0.06189506
-0.048970856 -0.2721385 -0.17046715
-0.1822362 -0.0064445934 -0.18465151
0.22269171 -0.0271273 0.13453612
-0.14883183 0.018605592 0.089796506
0.2607218 -0.022467237 0.09828341
-0.17224796 -0.12043249 -0.021251427
-0.22560413 -0.01621564 -0.08518333
0.0651205 0.04415067 0.16361172
0.13481015 -0.1880275 0.050791297
0.06245983 -0.18236852 0.06031416
-0.11889824 0.067262135 -0.057129025
-0.10715888 -0.14952561 -0.16043851
0.070392646 -0.08553521 -0.08224203
0.18575788 -0.15015368 0.07086244
-0.012089319 0.15990953 0.039324764
0.022262987 -0.17155401 0.05018022
-0.21967836 -0.2715475 -0.037667505
0.09453993 -0.1272696 0.06389543
0.027020806 -0.12016008 0.049385462
-0.15407357 0.20924035 0.03819697
-0.1958098 -0.09780675 -0.0671818
0.25339964 -0.087203376 0.017218936
-0.061685402 0.30832407 -0.07845044
-0.06637861 0.29648978 -0.084113285
-0.08421453 -0.03953544 0.02311396
0.22468919 0.2348828 0.02452488
-0.21042 -0.17745304 -0.21110314
-0.099010214 -0.2272441 -0.19438878
0.015641594 -0.080930375 0.1301934
0.15248777 0.118322305 0.15298232
-0.021823999 -0.28803414 -0.10313016
0.124771975 -0.05436356 -0.05604823
0.1707299 0.23506404 0.12068764
-0.05309443 -0.09592787 0.07456045
0.22273546 0.16324916 0.13391009
-0.046008155 0.11813834 -0.028543606
-0.14003526 -0.058876712 0.013798794
-0.12896486 -0.10190912 -0.14510292
-0.054281108 -0.14729425 -0.16523822
0.09668748 0.25460982 0.1395997
0.12185955 -0.20305973 -0.034846473
-0.15653454 0.21642245 -0.13097522
-0.17481259 -0.32613078 -0.084532745
0.12757248 0.13360325 0.1462024
-0.04407372 0.12270234 0.1508839
-0.05519557 -0.29071942 -0.1628717
0.17834274 0.19114232 0.13057001
-0.1556 -0.17727195 -0.04103486
0.10106739 0.004205362 0.16489281
-0.13085176 -0.36323494 -0.14522566
-0.17333224 -0.26897517 -0.036111947
0.04743085 0.1788726 0.11855446
-0.22041035 0.093444794 -0.11426409
0.31028503 0.032490347 -0.0004831108
-0.028646892 -0.12763028 0.01546623
-0.07198753 -0.26410598 -0.0024194382
0.10456955 -0.18097678 -0.07803895
-0.13653308 0.06512 0.10776901
0.24054569 -0.09443287 -0.05830426
0.24499838 0.20165296 0.002887358
0.27154443 0.16634338 0.025639504
0.17581752 0.09840996 0.15687938
-0.18922003 -0.22308268 -0.19852588
0.27165297 0.12901059 0.007527028
-0.15879841 0.20136712 -0.13478099
0.03920242 0.2742916 0.1253811
-0.057316147 0.28572357 0.0861263
0.07315809 0.22857238 0.14594054
-0.09940915 -0.31096107 -0.18755862
-0.1336009 -0.26289788 -0.23873143
-0.1061107 -0.18890244 -0.00074161316
0.25307116 0.10245772 0.07419761
-0.11931523 -0.23253751 -0.20237567
-0.15178204 -0.108573325 -0.018995099
-0.031552967 -0.023201998 -0.07892175
-0.13827416 -0.07156322 -0.17778367
0.21212201 0.17469166 0.1386431
-0.20867933 0.006879685 0.006736786
-0.11186031 0.2809679 -0.015586335
-0.22824046 -0.21658142 -0.12205407
0.18728167 -0.06337059 0.12650809
-0.11501027 0.015752625 0.09607298
-0.062224455 -0.311927 -0.07330113
-0.016334588 0.13000588 0.16180904
-0.19979782 -0.2112227 -0.055870913
-0.07466518 -0.30607566 -0.035442434
-0.18817434 -0.0518789 -0.14431967
0.27597415 0.085517086 0.019824283
-0.10825529 -0.339149 -0.14208844
-0.18610972 -0.24753857 -0.057203196
0.23573685 0.21604054 0.0026310813
0.16750954 -0.17606232 -0.024730751
-0.031264156 -0.16421708 -0.16499929
0.12251953 0.27962163 0.08794594
0.1090216 -0.11830918 0.09014953
0.17527789 -0.08961082 0.11693498
0.2582244 -0.050496757 -0.0046832412
0.2695095 0.05292859 0.097414516
-0.0978259 -0.33298138 -0.13139692
-0.14704241 -0.12636091 -0.0018078772
0.19637875 -0.01755282 0.13969865
-0.015198291 0.1666893 -0.048031986
-0.10761921 0.026687374 0.07328744
-0.22097796 -0.015354263 -0.009753988
0.26517043 0.045433722 0.11072171
-0.18860497 0.19807395 0.033479083
-0.044984 -0.15479691 -0.15846096
-0.11755436 -0.22978038 -0.18201803
-0.13923356 -0.11960155 -0.14482066
0.2947284 0.010116702 -0.01876788
-0.18874872 -0.20170678 -0.16260304
-0.19049199 0.15659966 0.018154921
0.07329054 -0.068206094 0.12911227
0.28985164 0.087694 0.033128615
0.12134491 -0.169809 0.05055633
0.07931069 -0.112976834 0.052776
0.20179641 -0.10475453 0.105926394
-0.06677652 0.026259476 -0.08891269
-0.08817509 -0.29704335 -0.18785195
-0.16519183 0.1940343 0.03390746
0.095844306 -0.17460674 0.07012977
-0.21431474 0.10170551 0.021423161
-0.093457684 -0.1531902 -0.16610478
-0.0036177163 -0.07159174 0.10583659
0.1356926 0.24266331 0.10948889
0.10407602 0.008194102 0.13058348
-0.1642301 -0.3636569 -0.07211881
0.094525345 -0.17868367 -0.114652514
0.13689245 0.2318687 0.122731954
-0.17165975 0.15979071 0.031007245
0.23439145 -0.1190161 -0.008944656
-0.23228158 0.107523516 0.00056294346
0.25230858 0.18859981 0.025149932
-0.089250684 0.045769893 0.020347513
-0.19805297 -0.32015815 -0.029250031
-0.12882032 -0.3290014 -0.19365515
0.050085716 0.13010293 0.049017232
0.15000275 -0.16567425 0.023438198
0.24776213 0.119716406 0.12579294
0.25709555 0.09400152 0.12022134
0.08388026 -0.022632953 0.16519797
0.11601214 -0.18571992 -0.113963
0.06760796 0.23704997 0.14410388
