# .PCD v0.7 - Point Cloud Data file format
VERSION 0.7
FIELDS x y z
SIZE 4 4 4
TYPE F F F
COUNT 1 1 1
WIDTH 1000
HEIGHT 1
VIEWPOINT 0 0 0 1 0 0 0
POINTS 1000
DATA ascii
-0.09145527 0.14108211 0.050551992
-0.040897094 0.018456439 0.23275784
0.047323838 0.080373906 -0.034075882
-0.22078441 -0.06287888 0.20392798
0.050792765 0.044961922 0.18528594
-0.05667585 0.014715797 0.2614405
-0.23785853 0.037843898 0.15684392
-0.16505748 0.15811561 0.121771105
-0.18241107 -0.05778645 0.23786709
0.008151224 -0.030306837 0.213136
-0.07391197 -0.09835938 0.28165343
0.036812544 0.15217237 -0.13912475
0.16759703 -0.14955035 0.15961425
-0.015773827 -0.15436493 0.10944075
-0.00048272865 -0.11689723 0.28631678
-0.049927585 0.15904635 -0.004432022
0.058175378 -0.09007727 -0.22293216
-0.26438627 0.0747404 0.04362969
-0.14130348 0.12540504 -0.16757488
0.09680352 0.0046383333 -0.011173768
0.032534484 -0.23583856 0.20329176
-0.17405786 0.15057495 0.12773122
0.015294084 -0.14469157 0.074091956
0.024192099 -0.039086822 -0.21804813
-0.11712826 -0.023080157 0.08594678
0.13287018 -0.17691138 0.20236838
0.018091034 -0.18028598 0.09213704
0.11761573 -0.20027402 0.19511282
-0.06784648 0.061195914 0.19918336
-0.05211921 -0.17477578 0.2360406
0.12864968 -0.16020319 -0.13146164
0.13595209 -0.2793908 0.0014910308
-0.24173991 0.02675092 0.15991676
-0.06075935 -0.1606802 0.24238345
0.14328866 0.05435566 0.010874672
0.05884514 -0.10631664 -0.08471776
0.1444561 0.0023757906 0.04697404
0.12012155 -0.24740678 0.11805944
0.05535346 0.1247536 -0.020930065
0.09426587 -0.18871151 0.22152399
0.026824476 0.20035413 -0.33274764
0.17822094 -0.014689305 0.056019884
0.0562888 0.18298045 -0.22582327
-0.085664704 0.19106413 -0.0077408743
0.10193575 -0.04639466 -0.20254108
0.22227293 -0.10809804 -0.04818437
0.068474956 -0.018911969 0.19155398
-0.03439337 0.17191817 -0.051524762
0.040231638 0.051519357 -0.33786365
0.083857834 0.014788184 -0.020275174
-0.13657568 -0.07105366 0.26368868
0.069113806 -0.2617942 0.11691422
0.10828582 -0.14599435 0.23034975
0.07480329 -0.28561562 0.09787004
-0.20831506 -0.05623033 0.22046696
-0.24831146 0.047565702 0.13272528
-0.01200007 -0.16813278 0.261223
0.08180307 0.13445242 -0.201348
0.13106352 0.1579529 -0.2836686
-0.012700372 -0.23429097 0.21785264
0.09903141 -0.0052712117 -0.0062109805
0.061994184 -0.09500274 0.057537258
-0.09913969 -0.04091523 0.2848392
-0.011510538 -0.16689315 0.113350786
0.20843501 -0.060174022 -0.06515837
0.19248389 -0.028320258 -0.087849475
0.0840794 -0.23424603 0.17736349
0.18939546 -0.19826803 -0.0067094998
-0.1186357 0.19455443 -0.052985523
-0.16292723 0.1331883 -0.11676382
0.1458824 -0.16699728 0.19091396
-0.09749586 0.090527155 0.20093791
-0.044505216 0.016098842 0.14913167
0.020466464 -0.23379593 0.20902692
-0.0602679 0.06302191 -0.03029547
0.20651448 -0.1369727 0.07411117
0.043586317 0.14215708 -0.13724071
-0.092583545 -0.0060233492 0.08221088
0.096683875 -0.14712147 -0.18670586
-0.0059749484 0.21464768 -0.3481147
-0.16710818 0.12636228 -0.06710891
-0.10943485 0.1020467 -0.23433067
0.075614184 -0.12522437 -0.05276689
0.102518536 -0.1761594 0.22720885
-0.10197319 0.11306383 0.16873643
-0.067415595 0.07212477 -0.28245968
0.07507997 0.124158904 0.0024848504
-0.09789003 0.021135742 0.0133354105
-0.0128256045 -0.036118068 -0.10596095
0.21795306 -0.08880844 -0.06673149
0.030693904 0.03180134 -0.21707407
-0.18671396 -0.106820405 0.22432168
0.19734497 -0.041761808 -0.11421827
-0.14689045 -0.04947085 0.26015872
-0.19299935 0.06595621 0.19599332
0.16140877 -0.2335181 0.006952157
-0.1454339 0.07696841 0.22960548
-0.06893625 0.19749689 -0.17944433
0.0024754796 0.007860471 -0.21155156
0.05811878 -0.16061887 -0.01591729
-0.15842946 -0.124125086 0.22740407
0.12881145 -0.19414079 0.19315362
0.14088188 -0.03958699 0.039967168
0.112491414 -0.12158134 -0.18835713
0.034406163 0.23926038 -0.3258311
-0.03322138 -0.080806375 0.17493275
0.0038866906 -0.053683694 -0.10868009
0.025489848 0.15720274 0.027998772
-0.16764586 0.14674576 -0.08493894
0.031424154 0.1646678 -0.19734111
0.15368761 -0.17815132 -0.11687654
0.033412047 0.12988394 0.040493153
0.08721244 -0.17006509 0.2391136
-0.21213113 -0.06902044 0.21886595
0.14150704 0.0059005665 0.03686888
-0.10536157 -0.068261646 0.27756748
-0.0843247 -0.058614768 0.28749752
0.07746916 -0.10173906 0.24173363
0.14242318 0.10895558 -0.2765118
-0.14155114 0.15962933 -0.11146373
0.06726139 -0.078094564 0.17219757
-0.20492838 0.02079899 0.17753315
0.16112542 0.017730758 -0.1134324
-0.2669266 0.048084334 0.084438026
0.10975372 -0.28214765 0.032113027
0.14415717 -0.18823765 -0.13730527
0.13925783 -0.27827337 -0.003128928
-0.11215472 -0.0895309 0.14484128
0.12392464 -0.09291714 -0.18500729
-0.10559811 -0.02213933 0.2817229
-0.17457485 0.08795915 0.2030679
0.03248732 -0.02480087 -0.33475465
-0.0712836 0.09811859 -0.30577016
0.061134808 -0.06879963 -0.018679291
-0.0017987805 0.19828638 -0.15763123
0.064030945 0.24637495 -0.31035516
-0.07864078 0.07082192 0.20434995
-0.058379523 -0.017258516 0.2852276
0.05034129 0.1332333 -0.18153681
0.19045067 -0.18372323 0.11201503
0.097165085 0.05519824 -0.16445376
0.12772772 0.031482413 -0.1790473
-0.010621172 0.05307495 -0.36333132
0.12516573 -0.2697785 0.027020952
-0.035742413 0.017094148 0.21193066
-0.25658718 0.0065918523 0.16857591
-0.07167154 -0.21607374 0.22333336
0.04125152 -0.056246802 0.21926063
-0.15123306 0.16019957 0.12351988
0.05691703 -0.08167157 -0.013603902
-0.14153497 0.13768671 -0.15799497
0.00071554986 -0.14687532 0.2736252
-0.20783682 0.09554271 -0.10100519
0.03397173 -0.18205528 0.07406434
-0.22017358 0.058188103 0.16600667
-0.15247776 -0.013804914 0.25490052
0.13007341 -0.18287604 -0.15843934
-0.17899378 0.032883402 0.22490156
0.16088656 0.017585581 -0.13880806
-0.119808346 0.021445882 -0.015865041
-0.26702833 0.016573673 0.14699087
0.1510534 0.0058298646 0.056822482
0.059961602 0.031515144 -0.29451883
0.03114374 -0.057063635 0.24563764
0.18063481 -0.16723737 -0.084732994
-0.05136461 -0.13851129 0.1337934
0.00799463 -0.085277274 0.28562856
0.14222704 0.10659661 -0.2821441
0.03967764 0.11532489 -0.13105336
0.09744044 0.07816245 -0.03809057
0.199651 -0.18040028 0.09046722
0.0912824 -0.25096056 0.14903125
-0.13345411 0.073045515 -0.18760426
0.15409298 -0.2335263 -0.034078963
-0.014286919 0.20571238 -0.33992022
0.20075624 -0.109609954 0.04992415
-0.20708483 0.101491585 -0.050910097
-0.107974954 0.11657249 -0.23855975
0.002376099 0.08473443 -0.05052085
-0.017381823 0.07946727 -0.3646301
-0.056787238 -0.2209725 0.24845798
0.07024106 0.2414108 -0.30762538
0.09342692 0.021201225 -0.19974358
0.17673531 -0.15994808 -0.097895905
0.027034344 -0.12307737 0.06885732
-0.044976052 -0.1412064 0.13003863
-0.102121316 -0.082055554 0.1295726
0.11655087 -0.14910889 -0.17681725
-0.040633798 0.19059967 -0.2686207
0.07040628 0.15247568 -0.1984886
0.14439514 -0.078482375 -0.17143767
0.039729442 0.022963112 -0.34039286
-0.07353916 -0.034432206 0.29076895
0.037584707 0.039839238 -0.34012663
0.027441828 0.19352129 -0.33298168
0.12533624 0.11386766 -0.29006523
-0.23043199 0.07233111 0.13642287
0.042068582 0.0230247 -0.3021388
0.025213782 0.19628905 -0.1973451
-0.15720929 0.11783264 -0.13931832
0.1509594 -0.24401811 0.025548784
0.0686125 -0.10869181 -0.20748301
0.11206687 -0.070189096 -0.043583404
-0.029199716 0.16496958 -0.047969144
-0.025817947 -0.00028437443 0.2411297
0.13826025 0.036462437 -0.10391161
-0.21195813 0.13386384 0.007263758
0.1410228 -0.17855008 0.19281259
0.001338992 -0.026317703 0.2060257
0.112860024 -0.16704428 0.22391917
-0.13493049 0.16989288 -0.09795003
0.14957643 0.02847694 -0.15181902
0.14608338 -0.14977656 -0.1458195
0.21753907 -0.084278606 -0.05910479
-0.16696878 0.15495576 0.067161344
0.008858301 0.122248426 0.06382091
0.1823612 -0.024486575 -0.13878636
0.07951457 -0.0765321 0.03409363
0.18123153 -0.10264406 0.0704907
0.15640898 -0.12656806 0.15567528
-0.10436927 0.11244673 0.1739222
0.087786704 -0.1334577 -0.1959405
0.03617412 -0.12647018 0.14185144
0.038652506 -0.10900405 0.27539885
0.012251624 -0.034103874 -0.24068657
-0.07246643 0.039512493 0.025190486
0.015117914 -0.124363355 0.2823475
-0.06731124 0.10894079 -0.31769773
0.13625437 0.15494956 -0.27512178
0.10040976 -0.06567531 0.118465625
-0.14322768 -0.15911828 0.2435888
0.038129706 0.014092955 0.2016852
0.04173984 -0.25380167 0.15233865
0.0011001154 -0.17289807 0.2573202
0.08588346 -0.041413557 -0.21103394
0.20472461 -0.07878564 -0.10894005
-0.071025304 0.072406225 -0.27662528
0.12626146 -0.2203593 0.16000557
-0.10028017 -0.08789715 0.25733146
-0.22736746 0.08747063 -0.05330722
0.021397205 0.08184677 -0.0055485484
-0.19886234 0.120176524 0.13566375
0.046567027 -0.062944904 0.22830495
0.09636064 -0.14401002 -0.19171067
0.102314785 -0.23200673 0.12847197
0.098342635 0.14391015 -0.23939909
-0.117911994 0.12725376 0.1666278
-0.20629528 0.025186691 0.20119308
-0.23319721 -0.004312795 0.1585142
-0.23071724 0.011744865 0.15348631
0.21390434 -0.15524344 -0.03375091
-0.08206485 0.19314894 -0.02124539
-0.08933617 -0.14387241 0.2633733
-0.18400541 -0.015404109 0.23320854
-0.017069418 0.17328471 -0.08348971
-0.12781508 0.06777185 -0.18779886
-0.081893586 -0.19475701 0.2242841
0.05957163 0.13342722 -0.19871014
-0.0465816 -0.06893682 0.29398635
0.19846469 -0.14875151 -0.07406782
0.17770629 -0.0117012095 -0.0857474
0.08608199 0.111144 -0.029067691
0.16597599 -0.12586664 -0.13587272
0.16899544 -0.21383336 -0.039683715
0.1287736 0.069273256 0.006030374
-0.012916909 0.085800424 0.17353834
0.12953676 -0.025419805 0.00537725
0.014918168 -0.25503787 0.19239372
-0.17865703 0.14258565 0.13757358
0.09697058 -0.24008244 0.1209732
0.09962631 0.19405515 -0.2966124
0.103117645 -0.13807207 -0.19240735
0.1819586 -0.21070793 0.053065147
-0.0222563 0.13236625 0.11952423
-0.03769868 0.056726463 0.14454153
0.00869881 0.15459047 0.061278723
0.080550395 0.039605565 -0.30533266
0.07369508 0.022050276 -0.32337204
0.14605178 0.034691922 0.02515353
0.09152649 -0.022572974 0.14196695
0.19772762 -0.115051836 -0.10362192
-0.09328993 -0.060414083 0.11437706
-0.028312812 -0.030328408 0.13363418
0.07700129 -0.037636526 -0.21520267
0.10005473 0.11469684 -0.02318416
-0.22674914 0.1150993 0.058349747
0.15163855 -0.19269784 0.17011942
-0.081082374 0.04292081 -0.22307132
-0.01647971 0.065814435 -0.0035182987
-0.12086714 -0.062156938 0.2723033
0.0903552 -0.28767115 0.075035565
0.035992324 0.21140315 -0.25397173
-0.16007327 -0.017608833 0.25043002
-0.03200445 0.11818233 -0.35065794
-0.08292369 0.14931975 -0.27110285
-0.15674715 0.056665633 0.23659174
-0.087595396 0.06063694 -0.22807284
0.015389821 0.09607623 0.1502574
0.106057554 -0.09567829 0.1168452
0.02561864 0.0609355 0.19966781
0.16012493 -0.11411217 0.12768093
0.047715332 0.052393496 -0.025148945
0.06263703 -0.056044415 -0.22681102
0.02445319 -0.15409416 0.059414215
0.04807649 0.1273654 -0.113536015
0.0017266073 0.20864135 -0.1973201
-0.23927186 0.07116742 0.121511295
-0.08286095 0.050595913 0.08320245
0.0019388922 -0.03337469 -0.07163441
-0.19539534 0.068661295 0.15887329
-0.109951 -0.007834591 0.07173176
0.1289483 -0.25764313 -0.04435362
0.03928392 0.033121902 -0.2342586
-0.1149215 0.16173728 -0.17048584
0.017006587 0.16321957 -0.12359261
-0.09073795 -0.035367675 0.10311802
-0.038638074 -0.015797952 0.19748127
0.15590526 -0.14447683 -0.13711849
0.15418313 0.019352645 -0.15440178
-0.0002877109 -0.03537003 0.1408828
-0.051486548 0.08050403 -0.27849492
-0.07914378 0.030083098 -0.088378556
-0.20231482 0.13647386 -0.029572502
-0.024046384 0.027608259 0.13678162
0.04030838 -0.090221696 0.17537174
0.19950947 -0.05052507 -0.11433646
0.13574483 -0.021679956 -0.041532125
-0.021346536 -0.15291563 0.26916367
0.027318217 -0.11474049 0.07700311
-0.051064342 -0.11170202 0.121899515
-0.04437356 0.20891276 -0.1739824
0.08294823 0.13569574 -0.24425702
0.1972984 -0.1827993 0.09499358
-0.029093618 0.05174264 -0.3118961
-0.113364905 0.17064661 0.081565246
0.047001105 -0.11310636 -0.02323735
-0.06345094 0.16198656 -0.030860653
-0.088426374 0.08310576 -0.2600599
0.21955706 -0.10411378 -0.009489905
0.031062502 -0.16337739 0.26123857
0.14690463 -0.20675313 -0.04985215
0.1098723 -0.116395116 -0.1915452
-0.13810642 0.047476 0.25096533
-0.14493857 0.12911126 0.1439773
-0.0841202 -0.09849657 0.15536594
0.18529896 -0.06034067 -0.012529231
-0.14408 0.16093844 -0.10149169
-0.048020758 0.11537799 -0.36333346
0.056863356 -0.00057861547 -0.33364633
0.15410481 -0.11557005 -0.15275638
-0.0351957 0.20658259 -0.22757258
0.14854847 0.06408257 -0.015457253
0.009509928 0.118247174 0.12478945
0.1404628 -0.2156297 -0.048121687
0.07597199 0.0798092 -0.20541787
0.13564312 -0.14918485 0.20217441
-0.23289096 0.03155188 0.16736242
-0.14207682 -0.14403798 0.24833183
0.21549082 -0.16036849 0.051075444
-0.04689864 0.13857482 -0.358165
-0.07188245 0.015971808 -0.044064697
0.03322862 -0.17510276 0.2534014
0.014544011 0.23786785 -0.32284805
-0.17241643 0.17181788 0.0051584686
-0.096315 -0.048336674 0.15809445
0.11865045 0.010615375 -0.19039668
0.14233576 -0.0511695 -0.1778001
0.08263721 0.10010116 -0.15570664
0.14669995 -0.1384585 0.14654784
0.061769117 0.19185752 -0.31583902
-0.196771 0.09886476 -0.07829162
0.09615047 0.064012624 -0.28392005
-0.09088926 0.091458164 -0.26450068
0.03350709 -0.27482766 0.1489883
0.081849016 0.11054203 0.0066530583
-0.035849802 -0.0015515989 0.25958085
-0.0071955384 0.068320744 -0.3322259
-0.16890404 -0.015483378 0.24451417
0.22351028 -0.13491315 -0.021808643
0.045738727 0.15698598 -0.20802107
-0.15760548 0.00635774 0.24978884
-0.10090576 -0.029305106 0.09563288
0.012333375 0.21686186 -0.3253768
0.014872187 0.029233947 0.16137008
-0.060681906 0.04768663 -0.25081852
0.0019427236 -0.17365469 0.110303566
-0.033818025 0.008438438 -0.23738943
-0.024682913 0.14125481 -0.06060449
0.035376262 0.14473099 -0.16903332
-0.111644164 -0.016030753 0.25965685
-0.022917658 0.09951209 -0.052139144
-0.011725896 0.04869437 -0.33605272
0.009763867 -0.2664322 0.1744625
-0.21549211 0.12091801 0.08980934
0.19853497 -0.19151501 0.07181094
0.079688445 -0.12845738 -0.19106714
-0.14414302 -0.0376347 0.2614613
0.11755003 0.12623319 -0.26748702
0.035093296 -0.12837252 0.25733063
-0.06892004 0.19998574 -0.16984935
0.10725366 -0.27888167 0.030541917
0.083084136 0.12545717 -0.013474233
-0.1455405 0.16196057 -0.09496184
0.048121855 0.18834078 -0.22147593
0.08763524 0.0705011 -0.2470282
-0.0036082377 0.11171479 0.06901277
-0.11434571 0.09696004 -0.22297962
-0.07476219 -0.17738332 0.25272703
-0.013911771 -0.012632085 -0.06675799
0.12015647 -0.25360414 0.10477456
0.031671803 0.003911096 -0.33446693
-0.1523757 0.08756806 -0.16812402
-0.045297876 -0.12159531 0.26185548
0.058533043 0.0062650423 -0.056612533
0.05728342 0.05812134 -0.2059214
0.1876741 -0.076832265 0.012938973
0.08302661 0.12215389 -0.023600768
0.17601286 -0.10034012 0.07422327
-0.00890239 -0.04948545 0.28133848
-0.08333019 0.16602205 -0.0041864803
-0.06492161 -0.12013202 0.27700835
-0.015064344 -0.15320677 0.10831192
-0.14707354 0.09189806 -0.16650438
-0.1732793 0.113072835 -0.084058486
0.13890946 -0.19618185 -0.15160704
-0.10228073 -0.07956428 0.27674225
0.027556665 0.23527412 -0.32959566
0.052221067 0.0034249397 -0.061468
-0.051548894 -0.052892048 0.12085522
0.023126978 -0.018535618 -0.052645016
0.18720967 -0.19539344 0.10325635
0.09248656 -0.13000453 -0.20269509
0.0062298244 0.02318309 -0.04241269
-0.103099115 -0.006779663 0.28126243
0.21545498 -0.110578716 0.018102828
0.068671815 0.10229286 -0.10298252
-0.044811536 -0.015009164 0.27868173
-0.02669589 0.16077355 -0.3628368
-0.07934109 -0.009938038 0.098842576
-0.10853345 0.14018242 0.13149582
0.022501303 0.119193226 -0.10093713
-0.0028056102 0.21326137 -0.28047416
0.09986055 -0.036087066 0.17300765
-0.16370946 0.07194149 0.22381201
-0.20321661 0.14022003 0.069197826
-0.18912417 0.07532906 0.19582872
0.03570197 -0.007960878 0.18461156
0.053818293 -0.16671225 0.0036784287
-0.1928794 0.0865709 -0.10751966
0.02336248 -0.018822828 0.17447084
0.087019905 -0.13802306 -0.18648206
0.06202893 0.119186476 -0.02584857
0.05920436 0.16899177 -0.20581517
-0.014130915 -0.10815049 0.2887216
-0.19565575 0.0406578 0.20574655
-0.18628404 0.07254291 0.16889873
-0.12630641 -0.05039786 0.27050304
0.020686002 -0.00064826134 -0.22893888
-0.10525758 0.021994626 -0.04994944
-0.24208347 -0.01463397 0.15408434
-0.2655137 0.070594564 0.05526956
-0.069159046 0.028374726 0.18333854
0.12872557 0.009622903 -0.18467726
-0.07637683 -0.15784678 0.26095563
-0.14856009 0.16381711 0.11618723
-0.043582056 0.16321479 -0.37113994
-0.07143707 0.064288415 0.08444365
-0.02199664 0.14009796 -0.06309487
0.079059124 0.018131046 -0.20534088
-0.1083858 -0.14561296 0.2583031
-0.1389899 0.13431008 0.16657224
-0.04431169 0.100950494 -0.3603327
0.20227534 -0.18934572 0.05777935
0.05963661 -0.24865855 0.14650054
0.08610563 -0.059859026 -0.21187982
-0.18084826 0.1647331 0.07660143
-0.050165165 0.15347685 -0.03830871
-0.06773852 0.004775386 0.2751032
-0.04982731 -0.038625997 0.29137436
-0.2599834 0.032169998 0.10102071
-0.012410266 0.2106082 -0.19085617
0.18472828 -0.20749708 0.011458862
-0.013933418 0.19660163 -0.31654337
0.026759362 0.16133426 -0.13684727
0.09170905 0.068198584 -0.31062815
-0.03638639 -0.06543759 0.12263255
0.10076666 -0.074092485 -0.20349644
0.14097685 -0.007322624 0.05591145
-0.067848295 -0.11328813 0.27859643
0.024536107 -0.02639171 -0.21509193
-0.13607663 0.021252666 0.0019042407
0.012089932 -0.22969799 0.21501742
-0.09605517 0.15788135 -0.2277827
-0.19755791 0.1467896 0.06955757
-0.1184566 0.18625271 0.04715522
0.05229216 0.09725321 -0.18007855
-0.18791895 -0.0989329 0.24913779
-0.05761421 0.1351262 -0.37753403
0.121105485 -0.1635334 -0.13827182
-0.007504457 -0.09442883 0.2908027
0.033234093 0.1323889 -0.008270271
0.22415878 -0.12309045 -0.012463432
-0.26402852 0.007845711 0.1583862
-0.07618392 0.09883118 -0.2969238
-0.045013655 -0.023498004 0.28392878
-9.669942e-05 -0.22137046 0.22524995
0.089761436 -0.2731681 0.11324546
-0.12978636 0.035051618 -0.047473248
-0.07622664 0.20320292 -0.12296369
0.179458 -0.19011599 -0.057298094
0.06839507 0.08982921 -0.12765835
0.117098555 -0.19430612 -0.12236591
-0.031383105 -0.13996896 0.27470773
0.05066768 0.044834018 -0.33314475
0.078774795 0.07441851 -0.010877632
-0.030850952 0.11400064 0.1293919
0.04841705 0.019482488 -0.3232082
-0.012781447 0.04993305 -0.053014852
0.11036661 -0.10727291 0.20027086
0.06029205 -0.11922947 0.26459467
-0.012079064 0.027802343 -0.3602698
0.19135483 -0.14510709 0.114399284
0.14490311 -0.190122 0.18012275
-0.03947067 0.10010907 -0.37410122
0.17563593 -0.0019335053 -0.1255573
0.06644652 -0.07342617 0.20176774
0.0387544 -0.18024327 0.2486641
-0.038379442 0.083571844 -0.35100475
-0.12134865 -0.040732697 0.102677196
-0.12531151 -0.04820327 0.27117875
-0.17330308 0.16419859 -0.020591069
-0.14538875 -0.13673794 0.22977024
-0.23878726 0.03090356 0.12596068
0.10964068 -0.059598085 -0.19799364
-0.18781437 -0.026227705 0.23223634
-0.123471536 0.010989939 0.02933487
0.12525244 -0.22754483 -0.0664183
-0.05754512 -0.1612215 0.26201814
-0.030296843 0.12890184 0.09558977
0.05505576 0.081881054 -0.20645125
0.20351179 -0.13745418 0.081933536
-0.011066643 0.121372454 -0.060692217
0.034171663 0.17033689 -0.21214603
-0.2230851 -0.06331399 0.20862582
0.21361916 -0.07196666 -0.06776241
0.032104548 0.17061858 -0.16253418
-0.063359596 0.14482358 0.03188512
-0.097330086 0.06015392 0.12274981
-0.16381553 -0.070083156 0.25005737
0.078538835 -0.15449995 0.046701394
-0.14314269 0.113492444 -0.16868556
0.030139279 0.089385025 -0.06369475
-0.20657842 0.13284847 -0.028242439
-0.13474244 -0.031677973 0.2671965
-0.13785776 0.17239928 -0.08353693
-0.26730603 0.045090597 0.10160382
0.09842679 -0.26963595 0.10675597
0.0040504397 0.08959684 0.18524972
-0.080576874 0.07987744 -0.27105778
-0.061822683 0.09043082 -0.31607768
-0.16429049 0.056393348 0.23062879
-0.0039742473 0.13882382 0.11102999
-0.08289136 0.01571494 0.07648317
-0.012637029 0.16885218 -0.12972046
-0.04980602 0.09614129 -0.035040535
0.047252234 0.011428767 -0.33752587
0.0022506977 0.06306635 -0.3560572
0.019307401 -0.15633798 0.11966818
0.11648233 0.15214545 -0.29146948
0.021062631 0.075623244 0.18120696
-0.07633482 0.20326106 -0.09281817
0.18602973 -0.12135017 0.09627586
-0.14085689 0.0127559975 0.028065197
0.1787923 -0.02513741 -0.06300172
0.06604525 -0.04392739 -0.22107431
0.022607757 -0.049553633 -0.2346715
0.07847375 -0.0067100576 -0.022823194
-0.06779582 0.042931397 -0.21620175
0.12510875 -0.032071315 0.004461794
0.0602521 0.11397359 -0.10936384
-0.22019741 0.037385892 0.17939553
0.012018257 -0.24565263 0.201535
0.1593292 -0.009657776 0.09783571
-0.010688334 0.21440636 -0.230111
-0.16812606 0.112972684 -0.12751769
0.04706505 -0.16844364 0.02187869
-0.07564045 0.19717814 -0.047427524
-0.020699995 0.04050561 -0.3682584
-0.1856071 0.114177205 0.16765775
-0.13539477 -0.05237028 0.1210958
0.12038843 0.060520362 0.0011039635
-0.033613887 0.15553881 -0.07019818
-0.13554321 0.1707836 0.09882335
0.030046258 -0.024754416 -0.33822027
0.0027820661 0.1911206 -0.14943303
0.03590812 -0.09509268 -0.09035293
0.04928249 -0.11199643 -0.090540074
0.004534345 -0.093310505 0.10974878
0.009785379 -0.069841735 0.28008074
0.14255862 -0.17892575 0.19086398
-0.111475684 -0.04082692 0.10181589
-0.22585814 0.018119698 0.18382494
0.13401318 0.116075814 -0.28552222
-0.02375212 -0.0040558698 0.24454813
0.18443477 -0.03358698 -0.13918208
-0.072469905 -0.05154893 0.11419336
0.05542363 -0.075879715 0.10373435
0.033718713 -0.08575566 -0.1091165
0.07491254 0.173627 -0.28745434
-0.06870199 0.14965972 -0.3014162
-0.028424894 0.068448186 0.15242893
0.10449508 -0.07345258 -0.20129433
0.019120077 0.21486051 -0.24871597
0.05540103 0.21011129 -0.27843538
0.061571535 -0.038946006 -0.20343737
-0.004102412 0.0947118 0.024262367
0.022983326 0.104397565 0.016586615
0.1597191 -0.031976294 -0.03447131
0.08770021 -0.06668977 0.034217387
0.14326417 -0.051599074 -0.009562956
0.090634696 0.03760694 -0.19663906
0.058065116 -0.0031509227 -0.33324644
0.13645244 -0.14598638 0.20022936
-0.042281535 -0.17480774 0.25623998
0.046739317 0.12528719 -0.16863818
-0.2036387 0.1366658 0.08665792
0.07102428 -0.22971116 0.19121362
-0.016171446 0.14327492 0.10654069
-0.13052267 0.17177282 -0.103288114
-0.0039419 -0.13421257 0.095152594
0.05362146 0.10856282 -0.090685405
-0.13836771 0.19277272 -0.0016859472
-0.20296797 0.120704345 -0.07278478
-0.07310617 0.189751 -0.1916653
-0.044563703 -0.23061785 0.20334677
0.096290916 -0.11947462 -0.022987718
-0.019338638 0.024865549 -0.20907205
0.13555314 0.16434272 -0.28089997
0.032318402 0.25981534 -0.3252434
-0.24403259 0.009889 0.13709372
-0.14288633 0.17373969 -0.06736062
-0.2554394 0.10361222 0.0060649556
-0.09827041 0.16982898 0.060948875
0.19429997 -0.08859614 -0.08888489
-0.015455807 0.1569818 -0.05712982
0.19848044 -0.19242871 0.066825755
-0.25268698 0.086720034 0.05168612
-0.106712766 0.14847332 -0.21811418
-0.049819637 0.0073120743 0.209217
-0.050749112 0.122813545 0.013344531
-0.14531682 0.14628726 0.14877784
0.10344428 -0.111447535 0.16745284
0.06333257 -0.2793764 0.10627901
0.11947816 0.14795424 -0.29029593
0.20545857 -0.13768621 0.012722005
0.14921883 -0.05776725 0.0003491489
-0.009925868 0.051578354 0.14312616
0.10445228 0.034544438 -0.30689743
-0.03850671 -0.22062127 0.20925343
0.15125829 0.0014269847 -0.06896632
0.1406683 0.0942752 -0.28020278
0.08092965 0.05633838 -0.31699824
0.05480857 -0.27033696 0.13728645
-0.10165821 0.16327032 0.07855455
0.16658744 -0.18219611 -0.046332486
0.21798787 -0.13099287 0.034232873
-0.022151023 -0.2510921 0.2072125
0.21302599 -0.10011218 0.007913396
0.14922164 -0.23943114 -0.033979125
-0.17258757 -0.10268742 0.22340968
-0.08828407 0.17609435 -0.19407408
0.051029187 -0.15024705 -0.008179393
-0.07661424 -0.1251878 0.14789635
0.06302261 -0.094909 0.028474974
0.16050114 -0.15667923 -0.12393009
-0.15053728 -0.0023982602 0.06343063
-0.1300241 0.14171912 0.1140001
0.022297446 0.1201531 0.03642514
0.05983991 -0.17186743 0.24998799
0.05549359 -0.06634246 -0.2086801
0.13870949 0.08805986 -0.28539184
0.10389322 -0.049367227 0.042399723
-0.029373001 0.08605903 -0.37013882
-0.050705306 -0.10178848 0.28647044
0.060403172 -0.28288034 0.117528364
-0.1768717 -0.022255827 0.21742153
0.105587855 0.054252055 -0.15268822
0.1219414 -0.16699432 -0.1643308
-0.2264375 0.076324016 0.09153698
0.059168708 -0.040601652 0.16458544
-0.043979768 0.1745483 -0.08706487
0.14577301 0.06340513 -0.009517885
-0.070029266 0.027874164 0.12255474
-0.19828986 -0.066073224 0.20677146
0.08475805 -0.119285375 -0.21033779
-0.18031873 0.08578688 0.20001493
0.17651062 -0.214346 0.073280506
-0.05380418 0.17655207 -0.026717296
-0.035243418 0.19887039 -0.2578648
0.027958097 0.03849918 -0.03353541
0.1521792 0.0031115771 -0.1679068
0.17707105 -0.21614365 0.024986107
0.20132431 -0.113396354 0.0551965
0.04031401 0.22248897 -0.32419485
0.12655045 -0.056925822 0.091275625
-0.047844715 0.11952969 -0.3767675
-0.09583012 -0.062834844 0.28226584
-0.079553604 0.01952061 -0.029977065
0.1566139 0.0032250236 0.07946055
-0.18062069 0.075450875 0.20522167
-0.06419761 0.012426109 -0.0512418
0.21978366 -0.110726826 0.002887925
-0.046761464 0.0037008405 0.21158925
-0.04494255 0.069224775 0.061802194
-0.10333966 0.11299347 0.1711919
0.060264397 0.1587687 -0.23596017
-0.09110834 -0.17136687 0.2531389
0.14212452 -0.25023252 -0.024905914
-0.077762686 -0.123348586 0.14705677
-0.22475559 0.11365288 -0.03824292
-0.008437571 0.104682155 -0.060833663
0.098292634 0.09860453 -0.27680206
-0.11518834 0.17806472 -0.12257755
-0.24195437 0.09048516 -0.033829745
-0.11126931 -0.1750328 0.2478541
-0.06806846 -0.17481582 0.23509699
0.14671114 -0.21035784 0.15221055
-0.08297407 0.15498835 0.01490757
-0.049668144 -0.18801437 0.22946483
0.117929645 0.06873854 -0.1320059
-0.14419892 0.15027851 -0.13205284
-0.116950855 0.154587 0.072643876
-0.25049233 0.039393842 0.09681307
0.12538104 0.0030830842 -0.014558378
0.15975717 -0.17121363 0.17202005
0.12078694 -0.21727616 -0.10252121
-0.031314395 -0.01432448 0.21881795
-0.073247276 0.19064572 -0.18873154
-0.04280103 -0.124081224 0.2800464
-0.13023236 0.032557167 -0.041602697
0.011526344 -0.03179209 -0.06349084
-0.059197716 0.2055134 -0.15966013
0.0016968724 -0.19366165 0.24432157
-0.036610577 -0.20591207 0.23941313
-0.0953709 0.020098303 -0.02311837
-0.04284669 -0.10947577 0.28590792
0.1685863 -0.13897374 0.15081406
0.038972016 0.11204312 -0.11624199
0.094456725 0.17006853 -0.30112565
0.066028915 0.1649618 -0.21025088
-0.0557871 -0.15524757 0.264836
-0.20219898 0.12756287 -0.055959176
0.038683496 0.15297528 0.009825115
0.068073876 -0.26945716 0.14641201
0.13154022 -0.2527569 0.082473405
0.0286172 -0.16114505 0.26294196
0.10946519 -0.2809629 0.048139527
0.13829759 0.03913536 -0.16046329
0.17382231 -0.13149343 -0.123239644
0.1316501 0.0067323977 -0.012622248
0.0062885536 0.14449123 0.021928197
-0.23933314 -0.0029769102 0.179206
0.11123114 -0.1891914 -0.13638157
-0.017173357 0.08385712 0.17043112
0.017979005 -0.004770686 0.15536657
0.16981676 -0.028431268 -0.15710439
0.10284833 0.11292309 -0.024779016
0.10016958 0.087019846 -0.14657913
0.12338428 -0.27166292 0.025886193
0.16382907 -0.19205935 -0.0863156
0.018350963 0.067334294 0.20062882
-0.09174958 0.16335966 -0.2224562
0.026923014 -0.18168965 0.07313269
-0.0037387412 -0.2328009 0.21742405
0.12778331 -0.007221949 -0.0077828555
0.06825622 0.11330179 -0.16919917
0.096737 -0.25232875 0.09678428
0.060486957 -0.15060954 0.26092178
0.078527756 0.014444432 -0.3215463
0.08191179 0.12026924 -0.19662349
0.16227819 -0.2163262 0.114152245
-0.056090955 0.10479974 -0.3803338
-0.10692501 0.19648 -0.012904039
0.11747955 0.085931115 -0.2962456
-0.08369923 0.19418323 -0.15293396
0.15591273 -0.08569922 -0.16055496
0.19912884 -0.19303487 0.036782242
0.22110161 -0.12590823 0.015482355
-0.090105414 0.06498667 0.23104729
-0.13607419 0.028003275 0.2597199
0.16820279 -0.06237755 0.004967912
0.08137241 0.15476128 -0.26477847
-0.0019556135 0.13120659 0.12119124
-0.2446175 0.079071864 0.09840912
-0.040186696 -0.066364974 0.12197383
0.059334733 0.08894754 -0.0055501754
0.033830747 0.1636074 -0.19954924
0.073135585 -0.28573272 0.100921765
0.18462697 -0.11671632 0.09057269
0.03368314 0.26346824 -0.31117564
0.03523561 -0.09329791 -0.06826925
-0.1653826 0.13166618 -0.11275275
0.052300174 0.053197745 -0.27654287
-0.10330954 -0.062463168 0.11610763
-0.10168931 -0.18535626 0.22566406
-0.24443889 0.06647729 0.05638023
0.0950333 0.082429126 -0.1697934
0.04406267 -0.109409034 -0.07859996
0.047028687 -0.1247529 0.008100262
-0.028092537 0.07949551 0.15254676
0.17570542 -0.011123142 0.0425803
0.0065295184 -0.057559785 0.2006686
0.08802576 -0.00011977973 -0.18578245
-0.077973016 0.047654353 0.18711707
-0.06783008 0.15197174 0.034469135
0.10328137 0.15954399 -0.26568717
-0.039467633 -0.0025891606 0.26513728
-0.0475308 0.14127263 -0.37487644
0.07488479 0.17511085 -0.24346502
-0.097643524 0.19986679 -0.050301287
0.12574996 -0.07712787 0.015958974
-0.20905669 0.020136762 0.20047842
0.038102787 -0.11674021 0.05801181
-0.10087862 0.15739349 0.041127037
0.18671125 -0.1134119 0.08111991
-0.024792107 0.20568386 -0.26370338
0.18791805 -0.05253197 -0.1371026
0.12604411 -0.20579265 -0.13198559
0.01037988 -0.060852606 -0.10647085
-0.023451148 -0.16562153 0.26261905
0.07899464 0.2246936 -0.30455267
-0.048756704 0.16573083 -0.062589034
-0.096909046 0.16693492 -0.19949162
-0.027570345 0.1853811 -0.31566924
0.009364774 0.23273882 -0.33895275
-0.05647983 0.009040451 0.26688465
-0.02623181 -0.2239229 0.22726856
0.17098074 -0.09284886 -0.14396691
0.13994397 -0.23537758 0.11184988
0.12191552 -0.058686513 0.035266977
0.050799467 0.09639472 -0.16282672
-0.15192488 0.1820145 -0.021307664
-0.15153414 -0.054005545 0.23623766
0.09189277 -0.047646794 0.15090473
-0.14980689 0.16588381 -0.07317327
0.018973613 -0.23242432 0.2106266
-0.021350252 -0.19401039 0.24556953
0.13059832 0.07037878 0.0038923752
-0.23875853 0.025348293 0.13082203
0.16431203 -0.164737 -0.075603716
-0.0041805254 -0.050040647 0.20041002
-0.254237 0.09051911 -0.00860433
0.023950025 -0.13354678 0.06611591
-0.119234435 0.18784295 0.042299915
-0.08072045 0.041900437 0.099990346
0.20293732 -0.09810336 -0.059361704
0.07762962 0.010787055 -0.30919987
0.07076533 0.13366987 -0.0071443967
-0.13303342 0.058656137 0.24640284
-0.092659704 0.17580175 -0.11566358
0.045327693 0.00019197339 0.19805267
-0.13855542 -0.0027103864 0.2630812
0.20231673 -0.09293976 -0.047084067
0.07540999 -0.10414871 0.15725005
-0.0009608259 0.21375588 -0.22923276
-0.0895037 0.1255654 0.060005445
0.09104481 -0.019206949 0.14524275
-0.0540031 -0.10812657 0.16058956
-0.03019388 -0.20457445 0.24018113
-0.17995842 0.13533299 0.14671448
0.073948294 0.062114332 -0.30367538
-0.17853099 -0.093061216 0.24775551
0.06330177 0.09519574 -0.14896277
0.036231995 -0.24963781 0.16087566
0.019945895 -0.14278814 0.25384477
-0.14961793 0.12809376 0.1448942
-0.2306015 0.012115207 0.15343545
0.09136348 -0.05375425 -0.20849864
-0.08732424 0.124228954 0.11678514
-0.0535133 -0.18862091 0.2289433
-0.25756586 0.10658918 0.018736953
-0.1103742 0.08220515 0.19098794
0.20794995 -0.058199823 -0.087984644
-0.010165532 0.21181762 -0.20531799
-0.1386301 0.11611823 -0.17772156
-0.07589235 0.084287055 -0.28442195
-0.033648457 -0.009146409 0.26669478
-0.061971683 0.06529938 -0.28006837
-0.028182495 0.09162502 -0.36909598
0.0010623912 0.12686819 0.12379298
-0.058362193 0.1268519 0.02765848
0.19075193 -0.07506671 0.005269011
-0.054083675 0.13920332 -0.34209028
-0.14590785 0.1505898 0.14197275
0.06263317 0.21490176 -0.2984835
0.06490442 -0.06685294 -0.20398477
-0.13923654 0.06381788 0.24126446
0.077753104 -0.28283787 0.08788406
0.10917669 0.078351595 -0.13984545
0.15005621 0.03281864 -0.123147786
0.15610489 0.004455661 0.07628044
0.06900099 0.042814795 -0.04507323
-0.09348833 0.10358397 0.083458796
-0.22558315 -0.026016463 0.20070024
-0.037979677 0.076889805 0.059291746
0.08842442 -0.1333181 -0.01799056
-0.008249429 0.22469872 -0.33536863
-0.13912402 0.045223057 0.23117933
0.019569833 -0.047942773 -0.23237059
0.17431074 0.0167609 0.014439551
0.020178951 -0.05994279 -0.11795204
-0.092022955 0.15344037 -0.24366589
-0.048197005 0.08149729 -0.33082965
0.010042316 0.041691996 0.1586718
0.14410691 -0.06829913 -0.17375433
-0.25574544 0.084009804 0.0012362457
-0.042419065 -0.11873623 0.119296655
0.034527004 -0.2523627 0.18592148
-0.16003458 0.17239182 -0.029325835
0.006011312 0.2152107 -0.24644308
0.16759375 -0.03155572 0.06929711
-0.106854804 0.19212294 -0.102268904
0.030563235 0.25268883 -0.3144485
-0.0042041605 -0.1858216 0.24989027
-0.13479833 0.13551895 0.16392852
-0.025800198 0.08817925 0.053099692
-0.07032622 0.043182008 0.23905785
0.13428633 -0.026262064 -0.18323405
-0.045211393 0.19562888 -0.08226401
-0.007990054 0.10679312 0.0036165325
0.023893122 -0.038905222 0.16593297
-0.079036646 0.025692265 0.116248734
-0.016784618 0.19006205 -0.32849765
-0.1998244 0.14384648 -0.006689322
-0.21165057 -0.07904878 0.21723324
0.12106727 0.01501107 0.007732432
-0.1788898 -0.1176587 0.23358263
-0.015523237 -0.081410944 0.11930927
-0.1882679 0.11771701 -0.099085756
0.07415914 -0.047014955 0.15630879
0.21364805 -0.17059037 0.004356267
0.14370017 0.13049622 -0.2783145
-0.22034909 0.12237011 -0.018579608
0.086342596 -0.039966628 -0.21068768
0.115042046 0.07261683 -0.13662846
-0.1409726 0.09502465 0.21552138
0.034972258 -0.21290389 0.22238052
-0.23064929 0.0051846714 0.15674296
0.07720664 -0.14951308 0.2530829
0.13240013 -0.21918409 0.15473537
-0.1471527 -0.022912636 0.09200879
0.16398297 0.01975503 0.0005934372
-0.092316955 0.09236061 -0.26252255
-0.069694646 0.14519277 0.044584323
0.15816444 -0.117407605 -0.14855795
0.052831437 -0.20749782 0.22159985
0.14680439 -0.19066991 -0.11719376
0.13348909 -0.16067779 -0.15483193
-0.039362356 0.087769724 0.008239512
0.07699099 0.23531643 -0.30471447
0.20419757 -0.09057428 0.010456913
-0.19831738 0.10215742 0.16012964
0.02184345 -0.0886912 0.10809383
-0.13264221 0.026103849 0.26239464
0.0141688045 0.0939224 0.16028255
-0.11535258 0.17617086 0.071705155
0.05623094 -0.2213723 0.18128984
-0.11089923 0.18098602 0.05525412
-0.24221905 0.057661436 0.13205627
-0.24017932 0.07530509 0.11457926
0.032578953 0.06557622 0.1795196
1.1125412e-05 0.11119097 -0.06814148
-0.06862148 0.13326369 -0.31454092
-0.20708585 0.07161358 0.17427729
0.08155156 0.052184913 -0.28245065
-0.10984286 0.18178459 0.052091446
0.10627844 -0.020846978 -0.19913085
0.024329247 -0.2717049 0.15905333
0.040108573 0.025715662 0.17128019
-0.19455202 0.01348769 0.21680532
-0.1443623 0.18150252 -0.041282907
-0.003556162 0.032241587 -0.34834683
-0.17168805 0.15548512 -0.04975912
0.0763012 0.025464954 -0.023200622
-0.19091368 0.06843221 0.1654592
-0.06729758 0.16948436 0.008898911
-0.09829552 0.18470842 0.029089954
-0.13437065 -0.021169193 0.08394056
-0.008975879 0.21284087 -0.2166984
-0.006051342 0.13698542 0.11785231
0.10910267 -0.0027323186 -0.07540498
0.06088193 -0.034760524 0.16933686
0.10194008 -0.12285162 0.19585568
0.07830458 -0.08765829 -0.21707185
-0.06557465 0.030246468 0.25188628
0.003485855 0.01987043 -0.28043923
0.03558609 -0.028024262 -0.3398821
0.20973518 -0.17580834 0.058517713
-0.0813227 -0.066381514 0.28719002
0.13869075 -0.042274795 -0.1584944
