# .PCD v0.7 - Point Cloud Data file format
VERSION 0.7
FIELDS x y z
SIZE 4 4 4
TYPE F F F
COUNT 1 1 1
WIDTH 1000
HEIGHT 1
VIEWPOINT 0 0 0 1 0 0 0
POINTS 1000
DATA ascii
0.0717135 0.0017842718 -0.12476124
-0.14615059 -0.11428608 0.012749913
0.17276615 -0.03195083 -0.10952637
-0.06884483 -0.05519582 -0.22182798
-0.06699913 -0.09748417 0.14006191
0.1589247 -0.047158472 0.14909045
-0.27060425 -0.13533536 -0.040928625
-0.0208351 -0.016477443 -0.25168967
0.061038516 -0.19871555 0.0385546
0.078302234 -0.12621339 0.15676743
0.010321296 0.21954955 0.23971918
0.030294789 -0.18786864 0.078378044
0.03454176 0.1588902 0.018164668
-0.09320376 -0.20260642 0.13969004
-0.15318671 -0.04310324 -0.17826971
-0.2106285 -0.018714571 0.0339045
-0.015882352 0.10165975 -0.037590545
-0.041674573 0.048652727 0.15630972
-0.28882632 -0.04770642 0.13135101
-0.056103934 0.058667287 -0.07388409
0.05238363 -0.08878512 -0.13335997
-0.25570887 -0.07488428 -0.03134211
-0.016578823 -0.06903568 0.19508457
0.040587515 0.080742605 -0.25970238
-0.02503164 0.035231218 -0.24312086
-0.008872273 -0.022138944 -0.29766917
-0.21464816 -0.030936992 0.00588653
0.21528439 0.25711766 -0.002510744
-0.1619962 0.045790944 0.2769078
-0.24803299 -0.079950124 -0.06525535
0.11786579 0.23577675 0.03293652
0.060616974 0.17921905 0.19053105
0.15039538 0.11919953 -0.24289747
0.13228785 0.1560319 -0.24690254
-0.008142001 0.09354947 -0.0810268
0.010366829 0.057791807 -0.25819138
0.1691859 -0.11205752 0.11315352
0.057756793 -0.06553978 0.20114477
0.24729402 -0.0028007978 -0.11583092
0.2706914 0.016972875 -0.053225674
-0.011059615 0.19488934 0.21486633
0.13456082 0.23552586 -0.007688243
0.19927305 0.24009894 -0.12721594
-0.26069418 -0.06262126 0.018296268
-0.20225614 -0.015460105 0.023934374
0.0007427619 -0.180933 0.078525156
0.13730569 0.20075834 -0.12123656
0.10639462 0.20981441 0.14537963
-0.20801765 -0.07251182 -0.13788614
-0.039353088 -0.116119295 0.24918962
0.25227204 0.038850214 0.05806894
-0.19291282 0.065423034 0.2656739
0.18402992 -0.112806484 -0.0040848334
0.15638939 -0.11713938 -0.06507712
-0.20455085 -0.07652415 0.088630944
0.14936946 0.0179984 0.23953874
0.06693397 0.16700318 -0.05713246
-0.24375571 -0.13980213 -0.09907766
-0.11560597 -0.18355244 0.13008851
-0.13285288 -0.1668635 0.12311557
0.18490787 -0.102266304 -0.01576004
0.060903445 -0.20333287 0.06602252
-0.06466845 0.046472043 -0.090969265
0.11276183 0.15060192 -0.21700206
0.04802997 2.8697143e-05 -0.13275148
-0.09662752 -0.10132472 -0.17260812
-0.068100356 -0.22860783 -0.046134155
-0.04805598 0.021313842 -0.23098995
-0.215461 0.024998233 0.17996436
-0.2862553 -0.05963284 0.08851161
0.12463989 0.041472066 -0.085092925
-0.16039354 -0.022761809 -0.09846683
0.07176159 -0.08797298 0.08461292
-0.27453667 -0.11496341 -0.051741946
0.09007335 0.17019007 -0.102560155
-0.29574305 -0.1054583 -0.027416965
-0.066632114 -0.002711578 -0.2605819
0.07208867 -0.03726159 0.2539574
0.0048119347 0.041733857 0.15978496
0.21363522 0.21218063 -0.13286534
-0.14850391 -0.024052477 0.09337377
-0.05543663 0.025956169 0.001228289
0.13497727 0.2626653 0.07483688
0.05441534 -0.023126662 -0.12883885
0.1680209 -0.083019964 -0.11586412
-0.08666731 -0.1307401 -0.1253141
0.17545284 -0.08694435 -0.18073903
0.20005186 0.2626015 -0.08070062
0.25594145 0.017056698 -0.017758587
0.20391983 -0.10261054 0.059313197
-0.26049647 -0.029536024 0.119643345
-0.25544035 -0.010924657 0.199259
0.19310214 0.008242266 0.1051206
-0.004258596 0.07230955 -0.036419716
0.13834445 -0.07624597 -0.13887545
0.039129447 -0.17818062 -0.10103752
-0.18914303 0.06816506 0.24998422
0.14020619 -0.08718805 0.055168483
0.021796005 0.10200596 -0.14940657
0.14484383 -0.04324269 -0.123241685
-0.08623895 0.022009205 0.14524229
-0.038925536 -0.22072615 -0.09152257
0.25682902 0.014073357 -0.029058035
0.002427547 -0.13103428 -0.11022795
-0.1092487 -0.0038931277 -0.16248764
-0.15319355 0.09164423 0.27465028
-0.047304712 -0.109156385 0.24530394
0.08305162 -0.042510934 0.21163367
0.14149578 0.050786886 -0.064932
-0.081177704 -0.18642834 0.16076915
0.07814558 0.16434395 0.10625051
0.12558958 -0.012645277 -0.11583035
-0.014372465 -0.1555394 -0.14448874
0.2370859 0.036796555 0.08800106
-0.027605616 0.07011198 -0.12963314
-0.18841688 0.028812954 0.1271473
-0.2553312 -0.035732422 0.08824386
-0.17998286 -0.11859131 -0.18603627
0.15866472 0.1455507 -0.23889226
0.1879361 -0.055702936 -0.07933681
0.026252357 0.0192646 -0.15689173
-0.0045803995 -0.16245191 -0.14064655
-0.28282225 -0.048482593 0.11463013
-0.046121072 -0.033818543 -0.23525542
0.075956844 0.22724573 0.106723405
0.02011653 -0.0763576 0.25770512
0.18540458 0.18002032 -0.13929492
0.18457915 0.1941065 -0.09397485
0.121904306 0.13960356 -0.075852655
-0.18562917 -0.08101997 0.04286044
-0.11348137 -0.12538697 -0.056210116
-0.24890536 -0.111687884 -0.0002644078
-0.12826924 -0.106437914 -0.06327891
-0.10338979 -0.058953524 0.08116048
0.13632512 0.10261309 -0.26669908
0.20871294 -0.10717321 0.033691354
-0.12515832 -0.09454102 -0.105214104
-0.015962262 0.066535816 0.039049983
-0.00783013 0.058273938 -0.21327013
0.087086916 -0.14133433 -0.19206613
-0.14447021 -0.13675871 0.067926005
0.13351434 0.16525829 0.08020277
-0.020988636 -0.07121938 -0.11092745
0.119115554 -0.01950902 0.19633077
-0.15249702 0.10460145 0.27463692
-0.069141686 -0.15000851 -0.1265208
0.03346503 0.123389356 -0.08851702
0.1393705 0.15224853 0.07058292
-0.09186215 -0.07446534 -0.26059583
0.080510154 0.09572219 -0.29825628
-0.047360953 0.11332039 0.073437385
-0.095058024 -0.15064119 0.18933626
-0.02944296 -0.09017957 0.2574439
0.14358051 0.14605452 -0.109574825
-0.08830711 -0.1158193 0.08350175
0.18574223 0.17333369 -0.16067925
0.089489296 0.26290932 0.1841728
-0.01837346 0.19848357 0.24338654
-0.14472884 0.015719032 -0.0045505557
-0.25400287 -0.06844645 -0.015602651
-0.021799296 0.08278152 -0.08156238
-0.057207186 -0.15213118 0.20909612
0.18392068 0.103066094 0.09384689
0.15782712 0.07941119 0.09660061
-0.0771554 0.013158245 -0.18662451
0.008353285 -0.100056075 -0.119007245
0.06887333 0.14333728 0.10908309
-0.10690285 -0.03968709 -0.27824187
0.054402694 0.10692359 -0.21210968
0.102555566 -0.09215414 -0.13922915
-0.12093597 -0.02220759 0.10196811
-0.19246311 -0.0036834313 0.1973788
0.22712569 0.048543572 0.14792831
-0.10555509 -0.17140287 0.042428844
0.02498594 0.016549215 -0.22502156
0.1368981 0.18068278 0.027170625
0.20746961 -0.060168847 0.029582487
-0.1750384 -0.08831465 0.10434395
0.28021923 0.050130475 0.026070872
0.08955858 -0.13306752 -0.19436641
0.05266904 -0.14473712 0.14746337
-0.21270132 -0.13374947 -0.15458137
-0.09045049 -0.013034521 -0.23549463
-0.09178005 -0.014713779 0.12318412
0.035934333 0.18398736 0.06913625
0.1980837 -0.042881526 0.09647727
-0.2148918 0.031086283 0.19734177
0.1277085 0.15021144 -0.058893614
0.015898895 -0.107451856 0.17208156
-0.1438289 0.019676022 0.015531348
0.089937635 -0.001976822 -0.12020441
-0.26915357 -0.04222631 0.1552814
0.1317865 -0.16541307 0.025099391
0.09302103 -0.1663689 0.12782824
-0.10276501 0.13453233 0.28407684
0.040092457 -0.06335678 0.25002939
0.21523836 0.25703055 -0.019896328
-0.062416364 0.023103997 -0.1911998
-0.11623293 0.07524748 0.25831538
0.25491157 -0.0020472612 -0.074092366
0.04312889 0.11849312 -0.1495933
0.19399016 0.22248822 -0.029097691
-0.032518715 -0.07088431 -0.10646263
-0.2349627 0.0067589195 0.17038703
-0.1485013 -0.060000185 -0.24145336
0.13762838 -0.09552969 -0.08181069
-0.03273304 0.028813869 -0.24448657
0.20899823 0.02798916 0.12794465
0.030915095 0.049599256 -0.31325224
-0.14236519 -0.040954284 -0.19748935
-0.07124046 -0.2456307 -0.045146264
-0.07679917 0.08812144 0.066161975
0.15466131 0.08119052 0.09833216
0.20107988 0.2599618 -0.037306156
-0.01736546 0.15379843 0.2640437
-0.028517652 0.038940802 -0.22338326
0.097437605 -0.15752707 0.14449398
-0.22633488 -0.0031813572 0.11920259
0.0056500128 -0.17532347 -0.012324547
-0.032069415 -0.034471348 -0.13430758
0.10502021 -0.025252968 0.21230195
0.26356626 0.07445694 0.078244165
-0.008760684 -0.18291634 -0.14122134
-0.26409546 -0.10533531 0.055545866
-0.10053883 0.058419786 0.031425476
0.0897796 0.21330689 0.19141021
0.16792466 -0.03594885 0.13438572
-0.10602832 -0.12993406 0.12376683
0.038994994 0.23011644 0.20379028
-0.09148683 0.07254861 0.22534764
-0.19633885 -0.07296774 0.05408159
-0.027220773 0.124897175 0.06098776
-0.11201957 -0.2190376 0.09075988
0.08891685 0.1929881 -0.029639402
-0.28486437 -0.11889973 0.013387906
0.11894804 -0.08453038 -0.138168
0.089046806 -0.011170557 0.2744265
-0.26655445 -0.11245083 -0.11818919
-0.015263714 -0.08474038 0.20083691
0.2192093 0.057564627 0.079886824
-0.10645204 -0.07317899 -0.18140814
0.16345571 -0.033590112 0.13549832
-0.19857994 -0.07939156 -0.18158703
-0.286192 -0.099617735 0.07621782
0.15403722 0.16512685 -0.075841285
-0.04835545 -0.16327964 -0.15309525
0.103428215 0.16095686 -0.16285491
0.14079586 0.15635219 -0.0067688636
-0.030930864 0.0146459 -0.2923884
-0.03761668 0.034702744 -0.21470554
0.20001562 -0.07794817 -0.0017545831
0.021534208 -0.18645729 -0.011335135
0.013532299 0.2131957 0.2125001
0.04419092 0.10838364 -0.18323956
0.0735781 0.10627361 -0.25988403
0.092639245 0.15483879 -0.1559283
0.055266883 -0.17315716 0.10789576
0.041089065 0.04420891 -0.30097577
0.16451246 -0.11992157 -0.06047071
0.11341403 0.27596778 0.16725045
0.11245479 0.18688045 -0.10462321
0.11231996 0.1697348 -0.157067
-0.29300082 -0.073111735 0.09754248
-0.0831474 0.08643518 0.07612659
-0.16025898 -0.09773756 0.011075781
0.15168376 -0.08875593 -0.09451652
-0.10847049 -0.1790322 0.07118058
-0.21968879 0.016504025 0.16391706
-0.13267124 0.003408479 -0.0841053
0.043485027 0.1747857 0.02279434
0.25601292 -0.013009082 -0.11172914
0.1540454 0.15085852 -0.15418059
0.08360967 -0.18549551 0.09143269
-0.009212219 0.015374266 -0.31457767
-0.18676049 -0.041659296 0.10130737
0.2336177 0.050365098 0.023336181
0.11995336 -0.16155551 -0.03581676
0.14126045 0.05627469 0.13999228
-0.18048471 -0.012569716 -0.019141339
0.09889099 0.022205403 -0.10920868
0.073478065 -0.18785706 -0.014447841
-0.2518557 -0.10851683 0.01653709
0.004394691 0.117710695 -0.03659887
-0.2476961 -0.021653624 0.11334521
0.10045285 0.24483372 0.10237529
-0.21499403 0.012670673 0.14091353
0.019085955 0.08427715 0.1476014
0.048531447 0.061510816 -0.30902612
0.12792379 -0.044486705 0.15902516
0.19307712 0.20421584 -0.15629461
0.023797292 0.0065760254 -0.2872862
0.0046872674 -0.19806816 -0.15523398
-0.1229881 0.09958199 0.28399315
0.13451084 -0.16806406 -0.024716789
0.042225204 -0.16169387 -0.050370157
-0.09066582 -0.12507302 -0.12726033
-0.13859588 -0.1018171 -0.044284903
0.028210487 -0.2029157 0.009486546
0.19419338 -0.034428548 -0.028802067
-0.08803655 -0.003174243 -0.21091273
-0.26586005 -0.12529075 -0.0016543416
-0.09400413 0.009255675 -0.1584139
-0.021949742 0.16006018 0.29380748
0.046060275 -0.050653353 0.2748778
0.055378623 0.19439131 0.05473845
-0.15208726 -0.10970339 -0.22527343
-0.0734104 0.04096409 -0.08705178
0.09587008 -0.09769537 0.17178553
0.13998337 -0.13700674 -0.06883173
-0.09275735 -0.013428947 -0.2312012
-0.06271187 0.032721095 -0.16089824
0.10199595 0.25607142 0.1916894
0.16145371 0.043330595 0.23438986
-0.08660985 0.10841389 0.12908968
-0.070111305 -0.22388926 0.019068472
0.18220958 0.26157 -0.041282833
-0.14357859 -0.086890355 -0.06946403
0.16161682 -0.08355039 -0.1022083
-0.14520152 -0.019373892 -0.12430583
0.059870835 0.12969624 -0.15508173
0.03683337 -0.16613464 -0.058485176
-0.061254352 -0.22615476 -0.009046668
0.17105034 -0.11931012 0.08638327
0.17256553 -0.10865553 0.115555614
0.025785055 -0.19457562 -0.006566903
-0.13856067 0.05855918 0.099677004
0.05305552 0.1514136 -0.07197843
-0.2897085 -0.09335387 0.03892533
-0.11025611 0.05632136 0.22021362
0.011274529 0.05732478 -0.26179495
-0.16406928 -0.09542495 0.016465578
0.23863845 0.022260696 -0.07513905
0.18712227 -0.056778513 0.102768555
0.16244404 0.15731275 0.012075576
-0.2328201 -0.040115412 0.18159883
-0.1058914 -0.20858406 0.13018098
0.051424276 0.18293294 0.028915092
-0.2640583 -0.054627027 0.15415902
0.028426938 -0.09680718 -0.12674712
0.17634247 0.063899405 0.21182117
0.04989817 -0.18026376 -0.1765143
0.08055913 -0.039617103 -0.13109635
0.1593261 0.04488182 0.23434082
-0.28139806 -0.10420325 0.041957293
0.062491305 0.17226315 -0.030338548
0.054740038 -0.09032127 -0.1338605
-0.21809594 0.017152483 0.16210988
0.02131767 0.15463765 0.20869552
0.19693477 -0.11916424 0.025043158
0.14505252 -0.068303674 -0.13163866
-0.21558183 -0.021895394 0.035939496
0.25268644 0.07650476 0.10900698
-0.09265326 0.097269185 0.10921891
0.22805324 -0.0029344414 -0.012708137
-0.0415298 0.030076016 0.1537023
-0.05381649 -0.12480427 0.17039943
0.041089065 0.020918494 0.18262321
0.24595971 0.0203414 0.014965436
0.10467181 -0.15252335 -0.18804203
-0.06845797 0.014893795 -0.20204395
-0.069859535 -0.074791856 -0.13507028
0.11261797 0.05225763 -0.08908985
0.14598466 -0.14080772 0.023484563
0.12647331 0.17648987 -0.17006451
-0.11041858 -0.094275616 -0.15051247
0.108675726 0.22913368 0.034429997
-0.14139448 -0.10226091 -0.24645165
-0.10771258 0.038408615 -0.013032834
0.19916402 0.24299532 -0.10450743
-0.17171694 -0.10899243 0.07609112
-0.18836418 -0.0456697 -0.10219608
-0.023926308 0.09240958 -0.046856236
-0.16897333 -0.08666791 -0.2402438
-0.008018512 -0.050642956 -0.12322999
0.09811495 0.017305797 0.2633686
-0.078348264 -0.14601742 -0.109229006
-0.21041748 -0.033907887 -0.013354876
0.27105248 0.0628273 -9.835992e-05
0.045566775 -0.06286322 0.23848096
0.058520917 0.023033442 -0.13309762
0.13763535 0.14853124 0.044144697
0.19389054 0.22312632 -0.1565646
-0.22252202 0.02458368 0.1955445
-0.08547636 -0.13919371 -0.10598459
-0.2835739 -0.03659184 0.15486324
0.17915402 0.26463294 0.1127338
0.27201194 0.016464137 -0.07069221
0.060416855 -0.051389687 -0.13274485
-0.05756715 -0.051880036 -0.27295536
-0.20829526 -0.026917 0.0030927365
-0.13910647 -0.117265515 -0.0006233625
0.124416836 -0.07689217 0.16766274
-0.2624283 -0.03125692 0.17165755
0.11185422 -0.06264808 -0.13398594
-0.0150088575 0.061783303 -0.18533339
-0.18893424 0.022512717 0.10899313
-0.004184391 -0.020190656 -0.30286396
-0.007093251 0.07396915 -0.1667279
-0.117055446 -0.1753099 0.08807768
-0.044957455 -0.06430342 0.16695017
-0.15292044 0.009482309 -0.017076457
-0.08131938 0.009496382 -0.18795373
0.15827283 0.27635163 0.061346956
-0.23158652 -0.0022235664 0.2158732
-0.23749273 -0.031701352 0.21059315
0.034256887 0.15647088 0.18344915
-0.028807042 -0.047366083 0.17819723
0.16731149 0.179564 -0.063098066
-0.050292887 -0.051889963 -0.29035035
-0.13256408 -0.10871775 -0.044572648
-0.03125017 -0.18084373 0.058772564
0.072493576 -0.14815684 -0.088283546
0.06151792 0.12999062 -0.15810677
-0.037787773 0.1255487 0.08821866
-0.09162908 -0.077402286 -0.27019066
0.16884466 0.11152884 0.0070823883
0.14528432 -0.005776681 0.17612536
0.118521996 0.025051499 0.2570148
-0.014230184 -0.18313345 0.011097499
0.07263641 -0.13875401 -0.17438799
0.1932129 0.2174451 -0.14347255
-0.114621475 0.045816466 0.026255941
-0.289655 -0.095929995 -0.015076388
-0.13661663 -0.051369816 -0.24326447
0.2606384 0.036762528 0.03167311
0.16805363 0.14156595 -0.21621764
-0.0517196 0.053151973 -0.10132301
-0.14222127 0.015538443 0.1710107
0.082163885 0.12523629 -0.22202185
-0.10415162 -0.040586967 -0.28757778
-0.22917515 -0.10057653 -0.17374825
-0.11856663 -0.11391921 -0.07304923
-0.062781185 -0.18105985 -0.061507527
0.10522717 0.017874295 0.26251402
-0.08950933 -0.094785795 -0.17432088
-0.16956715 -0.10569714 -0.22856767
0.113760784 0.2384577 0.21143563
0.2449621 0.015700247 -0.10814119
-0.14920716 -0.1343143 0.07573658
-0.13523586 -0.12014281 -0.005698138
-0.05058139 -0.21962547 -0.0144309085
-0.02140916 -0.18319663 0.028039368
-0.025793478 0.17552312 0.19043957
0.20612526 -0.0015158975 0.044003002
0.20406552 -0.062700905 -0.16561572
0.062418293 0.21239367 0.09333494
0.0015967265 -0.19635347 -0.15520439
-0.18078078 -0.040437974 -0.1041974
0.07533431 -0.15012532 -0.10112274
-0.075304225 -0.088344514 0.12646447
0.17833093 0.1809995 -0.1193961
-0.057375643 -0.16359554 -0.12556128
-0.010740999 0.027884401 -0.29984313
0.07232148 -0.20707998 0.051954795
-0.057574674 -0.12760016 0.2356548
0.20131338 -0.108136185 0.048529647
-0.19335948 -0.014259626 0.16984361
0.14397618 0.14866114 -0.10249685
-0.09660472 -0.1681011 0.18158856
-0.02656086 -0.14244556 0.16574582
0.16599852 -0.033557825 -0.11270366
0.23254271 0.019973911 0.047075056
0.012379544 0.085040964 -0.17913869
-0.056145668 -0.052066084 0.15261702
-0.13328256 0.012467576 -0.0547666
0.09895807 -0.14962222 -0.06993884
0.20974478 0.22059661 -0.07252641
-0.031810354 -0.07570083 0.1827844
0.17047425 -0.13575372 0.03715459
-0.102266215 -0.228728 0.08093447
-0.14757526 0.04554953 0.24173884
0.096615694 0.14278124 -0.20252697
-0.12911345 0.10313865 0.28179362
0.068481706 -0.11928819 0.17071517
0.12478694 0.15001644 -0.24750881
0.09141646 -0.13722259 -0.09980571
0.095115535 -0.01542199 -0.12347141
0.14234559 -0.17133576 -0.0052010384
-0.05289186 0.026887164 -0.016248215
0.047716897 0.09832758 -0.2226038
-0.24286929 -0.06576437 -0.033926334
0.013432522 0.10616384 -0.11206398
0.020262131 0.010077562 -0.30933082
0.16933471 -0.045094416 0.1414038
0.103997014 -0.13466749 0.14953455
0.15572703 0.1527469 -0.22904125
-0.0391696 -0.23212866 -0.08015064
-0.16495448 -0.041508093 -0.14527015
-0.061110143 0.019447334 0.14792308
-0.031840038 -0.1182778 0.25272492
-0.27977124 -0.12529375 0.017769024
0.16641937 -0.12098502 0.06606504
0.105881356 0.065943785 0.14023261
-0.10501372 -0.23634262 0.045598786
0.08736541 0.17217669 0.105006374
0.2015667 -0.10364927 0.06173161
0.09924888 0.06781257 -0.10010694
0.17852162 -0.09117326 -0.1660215
0.19026409 0.23949257 0.032127712
-0.10536226 0.0052857627 0.13142216
-0.012918358 -0.21267428 -0.08294474
-0.008496951 -0.060756408 0.19959356
0.009016324 0.18049435 0.12264356
-0.050112028 -0.011265984 -0.3100015
0.18468757 -0.07967232 -0.042576227
0.1460788 -0.13010712 0.024584027
-0.021855593 0.18739045 0.21756107
0.059218697 -0.16759698 -0.11642145
0.16567235 0.20816517 -0.1661563
0.086723685 0.06557471 -0.11764121
-0.10741956 -0.16911125 0.16720264
-0.052534726 -0.06550418 0.15909563
-0.16564997 -0.099168904 0.031344038
0.15020874 0.17281307 0.0081151975
0.03843429 0.20982234 0.14267406
-0.16391471 0.031889737 0.07812601
-0.13713856 0.011885309 -0.047354076
0.06780512 0.25628352 0.22382338
0.13606955 0.17450254 -0.1990869
-0.049362402 0.05170609 -0.11139991
-0.2795942 -0.08589368 0.08963562
0.022243274 0.09377113 0.14522739
-0.06373504 0.047342062 -0.090520345
0.19358347 -0.088861704 -0.008808755
0.13472708 0.24673416 0.026406933
0.0656705 -0.008958507 -0.12670463
0.045731332 -0.0934363 0.06342711
0.13908105 -0.12110213 -0.16397662
-0.19597474 0.06301073 0.26368082
0.1069957 -0.18330885 0.042337313
-0.15616669 0.08519128 0.2236627
-0.18411869 -0.019214569 -0.030915255
0.1509495 0.26083145 0.031065546
0.08946707 0.028773556 -0.11330662
0.13119772 0.04728255 0.15821159
-0.15670142 0.006812181 -0.016267978
0.06599365 0.17527774 0.1655668
0.09273764 0.1134635 -0.2834931
0.074285395 -0.1326503 0.15203921
-0.13595778 -0.09681602 -0.22411636
0.18810189 0.024857184 0.1681872
-0.30104512 -0.09599112 0.02254522
0.11997515 -0.058050446 0.16747257
0.038562108 -0.05851948 0.268569
-0.16724494 0.043200437 0.120883666
0.18175142 -0.0409556 -0.13388762
-0.276659 -0.07919153 0.005413499
-0.06779655 -0.068740875 -0.16583547
-0.1696276 0.011291858 0.028374664
0.08286653 0.007319248 0.2685518
0.20323908 0.07410028 0.16889732
-0.07762385 0.016030356 -0.17666686
-0.22457716 0.01675304 0.17635202
0.10454142 -0.112570055 0.15425275
0.1616509 -0.06272253 -0.15289254
-0.14115834 -0.03329012 0.079249084
0.1291722 0.26402727 0.09288538
-0.17586474 -0.06900467 -0.20384568
-0.004337937 -0.12492841 0.16660608
-0.067836575 -0.075100414 -0.092427716
-0.050766226 0.12604432 0.2583631
-0.013020197 0.11718616 0.17540903
-0.2071234 -0.0566705 -0.09126963
0.08320214 -0.15984273 -0.18635021
0.108714715 0.21847065 0.0015216027
0.18056901 -0.005554246 0.09258113
-0.1048063 0.038722925 -0.019003667
-0.009939964 0.0412104 -0.26074547
-0.07313715 -0.110427245 0.1273291
0.039384533 0.061886583 -0.3119773
0.024589175 -0.15153605 -0.11847572
0.09043525 -0.018040095 0.2693156
-0.15928385 -0.10592482 -0.23589288
0.07519341 -0.030083444 0.26863647
-0.09847793 -0.017289016 0.11810159
0.15751638 0.2098093 0.05336118
-0.014724421 -0.019033471 -0.27414352
0.09563911 0.09854038 -0.13011146
0.039652582 -0.19428158 -0.16764456
0.027016882 0.19770113 0.27290612
0.19613267 0.05389055 0.013793385
0.06688417 0.17593807 -0.029515486
-0.25970885 -0.103288464 -0.109205194
-0.08433077 0.15522261 0.2677004
-0.09739453 -0.24001107 0.005274521
0.16575055 0.27309978 0.09823269
-0.112057075 0.08216688 0.10906233
0.24188541 0.033473413 0.06631755
0.19713628 0.031219095 0.1662001
0.043158993 0.13098952 0.13350298
-0.08806584 0.13146883 0.28718752
0.12563556 -0.082873404 -0.13752906
0.123886704 0.1842482 -0.14001322
0.24408004 0.048310917 0.106739536
-0.07495632 -0.21451232 0.05948951
0.20572674 -0.048785396 0.06290095
0.07137017 -0.14407037 -0.18772553
-0.13855773 -0.08122408 -0.2512269
0.03471107 0.06501222 -0.2940838
0.018030738 -0.14186291 -0.11702286
0.03500529 0.13363501 -0.08304323
0.2002941 -0.12065899 0.012424257
-0.037626024 -0.026717566 -0.2431207
0.19465028 0.22784789 -0.14034757
-0.047913317 -0.17483878 0.117029816
0.0127548305 0.0038599449 -0.30902418
-0.08223562 -0.13276385 0.21374431
-0.09257261 -0.06308154 -0.18945596
0.19966178 -0.032243975 -0.035132896
0.058348756 -0.10014133 -0.13453683
-0.09632339 -0.106795415 -0.16002856
0.09038094 -0.021873243 0.25764897
0.03933587 -0.19759089 0.0077498485
0.12005714 0.039843027 0.17093025
-0.024627525 -0.021285912 -0.25743473
0.099178486 0.08535152 -0.22480203
0.18582134 0.0652056 0.059648838
0.040787455 0.20933814 0.13556764
-0.16858324 0.08719244 0.2594618
-0.2836496 -0.092797056 -0.01977015
0.115445115 0.021689802 0.21718018
0.14037009 0.03628317 0.24593343
-0.12867852 -0.101559766 -0.07484592
-0.21460687 -0.03937161 -0.020168534
-0.009227058 0.13932201 0.06242651
-0.15174074 0.046074376 0.25329825
-0.017773516 -0.13293193 0.17404948
-0.067942165 -0.066007994 0.13905117
0.07396862 -0.037576474 -0.13089134
-0.13997 0.11028258 0.26221716
-0.07121652 -0.06149005 0.13375269
0.11730693 0.15609127 -0.21095838
-0.2255979 -0.09687749 -0.0103237815
-0.06730195 -0.036065258 0.13744177
0.013364668 -0.20059384 0.052071404
-0.04436454 -0.23690338 -0.09409589
-0.20699951 0.045695722 0.22346117
-0.2766295 -0.1283743 -0.037539147
-0.11351148 -0.055784702 -0.28393102
-0.084969774 0.04020293 -0.061801404
0.048581574 -0.15315454 0.1383866
0.15810323 0.1292817 0.0854198
-0.19943963 -0.100592695 -0.20002161
-0.0022545694 -0.094291076 0.2559179
0.07257039 0.21530817 0.07806936
0.098709896 -0.13160199 -0.19385068
-0.054862324 -0.19750473 -0.04152253
0.033239096 0.058800235 0.15371513
0.0326178 -0.2018946 -0.15847048
0.13787912 0.14715758 -0.09256995
-0.26881352 -0.13371049 -0.020515298
0.17127956 -0.11423491 -0.037491787
0.13668258 0.2590983 0.059788946
0.033543542 0.1205504 -0.12038151
-0.02055027 0.013697179 -0.030647798
0.20280719 0.25994763 -0.08188999
-0.008051738 0.1823922 0.16922738
-0.010298177 0.057278644 0.1555474
-0.17530549 0.0371477 0.12149824
-0.13121092 0.0055200816 0.13233808
0.19765541 -0.0833102 0.052737776
-0.12788302 -0.114248365 -0.044345878
0.03560832 0.070177875 -0.28032857
-0.038046382 -0.19631155 0.02739421
0.16675754 -0.1132077 0.11541159
-0.034011126 0.12605536 0.080761485
-0.0013252625 0.08828307 -0.13644606
0.016911546 0.07383778 -0.22443463
-0.08870724 -0.041707814 -0.2952466
-0.024956746 -0.09384779 -0.10220612
0.2699343 0.020765454 -0.039747223
-0.18174358 -0.08189845 0.033501193
-0.14649482 -0.093029566 -0.2446608
-0.12727332 -0.04400043 0.06903115
-0.016227573 0.08950347 -0.07417658
-0.14781499 -0.09434589 -0.24555956
-0.07324769 -0.1583803 -0.09122611
0.14170158 -0.09907167 -0.19168276
0.20967603 0.03994611 0.16312315
0.15483905 -0.13033429 -0.04499345
-0.22157049 0.023381514 0.18957278
-0.07498121 -0.019238925 -0.2915143
-0.109581806 0.08742758 0.2799224
-0.036391802 -0.11851956 0.19117819
0.078489386 -0.029458458 0.2626923
0.14623448 0.20478375 -0.13016325
0.11421472 0.092107326 -0.20743461
-0.061809387 -0.055945918 -0.27534115
-0.077738404 0.13528185 0.29382724
0.097235814 0.012636134 0.19910063
0.09865184 0.26711833 0.17525357
-0.24038525 -0.10638649 -0.16486803
-0.043101884 -0.10609849 0.24845006
0.20207317 0.25651583 -0.050952353
-0.20859818 0.014574936 0.24894072
0.06486188 0.23659259 0.16197295
0.05609522 0.045284137 -0.30261287
0.04803898 -0.17439477 -0.11065428
0.12417625 0.26168507 0.16843402
-0.23856544 0.019486476 0.22812176
0.07009353 0.122373946 -0.20201822
0.13281979 0.04835542 -0.073431216
-0.007124634 0.03194203 -0.29598954
-0.27736616 -0.03002866 0.15839697
0.06278919 -0.0543552 0.22355144
-0.12011225 -0.09303303 -0.25029978
-0.05085376 0.14314707 0.29818612
-0.16348195 -0.06390003 -0.21769482
0.18222123 0.05077399 0.2187475
-0.17373358 0.012475513 0.20239794
0.11001083 -0.16181107 0.101297356
0.049663596 -0.05790343 0.24396415
-0.19115373 -0.078857236 -0.19766797
-0.26446936 -0.056668006 0.045629516
0.21327631 0.008463122 -0.057057943
-0.23157082 -0.11527963 -0.15007003
-0.19620776 -0.04169143 -0.07122883
-0.014188751 -0.033113245 0.18505979
0.011944841 0.16871056 0.079388194
0.1377715 0.15825243 -0.05816914
0.08059783 0.21658738 0.06284368
-0.19592339 -0.06960263 0.043764964
0.088096514 0.089272246 -0.15187284
-0.13703777 0.0221618 0.17901997
-0.236082 -0.09260013 -0.132714
0.18143372 0.28976852 0.04734889
0.028604697 0.12277143 -0.07881629
0.03249613 -0.12249413 -0.1261366
0.22993955 0.015101364 -0.07640625
-0.22620687 -0.01617441 0.078909546
-0.07354076 -0.08274051 -0.16911696
-0.0787181 -0.21935774 0.0076787253
0.17269069 -0.040820055 0.13526568
-0.045369018 0.027963765 -0.21693821
0.1746368 0.1719629 -0.13838693
0.18243587 -0.024694985 -0.10120269
0.12820546 0.14417821 0.11071496
-0.2275192 0.01648334 0.18254507
-0.19612019 0.02686421 0.13953917
-0.19199662 -0.10945547 -0.19763447
0.16541174 0.213503 -0.14910847
0.2372236 0.010250496 -0.10872215
-0.060443487 -0.21257646 0.03080374
0.0057622045 0.061293676 0.1543282
0.07572395 -0.09961277 -0.13783243
-0.012076201 0.049788393 -0.22924793
-0.018967707 0.15407094 0.10812709
0.08139352 -0.18133582 -0.051055767
0.13367979 0.26329744 0.079878636
0.12600216 0.25495076 0.18768466
-0.073561616 -0.24265471 -0.030445142
0.008848155 0.086945176 -0.16484906
0.17165935 0.23857734 -0.086857006
-0.18927151 0.062814854 0.23382638
0.03832444 0.18671107 0.07181314
0.1724733 0.1464592 0.0050931103
-0.18854424 -0.049023755 -0.11208757
0.23323111 -0.0047930875 -0.13048324
0.04854138 0.036763843 -0.30711377
0.14455843 0.20540658 -0.12424525
0.14131786 -0.122291826 0.14818281
0.07357785 0.21770789 0.2436296
-0.23055464 -0.042157266 0.009327634
-0.043470938 -0.14712259 0.1905754
-0.16762042 0.051385336 0.14696877
-0.25548118 -0.040649064 0.18721405
0.10135345 -0.13952616 -0.13061452
-0.053227335 -0.18153295 0.10911346
-0.060194906 0.14672971 0.2963583
0.18215926 -0.069264986 -0.10728234
-0.0036824583 -0.12688442 0.15902214
0.16975772 0.11032658 0.109525666
-0.1878831 -0.025624964 -0.041657582
0.17741854 0.017868094 0.17218202
0.119123295 -0.1695934 0.029662553
-0.057065662 -0.17024735 0.15300654
0.051008306 0.08333952 -0.27658597
0.13625252 0.11379281 -0.22577569
-0.1632391 -0.07301109 -0.24631391
-0.10779125 0.003254149 -0.14397205
-0.16839975 -0.05638917 -0.1828409
0.14143749 -0.07886641 -0.1543223
0.039009962 -0.15298586 0.14183712
-0.18539426 0.014683437 0.07644852
-0.12732562 -0.13874297 0.021726102
-0.09730834 -0.04698842 -0.28920552
0.071471386 0.20064072 0.035555303
-0.039987277 0.13183 0.25043797
-0.2821167 -0.08658618 0.10745635
0.19358927 0.0043693217 0.09203861
0.16794169 0.052447576 0.18652104
-0.014257283 -0.016399555 0.17838834
-0.24205127 -0.05102224 0.17006862
-0.07931929 -0.12903345 -0.15226477
-0.035782013 0.17135732 0.20146348
0.12469472 -0.052402712 -0.13013309
-0.23729306 -0.11616474 -0.04176183
0.032811783 0.06873912 -0.27808002
-0.15347932 -0.1080952 -0.217002
0.04855568 -0.17365506 0.106307186
0.2180403 -0.011022001 -0.013695246
0.18666266 0.20476863 -0.16632996
0.08778298 -0.2045084 0.022958407
0.11665078 0.10308067 -0.17753991
0.07275373 -0.15426399 -0.10769918
-0.2524956 -0.004370477 0.20769687
0.16398357 -0.09640305 -0.14741215
0.071191706 -0.05027083 0.21606338
0.18405128 0.2030887 -0.06507228
-0.1620982 -0.11707559 0.06859906
-0.090731025 0.023821998 -0.104696
-0.13648485 -0.06935847 0.05240957
0.07025145 0.096759796 -0.2812214
0.083112635 0.25353745 0.1705532
0.10854967 -0.016379286 0.23118542
0.03892209 -0.18454006 -0.12011192
0.06230094 0.05014489 -0.24511702
-0.25279337 -0.08713728 -0.076011345
-0.20094495 -0.07038358 -0.14821956
-0.15020682 -0.101598784 -0.2048211
-0.06672956 0.13275479 0.15654066
-0.04328417 -0.18942782 -0.09820964
-0.10770745 -0.096825525 -0.15205356
0.10706234 -0.01830769 0.22880007
-0.16475494 0.038114328 0.25986797
-0.052065123 -0.19365917 -0.060298614
0.015709737 0.19111316 0.13934475
0.03478132 -0.17745171 -0.08841338
-0.2481929 -0.057747025 0.0034556505
0.09462582 -0.19115753 0.047712415
0.08191822 -0.14549795 0.037238464
0.18127209 0.22136816 -0.0021843931
-0.030255895 0.02198975 0.15665974
0.06269466 -0.17503253 -0.14760071
0.091030285 0.22208057 0.05484729
0.11125396 -0.1427175 -0.16406958
-0.017546004 0.1718643 0.1594922
-0.092365675 -0.19039728 0.17191403
-0.297509 -0.10326349 -0.0005900228
-0.1725512 -0.044928472 0.09777391
0.17974329 -0.0076923366 0.08797149
-0.1316843 -0.0071265837 0.11723425
0.11404089 0.086843126 -0.25568962
0.06503923 0.25163865 0.20785359
0.01935161 0.13137253 -0.030258201
-0.1684556 0.04922516 0.14231466
0.0068992055 0.11122179 -0.06254604
-0.226093 -0.120136395 -0.15105182
-0.17092355 0.025929095 0.07651379
-0.26835957 -0.037549924 0.11375004
-0.116199866 0.07072794 0.24432755
-0.09880289 0.0619473 0.0381375
0.26499546 0.06791299 0.09541528
0.16644633 0.24388833 0.102510884
0.12809514 0.024182374 0.1946552
0.14340587 -0.08057929 -0.16429284
-0.23126523 -0.12975226 -0.14857872
0.26058435 0.06115093 0.10685599
0.0523999 0.034714732 -0.14364369
0.051768605 0.04997202 -0.2978958
-0.09251989 0.07294068 0.22902055
0.16774619 0.22169723 -0.12946314
0.0070852675 0.18768245 0.14937307
-0.20983176 0.03352253 0.24161887
-0.12581323 -0.08077735 0.05301183
0.07788462 -0.14616854 0.053210653
0.0698226 0.040710837 -0.30061957
-0.0038062658 -0.010427306 -0.14924678
0.14694643 0.1429211 0.09916326
0.18441978 0.06729032 0.04893573
0.04803281 -0.16960599 -0.09590241
-0.038100723 0.17348044 0.2135313
0.08730113 0.15497714 -0.14275987
-0.15923654 -0.104344025 -0.23711745
0.09776072 -0.19636616 0.024198417
-0.1330378 -0.054090444 -0.26018018
0.19666961 -0.02510479 0.023025697
0.029684871 -0.02858392 0.27335346
0.107075766 0.16406018 -0.16201165
0.1078154 0.021237805 -0.10600726
0.120089054 0.16726565 -0.1832111
0.18529135 -0.058411404 0.10498372
-0.18295127 0.014512967 0.07009147
0.22371063 0.2370779 -0.05514479
-0.12243515 0.09961465 0.18752986
-0.06304962 -0.208291 0.0043341597
-0.2554549 -0.057630386 0.021149218
0.2500399 -0.0006269656 -0.058091838
-0.08533913 0.059047192 -0.0029271932
-0.18518607 0.054653198 0.19895735
0.039152883 0.14156651 0.14202271
0.0069761984 0.22377457 0.26070568
0.093039796 -0.028450686 0.23106009
-0.2642716 -0.071384065 -0.00012974278
-0.07998175 0.14206655 0.21683201
-0.15214796 -0.06919567 -0.26104793
0.12638386 0.09370978 -0.27405384
0.024178687 0.0030065433 -0.14428988
-0.17402728 -0.085338876 0.019277286
-0.18283252 -0.080505945 0.033176214
0.086920284 0.14397343 -0.17571333
-0.14219818 -0.11893857 0.0132403765
-0.13446386 0.008472376 -0.06424209
-0.23839208 -0.08486031 0.05719928
0.12230761 0.09286482 0.10578268
0.17375502 0.2683741 -0.00016195285
-0.05511422 -0.03838276 -0.29462367
-0.27806118 -0.11458821 -0.019359753
0.16776052 0.20315407 -0.18656366
0.06746594 -0.14193054 0.14511007
0.061214004 0.19746627 0.2108518
-0.12900051 -0.026410978 -0.18463601
0.054956723 0.18084064 0.014042355
0.07442541 0.2279013 0.11239799
-0.029189238 0.0009557837 0.16152099
-0.032571115 -0.0017597207 -0.31226015
-0.0045785066 -0.0007429812 -0.20766273
0.12735061 -0.13647728 0.13786839
0.12665461 0.22797318 -0.012059
-0.20379134 -0.13210407 -0.17078725
0.19391425 0.16806392 -0.19697574
-0.04321043 -0.18140058 -0.12047458
-0.09615272 -0.034797307 -0.28885666
0.09894733 -0.17039679 -0.061866913
-0.048045184 -0.11827784 0.1803602
0.1181426 -0.18264768 -0.018920975
-0.27293336 -0.13358831 -0.03127382
-0.09940706 0.057295326 0.19731283
0.04907671 -0.08655435 -0.13265806
0.15877427 0.15522468 -0.00024108034
-0.18089315 -0.018090686 -0.035157055
0.11831149 -0.11690919 -0.07661204
0.037497368 -0.1890996 0.07077245
-0.116182394 -0.18466407 0.13892026
0.025957068 0.112938814 0.14378907
-0.108126946 0.009886977 -0.12275873
-0.012025945 0.15010762 0.2399397
0.13239203 0.26095763 0.07575249
0.19317381 -0.091236785 -0.0018576086
0.057642724 0.17574683 -0.008043975
0.10472274 -0.041122217 -0.12943268
-0.10322962 0.11713271 0.19559473
0.10973866 0.095988154 -0.18286763
-0.24573672 -0.10182903 0.022511836
-0.013570147 -0.024904002 -0.30467227
-0.11853282 -0.009453663 0.11597286
-0.1747878 0.08069447 0.25427604
0.020427117 -0.15831156 -0.115634665
0.110313185 0.08637623 -0.2835268
-0.037527125 0.19490255 0.28220487
-0.084417365 0.15675423 0.2914386
0.103702955 0.18393973 0.102208756
0.05697231 0.14448486 -0.10265047
0.11633069 0.02994514 -0.09736003
0.19917616 0.06691268 0.15647656
-0.0646608 -0.13797875 0.15574193
-0.018717034 0.08830776 -0.071914844
-0.17191646 -0.03329782 -0.10338509
-0.051338304 -0.11970621 0.16495366
-0.09915517 0.14753966 0.27944383
-0.14344116 -0.027775656 0.08787858
0.12528856 -0.1590321 -0.03300055
-0.21686268 0.038350347 0.22440237
0.00519383 -0.08220527 0.27272108
0.14837809 0.22303607 0.08147005
-0.27430835 -0.047168262 0.098351315
0.008994994 0.13169928 -0.0045303144
0.027317572 0.12849134 -0.058140546
-0.17022474 -0.030317657 -0.09825264
-0.18775688 -0.105790175 -0.20496272
-0.07429582 -0.090845086 0.12806688
0.21049581 -0.06439644 0.0006365216
0.0846483 0.18200415 -0.05325301
-0.26050568 -0.048782606 0.060433686
-0.07249769 -0.050683398 0.1318709
0.058520954 -0.10053579 0.17122582
0.023540521 0.13280313 -0.035854846
-0.10912143 -0.22855422 0.071984924
0.15366095 0.07549007 0.100604765
0.2025066 0.2445301 -0.11347277
0.14241114 0.24713863 0.1698886
0.093637496 0.17941035 -0.08269273
-0.093546845 -0.21404052 0.105320044
-0.12263146 -0.10928714 -0.07280867
-0.029025838 -0.026830407 -0.22958773
0.1797543 -0.112434454 0.08676683
0.114155024 0.25504896 0.10110291
0.027301038 -0.102460325 0.16022411
-0.022457018 -0.20635167 -0.04071792
0.19723183 -0.1049005 0.015440253
-0.02787121 0.17131343 0.28567365
-0.17612348 -0.028478999 0.11647814
-0.10110049 -0.1583061 0.18207043
0.038215224 -0.16021262 -0.15825804
0.08549705 0.17820589 -0.06696872
-0.005910464 -0.019886132 -0.14111553
0.04234434 -0.048232052 -0.13060576
-0.08782613 -0.094075255 -0.14419025
0.1881005 0.015170719 0.13838145
0.18051045 -0.110229775 -0.01118319
