# .PCD v0.7 - Point Cloud Data file format
VERSION 0.7
FIELDS x y z
SIZE 4 4 4
TYPE F F F
COUNT 1 1 1
WIDTH 1000
HEIGHT 1
VIEWPOINT 0 0 0 1 0 0 0
POINTS 1000
DATA ascii
-0.15811177 0.17004581 -0.0913922
-0.03334003 -0.16222489 -0.08099972
0.020363322 -0.24956648 -0.070421435
-0.060689934 -0.013650848 0.2056943
-0.18982652 0.13258208 -0.07488648
0.059817676 -0.27104393 0.0073946943
-0.039436575 0.15155207 0.18736069
0.06020802 0.29465276 -0.13035946
-0.16708636 0.14909358 0.015378064
0.031453542 0.26104426 -0.19966651
-0.14992169 -0.18190306 0.10360504
-0.009926572 -0.031864215 -0.19874538
0.14393137 0.1264748 0.022194535
-0.015452588 -0.30256903 -0.03178649
-0.23263302 -0.037623763 -0.0933579
-0.06504157 -0.012859604 -0.16953747
-0.04840029 -0.22979987 -0.20002457
-0.027291995 -0.1589051 -0.04564033
0.13922265 0.2842468 0.044570636
-0.2193417 -0.12811066 -0.0387678
-0.2004895 0.014151922 -0.04872002
-0.08064991 0.2709521 0.05589742
0.061862793 0.045234665 0.123322055
-0.11638639 0.13201462 0.14109313
-0.14237316 0.054160308 0.17284232
0.21437131 0.07831002 0.16447139
-0.033597387 0.017670719 0.24342686
-0.024976106 -0.27189657 -0.059257165
0.15057482 0.07573713 0.051358774
-0.0367797 -0.18754928 -0.19366184
-0.064704485 -0.044681482 0.20909795
0.20515865 0.021178689 0.16748327
-0.050459553 0.043715023 0.20442083
-0.025618814 -0.20997782 -0.16607516
-0.16398571 -0.16618846 0.0127159525
0.029058777 0.19900025 -0.10509072
0.09288469 0.3108716 -0.047300126
0.18659705 0.057259504 0.122020274
-0.08820828 -0.1803945 -0.20342633
-0.13502125 -0.21475081 0.068462715
0.0014173648 -0.28027615 -0.009241682
0.097610675 0.1906948 0.020227501
-0.0063620396 -0.024107566 -0.048544683
0.027982723 0.27257743 -0.15021221
-0.06232022 -0.085712634 -0.16171883
0.2124831 0.1307867 0.19938403
-0.04834432 -0.12983038 -0.23399784
-0.0016977409 0.056882836 -0.21429157
-0.16811715 0.029475002 0.16817763
0.14632553 -0.08394812 0.09819408
0.0028284153 -0.1699503 -0.12888953
0.0670944 0.15896161 -0.12616822
-0.15120019 0.16244796 0.053469695
-0.24775478 -0.052245747 -0.11539358
0.03199883 -0.30099064 -0.032103524
-0.20691803 0.14937794 -0.11114971
-0.13625431 0.16599411 -0.06836861
0.17287265 -0.1941971 0.18867265
0.1214062 0.13953942 -0.022505984
-0.0008234113 0.22030093 -0.26248366
-0.109296635 0.0013432802 0.19353426
0.08063997 0.28521764 -0.14499915
-0.14811867 0.08209818 -0.11614259
-0.22097445 0.026369838 -0.037511166
-0.20951465 0.11199402 -0.1030476
0.1260726 -0.12581661 0.17332248
-0.21337275 0.08888456 0.001780692
0.19939591 0.050454676 0.23177335
-0.06880957 -0.044357225 -0.1557559
-0.04993353 -0.2272409 -0.20363574
0.034645718 0.05374442 -0.13620354
0.011184168 -0.21593598 -0.09828596
0.17872195 0.14393957 0.16297005
0.092644826 -0.07456995 0.0111632105
-0.02996394 0.15602836 -0.29859015
-0.12811588 0.16731623 -0.06583762
-0.06584142 -0.003456088 -0.1653611
0.13439237 -0.18082842 0.19445828
0.07793936 -0.16773604 0.0045621404
0.014567027 0.11819392 0.13530518
0.15140675 -0.07709661 0.10493783
-0.11747886 -0.17976007 0.16084313
0.053731315 0.15343936 0.0119340215
0.110869214 0.20624754 0.038616154
0.097699285 -0.14513403 0.13485108
0.0692267 -0.31106076 0.054425646
0.032788087 0.0680078 -0.1564654
-0.15903613 -0.0638101 -0.09685288
0.17746207 -0.170121 0.18319945
0.022161875 0.106580906 -0.18859923
-0.19686228 -0.15298697 -0.0030748204
0.12762074 0.19102949 -0.028951049
-0.042313535 0.18259062 0.17164105
-0.014087498 0.20605999 0.18817383
0.16916664 -0.18459731 0.17331164
0.02749645 -0.25417966 0.028461406
0.07225194 0.15579046 -0.11587242
-0.08186857 0.15157591 -0.14666554
-0.1723117 -0.12867357 0.045455605
-0.02882801 -0.13106279 -0.1987068
0.06963405 0.18896742 -0.13185814
-0.03972721 0.13329138 -0.30828506
0.18228504 0.17601705 0.15840296
0.21361347 0.10700494 0.21047625
-0.039782543 0.13893515 -0.1762779
-0.07610769 -0.10783154 0.21024713
-0.10567415 -0.10890524 -0.06763513
-0.24679959 -0.10850787 -0.09450981
0.022856595 -0.14273387 -0.10238028
-0.2102359 0.09562808 0.006680145
-0.12859905 -0.05127058 0.17170672
-0.0845182 -0.22658494 0.037587926
-0.21099825 -0.129606 -0.08375379
0.09381005 0.17892964 -0.08523979
-0.010222494 0.11233031 0.2529278
0.0898406 0.31109253 -0.06715669
0.06318064 -0.20950721 -0.0075715627
-0.08023503 -0.2691353 -0.16663818
0.13101354 0.0118394 0.14087217
-0.08331819 -0.08839839 0.19074021
0.15571654 0.004343538 0.18756574
0.13207859 0.15400968 0.09431757
0.093837135 -0.26849207 0.0673098
0.20177567 0.15375097 0.19293405
0.15762475 0.17029113 0.11629207
0.13988657 -0.19560575 0.12474636
-0.1639026 0.0942467 0.15363045
-0.2153697 -0.17150947 -0.056364544
0.036081407 0.21296202 -0.09730136
-0.041274 0.107544996 0.19907716
0.0886336 -0.17578048 0.026412094
0.17829373 -0.049219508 0.22804116
-0.16678044 0.03618747 0.16827786
-0.09788736 0.07987728 0.18354277
-0.13625427 0.13691811 0.11708102
-0.05258817 0.03737634 -0.29857302
0.12496782 -0.20250909 0.10044335
0.1651148 -0.10479787 0.2234379
0.19726698 0.21889998 0.11842418
0.03479999 -0.14162152 -0.0814195
-0.14867513 0.09291904 0.15957353
0.018795643 -0.31817922 0.019519167
0.058368836 -0.1653968 0.07940862
0.038979523 -0.23328629 0.059978567
0.17055622 0.20385362 0.043393254
-0.10794647 -0.07092065 0.14267242
-0.072628416 0.24250677 0.09705308
-0.15328856 -0.04186948 0.15314749
-0.09957508 -0.11215133 0.16978873
-0.031077802 -0.03422767 0.2656183
-0.009222034 -0.26037255 -0.119601175
-0.08531885 0.18963383 -0.021600064
0.18729386 -0.005991487 0.1448238
0.09964384 0.26370975 -0.10371321
-0.21450607 0.08635402 -0.0002867138
0.025749605 0.16866685 -0.07784733
-0.2189957 -0.11334347 -0.103586
-0.25097746 0.011751754 -0.15399498
0.044469815 -0.3077034 -0.007533576
0.20720686 0.088461965 0.14820996
-0.0034450325 -0.016796904 -0.19230019
-0.004883344 -0.1834534 -0.029939406
-0.00796222 -0.2790402 -0.026422165
0.108687535 0.04393879 0.117353864
0.052204467 -0.17058112 -0.04045066
-0.17922421 -0.12095622 0.030475536
0.14227477 -0.053295393 0.08050821
-0.02327786 -0.23934604 -0.15188251
-0.24873604 0.05338053 -0.15314889
0.22327289 0.0627277 0.20979734
-0.070575126 0.15463698 0.13067168
-0.13660914 0.25421327 -0.04165511
-0.008310381 -0.21717463 0.027789442
0.0772346 0.13455255 -0.09973099
0.05872648 0.14406686 -0.13604401
0.038956035 0.119920075 -0.16313885
-0.022641484 -0.16575031 -0.04890914
0.111456834 -0.060969565 0.040140457
-0.22088072 -0.15428081 -0.032596946
0.07271906 -0.12745214 0.12772582
0.1500743 0.046842135 0.16299936
-0.07346496 -0.21378657 -0.25026736
0.054973792 -0.1800115 -0.032289
-0.10122639 -0.047873463 0.16380273
0.097264074 0.279853 -0.11346694
0.20239286 0.07278365 0.14495249
-0.2257256 -0.16378862 -0.0380136
-0.09024502 -0.14687967 -0.20036793
-0.14313747 0.16792807 -0.0035111646
-0.090226725 -0.115957856 0.18778975
-0.011836328 0.16805312 0.010863251
-0.043400377 0.08539767 -0.29852444
-0.05484116 0.033338487 -0.18031771
-0.064426646 -0.28844836 -0.12410431
0.014561567 -0.30173784 0.021559777
-0.033468954 0.17888482 0.18870732
0.17557682 0.090981044 0.17540127
0.0016486142 0.1609983 0.22352326
-0.12307725 0.25196755 -0.048304956
-0.14837074 0.082086965 0.16690817
-0.120647155 -0.10754156 -0.29066348
-0.2367111 -0.026416687 0.06466568
0.23028024 0.040722623 0.20570897
0.12378502 0.006677117 0.1323057
-0.014602412 -0.20884445 -0.14677769
-0.13413672 0.045954403 0.018885829
-0.097510725 -0.13799751 0.18228683
-0.10924168 -0.17649825 -0.24233703
-0.006333242 -0.15873848 -0.14908093
0.11004823 0.28681558 -0.00843331
0.03422622 0.17240532 -0.07324486
0.19355167 0.031443022 0.14324579
0.015083651 -0.22883542 -0.0869218
-0.07584673 -0.046713434 0.18988179
0.036469463 -0.043040436 -0.057978798
0.20185265 0.12233067 0.1270994
0.15700285 0.23102951 0.094478436
0.043274075 -0.1061935 0.16528276
0.006427693 -0.07901246 0.21396305
-0.004000907 -0.18304367 -0.13662888
-0.16781881 0.09791212 0.14538394
0.01670679 -0.104587205 -0.12637049
-0.09130629 -0.10555987 0.18231675
0.10248506 0.2994168 -0.07716831
0.018132713 -0.086841516 -0.117791176
-0.18847229 0.1501489 -0.078454114
0.094118565 -0.13343003 0.12446419
0.09425109 0.27406576 -0.11687788
-0.05092502 0.11713584 0.17856377
-0.020712767 -0.22263123 0.023948438
0.10598197 0.21361636 -0.075314514
0.026514288 0.01780154 -0.1384816
-0.063636206 0.20405765 0.04262729
0.193803 -0.007246787 0.15688206
0.11840036 -0.037415948 0.044518687
0.035154235 -0.1784747 -0.068225056
0.21869795 0.0008169597 0.22170354
-0.0046423925 -0.08879051 0.20371932
0.1308061 0.21155843 -0.030257488
-0.0015159376 -0.09558019 -0.16200086
0.07063717 -0.0696316 -0.0298427
0.030274363 0.08213741 0.14128664
0.20268007 0.12041646 0.12923016
-0.06589359 -0.0098248515 -0.30625817
-0.19630943 -0.08456529 0.072109036
-0.081958406 -0.05443177 -0.21707122
0.066920824 0.05759433 0.11585651
-0.06261022 -0.03059303 -0.1875396
-0.21496493 0.058790926 -0.09465125
-0.21793105 -0.04100692 0.04895695
0.17811678 -0.012156333 0.21509309
0.027876822 0.042700674 -0.15661468
-0.24102187 -0.12358875 -0.0790464
-0.058708068 0.009043372 -0.18812725
0.11048262 -0.057035122 0.18688126
0.07513633 -0.15146898 0.09669549
0.10549947 -0.23525135 0.07681804
-0.092973515 -0.09091694 0.17434672
0.14526919 -0.18125483 0.12947312
0.12788214 0.15033124 0.08807291
-0.13336748 0.15857697 0.101698294
0.0315314 0.076706745 -0.16167533
-0.18777543 0.13299526 0.083215974
-0.0225325 0.23604989 0.14367379
-0.0011111201 0.20059034 -0.26222572
0.06212217 0.029786985 -0.07894354
0.1843089 0.16066073 0.08268802
0.05136765 0.19805166 -0.16759253
0.04130733 0.070253514 -0.14200865
-0.053768877 0.259266 0.10833466
0.07226841 0.14573668 0.034521613
0.027672729 0.040036384 -0.041854233
0.117565185 0.27619708 -0.07594736
-0.13608018 0.136451 -0.09143358
-0.19150937 -0.022862487 -0.10906059
0.060098257 0.24838558 -0.06646263
-0.041795556 0.07854067 0.20803113
-0.009258286 -0.05161664 -0.19081938
-0.08005739 -0.1475574 -0.1819338
0.11112568 -0.16492146 0.15107265
0.18737373 -0.1674234 0.20090802
-0.10617238 -0.14625938 -0.24715884
-0.021031398 -0.3061935 -0.12508403
-0.1672302 0.1534733 0.04293276
0.2215391 0.17041755 0.1458846
-0.22107068 -0.04315459 0.06764717
0.19893244 0.07268312 0.13880375
-0.01757199 -0.089554854 -0.19274305
0.1349534 0.30419153 -0.048861988
0.02908513 0.022153204 -0.13537127
0.09630577 -0.25903428 0.06849695
0.08189505 0.23896557 -0.024305444
0.039869793 0.18296024 -0.08030666
-0.0068208072 -0.13898638 -0.15668465
0.11381237 0.08656544 -0.005937457
0.00044013278 -0.31902045 -0.027983693
0.08545957 -0.08889334 0.0032069501
-0.07479624 0.11718378 0.13974996
-0.15050136 -0.1020738 -0.06874353
-0.2536198 -0.004054802 -0.15090163
0.1536103 -0.21939076 0.15737484
-0.19104065 -0.20299184 0.037323285
0.22917968 0.0041147927 0.21621947
0.00023949612 -0.12073178 0.13606016
0.12027784 0.1987235 -0.044694576
-0.06119113 0.24814852 0.05516226
0.21783702 0.085839875 0.16809812
-0.08232129 -0.12543762 -0.2962047
0.088077344 0.2850888 -0.13166627
-0.016521467 0.12691437 -0.26464757
0.07941748 -0.2153356 0.023427105
0.098745205 -0.07474874 0.022124004
-0.21636404 -0.01750715 0.097984605
0.053477734 0.22195995 -0.17197089
-0.07507361 0.17448458 -0.05252802
-0.038277227 -0.293551 -0.0756424
-0.036615323 -0.11978864 -0.2164637
0.022832261 0.125416 0.109872416
0.1768764 0.25853842 0.036046773
0.171287 0.1339065 0.06854026
-0.17806399 0.14329398 -0.057521097
-0.100415066 -0.073183276 -0.26177934
-0.020269696 0.19803967 -0.10002723
0.07034529 -0.0666902 -0.0313668
0.018374216 0.016376669 0.17232798
-0.15251014 -0.15761927 0.029190097
0.17647406 0.25337595 0.07771591
-0.09887238 0.066786565 -0.3067308
0.07195764 -0.1406802 0.10954068
0.068697974 0.13200745 0.053249553
-0.20115246 -0.05129587 0.1066468
0.015596166 0.17938618 -0.22514579
0.03564853 0.21780583 -0.20241171
0.10452718 -0.21956682 0.069734804
-0.05336437 0.19432561 -0.06585411
-0.19915451 0.1275807 0.07928159
0.04157834 -0.27605557 -0.023486616
-0.1968744 0.074085854 -0.12794438
0.07721573 -0.08635559 0.16974509
0.06830479 0.16614068 -0.12645316
0.113001026 0.30502838 -0.092127524
0.01523253 0.053804047 -0.18299189
0.016451051 0.046562593 -0.17834626
0.17662188 0.023367478 0.11574902
0.0822616 0.1726091 -0.103719994
0.091157176 -0.24939343 0.05601148
-0.08914169 -0.016550872 0.17734382
-0.056761213 -0.1994981 -0.12260507
0.12509663 -0.03414824 0.14597437
0.1047729 0.16045 0.043333426
-0.0675136 -0.09599447 -0.27978188
-0.027663779 0.17599829 -0.2831662
-0.11460788 -0.020355787 -0.31418216
0.046752222 -0.26223803 0.06561326
0.046878815 -0.24837282 -0.023451071
0.15192807 -0.16136682 0.13459212
0.06534465 0.26998267 -0.08257066
-0.16175115 -0.21665461 0.06947616
-0.16725026 0.038889688 0.16651721
-0.010582399 0.20567393 -0.1963163
0.08037341 0.10745694 -0.07280628
-0.09605749 -0.13729617 -0.23214102
0.19817725 0.12250387 0.20503809
0.18116853 -0.15842944 0.18583696
-0.03767175 0.10587715 -0.29526824
0.014105773 -0.050956886 -0.13721694
-0.14892973 -0.12301832 -0.04441797
0.03404175 -0.11952809 -0.08922737
0.19988775 -0.081905745 0.22276893
-0.14110251 0.026802212 -0.124786235
0.09539256 -0.04188792 0.004933191
0.02122764 0.15066999 -0.20529611
-0.050720703 0.20477282 -0.08185087
-0.08814911 -0.0057150354 0.1807093
-0.061718836 -0.15982185 0.04214992
0.034223825 -0.074087255 0.21269132
-0.12906206 -0.19153264 0.14415836
-0.125308 -0.16168678 0.14069356
0.20667084 -0.019889195 0.1841834
-0.028675802 0.01018407 -0.2465787
-0.07128862 -0.1540508 -0.16405307
0.15939055 0.06822055 0.069672525
-0.010614501 -0.2958077 -0.11001152
0.04501579 -0.13594784 0.124016955
0.10411533 0.30517673 -0.097751245
-0.08502546 0.014849886 -0.3197495
-0.09649528 -0.09784112 -0.2985977
-0.0520639 0.0015776347 -0.28543386
-0.16704363 -0.09228965 0.10713424
0.081398726 0.30829442 -0.0933688
0.18672144 0.07213987 0.2017359
-0.02739205 0.05452442 -0.2593976
0.011756542 -0.11974503 -0.130049
0.090630054 -0.24659179 0.05411491
-0.20326304 0.10871984 -0.0907611
-0.11895957 -0.09297912 -0.28816655
-0.027516406 -0.09769911 0.19804555
0.1469338 -0.21313967 0.14331488
-0.05421905 -0.0089198705 0.21564387
0.052267607 -0.25981352 -0.009923703
-0.044891596 0.19837964 0.1616528
-0.2262904 0.033816528 -0.10637587
-0.054836076 -0.2035174 -0.22048165
0.044757146 0.2736808 -0.18706028
-0.12138101 0.14986257 0.12608598
-0.1257382 0.07148246 -0.12052936
0.1404701 -0.21258824 0.13157797
-0.07242349 0.2688728 0.068773665
0.09500098 0.0424342 0.11576878
0.06874857 -0.042810403 0.12155165
0.0037521448 0.19447431 -0.25145134
-0.24630277 -0.12285613 -0.095197536
-0.03595401 0.17860644 0.0027135296
0.049660373 0.2219784 -0.17879885
-0.21119423 -0.10863516 -0.091251485
0.044208422 0.060083117 -0.121278055
0.10563143 -0.06697999 0.031780083
-0.19674537 0.082051836 0.081814095
-0.045412526 0.046931088 -0.28900808
0.055646174 -0.041401487 -0.016305694
0.08529108 0.14208148 -0.08790193
0.18854481 0.24861395 0.07839944
-0.06755756 0.0040133763 -0.313948
0.06808515 0.13464144 0.049619798
-0.027067473 0.15307808 -0.18972307
-0.035947394 0.04172043 0.2310308
-0.24395648 0.035650045 0.018672807
0.15088105 -0.20440882 0.1473921
0.13139337 -0.12639473 0.08598053
-0.21574524 -0.05722482 0.038098734
0.1987364 0.15255953 0.19579327
0.03337853 -0.0043406994 -0.11866971
-0.23215854 0.041341707 -0.16465326
0.11893355 0.30263704 0.002050266
0.0940838 -0.005287796 0.1245828
-0.22938779 0.009878447 0.006946565
-0.20139267 -0.07915501 -0.023383027
-0.040365677 0.14634067 -0.13204995
0.027304338 0.2139862 -0.11333303
-0.23917459 -0.1399442 -0.08273981
0.14122926 0.069419555 0.13949963
0.038235288 0.15771528 -0.17730889
0.022777496 -0.18434924 -0.08833745
0.024321416 -0.09598981 0.18543442
0.14016764 0.26439637 0.053024787
-0.01576707 0.22556612 0.15909447
0.10303428 0.08876879 -0.025946658
-0.23769684 -0.022782091 0.044718232
0.0035411017 0.04406661 -0.20056283
0.14969534 0.20146824 0.09149759
0.013810515 0.26378188 -0.20273885
-0.050306916 -0.19466624 0.070846334
-0.03998091 -0.041319072 -0.2492234
-0.046434674 0.21507712 0.15320413
-0.1012431 -0.044058453 -0.30896878
-0.10165289 -0.11843831 -0.28652152
-0.023478653 0.21489137 0.184218
-0.15667807 0.010739514 0.11584183
0.058937304 0.2533537 -0.17291611
0.182484 0.27594972 0.04013155
0.1191548 0.048146192 0.12021779
-0.10969098 -0.0037114085 0.19207646
0.18181042 0.028362602 0.20788217
-0.009842603 0.16399463 0.1755938
0.09893805 -0.25820833 0.07291849
-0.13681592 -0.12805493 -0.0379934
-0.07427936 -0.13683484 -0.17526437
0.0017626851 0.087827444 0.2612863
-0.038982872 -0.074839175 0.2653356
-0.06601834 0.17773503 -0.029642843
-0.056560207 -0.11343505 -0.25426635
-0.11429981 -0.10236424 -0.29660496
-0.11513279 -0.07548235 -0.097477056
-0.045353383 -0.14268883 -0.019948639
0.04109244 0.19427 -0.081976615
-0.20095316 -0.09245486 -0.018064637
0.06599712 -0.22228022 0.0018145759
0.21145569 0.124343485 0.14357148
-0.07260203 0.19760846 -0.07265222
0.13743296 -0.22427148 0.16391073
-0.057387933 0.05244882 -0.15487145
-0.09443688 -0.061000027 -0.30988717
-0.23325273 0.06872806 0.038415857
0.15611222 -0.17091551 0.21253133
0.119888514 -0.10901098 0.16218625
0.1330563 -0.12849937 0.17423509
-0.048625696 -0.23268229 -0.10509123
-0.16503222 0.14681083 0.06012665
0.18816753 -0.017373003 0.15026447
0.14499016 -0.0058935923 0.17188974
0.07627289 -0.122862205 0.13299567
-0.057728503 -0.25944927 -0.18846431
0.037291955 0.26902962 -0.2044452
0.124816366 0.29713535 -0.01576467
0.0077930745 -0.22054677 0.018426508
-0.21803768 -0.17849286 -0.019265372
-0.08468377 -0.12405592 -0.30089688
-0.24736738 0.014169388 -0.15632255
-0.08992189 -0.11718855 0.1887537
-0.13286042 0.12805152 0.12897
0.025809038 0.022842854 0.16318043
-0.088049926 -0.12543198 0.19490762
0.13578372 -0.04767958 0.06699649
-0.064778835 -0.008579804 -0.16955045
0.14682497 -0.19740632 0.19212149
-0.238451 0.0033309083 0.051417656
-0.048110586 -0.033864975 -0.2662898
-0.017624386 0.2312849 -0.2436693
-0.118464954 0.028462943 0.18363513
-0.05348217 0.082457855 0.18581486
-0.0741329 0.19482215 -0.088931754
0.13824949 -0.12419416 0.09748179
0.023965774 -0.3115652 -0.042853262
-0.17968221 0.067159854 0.13466837
-0.2507849 -0.1054706 -0.10728077
0.15398906 0.2703799 -0.008883371
-0.05256905 -0.07479929 0.24104631
-0.1127193 0.21420008 -0.025335012
0.05373356 -0.1156936 0.1493595
-0.2082976 -0.0046039573 -0.06113112
-0.10431959 -0.112358 -0.06348829
-0.06340378 0.19477901 -0.067181595
0.0833484 0.11199225 0.075580895
0.007782529 -0.06530728 -0.15570484
-0.23780072 -0.01856038 0.06004124
0.07335428 -0.1406427 0.1091511
-0.22597572 -0.03581628 0.087051116
-0.09486323 -0.23458324 -0.20955263
-0.17555285 0.1310302 0.07777945
0.004917937 -0.26183364 -0.09383875
0.14245415 0.25939116 -0.025748111
-0.10067295 0.24425067 0.046349786
0.1035565 -0.24344051 0.07613753
0.012526526 -0.11990307 0.15572666
-0.04934067 0.19492465 0.154881
0.0967351 -0.15810366 0.13754827
-0.013687407 -0.03145653 -0.20560418
-0.065773055 -0.28629473 -0.12724434
-0.10420247 -0.044832826 0.16718902
-0.2099983 -0.084016904 -0.037101973
0.05330696 0.27367958 -0.18990459
0.096216016 0.16429886 0.028130408
-0.04353556 -0.0054866397 -0.26778826
-0.03211543 -0.013558326 -0.24463123
0.009192492 0.2366652 -0.17154601
0.1318393 -0.12704968 0.17156635
-0.0763063 -0.2553565 -0.15661001
0.017574258 0.01795021 -0.16658697
-0.1794643 0.08215262 0.12994751
-0.059273425 0.1996449 -0.08662362
-0.08611224 -0.25564173 -0.17403375
-0.031898163 0.18702096 0.18874076
0.10695881 0.10453667 0.08766511
0.05548613 -0.23902534 -0.011258047
0.10629916 0.031467896 -0.0005823435
-0.09356917 0.028502868 -0.3144089
0.188196 -0.104213275 0.22113714
0.20789786 0.1603507 0.12494191
0.13265973 -0.15505986 0.18257962
0.1785958 -0.046799906 0.14319171
0.13784543 -0.09555979 0.18341137
-0.14901896 0.007331674 -0.12254517
-0.0030129484 0.021331398 -0.20452404
0.048090942 -0.22572191 0.07368009
0.11349727 0.27226606 -0.08187647
0.11713256 0.033602763 0.018047065
-0.17895502 0.15475829 -0.06302003
0.10546532 0.05695065 -0.0107577825
-0.0759907 0.20100804 -0.07631846
0.16048557 0.26344758 0.089652
0.066543095 0.24936236 -0.073401205
0.18711028 0.0872332 0.112720855
-0.19140352 0.198829 -0.10737482
-0.1852443 0.01958931 -0.118421875
0.17354384 0.009300974 0.11504271
0.17377745 0.21795905 0.044341564
0.13740095 -0.17134392 0.112036034
0.0803216 0.2523554 -0.13436718
0.112629354 0.13021787 -0.03501103
-0.2204706 0.018391974 0.07009695
0.17775801 0.27100807 0.033371918
0.105788395 -0.03518399 0.021223007
-0.12950948 0.15871555 0.04342476
0.13576458 -0.23131034 0.15668392
0.105233274 0.13936003 -0.05134167
-0.16841063 -0.09646763 0.07991899
0.18069373 -0.08275903 0.1591969
0.1672639 -0.14693552 0.15707472
0.054618258 0.15896441 0.0017423504
0.18858342 -0.025679491 0.15383898
-0.1336126 -0.2069179 0.13573323
-0.06323438 -0.2925212 -0.12309164
0.113656275 0.025820533 0.12423641
-0.0424298 -0.17779817 -0.20708083
-0.1716024 -0.15826192 0.056808863
0.12246067 0.023975262 0.03084774
-0.08927838 -0.10642527 -0.31087512
0.071122356 -0.18703586 -0.0010403611
-0.06473406 0.15012401 -0.27413827
-0.12553245 0.16342576 -0.06882059
0.013433826 0.020802878 0.17837496
0.08159044 0.13966788 -0.09369149
0.19622254 0.1775824 0.098207265
0.086688966 -0.15261163 0.1177268
0.09092737 -0.015384656 -0.012078984
0.16987397 -0.023152081 0.119547874
0.002366143 0.18971924 -0.088532865
-0.085812956 -0.24714962 -0.17639303
0.2017678 0.034885906 0.23865353
-0.04176747 0.19332895 -0.2478289
-0.05649005 0.024843154 -0.3012726
0.12896228 -0.1462017 0.17295372
-0.11170301 -0.07068273 -0.30802536
0.11308532 0.16293217 -0.045346342
0.10447434 -0.215024 0.15265666
-0.21039967 -0.09129847 -0.03533739
-0.12594871 0.08527848 0.16294661
0.21122596 0.16854884 0.12809406
0.10597911 0.17614855 -0.06254836
0.21090238 -0.098891735 0.21867123
0.123100914 0.14190646 -0.020284548
0.035664752 0.04312723 -0.1307641
0.10427986 -0.23099467 0.157753
-0.0649682 0.1293702 -0.29768497
-0.056162532 -0.085007325 -0.26324537
-0.22143497 -0.16581722 -0.060459174
0.12549235 -0.13662754 0.16738912
0.034162063 -0.050306212 -0.10160278
0.1343112 0.17248811 0.09200849
-0.077559404 0.16503559 0.11464793
-0.08520631 0.16054353 0.10251585
0.07906324 0.10255765 0.08388312
-0.06828101 -0.007417771 -0.31134444
0.09078757 0.123661704 0.06659257
-0.24084331 -0.013254632 -0.116334215
-0.050904334 -0.21233168 -0.21045248
-0.0353191 0.21854827 -0.24490304
-0.002702577 0.21075588 0.1724132
0.09140796 0.060077693 -0.036940902
-0.11693736 -0.1774688 0.16103019
0.23651403 0.093470804 0.1988682
-0.015310454 -0.31854194 -0.041848924
0.10668593 -0.01314867 0.015315924
0.13456504 -0.18908912 0.19758235
-0.25125608 -0.10527466 -0.107098386
-0.058209028 -0.15698485 -0.13968252
0.11608714 0.18507624 0.055155687
0.13178322 -0.11723642 0.17566663
-0.047467813 -0.036418714 -0.26427117
0.068163484 -0.080413505 -0.030587932
0.19606766 -0.06905169 0.23635708
-0.008363354 -0.31451085 -0.015049097
-0.1507601 -0.2062747 0.110414274
-0.06673202 0.117606774 -0.15162382
-0.08770505 -0.078786746 -0.1070547
0.15587707 -0.046567824 0.10251948
0.19138886 -0.022502635 0.24233389
-0.028887648 -0.030836754 0.26837566
-0.03434608 0.15358463 -0.20290086
-0.030555276 0.106694326 0.21851939
-0.204858 0.07720171 -0.082867935
-0.08518588 -0.17025244 0.11525805
-0.20108604 0.040025495 -0.06345722
0.0053912667 0.1966117 -0.109555416
0.005879787 -0.20302966 -0.112162225
-0.078559965 -0.1708102 -0.27401868
0.05236363 0.16316979 -0.15392353
-0.22975509 0.00231194 0.06730249
0.039784472 0.25984824 -0.12478651
-0.0651407 -0.056314208 -0.16856597
-0.042343974 0.09728869 0.20066148
0.10520448 -0.13127625 0.04085101
0.09408196 -0.21589428 0.049819913
-0.058995847 -0.11061763 -0.15689205
-0.036469486 -0.12170904 0.16763344
-0.047687914 0.054831844 -0.18466142
-0.037459683 0.19165091 -0.2395595
0.122026674 -0.08899364 0.05649738
-0.13754925 0.017121607 0.17293637
0.18619789 0.08355644 0.11234364
-0.05741578 0.019575633 -0.1833421
-0.083265625 0.23279169 0.020954544
0.030994024 0.123029135 -0.1784248
0.04222635 -0.07662447 0.20688501
-0.16891514 0.03197016 -0.12100832
0.19371393 -0.086863235 0.18385985
-0.05844698 -0.0211985 -0.28907672
-0.10991219 -0.018770214 -0.31708258
0.023433985 -0.07920356 -0.11092147
-0.18025498 -0.042965144 0.1344907
0.082615376 0.31135893 -0.06581493
0.22759956 0.069887586 0.20909932
0.21040371 0.022546591 0.23533453
0.10166812 0.12759238 0.0681798
-0.22965167 0.004305507 -0.007829212
0.14646415 0.07876169 0.042983286
-0.037518892 -0.027863862 0.25194004
0.009661514 0.185953 -0.09054948
0.06479794 -0.23934565 0.005489135
0.1110046 0.037681036 0.005707354
-0.08321996 -0.24873465 -0.19926731
0.123062864 0.13446979 -0.017818376
0.16470888 0.21660796 0.11316284
-0.0052329013 -0.20770752 0.03990372
-0.015478231 -0.048901115 -0.20285845
0.14526066 0.08557022 0.038512163
0.06437112 0.24831405 -0.1614894
0.11809727 0.10576576 -0.016906258
0.055008695 -0.24128915 -0.011339235
0.16595943 0.25354567 0.1028077
-0.058172576 0.10499483 -0.32074687
0.07351842 0.24634324 -0.14447407
-0.103479125 0.06110388 0.18832546
0.030073734 -0.11540722 0.1564415
0.20920782 -0.049032845 0.19865018
0.087503485 0.12541708 -0.07826855
-0.17451923 0.061912 0.1300087
-0.1578389 -0.09658973 0.090612695
-0.10012518 0.09983677 0.173782
0.09417902 0.2929788 -0.038888685
-0.060742464 0.15531126 0.14801095
-0.05335749 -0.2501971 -0.11736402
0.17781262 -0.15877728 0.17995973
0.1592192 0.06646811 0.06996303
0.17412592 -0.08720732 0.23354314
0.020943463 0.03075136 -0.15546016
-0.065699555 -0.1333453 0.16030252
-0.15332289 -0.21235712 0.083746314
0.11002492 0.1481632 0.056904975
-0.11805255 -0.1966985 0.1414295
-0.10738686 -0.08511785 -0.30037096
-0.13718869 -0.15253644 0.116346374
0.2104103 0.11957874 0.14332758
-0.17279531 -0.108961694 -0.05830225
-0.05718801 -0.0830769 -0.26573545
-0.028718736 0.14732794 -0.19071347
-0.16973071 -0.19731939 0.013062204
-0.13422394 0.16093181 0.052862722
0.16176906 -0.186513 0.16074678
0.09905411 0.0267583 -0.01192198
-0.064718984 0.25323883 0.107527524
-0.0536533 -0.20757675 0.054394964
0.06643595 -0.21918537 0.0015440068
0.2150675 0.21305248 0.12727484
0.2170838 0.067112215 0.17313483
-0.17615716 0.08099218 0.13625264
-0.034861326 -0.22377147 -0.17788786
-0.02197236 0.15360712 -0.1610033
-0.2196348 -0.15836264 -0.07380658
-0.026008844 -0.2427691 -0.15559517
-0.15707843 -0.21795492 0.05279853
-0.05254747 0.079133324 -0.2100467
-0.22971511 0.013171934 -0.008910015
0.170669 0.18908489 0.048629235
0.0003799895 -0.14934003 0.09445356
-0.0048676473 -0.14661098 -0.15059562
-0.03253905 0.061031092 -0.27081224
-0.082678914 0.2068433 0.09125085
-0.2536194 -0.0013181571 -0.15117262
0.15774389 -0.09714486 0.123094015
0.0479564 -0.27418104 -0.01272913
-0.09588145 -0.06815013 0.1613908
0.005784142 0.0696753 0.2632745
-0.083913386 -0.22377878 -0.18096524
-0.0112882 0.18764673 -0.07682101
-0.035644706 0.07337918 0.22078085
-0.024946757 -0.17934404 0.08451719
-0.22833197 -0.028412363 -0.004247451
0.033757906 -0.31662217 -0.023633411
-0.024557944 0.18080638 0.04877341
-0.0008714782 0.08553647 -0.22258134
-0.040432792 0.08477738 0.2083406
0.017833682 0.21877508 -0.13188721
-0.07339112 -0.106156096 -0.28681985
0.02667642 -0.19655557 0.04602749
0.03632014 -0.256674 0.045077045
0.04643499 -0.30383775 -0.0053391554
-0.0414858 -0.30514064 -0.10218713
0.08089953 0.16535509 -0.1036807
0.04629641 -0.16895664 0.078267165
0.12303018 0.018665098 0.033675764
-0.10622801 0.21761997 0.04550063
0.15819004 0.05483813 0.17477486
0.18844867 -0.072419785 0.1695292
-0.094696596 -0.15533729 -0.27109033
0.038481813 -0.3249918 -0.008487743
0.16287838 -0.19580472 0.16589539
-0.082751766 0.26247078 0.011756454
-0.16913415 0.21243837 -0.0651321
-0.19554017 -0.12995309 0.004388974
-0.039759763 -0.19710658 -0.09304231
-0.08454832 -0.17678967 0.10603617
-0.10304842 0.148594 -0.13887747
-0.01621982 -0.12170355 -0.17936927
-0.04139336 0.08919133 -0.29623085
-0.22531056 0.117098145 -0.1492353
-0.15882479 0.13112246 0.097188815
-0.10113992 -0.18673244 -0.22437216
0.20641756 -0.09654574 0.2246207
-0.024159411 0.1277713 -0.27858755
-0.23787272 -0.06783747 -0.1404106
-0.10021154 0.06641254 -0.1238051
-0.07847652 0.19083616 -0.09323414
0.01332586 0.013251814 -0.17257671
0.15008466 -0.07205327 0.100856416
0.19185519 -0.121677145 0.2123151
0.05983468 0.30424753 -0.104094826
-0.015988838 0.09896025 0.2471822
0.011856267 -0.21564834 0.02395967
0.022273459 0.2424617 -0.23471409
0.09353951 -0.219932 0.13479134
0.143178 0.09635089 0.1338022
0.14597501 0.26665658 0.062631
0.1587408 -0.019222189 0.19189136
0.14077564 0.15409602 0.007141044
0.12091155 0.0120828375 0.032133885
0.05755907 -0.19805054 0.0811659
0.073051415 0.07891306 -0.07616007
-0.112135805 -0.17844294 -0.2545224
0.080289125 -0.17220573 0.112969995
-0.06588167 -0.034797 0.20362532
0.023398152 -0.2872416 -0.052157655
-0.09645209 0.14298281 0.117036775
0.10460982 -0.24971403 0.08015801
0.15229484 0.19207345 0.09934448
4.7746526e-05 0.0014493306 0.19123445
-0.03021144 0.04586208 0.2398678
-0.062231902 -0.0158569 -0.18515098
-0.21315335 0.0132614765 0.06918277
-0.064723365 -0.093012676 -0.17312711
-0.023925388 -0.27036417 -0.057901915
-0.061503123 0.06416367 -0.32363215
-0.06283695 -0.037709355 0.21005806
0.20696063 -0.07282248 0.20274308
0.10044465 -0.2621949 0.13133274
0.056406464 0.16129176 -0.0023567444
-0.1912271 0.08830325 -0.12270028
0.10931496 -0.2299228 0.081818976
0.060848434 -0.19108757 0.08466998
-0.001305733 -0.041071367 -0.18020406
0.17325012 -0.19464187 0.18403172
0.124254 0.15301713 0.08067521
0.047297068 -0.19505417 -0.040877484
-0.08368091 0.17474805 0.10040014
0.04553619 0.23386738 -0.19021928
0.09069124 -0.15517023 0.023063825
-0.19687043 0.09362376 -0.07419308
0.039053872 -0.2813511 0.058372833
0.051330846 0.2569946 -0.18774886
0.09885187 0.19788578 0.019993694
0.1536607 0.005837181 0.1833828
-0.088389754 -0.019846834 -0.32491633
0.09391793 0.16838364 -0.08145285
-0.034426916 -0.18795495 0.07570558
-0.06533965 0.021138903 0.18552819
-0.07752314 -0.18234257 -0.26823592
0.011739269 0.04422772 0.26349774
-0.16053481 0.24061817 -0.059372265
-0.1616949 0.0029992682 -0.11998241
0.024440596 0.13178219 0.09516903
-0.20367645 0.03016909 -0.064726
0.038215708 0.28694186 -0.13682486
0.12241671 -0.090442665 0.163563
0.054559227 -0.30403635 0.07357867
-0.17326826 -0.03829154 0.14113165
-0.055404093 0.18404551 0.14775519
-0.024079219 0.08345827 0.23334897
-0.042086836 -0.21487184 -0.19383124
-0.1637731 0.19727457 -0.05038397
0.210327 0.2316063 0.10499505
-0.13565758 0.16606471 0.010488982
0.15357372 0.28545314 -0.014763281
-0.16127607 -0.13127258 -0.030985178
0.0718923 -0.20882145 0.11044726
0.22787024 0.12372359 0.19123304
-0.089620695 0.18457857 -0.032636557
0.05015731 -0.04437899 -0.07504295
0.15584204 0.24027109 0.0046894867
-0.2117834 0.15820831 -0.12285267
0.15756294 -0.08670621 0.20377794
0.015890958 -0.32431945 -0.042411525
-0.028838847 -0.075856976 0.2596458
0.08755333 -0.28338015 0.06115684
0.16754368 -0.06056528 0.21270114
-0.045947734 0.032134898 0.21642917
0.049845178 -0.16515356 -0.046516575
0.030001532 0.021596998 -0.13354461
0.15723258 -0.1741815 0.14843796
-0.07905391 0.1092488 -0.28579313
-0.03143134 -0.056417994 0.2707569
0.13792495 -0.19947344 0.12256012
0.10006885 -0.24385364 0.07004689
-0.20781602 0.08113236 -0.14989674
-0.04738489 0.17657517 -0.2521556
0.025420936 -0.13760327 -0.099547185
-0.025059938 -0.30949014 -0.046593033
-0.029795855 -0.21880303 -0.17053074
-0.23010294 -0.16595662 -0.045095775
-0.11591811 0.12811697 0.14325832
-0.06282006 0.049413856 -0.32095796
-0.043832056 -0.00224199 0.23192698
0.12747635 0.2956529 0.019694801
0.098824956 0.17457889 -0.074796274
-0.18841867 -0.0039687827 0.082547
0.19761758 0.22198978 0.114141695
-0.057356674 -0.11272443 -0.14637035
0.20333496 0.025578436 0.16272558
0.004870958 -0.16592482 -0.12661235
0.18805139 0.11131085 0.19076082
0.050568223 -0.25133443 -0.015849812
-0.17847079 0.023586912 0.15168406
0.20468701 -0.06337795 0.19546217
0.14920966 -0.0035500664 0.17863047
-0.20636448 0.12972301 -0.10346133
-0.015550875 0.22177269 -0.2414953
-0.14032473 -0.07234 0.15049025
0.1416375 0.2794041 0.05053593
0.012132294 0.26829794 -0.17707542
-0.0849871 0.18441498 -0.030309767
-0.051350757 0.058071878 -0.30341536
0.20373467 0.21994609 0.09719054
0.014765619 0.0071819145 0.17504002
-0.1138669 -0.20303592 0.07841995
0.15247342 -0.07595064 0.10645266
0.06326272 -0.016682342 0.000903144
0.15468751 -0.18458031 0.14743532
-0.03192585 0.18584889 0.08278527
0.0074834777 -0.31383494 -0.0715294
-0.18767871 0.13343364 0.09779172
0.015107937 -0.14568955 -0.11521815
-0.22303738 -0.10622342 -0.052830514
-0.0712999 -0.048758153 -0.14852054
-0.070926085 -0.12613212 0.17179485
-0.010377525 -0.31621826 -0.018065969
0.11896365 -0.18592224 0.08406188
0.026332036 0.12414415 -0.18713425
0.208983 0.23263204 0.10487357
-0.22763334 -0.040096402 0.08554822
0.0207167 0.08858658 0.15148158
-0.23517223 -0.0362696 -0.15463378
0.003721287 -0.20106651 0.046392523
-0.1306367 0.057833772 0.1702326
-0.018347282 0.15903158 -0.15454336
-0.032545045 0.22070241 -0.25061715
0.22424619 0.1461123 0.17712638
0.09187663 0.24814548 -0.11228599
0.11442395 0.25854275 -0.07554314
0.10255491 -0.26145804 0.14476968
-0.09836118 -0.062289976 -0.26182255
0.21089257 0.1255462 0.14215551
0.015214262 0.0035505684 -0.16589557
0.21080041 0.17204776 0.1590709
-0.05855288 0.24197401 0.061980236
0.11793404 -0.10574999 0.15758172
-0.03227785 -0.07434833 0.26287422
0.08671376 -0.20828629 0.118626654
0.009390235 0.27342644 -0.18372284
0.21931727 0.17453954 0.14050952
0.12458543 0.28555635 -0.06659413
-0.21987173 0.1144644 0.046735838
-0.22951369 -0.091819696 -0.06931217
-0.009253007 0.0030246384 -0.2094335
0.043502375 -0.06156644 -0.0810752
-0.16157356 -0.14435783 -0.007325927
0.028271606 -0.29653016 -0.040284686
-0.21431887 0.08068004 -0.10095799
-0.14887969 0.24796014 -0.041049495
0.03976887 -0.27202135 -0.028094834
0.18364216 0.092693426 0.10466298
-0.07551784 -0.014839464 -0.21905878
-0.07093017 -0.042139754 -0.3042431
0.04563794 -0.030458093 -0.087862805
0.038003616 0.030234009 0.14819083
-0.025194412 -0.20332128 0.051837593
-0.0006403625 0.11409435 0.16562809
-0.096293405 -0.16743341 0.19449566
-0.10744196 -0.20649202 -0.23260716
-0.09166407 -0.06812242 0.16891712
0.06010474 0.20215745 -0.15338057
-0.049004566 -0.13417885 -0.23369604
0.18566461 0.13189498 0.17948036
0.10882299 0.26394185 -0.002826076
-0.12231916 -0.11983638 -0.05150967
0.19871698 0.09790742 0.12982118
-0.18526052 0.12671746 0.060462892
0.047909617 -0.112845585 -0.055722658
-0.059138577 -0.28797874 -0.14277384
-0.02333716 -0.31236964 -0.042534146
-0.04301554 -0.14365831 -0.020589856
-0.06513449 -0.045434874 -0.1900776
0.009788127 0.030946644 0.26593155
0.02878648 -0.020820152 -0.074386366
-0.13241275 -0.050543938 0.17384003
0.14680152 -0.10780625 0.10717674
0.20000413 -0.111020915 0.22145426
0.2097001 -0.030255416 0.1931292
0.13806064 -0.13992523 0.18707122
0.22282669 0.026407294 0.21740891
0.115626305 -0.24362932 0.15213178
-0.08920385 -0.046581496 0.16597065
