# .PCD v0.7 - Point Cloud Data file format
VERSION 0.7
FIELDS x y z
SIZE 4 4 4
TYPE F F F
COUNT 1 1 1
WIDTH 1000
HEIGHT 1
VIEWPOINT 0 0 0 1 0 0 0
POINTS 1000
DATA ascii
0.07853396 0.08239231 0.054056283
-0.1902696 0.14883733 0.037051182
-0.0117236655 0.26401743 0.08671942
0.023780704 -0.21302335 -0.098995864
0.2439606 -0.077005 -0.11510964
-0.10756071 0.0041536116 0.05018064
0.06794925 -0.10502406 -0.018100306
-0.2555555 0.109660916 0.08727049
-0.30802047 0.19125113 0.072446
-0.22495975 0.24411295 0.09275823
-0.064161606 -0.031081675 -0.025279976
-0.10118921 -0.0025046254 -0.0067969877
-0.08131748 -0.021856174 0.12958354
0.04272077 0.10431813 0.14891621
-0.06333831 -0.20061788 0.030198254
-0.18036647 0.27919134 0.0925877
0.21300893 0.18364269 -0.06230956
-0.08376515 0.022938171 0.17340882
-0.16584912 0.24705832 0.087150425
0.16875957 -0.12552604 -0.11046059
0.10646468 0.078860514 -0.054314524
-0.24871092 0.22910804 0.029983474
-0.0050021466 -0.05948901 0.03415582
0.14104696 0.11699689 -0.056121603
0.1374505 -0.2393821 0.007951062
-0.028818768 0.3482747 0.00028603832
-0.15720071 -0.23363276 -0.015860401
-0.21043177 0.11132512 0.035186637
0.22069028 0.14266504 -0.034394804
-0.072073326 -0.15208566 0.05346934
-0.29832575 0.16440628 0.08194955
-0.14053337 0.31050068 0.072083995
-0.039199553 -0.15349248 0.04184057
0.19251621 -0.27904 -0.0076011545
0.10475154 -0.15393393 -0.06056367
-0.023817621 -0.10834454 -0.00032433026
0.16088581 0.1977756 -0.045909155
-0.27801904 -0.02896271 0.0261607
-0.017432814 -0.1532425 -0.06607406
0.21804582 -0.021932894 -0.14065538
0.23289843 -0.2994893 -0.035025857
0.11307076 -0.011479002 -0.03554392
0.11733292 -0.013884559 -0.07488426
-0.17309903 0.20563875 0.04338528
0.017906552 0.24878874 0.0014179595
0.16273919 -0.1289257 -0.11744002
0.25273263 -0.31538013 -0.050164748
0.13063967 0.3068432 0.0029466795
-0.069896355 0.04489892 0.18514879
-0.23777305 -1.3643442e-05 0.021110103
-0.20820008 0.033994906 0.11678102
-0.048130296 -0.14865701 0.045180913
0.101860456 0.16512968 -0.036628228
-0.2216954 0.16483814 0.048367716
0.14348072 0.010372406 -0.07712474
-0.07779195 0.055975005 0.1697246
-0.2866539 0.04098006 0.079548396
0.08793058 -0.037533138 0.114623785
0.1588578 0.108512685 -0.062423617
-0.15190865 -0.19211793 -0.00038914662
0.19888508 0.14996785 -0.06502807
0.2385954 0.037353076 -0.0999348
0.14584684 0.21361293 -0.03893143
0.06682539 -0.23195936 -0.12413138
0.17937115 -0.046155084 -0.09735515
0.0931077 0.29959098 0.029112654
-0.08996845 -0.21470751 -0.016535772
0.07429129 0.077461764 0.09011813
0.20246167 -0.117359 -0.11286779
0.11198053 -0.12577568 -0.04206193
-0.0070827752 -0.055643734 0.01612917
0.078288816 0.279463 0.029163875
-0.26665506 0.20164591 0.032017536
-0.06174319 0.31324202 0.034664236
0.00574422 0.21145406 -0.0025156864
-0.00868729 0.26095718 0.0876673
0.20519705 -0.12165148 -0.08534823
0.16984221 0.26722226 -0.022686036
0.08674504 0.016179755 0.07938085
0.08493989 0.037857357 -0.018727139
-0.16197015 0.11623018 0.023384487
-0.08158222 0.060299587 0.15438001
-0.2458613 0.14815268 0.0515333
0.06589336 -0.28088304 0.0024540771
0.106427215 0.16150974 0.033715464
0.22240931 -0.3027394 -0.14928868
-0.17885406 0.284374 0.088873595
-0.027106244 0.13908643 0.005118515
-0.15105453 -0.035882387 0.077956304
-0.16003199 0.18498056 0.12288987
0.21784256 -0.25006825 -0.046883445
-0.0511947 0.22227734 0.10306812
-0.2037995 -0.1886333 0.010066731
0.11302951 -0.12024455 -0.031962942
0.0661877 -0.31639275 -0.06964487
-0.11128334 -0.22988671 -0.050199635
0.1609801 -0.3458401 -0.040747676
0.0790992 0.08084379 0.13924733
-0.29570884 -0.052035406 -0.011356086
-0.26549178 0.21273626 0.031267643
0.04900214 -0.18400252 0.005791407
0.10640213 0.032414954 -0.06316848
0.19952299 0.2112137 -0.053679064
0.16238387 0.12663561 -0.05988947
-0.2009259 -0.05810675 0.0003294664
0.05367114 0.30283606 0.040099192
-0.16447903 -0.06868819 0.089726016
-0.18460591 -0.23463088 -0.0224242
-0.17351304 -0.14261693 0.060337063
0.2269703 0.09063819 -0.08374198
-0.19997454 -0.094761714 0.083322935
-0.16108395 -0.09282429 0.085546926
0.1520805 -0.2994144 -0.14082529
0.2407711 0.08366173 -0.12646267
0.2145155 -0.26376435 -0.1310496
0.2360735 0.11301302 -0.04410136
0.19216272 -0.26856446 -0.13694023
-0.14744562 -0.19100103 -0.03910895
-0.0057850475 -0.06751304 0.07232233
0.20111512 0.10084975 -0.030267261
0.059785463 0.17031296 -0.024578469
0.004906753 0.12128687 0.15038884
-0.11013475 -0.005767006 -0.0135405315
-0.12876089 0.3114695 0.08274602
-0.17079788 -0.13704966 -0.022666741
-0.14182174 -0.2040522 -0.06198994
-0.1323009 0.1741116 0.026640097
-0.26700854 0.22441664 0.061428174
-0.08129612 -0.025934463 -0.024972856
0.061283857 0.10073289 0.16132955
-0.13217953 0.2636122 0.08146164
-0.1434407 0.058484983 0.0074854097
0.18198696 -0.10921212 -0.07232495
-0.11217089 0.31757256 0.033058234
0.106390774 0.04838316 -0.060115404
0.16971964 0.26392412 -0.07335801
-0.24210572 0.15847223 0.09027725
-0.078490674 -0.08556221 0.03241456
-0.13909742 -0.1759997 0.038242765
-0.15539673 0.21252292 0.11574354
0.034319468 0.30297557 0.007452237
0.14461468 0.30544114 0.016233442
0.1117694 -0.10264437 -0.020292258
0.14992449 -0.04953835 -0.017656237
0.08232999 0.22327891 -0.02038883
-0.0005943418 0.3290887 0.021614892
0.048571076 -0.26308182 0.005583352
0.034410745 -0.0015330262 -0.049156364
0.20432135 -0.37493917 -0.11615269
0.17310905 0.026517535 -0.0818296
-0.11662394 -0.19021553 0.027890218
0.24025618 -0.017863162 -0.10913511
-0.30083627 0.074329056 0.08839026
-0.13064882 -0.052829504 0.060975548
0.07307044 0.32893398 0.0029831459
-0.024595885 0.24580732 0.01202099
0.07592559 0.073073626 0.018017642
-0.060300305 0.07890294 0.1826348
-0.017802054 -0.071956925 0.11677446
0.1601365 0.0011500139 -0.08326454
0.12932722 0.07412528 -0.06122874
-0.06176013 0.2315259 0.019062528
0.034083363 -0.06507455 0.08756721
-0.18750772 -0.060202464 0.09687484
0.23602192 0.15476526 -0.091603704
-0.005360268 -0.21432479 -0.118673384
0.074918725 0.08784339 0.04994186
0.15877399 -0.10356527 -0.065144815
0.09643056 0.0034032827 -0.028328007
-0.09841095 0.081309095 0.0816729
0.015139001 -0.19428702 0.022157636
-0.2094239 -0.16563033 0.01978841
-0.080135055 0.20395136 0.107682936
0.08221124 0.07477321 0.052909322
0.0018704961 0.21257536 0.08040218
0.049604837 0.13294826 -0.029037973
-0.14841354 -0.16225448 0.05149241
0.24555908 0.094904244 -0.050053183
-0.050666843 0.14852834 0.03805579
0.06957052 0.010733164 0.024709005
0.22496712 -0.3182665 -0.16116607
0.2278066 -0.3123239 -0.15318465
0.05170891 0.007813268 -0.053489733
-0.24255137 -0.071527876 0.0087080505
0.119363844 -0.33197314 -0.021744044
0.03834396 -0.25471386 0.0016653637
-0.056503654 0.3055303 0.06957514
0.19025943 0.2367276 -0.08395162
-0.05758534 -0.13015129 -0.05110958
-0.16977403 0.07193199 0.1056676
-0.03910742 0.103904374 0.16806424
0.21896861 -0.27989736 -0.032152228
-0.17884971 0.29905587 0.047505267
-0.0031313938 -0.19756548 0.026775917
0.08861744 -0.01962568 0.12224731
0.2524191 0.12360088 -0.049882356
0.1588255 -0.006611496 -0.011301715
-0.022421947 -0.062444393 0.15076916
0.014995311 0.21878757 -0.0035465609
-0.022928631 -0.10989121 -0.0032526096
0.12594524 0.18725589 -0.038733736
-0.07535848 0.2680272 0.02960814
-0.010937928 0.30701202 0.02011973
-0.11069345 0.079995334 0.049638864
0.044278506 0.20346451 0.064202026
0.14904319 -0.11851753 -0.103202716
-0.022092005 -0.12791985 -0.060012896
0.240665 -0.051827434 -0.08573562
-0.257647 0.12571394 0.08810624
0.06809697 0.26696774 0.04103911
-0.116122 0.24906032 0.101974614
0.19273697 -0.23793551 -0.11659445
0.22210005 0.18846594 -0.09824284
0.03694889 0.28651497 0.041377652
-0.19724809 -0.08370172 0.08924931
-0.076771975 -0.22206816 -0.021128694
0.072690964 -0.23109342 0.022435138
-0.16231717 -0.22573636 -0.051778078
0.13699318 0.030672783 -0.07154262
-0.20462416 -0.18398991 -0.06050026
0.025101328 -0.2229828 0.012874095
0.009079908 0.28751293 0.048893806
-0.30633014 0.099370405 0.02906636
-0.15967241 -0.0627784 -0.011406891
-0.30691338 -0.043155648 -0.0067150877
-0.06855999 0.074322246 0.13700622
-0.13274413 -0.22564812 -0.03641203
0.1437697 0.30785748 -0.020741181
0.13042372 -0.24269441 -0.11103064
-0.26705483 -0.09183577 0.049031243
0.0109062735 -0.023960166 -0.048832517
-0.07201583 -0.12533775 -0.04639656
-0.29948893 0.050613143 0.08474959
0.07205825 -0.14724572 -0.08845264
-0.17315899 -0.22641379 -0.06595467
-0.080998026 -0.021698605 0.00085368165
0.05868872 -0.25505945 0.016612465
-0.12896344 -0.17716701 -0.041325573
0.11551035 -0.24671018 -0.13440727
-0.2923899 0.037822504 0.042693112
0.077382155 -0.032547493 0.078589074
-0.2509992 0.11944114 0.047400627
-0.2274398 0.24404323 0.046640977
-0.23635052 0.2349837 0.086378984
0.082045235 -0.3272443 -0.054058786
-0.27450535 0.08649821 0.08504838
0.18560009 0.13977186 0.0010573909
0.21056758 -0.04659967 -0.067880355
-0.23845488 -0.11675796 -0.001006867
-0.25553775 -0.13667528 0.021887211
-0.14742255 -0.17803828 0.028183745
-0.110012725 0.10278572 0.0449195
-0.057873707 0.16967787 0.0062287813
0.12305728 0.27303076 0.016167432
-0.11500868 0.13452548 0.01453396
0.20864694 -0.071646065 -0.07215864
0.18618202 0.108772576 -0.06955697
0.0128639955 -0.21134283 -0.115370475
0.18469033 -0.028030222 -0.09529149
0.07223251 -0.06508475 -0.035046738
0.20187755 0.23355336 -0.021172564
-0.2816259 0.15118688 0.09927465
0.042192828 0.33750874 -0.00391205
-0.12032329 -0.06866749 0.060316578
0.11954605 0.16746917 0.03881988
0.110879056 -0.08729637 -0.08720803
0.0630256 0.10542184 0.07726872
0.09726047 -0.3214038 -0.105126135
0.15849747 -0.21360578 -0.010698549
-0.014815233 -0.13545467 0.022286436
0.1897872 -0.36472932 -0.11627374
-0.1980924 0.23811471 0.093918025
-0.025828637 0.101432875 0.18436198
-0.054099683 0.14116004 -0.00020930357
0.018417388 -0.26456442 -0.020988848
-0.3142732 -0.007671311 0.03666539
-0.021736449 -0.1576235 -0.06577952
0.21747455 0.14876197 -0.07014512
-0.12037533 -0.20659837 -0.04920402
0.1260593 -0.20852941 -0.114042945
0.118175514 0.01915415 -0.06879571
-0.0037655977 -0.16332702 -0.07159283
-0.19852884 -0.20885673 -0.06685168
-0.13809888 -0.1498745 0.06340551
-0.023981294 0.12271788 0.12515815
-0.0022699374 -0.051764604 0.00230085
-0.12142801 0.056213986 0.041790485
-0.1272927 0.053699512 0.0023267788
-0.13832247 -0.05274836 -0.01510344
-0.16418897 -0.028375607 0.08938566
-0.017374987 -0.2524985 -0.023713274
-0.25742218 0.077098526 0.09820894
-0.07370984 -0.02388159 0.16583697
-0.039989226 0.118307024 0.12179949
0.17082025 0.12433503 0.015370792
-0.06476817 0.21955977 0.017567893
-0.12584119 0.11975432 0.014560735
0.16603428 0.18597344 0.006519649
0.07243076 -0.05832841 -0.07156892
-0.24370165 0.23569776 0.06938994
0.20643546 -0.010721142 -0.0977022
0.13566716 0.03607177 -0.0701629
0.19854602 -0.3638439 -0.13026825
-0.0652023 0.048650675 0.18345448
0.22799832 0.18876515 -0.031857986
0.06106635 0.1005181 -0.038244486
0.1855459 0.056952074 -0.0039790208
0.16603774 -0.29878378 -0.14248493
-0.040827695 -0.19153795 0.035258025
0.2362517 0.14309317 -0.11231643
-0.2653657 0.040728316 0.08690253
0.0377579 -0.054974835 0.058159288
0.1279025 0.12251227 -0.05161277
-0.2755099 -0.030294806 0.025246449
-0.033135217 0.34148428 -0.005221921
-0.09183191 -0.22853689 -0.095691115
-0.17313483 -0.16101213 0.037299022
-0.0009861847 -0.17148559 0.027562229
0.03667729 0.14458998 0.014344047
-0.0969664 0.24996169 0.10454317
-0.3062233 0.14349964 0.040782563
0.2438091 0.15549774 -0.051352322
-0.00058181863 0.23577306 0.00379196
-0.10668722 0.08970592 0.04775872
-0.017824914 -0.25457114 -0.060468692
-0.1690697 -0.15277296 0.052283905
0.22367556 0.1259694 -0.038367916
-0.15715002 -0.099917784 0.08348406
0.19631499 0.0057187257 -0.051481877
0.044952285 -0.08456882 -0.06935742
-0.037482608 -0.08674966 -0.01034406
-0.018003045 0.20936531 0.084493436
-0.029550103 -0.24154326 -0.009225062
0.072068706 0.033804424 0.023973504
0.04917178 0.11577717 0.10566403
-0.12538661 -0.04417938 -0.016867533
0.25551057 0.0069470867 -0.075038895
0.07041017 -0.19855875 0.0047394824
0.033239484 0.124863364 0.08107728
0.12771337 -0.15798321 -0.124463186
0.16631822 -0.21363467 -0.10904994
0.03431097 0.30319852 0.045257784
-0.08253118 0.06320578 0.11526374
0.035629913 -0.074778564 0.12543026
-0.11876261 0.2388014 0.035435934
0.009269036 -0.26140454 -0.02081361
0.22851416 -0.29508606 -0.03390332
-0.14453612 -0.22423247 -0.04212202
0.20336288 0.21816638 -0.015420298
0.10795865 -0.087179616 -0.017646119
0.07022147 -0.004462193 0.015822629
0.092423744 -0.27220094 -0.103808664
0.06399708 -0.23040996 -0.072967336
0.17707656 -0.099189214 -0.14464109
-0.22484083 -0.07239009 0.08390444
-0.18767506 0.08107257 0.023427151
-0.099703245 0.06547045 0.09168883
-0.24169971 0.1188958 0.04485201
-0.058385406 -0.049359184 0.041240364
0.12635148 0.08533701 -0.058305006
-0.034232095 -0.076498926 -0.047001135
-0.1622424 -0.12262873 -0.022161575
-0.09086332 0.010792794 0.14062567
0.08102674 -0.29733777 -0.013066937
0.056505427 -0.035043597 0.039599653
-0.06279877 -0.028819343 0.16920415
-0.24312666 -0.066396 0.009839417
-0.11704975 0.03453249 0.04482026
0.062370263 0.10538499 0.06745482
0.18618847 -0.36625162 -0.10455718
-0.07274009 0.19551305 0.09912935
-0.31028074 0.13784981 0.028739367
-0.11924936 -0.20690104 -0.0117975185
0.09353689 0.20274985 -0.027255531
0.027029851 0.17690042 0.023050427
0.08457681 0.080014884 0.08390353
0.14018087 -0.13981691 -0.10494102
0.10868836 -0.32686582 -0.019198451
0.07008894 0.21315517 0.06473091
0.07126596 0.09581449 0.067508206
0.07266396 -0.11668192 -0.0827748
-0.114865914 0.21155736 0.0292083
0.08232228 -0.18189245 -0.135528
0.056803644 0.0041256924 -0.0555336
0.07692526 -0.31310174 -0.044599894
-0.06008789 -0.093697116 -0.043489415
0.18759239 0.14098762 -0.003965333
-0.2590901 -0.1164365 -0.027586853
0.04765463 0.11267568 0.15822648
0.0191662 -0.27355322 -0.07841503
0.1896698 -0.24980539 -0.009083399
-0.24550194 0.012119061 0.025458839
-0.13193646 0.084894925 0.009505347
-0.31054905 0.18444027 0.055830542
0.19071361 -0.3532301 -0.13506377
-0.14831321 0.19733714 0.035284784
0.20608547 -0.36796582 -0.065085284
-0.2788261 0.19625305 0.105653696
-0.042520903 0.08229096 0.17910463
0.10323063 -0.02100338 -0.07253686
0.19035675 -0.007194823 -0.09280211
0.09115825 -0.30837664 -0.01618869
-0.07973887 0.33219513 0.059130743
-0.17835583 -0.093308516 0.08743137
-0.03965921 -0.22961609 0.0045372657
-0.11045357 -0.1191339 -0.0351078
-0.17406385 0.20759973 0.11154791
-0.119274095 0.22442771 0.03282533
-0.16156499 -0.17693923 0.005048127
-0.084113434 0.010592353 0.17011021
-0.15210408 0.23604786 0.098978005
0.09889441 -0.33449814 -0.045497507
0.10894161 0.075792976 -0.055551425
0.13965032 0.12075456 0.018145597
0.07231396 -0.3193028 -0.049604367
0.24716812 0.030414255 -0.11587332
0.224899 -0.05700879 -0.14915584
0.11077314 -0.12724128 -0.057048734
0.11885967 0.08302004 -0.019017981
-0.3138197 0.1850946 0.041992594
-0.18424565 0.14584999 0.125356
-0.22575572 -0.031865392 0.011867968
0.14372021 -0.052339356 -0.089164734
0.22211374 -0.24885927 -0.063297234
-0.26184392 0.100956276 0.084481075
-0.0724809 0.2301706 0.021621656
0.06816519 0.049246058 -0.049902912
0.11373475 0.1253848 -0.04734034
-0.04771884 -0.04366735 0.047914024
-0.15297005 -0.22208437 -0.0058330996
0.08194875 0.07886984 0.0638804
0.26635545 -0.29837894 -0.06478372
0.09219314 -0.029664762 -0.03352937
0.06783038 -0.31855363 -0.063926816
0.24461648 -0.2949463 -0.15241118
0.12542967 -0.24733779 0.007891002
0.10797834 -0.29301757 -0.13206486
0.1943037 0.24067463 -0.032551147
-0.30779448 -0.0495728 0.010819163
0.2476097 -0.29078355 -0.15064798
-0.059015892 0.10267091 0.13339722
0.054209325 0.09978444 0.06320588
0.20056567 -0.32117113 -0.026880959
0.11688855 0.2346804 -0.027295694
-0.0135407755 0.19348934 0.043615654
0.01643657 -0.24949662 -0.10533675
-0.16075909 0.3145944 0.028117048
0.08125075 -0.19933257 -0.12891778
0.17246734 -0.22951476 -0.009456141
0.25443932 0.11526282 -0.06615222
-0.27657673 0.18035059 0.03690514
0.07971082 0.079068385 0.13180861
0.23340417 0.107196264 -0.12003144
-0.07656039 -0.08144404 -0.036819197
0.1370101 -0.28875938 -0.14151987
-0.16756062 0.08249847 0.018411865
0.06586533 0.27699146 -0.0058029597
0.17378686 -0.3606075 -0.091630355
0.014346312 0.12641466 0.023558076
0.033087693 0.1559052 0.017448274
0.060451757 0.10769414 -0.03671269
-0.28895465 -0.06489587 0.056582317
-0.15755704 0.15685241 0.029982781
0.12496201 -0.10680343 -0.029623916
0.18141155 -0.105708875 -0.14702544
0.094947465 0.22581214 -0.023221819
0.12443642 0.33368543 0.015695376
0.061371263 0.10266517 0.029065266
-0.020681145 -0.11313644 0.0040007993
0.23047446 0.18041247 -0.031783674
-0.22666793 -0.09573981 -9.116787e-05
-0.15557331 0.15734792 0.029556077
0.07851842 0.24977268 -0.014326978
0.08339221 -0.190147 -0.13738587
-0.08550665 -0.021798585 0.10059029
-0.21116054 0.0033177193 0.11213773
-0.053936522 -0.23124218 -0.008637595
0.24347277 0.013521284 -0.11967142
-0.06693195 -0.07494856 -0.03810953
0.1304139 -0.31074458 -0.1324335
-0.14583103 0.010041126 -0.0011381054
0.05137304 0.2237961 0.07260497
0.04957196 0.32288417 -0.012708452
0.2560484 0.08184764 -0.07768116
0.18852296 0.09497979 0.00073079014
-0.20714769 -0.15238655 0.021719351
-0.1676335 -0.009452637 0.091432825
0.0335505 0.3363981 0.022939803
-0.20008767 0.27987412 0.06272164
-0.082992494 0.13039811 0.043148924
-0.13561785 0.13248588 0.0978522
0.06987272 0.20660017 0.06269452
0.25108415 -0.0025974684 -0.0723633
-0.16131073 0.2062383 0.11667841
-0.03554649 -0.22493859 0.011683401
-0.062010933 -0.088222615 0.016919402
0.06265373 0.17835379 0.032258403
-0.22047946 0.22781792 0.09783641
-0.025928704 0.15427858 -0.00510929
-0.02328591 0.12727655 0.060343493
-0.31117207 0.055469867 0.07538534
0.085839964 -0.30388954 -0.020947147
0.15487577 -0.120320745 -0.06732018
0.19085942 0.13748789 -0.06530224
0.27170703 -0.28238133 -0.07407501
-0.06752035 0.067707114 0.18496095
0.1492929 0.209962 0.0046806685
0.23133321 -0.06492563 -0.07683847
-0.24184123 0.058066327 0.11217954
0.11675363 -0.24155238 0.011075192
0.112465255 -0.08523399 -0.0872311
0.11979545 -0.021378733 -0.07696276
0.11407705 -0.32891214 -0.019598952
0.16555923 -0.34470975 -0.03950389
0.09555317 0.019370584 0.113473445
-0.20872386 -0.10198275 0.0749475
-0.09358547 -0.16527687 0.053559132
-0.14728577 -0.041368566 -0.010574016
0.14854455 0.20229806 0.022312878
0.014933901 0.28371066 0.008868598
-0.042121034 0.29956776 0.026894748
0.19923158 -0.12387796 -0.09475668
-0.24488907 0.005651765 0.024062714
0.090901166 -0.0044164564 0.074295826
-0.03149665 0.24302639 0.013303892
-0.17904696 0.15245311 0.034791563
0.22883819 0.1434914 -0.036378726
-0.092624925 0.19251281 0.10790846
-0.044016972 -0.22756106 0.0055225273
0.22031224 -0.00076841493 -0.06168845
-0.13277373 -0.2170253 -0.08569628
0.01848009 -0.10117383 -0.06556985
0.14645463 0.13191527 0.023267442
0.040272485 0.14667577 0.01379672
0.04840364 0.1162682 0.103928715
0.18330766 -0.3384032 -0.13956043
-0.11410147 -0.10191816 -0.030861132
-0.07635462 0.09254135 0.11806638
-0.14940625 -0.13072914 0.07276631
0.1499362 -0.193345 -0.081135504
0.19937241 -0.110462435 -0.14250873
-0.026444623 0.24389148 0.097490445
0.025851548 -0.1548911 0.0051709157
0.1634502 0.050655603 -0.07468072
0.05025352 0.16267808 -0.023530772
0.17443204 -0.10596946 -0.14524047
-0.1563638 0.055464398 0.010305804
0.0334786 0.13280664 -0.024826217
-0.1400518 -0.1943543 -0.003932894
-0.18809114 -0.15967287 -0.02244168
0.13632955 -0.2721149 0.016298141
0.22584969 0.12906432 -0.038348354
-0.31665918 0.058208566 0.053936973
-0.08379309 -0.02791903 0.08729514
-0.27892262 0.06838795 0.04499033
-0.06262218 0.29934132 0.032240566
0.17699887 -0.24776348 -0.0021650349
-0.04835955 -0.13578396 0.04309253
0.029285949 -0.07432567 0.13630715
0.08613111 0.064319186 0.052862097
0.22759144 -0.0038243672 -0.13970599
-0.07637328 0.23982221 0.024488218
0.2319705 0.09914362 -0.121192366
0.18015368 0.25207415 -0.07475382
0.017858095 -0.06865509 0.08534919
0.2027108 -0.2586226 -0.11767174
-0.08349636 0.33118522 0.06139108
-0.096008755 -0.01154877 0.07799916
-0.20877436 0.23806623 0.058956508
-0.02423289 -0.14250451 0.03252441
0.036307212 -0.27429676 -0.015995704
0.07411531 0.106890775 -0.002697079
0.013469786 0.13280642 -0.019566756
0.24153166 0.053540576 -0.056894388
-0.05282787 -0.19544207 -0.06482938
-0.18053141 -0.08471123 0.089975305
0.27570647 -0.27930334 -0.09101531
-0.22732452 -0.15222935 -0.047481965
0.0943724 -0.33275142 -0.046883836
-0.2774145 0.011348725 0.07146069
0.037768662 -0.22201316 0.011300305
-0.18346606 0.27856016 0.092583224
-0.19155785 -0.019503461 0.0052394005
-0.3080816 0.05356185 0.031328406
-0.20027588 -0.21001558 -0.06661356
0.2134709 0.080544375 -0.082121186
0.20084065 -0.36658272 -0.10595438
0.15037523 0.29869592 0.00030310173
-0.2323986 0.18422891 0.054884654
-0.15313493 -0.1973735 -0.0010783373
-0.07084181 -0.036082163 -0.029659094
-0.3088122 -0.046638213 -0.00688091
-0.16304633 0.06871507 0.09562828
0.043790027 -0.26160946 0.0017162872
0.23959555 0.10129112 -0.122786455
0.04888789 -0.005386701 -0.055269293
0.011441569 -0.02409881 -0.042951785
-0.027979095 -0.10045907 -0.05322092
-0.08392472 0.28260666 0.034644015
-0.25772682 0.08763882 0.09426155
-0.19686121 0.10505812 0.030422572
0.07223098 0.099237345 0.15816619
-0.21433945 0.13698664 0.119852826
-0.10182789 0.00057695806 0.072466075
-0.3199149 0.05025096 0.043145385
0.066437416 -0.298287 -0.074130766
-0.22125417 0.040991094 0.117579564
0.15273003 0.2853671 0.0079927975
0.08660026 0.11180018 -0.04280202
-0.3045195 0.15080434 0.029699087
-0.21417306 -0.20663081 -0.050226066
0.06467117 0.21954076 0.0677237
0.1079792 -0.07276722 -0.019731453
0.22529197 -0.052235767 -0.072826974
-0.042215478 -0.16266418 0.043134242
0.0039854106 0.24598645 0.0045421296
-0.018012946 0.27707535 0.016261885
-0.038390156 0.13813847 0.003379324
-0.110938065 0.2215627 0.03008689
0.24973555 -0.2900263 -0.14649582
-0.09658697 -0.20841928 0.005775174
-0.22279392 -0.041721243 0.09874362
-0.2504709 0.01774178 0.10112519
-0.17473646 0.3047729 0.03706997
0.08994933 0.21822092 0.05883739
0.014642494 -0.23728319 0.0067276475
0.1736273 0.032966636 -0.080734365
0.09137814 0.19385833 0.05290705
-0.16001597 0.11042397 0.02176221
0.07809797 -0.08150586 -0.07748516
0.033722676 0.33551145 0.02896043
-0.2986556 -0.070495486 0.009534841
0.019786699 0.32014084 0.05231081
0.00391746 0.13559672 0.06679562
-0.20936999 0.2298081 0.057535764
0.15299006 0.17072085 0.028332314
0.1765655 -0.31681833 -0.14275464
-0.28176507 0.09718715 0.088998
0.23162298 -0.025858497 -0.1296146
-0.07376757 -0.13807184 -0.048368167
0.08368901 -0.1594014 -0.056071434
-0.15972613 0.18453768 0.035840105
0.091688134 -0.3322296 -0.069631584
0.16322313 -0.14125665 -0.073512845
0.100022815 -0.25113678 -0.13147923
-0.00063387596 0.23438555 0.0035405492
0.18718597 -0.33055475 -0.14521012
0.036578655 0.16966455 0.019158695
-0.034758713 -0.17299962 -0.06529294
-0.010562522 0.12433649 0.12779589
-0.2999982 0.20236124 0.08669675
-0.061565235 0.17139757 0.00752774
0.11273971 0.3243042 -0.04059309
-0.090928726 0.041626114 0.14043248
-0.10944063 0.335524 0.013697622
0.23653398 -0.018290322 -0.12043971
0.14778006 0.05533164 -0.06966875
0.22477233 -0.11635215 -0.087618716
-0.30658346 0.13185355 0.05081362
-0.10859817 -0.17750654 0.045150187
0.068814114 0.2113246 -0.019118883
-0.019690167 0.117361136 0.15005273
0.08657845 -0.16735819 -0.09611055
-0.048965923 0.12641983 0.04301022
0.08978497 0.24080901 0.05344191
-0.32163084 0.08245417 0.02114288
0.1794248 -0.28575686 -0.14285931
0.15348653 -0.326335 -0.12877709
0.081076376 0.18864934 0.050655093
-0.31446338 -0.016032422 0.029065538
0.11860266 0.16450644 0.037590597
-0.056264013 -0.23418446 -0.08632565
0.22832774 -0.0058504916 -0.102526456
-0.23728672 0.2535616 0.04391053
-0.17025563 0.1507283 0.032151204
0.15273169 0.2595985 0.0058015753
-0.026567977 -0.06960263 0.11691515
0.15728886 -0.22336046 -0.0022895115
-0.1132367 -0.028436573 -0.017054733
0.134998 -0.34535152 -0.038770676
-0.16280006 0.31278598 0.030563353
0.12486353 -0.224954 -0.12649925
0.1089656 0.14385958 -0.04255784
0.22638473 -0.101258494 -0.14567204
0.008082626 -0.13195084 -0.06871482
-0.29182136 0.18528232 0.048753563
-0.21652108 -0.016949931 0.012289342
0.07244215 0.2418111 -0.01425027
-0.1243043 -0.15256666 0.06211981
-0.0459619 -0.13723876 -0.055518124
0.039482147 -0.074369535 0.12795097
0.17419581 -0.27789196 0.0038917703
0.13452975 -0.28368026 -0.12103914
0.14506507 -0.04966321 -0.08900723
0.029425334 -0.045370482 0.015199772
-0.21005066 0.10430401 0.033745702
0.1569126 -0.28590098 -0.14338756
0.21017197 0.0982198 -0.040118005
0.056440294 0.28765023 -0.001289424
0.20039159 0.01650674 -0.045418598
-0.09738621 -0.07131566 0.034578845
0.17944178 -0.21977887 -0.023772553
0.22841963 0.123195484 -0.07790492
0.14320143 -0.34449023 -0.03681841
-0.034059945 -0.24546847 -0.054376222
0.061959904 -0.115584046 -0.014932765
0.23812345 0.084853284 -0.12553898
-0.1647979 0.27184647 0.053848457
-0.073984064 -0.18091178 0.043780696
0.15851226 0.1972943 0.008442803
0.13734648 0.016262408 -0.019641016
0.17091225 0.18087183 -0.012211396
0.09461417 0.03575588 0.110859945
0.02303092 -0.1711481 0.015817791
-0.073683575 0.14384805 0.0054517696
0.1535631 -0.3256276 -0.010131788
0.19685994 -0.1153729 -0.1261645
0.010779806 -0.21500413 -0.10247062
0.19566637 -0.001456287 -0.09310208
-0.18758374 0.08617829 0.11997566
0.19081494 0.18681207 -0.018109972
-0.009901117 0.13721693 0.0016665078
0.15002535 -0.052447762 -0.09084277
0.025827749 -0.19977567 0.018300692
0.18781811 -0.21141556 -0.07852121
0.17980257 -0.27600098 -0.14132069
-0.13648692 0.2370379 0.10556859
-0.0025322605 0.29090253 0.014833294
0.08009952 -0.28942347 -0.11711397
0.21990772 0.17709279 -0.103134245
0.057125106 0.2528088 -0.008123676
-0.23470052 0.2339549 0.09229508
0.09031463 0.0838578 -0.0113545
-0.1941244 0.11454247 0.031514544
0.26904723 -0.31118923 -0.05041441
-0.18406361 0.2783221 0.09258214
-0.26537216 0.15792482 0.096289024
-0.024923148 0.34842393 -0.0022190982
-0.000606162 0.30230033 0.016503759
-0.033698868 -0.23240636 0.0032236036
0.20456994 0.06811242 -0.039854635
0.07144819 -0.27470243 -0.10245043
0.04988572 0.18135144 0.021616058
0.03407601 -0.24382186 0.0022294056
-0.22920223 -0.057709318 0.08934479
0.028344449 0.22023235 0.078197524
-0.06074681 0.08842121 0.16284479
0.0783363 -0.07472552 -0.07625294
0.05565532 0.05155166 -0.038110983
0.0046610623 -0.067147925 -0.01767896
0.0626293 -0.28583637 -0.087756865
-0.20158839 -0.015007785 0.10754218
-0.05097185 -0.121517435 0.039453503
-0.0545746 0.09271208 0.1677988
0.1697987 -0.016628727 -0.015300721
-0.06762816 0.25566587 0.10104031
-0.2184553 0.25330764 0.086718805
-0.16100128 0.31414127 0.023167614
-0.28680527 -0.086647145 0.035905905
-0.15540059 -0.03431752 -0.0070941565
-0.13539293 -0.18893184 0.013541363
-0.22921145 -0.053642534 0.09123762
-0.17740582 0.049153607 0.105500415
0.097648986 -0.19915128 -0.104895085
0.22699241 0.011129537 -0.13669285
0.20478436 0.17244786 -0.024525171
0.08104483 0.3256891 0.01936678
-0.13586774 0.10402386 0.014192035
0.108978905 0.046483926 0.13843133
0.23163556 -0.078225866 -0.1549788
-0.18478155 -0.05949326 -0.0041794926
0.20041525 -0.045743417 -0.102808274
0.043088302 0.14055681 -0.025872037
-0.17588437 -0.04861792 -0.004440908
0.249952 -0.2841999 -0.052238382
0.09697451 -0.2568619 -0.13109991
-0.068153925 0.050783496 0.17223947
0.11612182 0.31893793 0.025899231
0.16235827 0.034669045 -0.004792442
-0.057842538 -0.048321903 0.15674567
0.11211509 0.15390752 0.029450558
0.087094955 0.052052487 0.039926082
-0.11658889 -0.22470611 -0.016354226
-0.25996003 -0.109467015 0.043798864
-0.16514523 0.07555699 0.016451322
-0.18637176 -0.10765178 -0.012958534
0.04574916 0.19849442 -0.015506401
0.18680966 -0.29301596 -0.1463747
0.07017948 -0.29935578 -0.10351407
0.25831717 0.06908177 -0.070298
-0.2411395 -0.06298795 0.07627109
-0.2327296 -0.05767416 0.008772052
0.23578233 0.112470075 -0.08859621
0.21855645 0.1995392 -0.07529436
-0.112987235 0.22112247 0.11616614
0.23562637 0.08472374 -0.1249073
0.2490606 0.12519783 -0.0462753
-0.081282906 -0.011917285 0.15502264
-0.073196284 0.090196826 0.13014583
0.07614138 0.03338626 0.039620988
-0.04230865 0.20730661 0.09278094
-0.25343096 0.020670936 0.02917635
-0.060762763 -0.10639405 0.03703048
0.036658622 0.2916489 0.0046743015
-0.114347786 0.02585204 -0.003393001
-0.27168983 0.14484861 0.09545213
0.14210063 -0.19513948 -0.092728816
0.16492863 0.15146458 0.02115018
-0.17856991 0.05344564 0.10768675
-0.10891127 0.12858804 0.011797515
0.24284898 -0.0037833864 -0.06818856
0.15536073 0.017755669 -0.0085051665
-0.1649378 0.1398089 0.12243205
0.15854748 -0.24553369 -0.1367352
0.14303048 0.026153374 -0.015744576
-0.15372227 0.28917292 0.054245688
-0.30241397 -0.023672348 0.005060742
0.2330878 -0.024800524 -0.1258811
0.092793524 -0.21524192 -0.110855624
-0.11625535 0.15558895 0.018884737
0.19377123 0.18117468 -0.019963749
0.20479316 -0.24914366 -0.027078183
0.21689525 -0.040723108 -0.11625773
0.074508876 -0.27948627 0.0052704033
0.104540765 0.21542385 0.05243892
-0.29555473 -0.073955216 0.018776601
-0.24550158 0.124111466 0.046847336
0.19691335 -0.22097862 -0.08123964
-0.012852555 0.28289047 0.064283855
-0.17178193 0.13460335 0.029473012
-0.08641097 -0.13227493 0.05987535
-0.21587144 -0.023568792 0.10631499
-0.10172742 -0.21656623 -0.067393556
-0.006363711 -0.07060495 0.09180097
-0.21591023 0.1280539 0.120958075
0.15425459 -0.19229981 -0.058162846
0.20604023 0.22050312 -0.06255384
0.010998018 -0.09901883 -0.06319143
0.1414687 -0.35015753 -0.0554005
0.16313463 0.27177453 -0.05445171
-0.058102686 0.06905517 0.17225106
-0.16773365 0.20348279 0.11581626
0.031826913 -0.06510753 0.08531991
0.108896635 0.009472581 -0.030445565
0.064315304 0.012419215 -0.05592399
-0.18710436 -0.22888225 -0.060495373
-0.14477453 -0.052341036 0.0765048
-0.1861902 -0.23134738 -0.04590041
-0.14168304 0.15358439 0.02518596
0.03653732 0.33298227 0.042968117
-0.28458077 0.18524867 0.10434705
-0.2347956 0.042804655 0.11451187
0.0589357 0.021095604 -0.052852552
0.17215608 -0.08659556 -0.103181675
0.110468075 -0.26613092 -0.13625634
-0.3041324 -0.043094274 -0.0074343057
0.16043773 -0.31241798 -0.001299777
0.07615879 0.019456184 0.009645005
-0.08770975 -0.21292466 -0.058998927
0.23925392 -0.1096205 -0.092109054
0.18293253 -0.3211522 -0.018141745
-0.22193596 0.023505379 0.021438662
-0.08189251 -0.1697789 0.049975947
-0.05879098 -0.21484186 -0.06696681
0.11565944 -0.19621123 -0.0110596465
0.1452389 0.05041544 -0.06993957
-0.21711026 -0.064322695 0.0033966848
-0.14804135 0.23062266 0.10684489
0.12653533 0.15658966 0.033445094
-0.1620036 -0.21555507 -0.077732064
0.22926582 -0.2522975 -0.09816252
-0.21202332 -0.120390885 -0.008648718
0.23474535 -0.261521 -0.095509365
-0.016379999 0.32848734 0.02565178
-0.03324681 0.26930255 0.08751211
0.17385633 0.014637444 -0.08429516
0.101899676 0.06278744 0.14340603
0.19136636 0.24097331 -0.009349083
0.21651909 -0.10677827 -0.08227002
0.076863214 -0.04658332 -0.07049121
0.24572048 0.073995106 -0.12825009
-0.3136743 0.12256574 0.036247686
-0.18281214 -0.10357523 0.083063625
-0.02890666 -0.24462594 -0.06599582
-0.23034786 0.1300571 0.04399949
0.077933885 0.015314743 0.04976013
-0.20115589 -0.21740624 -0.008671794
0.1818191 -0.08010801 -0.06672245
-0.04642586 -0.22303815 -0.07774937
0.05440542 -0.06106502 0.10376093
0.021510437 -0.058339246 0.049206574
0.13294512 -0.28144023 -0.14249235
-0.065449014 0.07184741 0.18257765
0.060519665 -0.1587041 -0.024234772
0.028125063 0.16174139 0.019867064
0.19355284 -0.36330658 -0.06419372
0.21788724 0.07554996 -0.0842361
0.17939705 -0.25838834 -0.00031258698
-0.18843026 0.28747714 0.025285134
0.039938264 -0.26727423 -0.0047162822
-0.001673113 0.1401999 -0.014174053
0.101921365 -0.31809795 -0.010029736
-0.1049241 -0.13271306 -0.039154537
0.12951687 0.2990802 0.001749506
-0.15788451 0.30270547 0.06877439
-0.10977387 -0.042897392 -0.020726636
0.1977692 -0.29707792 -0.015110946
-0.17126854 -0.06262533 -0.00832952
-0.122636616 0.14759521 0.09620493
0.15237004 -0.05241489 -0.091452695
0.070052855 0.13391365 -0.03422886
0.1637965 -0.35199848 -0.103213444
-0.10769812 -0.1813987 -0.047723874
-0.23100773 -0.15788564 -0.04857947
0.050643098 -0.056046568 -0.06540593
0.10176856 -0.30932993 -0.12042645
0.07616932 -0.21397062 0.015802056
0.028725252 0.2011401 -0.010526212
0.21082167 0.16454762 -0.06538146
0.01969272 -0.27288395 -0.036643304
0.18303432 -0.036092468 -0.045007184
-0.09109001 -0.23332134 -0.06516908
0.072503835 -0.23353481 0.022726346
-0.264122 -0.12874517 -0.0005341549
0.15924354 -0.23073815 0.0009813186
-0.22528972 0.15605387 0.10568141
0.17529427 -0.2968301 4.7401856e-05
-0.201276 0.2572908 0.097322695
0.10128293 -0.08442897 -0.018346844
0.03596261 -0.04256103 -0.058971502
0.21785595 0.17042965 -0.103867665
-0.26126242 -0.041178055 0.01942299
-0.19287856 -0.020405022 0.0054144314
0.15964982 0.05814632 -0.00014653419
-0.09046681 0.06857873 0.12025079
-0.009836162 -0.032241676 -0.041682564
-0.31395566 0.016078703 0.057273738
0.09999483 0.03273871 0.08816617
-0.29523197 -0.01610967 0.03314003
-0.18752341 0.035064735 0.11043136
-0.094219655 -0.18385832 0.041238606
-0.09845782 0.030567806 0.11934624
-0.15925428 -0.2026803 -0.075996
-0.089461595 -0.10629075 0.05652003
0.11368207 0.32217377 0.02773185
-0.10216222 0.23440202 0.11211035
0.13463563 -0.19517784 -0.05761164
0.13965029 -0.0052524046 -0.079102315
0.18330057 0.039389588 -0.08205051
-0.15928283 0.01340717 0.0030411133
-0.29527554 0.03589763 0.08084429
-0.18323265 0.12078319 0.029843288
0.114840806 -0.28744316 0.015357397
-0.25108346 0.020529032 0.10112923
-0.11976168 0.0699621 0.0034531543
-0.16457927 0.09927574 0.11052079
-0.058359727 0.08332556 0.17868327
0.050468877 0.017670127 -0.037420996
-0.20777373 0.25784585 0.094860815
-0.08606447 0.28442872 0.07331497
0.22094624 -0.06053874 -0.14879075
-0.16707174 0.17790177 0.036503915
0.13683063 0.13490222 0.02388109
-0.16022532 -0.23423406 -0.02206264
-0.23569569 0.25638676 0.041199297
-0.16854522 -0.23596792 -0.0078024366
0.118353374 -0.0298139 -0.07819464
0.21000488 -0.116304316 -0.081609026
-0.0031218051 0.32658857 0.059564177
-0.010614385 -0.116918914 -0.06092904
-0.11453375 -0.22899374 -0.0500823
0.13918036 0.026583584 -0.07289816
0.2148385 -0.26471555 -0.032485064
-0.2011781 0.26047704 0.09648139
0.0371855 -0.20422384 -0.1193691
0.12377677 -0.3355265 -0.025313238
0.09024856 -0.1524811 -0.094234206
0.23671842 0.026314255 -0.10412111
-0.19225861 -0.12032218 -0.013831266
0.245694 0.13321708 -0.043265272
0.07860065 0.26726937 0.026753195
-0.18009087 -0.18764491 -0.052250177
0.20906839 -0.04882396 -0.1297488
-0.3045699 0.19287941 0.08595502
0.09861918 0.065586366 0.12420309
0.007487449 0.33956712 -0.016266631
0.11631157 0.32146785 -0.045064967
0.23395118 -0.3354193 -0.03845787
-0.10073544 -0.22911027 -0.08290411
0.010495057 0.25357893 0.08508256
0.12887903 0.13935643 0.024814427
0.112192005 -0.12256817 -0.09428959
0.24497297 0.053815752 -0.13017173
0.15114932 -0.20073807 -0.01785716
-0.17389263 -0.19189976 -0.034050282
-0.13720895 0.03254786 0.00089407776
0.10057045 -0.33634424 -0.079615474
0.04363918 -0.18064548 0.007621671
0.07998152 -0.022946857 -0.06679632
-0.27148587 0.13885973 0.05649442
