# .PCD v0.7 - Point Cloud Data file format
VERSION 0.7
FIELDS x y z
SIZE 4 4 4
TYPE F F F
COUNT 1 1 1
WIDTH 1000
HEIGHT 1
VIEWPOINT 0 0 0 1 0 0 0
POINTS 1000
DATA ascii
0.19454065 0.12357907 -0.21566151
0.14017452 0.027627762 0.010582728
0.009457126 -0.08462779 -0.107898064
-0.14688209 0.047994643 0.14432469
0.01034268 -0.1491296 -0.07592324
0.10269954 -0.10913637 0.017119179
-0.053828105 -0.23086427 -0.047591083
0.12027434 0.07744809 0.00972947
-0.07426779 -0.20000923 -0.063480586
-0.24444963 -0.14899923 -0.089610316
0.10187528 0.080363065 -0.20822804
-0.27352518 -0.06423107 -0.122135535
-0.21318921 -0.20995428 -0.04535676
-0.0817378 -0.21016783 -0.023539348
0.042404294 -0.035003707 -0.13480285
0.11244929 -0.054687817 0.08062748
-0.21952733 -0.1478523 -0.0902266
-0.037560824 0.28433427 0.08667356
-0.154013 -0.009794253 0.2548655
0.13224278 -0.1867567 -0.03582782
-0.12219435 0.05718026 -0.09889766
-0.15492947 -0.10173874 -0.036940902
0.17787102 0.014881771 0.24180554
0.034846015 0.26598197 0.07777934
-0.25798744 -0.015656909 -0.15835153
-0.13861363 0.024446633 -0.16953804
0.140743 -0.22881411 -0.048845805
0.20765169 -0.052302808 -0.10523288
-0.10912791 0.18172574 0.10840531
0.117154926 0.16923942 0.08365301
0.100210495 0.03650899 0.09624793
-0.17504086 -0.20486847 -0.06087264
-0.103622906 -0.016614927 0.19211368
0.0860626 0.004694635 0.24715132
0.27838194 -0.04364079 -0.14446682
0.11995757 0.011283307 0.05163817
0.050951514 0.21589813 0.07861003
-0.1480569 -0.2610718 -0.031919852
0.24033484 -0.12101912 -0.06983379
-0.10722965 0.10679933 0.007978283
0.029084243 -0.08064308 0.291212
-0.15716407 -0.112414286 -0.108563125
0.13495009 -0.27580613 -0.018786259
-0.2068639 -0.12042068 -0.064371936
0.06677818 -0.2146312 -0.056083806
0.22840056 -0.16258582 -0.08308375
0.17486823 0.18951647 0.11706538
-0.15048684 0.06655536 0.21549374
-0.04033786 -0.09568749 0.01186053
-0.028287731 0.25917912 0.116046965
0.09224838 0.10575848 0.049312115
0.20600332 0.16078536 0.16654435
0.10491735 0.044036333 -0.0854134
0.1540013 -0.20579736 -0.026031816
0.13194144 0.094818 -0.21571203
-0.07168028 0.017829707 0.24053848
0.10011875 -0.08052688 0.08042317
-0.23278156 -0.0041351556 -0.129623
0.0059798253 0.2594896 0.115852065
0.11504266 -0.056259796 0.27712402
0.21303962 0.03065265 -0.14171655
-0.10804035 0.117441095 0.03977058
0.11613952 -0.010863792 -0.1473247
-0.00021063596 -0.06344668 0.19534187
-0.14188895 0.10667395 -0.18685193
0.0021214264 0.19313441 -0.24696717
0.0964951 0.07316973 -0.20451312
-0.17502938 0.10113374 0.19768903
-0.029904112 0.13922268 -0.20374872
0.23685367 -0.003841738 -0.13025053
0.119980425 0.16457821 0.08184344
0.12458412 -0.11270658 -0.027363224
0.07788671 -0.29568374 -0.0072856355
0.1650254 -0.21891108 -0.053976912
0.1318768 0.16530553 -0.24577147
0.17730623 0.111491196 -0.22435522
-0.119520135 -0.020481182 0.03436411
-0.16464938 0.018023428 0.18504836
0.09438712 -0.26643577 0.0052959053
0.0026491315 0.03831924 -0.17257006
0.040831625 0.21435872 0.07270923
-0.011796043 0.16680463 -0.25268465
-0.23240615 0.033940494 -0.14925665
-0.10488677 -0.05557679 0.037962884
0.19023365 -0.18224122 -0.07291055
-0.12706797 -0.26951864 0.007109637
0.012894377 -0.19095984 -0.05435679
-0.19910383 -0.027328951 -0.15239319
0.0839184 0.009006515 -0.15753812
0.066518486 0.0804911 0.20808803
-0.017547188 0.14577545 0.17451064
-0.213859 -0.011668161 -0.12575796
0.00908864 -0.10251157 0.10337379
-0.06456421 0.18457228 0.040096033
0.21825682 0.038254235 -0.15193777
0.15453166 0.025986465 0.14584891
-0.170318 0.139953 0.121136144
-0.04513818 0.11164116 -0.119372614
-0.049100187 0.16602117 -0.010974551
0.25204948 0.0049411124 -0.13479489
0.09604945 0.13672203 -0.23728275
0.07912149 0.08484172 -0.2105143
0.13582495 0.1173312 0.18902174
-0.12000104 -0.008391048 0.2541078
-0.035086744 0.24365848 0.08936117
-0.0049036806 -0.2984361 -0.012798509
-0.17524512 0.08341412 -0.20952034
0.0046878364 -0.0011713996 -0.15220992
0.08093643 -0.06907022 -0.11727607
0.08487251 -0.008100085 0.25374967
0.17529368 -0.003924512 0.2515053
0.20318384 0.11491349 -0.19145064
0.039014462 -0.106409825 0.10188267
0.1715994 0.21481428 0.11601991
-0.15097444 0.18155366 0.15619734
0.16896206 -0.20365408 -0.027152069
-0.20835903 0.09185709 0.20250618
-0.048929118 -0.057246182 -0.12324096
0.10224115 0.06426563 0.21641825
0.030786568 -0.08011964 0.1534574
0.01267199 -0.076213755 0.25424933
0.011636584 0.048849672 0.2244589
0.13090947 0.13173713 0.07751219
0.078764364 -0.10230362 0.07844637
-0.22525893 0.018008582 -0.17574404
0.23630399 -0.18649764 -0.049909458
-0.11461699 -0.047986742 0.005183984
-0.23934591 -0.059160717 -0.13593906
0.214333 -0.18584341 -0.036381923
0.12162992 -0.27768764 -0.023625458
0.105374366 0.10611775 -0.0075668423
0.06772677 0.27838638 0.08728633
-0.17130296 -0.11273988 -0.108380795
0.036849488 -0.08248433 0.27506995
0.1604943 0.11231135 -0.22476116
0.043190554 -0.10176516 0.10903861
0.15376312 0.12101573 0.1406825
-0.074196264 -0.029047186 0.2155645
-0.0076259724 0.1708557 0.16156824
0.16392952 -0.112338066 -0.108927935
0.073473774 0.22003636 0.07138777
0.09675432 -0.08457533 0.08050431
-0.028582819 0.11036646 0.1765226
0.12655213 -0.03118637 0.2309159
-0.06180602 -0.15962942 -0.0119924005
0.040069014 -0.04962032 -0.1272637
0.10886026 0.074827835 -0.05095968
0.040209554 0.047716018 -0.17745352
0.06596816 -0.2506972 -0.037486434
-0.14085446 0.018195555 -0.17592628
0.082967244 -0.07327907 0.12898687
-0.090641096 -0.07629557 -0.11337665
-0.1583669 -0.20775162 -0.02470713
-0.051105052 0.1922219 -0.2364403
0.16563593 0.0112468265 0.24369222
-0.053800277 0.14581628 -0.045622036
0.2044228 -0.2356536 -0.029489014
-0.111295134 0.12657428 0.18450648
-0.060794774 0.054513786 -0.18085614
0.056337528 0.2105884 0.055377796
-0.14576828 0.0036227833 0.24793924
0.028029356 -0.20204645 -0.02783799
0.011924307 0.12397618 0.15240791
0.21250512 0.07152339 0.21256386
-0.031579368 0.28564003 0.07344737
0.08606055 0.06162984 -0.18467449
0.16986017 -0.22344244 -0.05164519
-0.2413041 -0.07087587 -0.09520066
-0.06939529 -0.18909024 -0.02475576
0.12618624 0.13601203 0.1793992
0.12821098 -0.10342138 -0.020038232
-0.18211558 0.07500398 0.21116953
-0.108453915 0.08383802 -0.01142807
0.1805615 -0.13895382 -0.060525324
-0.18363963 -0.20834707 -0.059070036
-0.06969919 0.08889055 -0.15356457
-0.08011904 -0.21367319 -0.011345864
-0.089032345 0.11317094 0.19139501
0.2072789 0.062864 -0.19931173
0.017859561 0.061533786 0.2179124
0.10831758 0.12020654 0.083480485
0.20753041 -0.17995055 -0.039413784
0.15869983 0.097460315 -0.18240593
-0.12494848 0.048211806 -0.087333284
-0.14228119 -0.011931753 -0.056303646
0.046393603 -0.25488362 -0.0006122103
-0.047985572 -0.2954396 -0.014300098
-0.069571145 0.07131532 0.21295772
0.16456729 -0.07626597 -0.052185792
0.088741526 0.073639564 -0.19086981
-0.12090159 0.24983504 0.12095885
0.061305877 0.123219624 -0.16280171
-0.060079865 0.101986915 -0.2192136
0.019265557 0.15067664 -0.022262901
0.06447207 0.06140743 0.21793048
0.023662845 0.0785039 -0.19331224
0.1209978 0.09183878 -0.2141646
0.18416268 0.039109956 0.22930619
-0.09885496 -0.011817525 0.15176642
-0.121508315 0.0453648 -0.12376549
-0.14600179 -0.2790448 -0.009031673
0.13700464 0.2175352 0.13735208
-0.021358427 -0.17222841 -0.019947402
0.09592573 -0.2456876 -0.0054043517
-0.13992989 0.24800166 0.11406794
0.22468214 -0.11984852 -0.105117165
-0.13969962 -0.21952942 -0.053348634
0.053950887 -0.1134387 -0.094370805
-0.2618542 -0.07660861 -0.12691936
-0.035016946 -0.20011944 -0.02876792
0.20792127 0.15300308 0.17055508
0.03294534 0.13773751 -0.018856809
0.04468858 -0.087035045 0.1370167
-0.13307369 0.06846306 -0.2018539
0.050739624 -0.030020876 -0.13738033
0.17856856 0.028533693 0.18096736
0.04577951 0.032036908 0.23309357
0.2669948 -0.13256012 -0.098605454
0.16562006 0.1430816 0.17571391
0.20248838 -0.2392229 -0.012950186
-0.031666584 0.12769221 0.18384914
0.18407433 0.09095441 -0.21377254
-0.008452301 0.21960478 0.13643274
0.07140102 -0.07605775 0.27828628
-0.09037245 0.058612965 -0.18294008
-0.23611413 -0.11613197 -0.0718705
-0.117856525 0.035272047 0.07639893
-0.118475415 0.0024240604 0.19162709
-0.12217656 0.16798653 0.1631639
0.012769013 0.03839447 -0.17261899
-0.17273484 0.09501913 0.16614397
0.2119177 0.056772053 0.21483774
0.13593751 0.04446029 0.12250966
-0.13032515 0.04163936 0.03509345
0.042735364 0.2930845 0.09849206
-0.08276731 0.21302234 0.13990213
0.17738031 0.20997109 0.111079395
0.062491238 0.16319548 0.16544706
-0.18741195 0.14292163 -0.22159012
-0.068991356 -0.14206187 -0.079487
-0.051230736 0.18192196 0.021967562
0.014973988 -0.17089981 -0.06470241
-0.12547109 -0.04999801 -0.12690072
-0.114740275 -0.05414604 0.27126378
-0.11651053 -0.030873878 0.028979544
-0.06434898 -0.025015116 0.26262337
0.056089092 0.023554135 0.23745728
0.102116175 0.01937238 0.07246531
-0.0049361205 -0.06477401 0.19260105
0.21698774 -0.024091413 -0.11978918
-0.020189246 -0.22386391 -0.016539546
-0.19800214 -0.10329082 -0.0785305
-0.18386826 0.026419941 -0.11883547
0.010885407 0.19999734 0.04365043
0.02327465 -0.087792985 0.13822883
0.021297734 -0.1442917 0.028249618
0.030200511 0.28428864 0.10304015
0.16395694 0.07908858 0.17401668
-0.06649263 -0.22753191 -0.049296547
-0.25617114 -0.13566123 -0.06969695
0.013068847 0.1464361 0.1741388
0.2335326 0.07882327 -0.20107315
0.14578587 0.13838573 -0.20349555
-0.14876373 0.11403311 0.1910108
0.072486885 0.06642632 -0.18713431
0.073936 -0.08382526 -0.1096608
0.0726268 0.21350752 0.061407354
-0.14418578 -0.10164141 -0.10025249
0.04857845 0.23491962 0.09378227
0.07428679 0.24072318 0.072130725
0.15454285 0.1684002 -0.23524882
0.1286101 0.055571515 0.008140876
0.09965123 0.06984274 -0.14362565
0.028009435 0.24814498 0.086983755
0.05852153 -0.23440076 -0.045881785
0.10949882 0.14815105 0.1731568
-0.11332231 0.14602406 0.17447968
-0.10183305 0.074900486 -0.2052047
-0.0906353 0.13658991 0.17932072
0.05912323 0.08383442 -0.20997472
0.172604 0.1097913 0.19287226
0.10083776 0.26354295 0.113665886
0.05128945 0.09010938 -0.038759705
-0.027355392 -0.14479813 0.012089892
-0.008942457 -0.2537851 -0.03581833
0.16485101 0.10897084 -0.22304301
0.121026926 0.0037947695 0.24758002
-0.106928594 0.07166927 -0.00094121427
0.16413866 -0.20029175 -0.028881123
-0.25330147 -0.055507712 -0.13780832
0.07237963 -0.27166924 0.008016657
0.10602357 0.24323423 0.089437045
-0.22230273 -0.18148768 -0.072880805
-0.18726784 0.017192323 0.23363653
0.03914876 -0.09487215 0.12420841
0.14905882 0.020114819 0.23913631
0.011857406 -0.30333376 -0.0006292079
0.062357023 -0.25896394 -0.0332199
0.13432236 0.102239616 -0.21954115
-0.009513817 -0.069429986 -0.08296889
-0.18494569 -0.05986252 -0.100936845
-0.2433883 -0.15603487 -0.051287815
-0.15917827 0.2107333 0.1411595
-0.038503595 0.010323024 -0.15809259
-0.146111 0.04474045 0.22673793
0.01203325 -0.16853222 -0.007894668
0.07069503 0.15314849 -0.21103153
-0.102516495 0.0778228 -0.10871663
-0.03554751 0.206441 -0.24406888
0.08310469 -0.11559969 0.04653437
0.070949174 0.1588048 0.063615985
-0.0865193 0.12590964 -0.041536056
0.042157993 0.08887604 -0.08374279
0.060599457 -0.15905231 -0.07085782
-0.100713395 0.22015874 0.13624072
-0.17546032 -0.0015001324 0.241319
0.1025972 -0.027823554 -0.13856643
0.13326558 0.004933551 0.24698013
-0.121541545 0.14060669 0.17728122
-0.08090773 -0.16607317 -0.06709404
-0.14833093 -0.08766681 -0.086637266
-0.17363974 0.01769998 -0.17563727
0.100841396 -0.065835856 0.2730954
0.114727676 -0.06624901 -0.017509695
-0.13875578 0.17740622 0.1583236
-0.14240895 -0.08274446 -0.056497637
-0.11364376 0.12954551 -0.23336992
-0.008108041 0.06543167 0.21592884
0.04445791 0.13815434 -0.23796877
-0.16449057 -0.04220849 -0.14394566
-0.0016553398 0.15754217 -0.030468987
-0.052213594 -0.029826706 -0.13737608
-0.07243339 0.113296926 -0.08960673
0.03354471 0.278175 0.10618922
-0.014261484 0.20892636 0.14194465
0.15756543 -0.02154155 -0.057130888
0.028370792 -0.2810602 -0.02179204
-0.05565453 0.204366 0.14433815
0.1291547 0.14606997 -0.2074409
-0.100810975 -0.035000052 0.233113
0.11558932 -0.12937659 -0.036600243
-0.085424714 -0.16400854 -0.0681542
0.00042103275 -0.12873472 0.045990285
-0.12565014 -0.009019747 0.026604889
0.1968949 -0.23760554 -0.039658066
-0.16958307 0.029432278 0.18773013
-0.24749705 -0.061582025 -0.1346825
0.07693621 -0.06777862 0.23671246
-0.0761169 0.14735386 0.173756
0.116233386 -0.102283895 -0.009140288
-0.12402635 -0.074405156 -0.1143172
0.031658214 -0.14252363 0.032436542
-0.20982648 -0.10389077 -0.11290464
0.22934811 -0.10800947 -0.07653106
0.21597852 -0.10798761 -0.07652876
0.15749696 0.038851097 -0.112488285
0.057768945 -0.13906612 0.028172351
0.03707796 0.095811 0.17958209
0.062729515 -0.13608575 0.029127505
0.017457947 0.16068093 -0.24955682
0.08490813 0.08302996 -0.04587704
-0.14832608 0.006685268 -0.16630019
0.025228942 -0.22922787 -0.048515037
0.079474 0.28346533 0.10341494
0.077628106 -0.02934081 0.26470965
-0.13355632 0.08127173 0.20788842
-0.083592035 0.11368317 0.19112533
-0.15076476 -0.11133525 -0.05962522
0.035215147 -0.03950946 -0.06713175
0.089364074 -0.17141694 -0.06451136
-0.146307 0.09997361 0.10516507
-0.207588 0.10095909 0.19781236
-0.029184483 -0.17718257 -0.06141801
-0.2012454 -0.07320651 -0.12873526
-0.12690389 0.16080503 0.118313394
0.06952179 0.12580998 0.18471709
0.13375951 0.14678317 0.088934645
0.23640433 -0.18986748 -0.056778148
0.11028724 0.07540792 -0.1033844
-0.15369324 0.086870536 0.20502202
0.09728468 0.049619444 -0.17849302
0.17888427 0.21039192 0.11557532
-0.13767932 -0.28577513 -0.012994961
-0.13683452 -0.012363759 -0.05608663
-0.090436 0.062756516 0.073441796
0.070135534 -0.22924732 -0.048550818
0.08238227 -0.007949703 0.25367466
0.05770806 0.10771056 -0.12308437
0.001475987 0.18897854 0.15221429
0.22712636 -0.08880913 -0.08642893
0.11332775 -0.033841204 0.2322984
0.1899492 0.09737702 -0.18239501
-0.22412981 -0.046406064 -0.107835434
-0.22660476 -0.089221224 -0.12045131
0.15652685 0.0141767105 -0.17415573
-0.057051968 0.0038358942 0.122453526
-0.03302459 0.16892245 -0.2537553
-0.012058939 -0.17209856 -0.017090103
0.086314104 -0.18426947 -0.002163454
-0.15178579 0.12553297 -0.2312618
-0.10676196 0.034713194 0.23186833
0.032029316 0.09979643 -0.11409115
-0.13095875 -0.0025357995 0.25109982
0.23799472 -0.14506154 -0.057434518
-0.0595855 -0.06709703 0.22342019
-0.23621434 0.04493443 -0.15492144
-0.18371351 -0.04344981 -0.14409636
-0.20512798 0.08301745 -0.20928548
0.25038922 -0.17172259 -0.07249999
-0.06746292 -0.06241535 0.28191128
-0.10821244 0.115715906 0.06679966
0.11169249 -0.052084386 -0.1260656
-0.074428275 0.19212984 0.06638461
0.060660947 -0.29762462 -0.0019603837
-0.21399392 0.011048869 -0.17216691
-0.13584404 0.04035816 0.22898693
0.056010395 0.0888657 0.20378049
-0.041570272 -0.04474812 -0.12969317
0.046421446 0.04846136 0.22462368
-0.03408328 -0.12656891 0.0026971155
0.14836149 0.0164658 0.02894649
-0.105187744 0.12999113 0.18273841
0.15638748 -0.030222517 -0.13738382
0.108682096 0.09825288 0.19888687
-0.030805718 -0.16403332 -0.06819686
-0.068057805 -0.16143094 -0.069500685
0.05116584 -0.19828448 -0.050618704
-0.044330426 -0.026222963 0.12645087
-0.137474 -0.07006889 -0.116539225
-0.26157185 -0.12700577 -0.10093345
-0.16092996 0.08836707 0.20425761
-0.15353069 0.02322316 0.16004477
0.094162785 -0.049580745 0.15529379
0.044807196 0.07876665 -0.10096839
0.09078241 0.07899533 0.20883489
0.20033832 -0.22913261 -0.014046558
0.060015336 0.048542537 -0.08410104
0.12712155 0.13279049 0.07697302
-0.23452437 -0.1797624 -0.057137605
-0.26332113 -0.04945542 -0.106223926
-0.07180594 -0.23352419 -0.0052799415
0.17196126 0.10189454 -0.21940154
0.0070305923 0.13219725 -0.07299331
-0.16374616 0.12101116 -0.22891794
0.059263002 -0.27336687 -0.02579015
0.03594506 -0.2701617 -0.027419234
-0.10439799 0.054470886 -0.15092063
0.10400723 0.18061641 -0.23023798
-0.1269492 0.005816931 0.2467883
-0.1514981 0.17375802 0.1602178
-0.009991362 0.20828311 0.05300097
0.05535472 0.29281566 0.09485995
-0.20367524 0.06301432 0.21737345
0.05661226 0.28830594 0.10094201
-0.18504421 0.17341255 0.16042995
0.11583945 -0.06690662 -0.006821108
-0.1449542 -0.17564657 -0.075970955
0.0095988065 0.070691094 0.21319899
-0.10563579 0.08332319 0.20680217
0.1216739 0.16428505 0.16482525
-0.19885221 0.013842496 -0.17362285
-0.13505828 0.23740332 0.0926878
-0.26388097 -0.06964581 -0.13050751
-0.08024524 0.10087787 0.19772501
-0.16297352 0.09201901 0.20237654
0.08156458 0.094209455 0.20099902
0.2121713 0.0935364 0.2012137
0.1570221 0.16128904 0.16633433
0.022794118 -0.08639304 0.2733931
-0.17699923 -0.16286033 -0.08253129
-0.19392481 -0.21799965 -0.054082558
0.13237187 0.2482054 0.102208845
0.27632877 -0.035097033 -0.14886993
-0.20334168 -0.19381896 -0.06654114
-0.09848372 0.032735676 -0.16958827
-0.1261092 0.03646549 -0.12626296
0.21903726 0.10661497 0.1632999
0.28809276 -0.116098516 -0.09805334
0.22490047 -0.13568732 -0.096950136
0.15636392 -0.051691975 -0.08023869
-0.057069115 -0.22361746 -0.051324703
0.1084452 0.08597814 -0.17643456
-0.15773948 0.07680765 -0.20613113
0.06852962 -0.19627078 -0.030127136
0.12764145 -0.0034263523 0.14721015
0.018235123 0.09050793 -0.19949624
-0.106562994 0.081699915 -0.045787748
-0.031511698 0.089543626 0.20351978
-0.07948703 -0.13197713 -0.084676564
0.046837546 0.019373167 0.23962262
0.019310225 -0.059840742 0.20199077
-0.17640875 -0.011080301 -0.16079456
-0.101801105 -0.16159098 -0.069384046
-0.21333246 0.025251696 -0.14292495
0.0288437 -0.057194185 0.20325391
-0.12128217 0.10912633 -0.22283301
-0.19226402 0.109265864 -0.2228327
-0.09884456 -0.025949266 -0.13932818
0.20869993 0.011338617 -0.13804977
0.11606151 -0.06844276 -0.024060203
-0.19111674 -0.027921215 -0.117400445
0.15672885 0.074579604 0.16665453
-0.14509688 -0.078297295 -0.03362012
-0.1698063 0.18760628 0.15309526
0.20205094 -0.21927723 -0.019663693
0.11050306 -0.02532211 0.17743832
-0.18262169 -0.02452875 -0.15385392
-0.07603058 0.18277733 0.15549031
0.19350508 0.1878502 0.12381739
0.11241066 0.1185012 0.08435533
0.20661475 -0.1635079 -0.04789104
0.24608684 0.02309432 -0.17884476
-0.12562773 0.2134284 0.13973624
-0.034087777 -0.04691522 0.13412136
0.100410834 -0.09434995 -0.104260705
-0.06406571 0.11678977 0.18950363
0.1292138 0.16374634 0.10567659
0.24370928 -0.17147164 -0.046905812
0.037382852 -0.011675161 0.25564134
-0.23184006 -0.14884678 -0.08970192
-0.12085318 0.10858311 -0.22255312
0.02862851 -0.0981857 0.11848814
-0.10871714 0.0828743 -0.20930949
0.19353323 0.05598972 0.22059293
-0.070660576 -0.24239074 -0.0069353413
0.237772 -0.14379072 -0.092785016
-0.24295409 0.040679455 -0.15272066
-0.18884504 -0.1556886 -0.08621733
-0.07298718 -0.19762535 -0.020244243
-0.13068879 0.10829352 0.19395255
-0.14943583 0.08337873 0.11483913
-0.120800845 -0.021296622 -0.009861988
-0.109820224 0.17211047 -0.22062576
0.11416268 -0.07694798 0.019285874
-0.037873663 0.03995628 -0.1733732
-0.033617727 0.070617884 0.2132805
0.078686304 0.12872794 -0.17167883
-0.05983562 -0.2898866 0.010139477
0.17745729 -0.15859173 -0.08509212
0.11550107 -0.013743578 0.12394176
-0.21917294 -0.09889185 -0.11547278
-0.012919432 0.18407464 -0.26158893
0.03938164 0.11057946 -0.12929285
-0.088396154 -0.020483205 0.2603107
-0.00831683 -0.17441742 -0.020679895
-0.09704513 -0.0060007866 -0.013142827
0.04663547 0.19731216 0.1478714
-0.122281834 -0.006194519 0.16257794
-0.0040642275 0.039616622 0.13184221
-0.10515943 0.16672882 -0.24993892
0.012757512 -0.04782986 0.22599146
-0.15409908 0.11769933 0.15443058
0.21915764 -0.15537126 -0.0867947
0.047048945 0.09677912 -0.046558164
0.23649207 -0.028630845 -0.15216364
0.1706574 -0.04240208 -0.13111785
0.20241058 -0.027914615 -0.15249859
-0.18094002 -0.110317476 -0.109620415
-0.015446031 0.18584672 0.01818178
0.053249083 -0.042577095 0.21859564
0.07688363 -0.13888407 0.009892656
0.12493924 0.20113505 0.14582106
-0.12609847 -0.20261963 -0.06208199
0.07765215 0.10008086 -0.21837032
0.08552338 0.023167856 0.23762643
0.09779789 -0.25349557 -0.0013800487
0.02086225 0.11154799 -0.2242259
-0.09519399 0.11335212 -0.22503832
0.102528214 0.06334972 -0.053734865
0.2538083 0.051232282 -0.18223828
0.16976243 0.102859356 0.19644958
-0.25356415 -0.11498063 -0.072446056
0.05565048 0.18038034 -0.22505786
-0.1233924 0.16292544 -0.215876
-0.26665783 -0.08334265 -0.12344196
-0.027945673 0.004288587 0.2474765
-0.16675575 -0.18294193 -0.0721869
0.041385587 -0.3138054 0.0045789424
0.014452244 0.12748675 -0.07279764
-0.1465798 0.06849361 -0.20185596
0.117040284 0.10782381 0.1939431
-0.16379306 -0.13429667 -0.09727333
-0.25752094 -0.14083993 -0.05910858
-0.054812454 0.040971305 0.2285885
-0.045964133 0.20552579 0.06347021
-0.18338864 0.12579833 0.18497966
-0.033886842 -0.18089837 -0.059497356
0.13980843 0.15017246 -0.20956703
0.081834644 0.276334 0.08280266
-0.24230787 -0.093016036 -0.11847883
0.22500135 -0.1684435 -0.08006045
-0.089723416 -0.19934951 -0.063805
-0.113249764 0.03312356 0.12860806
-0.14477889 -0.06351737 -0.054487094
-0.15019783 -0.07939185 -0.036631238
-0.21202748 -0.027743015 -0.15216665
0.18930945 0.16333643 0.16524571
-0.1559452 0.004471397 -0.11963139
0.07136283 -0.14316607 0.0069757225
-0.15985338 0.03781478 0.2303231
0.05490563 -0.10454348 -0.09895837
-0.10880277 0.14570087 0.17464156
0.088099994 -0.050938953 0.1636759
-0.1470497 -0.029645147 -0.13737355
-0.114987284 0.15186173 0.070794605
-0.22740489 0.03266868 -0.1833011
-0.11685559 0.0058384617 0.09814255
-0.119124815 -0.0021853822 0.07159895
0.08771846 -0.13950437 -0.0809648
0.21882261 0.10493675 -0.19643745
0.12144124 0.027805364 -0.16726926
0.048147984 -0.2635221 -0.030855302
0.07400577 0.099048145 -0.1687504
0.22092728 -0.08096929 -0.09046534
-0.07275984 0.11118257 -0.22394228
0.09855988 -0.011028427 -0.14722197
-0.26056498 -0.1387071 -0.06234403
0.018812006 0.23169845 0.1301689
-0.18219617 0.02641548 -0.14542736
0.1531738 -0.1932141 -0.06721482
-0.10422365 -0.010837784 -0.14711475
0.22718598 -0.088349186 -0.12136143
0.091650516 -0.001181576 -0.1522923
-0.071740665 0.00028640058 0.24958472
-0.12735373 0.1898869 0.15187684
0.08116037 -0.16652448 -0.067025736
-0.13216123 0.200894 0.14620595
0.020911293 0.15585355 0.1692748
-0.19113806 -0.16347305 -0.082201116
-0.116379954 0.16887808 0.10105042
0.03437667 -0.0409061 -0.12676409
-0.20510487 0.07267624 0.17769746
0.024175582 0.14984001 -0.014853056
0.088617325 0.18771432 0.06768226
-0.07549045 0.06065658 0.2184595
-0.18441813 -0.036744997 -0.1475527
0.025062252 0.122190595 0.16341981
-0.0818329 0.2279806 0.09749209
0.14739715 0.1366181 -0.23728105
0.15577213 0.23106608 0.10701142
0.14310361 0.1028375 -0.21985845
0.2585165 -0.08481088 -0.12321786
-0.0147387525 0.22628595 0.08876043
-0.10733594 0.109984875 0.014956097
0.16772471 -0.008338038 0.25378853
0.08761642 0.0761371 -0.17133899
0.04426581 -0.019824483 -0.14263138
0.09062645 0.073588245 -0.10063672
-0.20363036 0.054516915 0.21882972
-0.18985325 -0.20460261 -0.06099467
-0.20330845 -0.16448316 -0.046972014
0.1739317 0.08503942 -0.21071227
0.23743585 0.07821365 -0.18900353
0.0127112055 0.19041984 0.15145977
-0.064037815 0.019675817 0.23957899
-0.05397654 0.1660863 -0.006099895
-0.075259835 0.19526507 0.07361554
-0.18767811 -0.15812838 -0.08496047
0.102107055 0.0061980006 -0.15610799
0.09858152 0.2705588 0.08458021
0.19789353 0.11964365 0.18776637
0.048227143 -0.044779617 -0.12976807
-0.25412914 -0.15706088 -0.050748248
-0.17421588 -0.10225021 -0.06339152
0.11385581 -0.28071052 -0.022058733
-0.0051052743 0.19937558 -0.23479067
0.1174571 0.047242355 0.0663985
0.0156239085 -0.051628552 0.27626473
-0.037768483 0.13814293 -0.23787963
-0.2605757 0.017385414 -0.14069152
-0.08195661 0.15432256 0.0052451347
0.097438 -0.28670382 -0.0034194852
0.0574996 -0.1277474 0.050407153
-0.049306575 0.28112566 0.08466561
0.117298655 0.26058108 0.11517611
-0.13026623 0.09483243 -0.21545358
0.13836992 -0.08627884 -0.022761254
0.0106715225 -0.07046532 -0.08116945
0.23581995 -0.19270666 -0.06047678
-0.21743432 0.07838983 -0.20688663
0.064607084 0.12610458 -0.23177594
-0.16247101 0.0023504638 -0.12935266
0.0512408 -0.18874674 -0.034719653
0.05264683 -0.08030238 0.25631684
-0.14340636 0.008889019 0.16222987
-0.12040441 -0.06380099 -0.119788684
-0.17760809 0.029800206 0.23447372
-0.163522 -0.0969091 -0.116551615
0.033747558 -0.117998116 0.08019822
0.18224393 0.19281839 0.15005112
0.013736954 0.19742686 -0.23874332
-0.013091469 -0.059781495 0.28049797
-0.16573134 -0.22038856 -0.01818359
-0.13962874 -0.06659423 -0.1183286
-0.14554118 -0.030858662 -0.047445886
-0.1419252 0.16289702 -0.21584241
-0.11721681 0.16929905 -0.23320782
-0.0042038416 -0.21826054 -0.019445173
0.19135725 0.11783759 0.18870434
-0.044271413 -0.027010072 0.12521975
0.10678721 -0.13178673 -0.022282219
-0.019243395 0.20474991 -0.2527312
-0.22072145 -0.11240919 -0.108501084
0.030791625 -0.25543767 -0.00031070088
-0.027329776 -0.1872224 -0.035426006
-0.0034694115 0.17448239 -0.22195664
-0.112314396 0.023080159 -0.16459583
0.049136057 -0.18998274 -0.0340802
-0.05242292 0.1632762 -0.013067928
-0.08284255 -0.2152535 -0.020915894
-0.037800502 -0.09464219 -0.103969984
-0.14761111 0.22853273 0.1319698
0.2770757 -0.051053174 -0.10594756
0.06954673 -0.28035197 -0.022199063
-0.13159494 0.033763748 0.06903532
-0.08305318 0.26713958 0.11199747
-0.112911925 -0.27548057 -0.0021247158
0.11303257 0.119732134 -0.193844
0.21549338 0.044338655 -0.18976791
0.15465894 -0.009734879 -0.14794599
0.04714517 -0.1900176 -0.054877564
-0.19009604 0.056639396 -0.16100357
-0.10484152 0.24608758 0.08817938
0.05965284 0.21451169 0.057855092
0.023523973 0.16129676 0.006289189
0.04843254 -0.30075788 0.003597142
-0.012772109 0.27172738 0.109560676
0.034297496 0.18519217 -0.2584781
0.029192748 0.06552845 0.21584117
0.13076003 0.18483724 0.1542186
0.09164708 -0.02043566 0.21877128
-0.21365377 0.084914036 -0.2102547
0.11596507 0.05342768 -0.18047532
-0.020355146 -0.28070202 -0.021927088
-0.20582624 -0.008864753 -0.16190717
0.2415511 -0.09362057 -0.11865812
-0.0998483 -0.017332364 0.19770567
-0.10803153 0.12553602 0.061888084
-0.1701611 -0.17248936 -0.042877436
0.06836444 -0.21419042 -0.05631283
0.14060442 0.010344081 0.000798896
-0.024476752 -0.05136033 0.15611896
0.10879071 -0.070698835 -0.11646462
0.12530334 -0.2728416 -0.0023600238
-0.052967433 0.092423856 -0.16393761
0.09478068 0.08834365 -0.11128529
0.05731166 -0.15791902 -0.071438685
0.124958806 0.15887973 0.084163494
-0.16901927 -0.093074545 -0.118522994
-0.199081 -0.12699436 -0.101002865
-0.12146823 -0.018210545 0.25917214
0.019678568 -0.12725694 0.060925864
0.11125894 -0.03696532 0.0103883725
0.14147408 -0.25345057 -0.0014476813
0.04288504 -0.12989318 -0.085874915
0.07326366 -0.13385399 0.023202216
-0.12833512 0.004666154 0.039928187
-0.011161266 -0.11654121 0.056125484
0.10854447 0.18907903 0.10376504
0.18813573 0.10431839 -0.22066782
0.20926788 -0.18013962 -0.074013636
-0.017941643 -0.07358862 0.28762206
-0.06639097 -0.07376061 0.28378266
-0.12590995 0.1699205 -0.22257778
0.034698676 -0.12747577 -0.08711305
0.046427805 -0.13349493 0.046209723
-0.08941892 0.271078 0.085686564
-0.06724524 0.037777264 -0.17221978
0.012822795 0.061609242 -0.18458924
-0.031619698 0.17674017 0.15855828
0.1945032 0.014276476 -0.13955013
0.12989426 0.2505507 0.087761
0.19528766 0.026131218 0.22029175
-0.23816821 -0.14586334 -0.09123353
-0.19039561 -0.035004176 -0.14844422
0.010761002 -0.29031762 -0.017000755
0.12452143 0.10504974 -0.18628459
-0.14410576 -0.22060932 -0.018091813
0.14075121 0.060214028 -0.16318235
0.28923965 -0.11593018 -0.10720299
0.061840422 -0.04964718 -0.12727201
-0.011269524 -0.06350466 0.17832944
0.02989197 0.18726876 -0.2556013
-0.05523562 -0.07875781 -0.11214227
0.15581842 -0.04531166 -0.05819656
-0.056649733 0.23888603 0.12653911
-0.055977236 0.054480013 -0.18084356
-0.026036667 0.21913052 0.07855679
0.145046 0.07168298 -0.1691006
-0.0149090355 -0.11473539 -0.093632154
0.09939188 0.10040825 0.1977848
-0.06244735 0.11553312 -0.14428994
-0.20764558 0.12347374 0.17492688
0.18632917 -0.12543221 -0.10219925
0.17211181 0.0056631262 0.24656451
0.14215088 -0.10671993 -0.07684412
-0.050302077 -0.123692505 0.0012306254
0.14291336 -0.048882753 0.24752581
-0.19212396 -0.045499403 -0.143031
0.16978146 -0.23702121 -0.009948098
0.13010396 -0.11041218 -0.09600864
0.16883866 -0.050532676 -0.10610665
-0.034894932 0.1341429 -0.08046953
-0.16800644 0.104465865 -0.22038224
0.06400854 0.11871753 -0.22796611
-0.016676703 -0.095916584 0.08572128
0.23212875 0.03872362 -0.15219411
-0.087306686 -0.05207248 0.27659813
-0.28180835 0.0032307291 -0.14920276
0.2188654 0.0960604 -0.18174508
-0.1069017 0.11124642 0.0749562
-0.19511788 0.12554885 -0.20452431
0.15133142 0.1585698 0.12592353
0.01795951 -0.08703889 0.28461674
-0.09526214 -0.009974516 0.2548992
-0.04539584 -0.20268944 -0.057011265
-0.12980638 0.1479802 0.17348751
0.033523954 -0.05410254 -0.086791895
-0.09814437 0.16253263 0.16595162
-0.11022437 0.062025633 -0.1212243
-0.24006964 -0.046334278 -0.10785643
0.13077186 0.0034246407 -0.06449899
0.21833122 -0.18232332 -0.038201373
0.20355135 -0.056791406 -0.13760978
0.22136816 0.08260471 -0.20950532
0.26996437 -0.120075524 -0.081366576
0.032224506 -0.051473062 0.27616805
-0.19254671 0.12924638 0.18321097
-0.1481029 -0.27084568 -0.026879923
-0.10102511 0.028263228 -0.04473558
0.055771865 0.100999765 -0.018940082
-0.17720795 0.19975092 0.13417876
-0.17433536 0.115869656 -0.1915607
-0.02803792 -0.2610979 -0.032027803
0.090622306 0.11660749 0.18944077
-0.1920629 -0.085143134 -0.12258956
0.058714475 -0.021161672 0.2605113
-0.10555858 0.016209023 0.24140856
-0.19816257 -0.20686105 -0.025126083
-0.0148654925 -0.1107482 -0.09568825
0.0715771 -0.06999021 0.14882176
0.039933123 0.12707609 -0.018898062
-0.020701803 -0.08288048 0.27652928
0.04627674 0.026540397 -0.16654077
0.1089033 -0.0723003 0.25213355
-0.208651 -0.016330274 -0.15805468
-0.044758063 -0.12268345 -0.08950354
0.02069955 -0.07763338 0.28966838
0.27876234 -0.08414771 -0.105661586
0.23241049 0.090598874 -0.17894301
-0.18546043 -0.23319678 -0.02676073
0.03560538 -0.06334488 0.24759033
-0.23083942 -0.16991013 -0.078841396
-0.11110817 -0.01826614 0.1703644
0.070487745 0.20547175 0.060058825
-0.040930472 -0.21964745 -0.053387854
-0.06404614 -0.038268074 0.21085556
-0.08666662 -0.23199119 -0.046976786
-0.1554106 -0.018884873 0.22485901
0.12949875 -0.04968772 0.24045306
0.11576716 0.07201704 0.21240771
0.056439254 -0.29216704 -0.016093569
0.0061829574 -0.27789614 -0.023401177
-0.091597974 -0.23715316 -0.009614814
-0.19752286 0.012774911 -0.17307343
-0.10043491 0.16876988 -0.2505774
0.019412424 -0.15122774 0.015016045
-0.022169692 -0.22000672 -0.018526534
-0.009757183 0.008353262 0.24536176
0.1287055 -0.0554386 -0.034145348
0.00736606 -0.050760336 0.22022356
0.1583246 0.20729537 0.14261064
-0.041668 -0.11765781 -0.092098065
0.16548157 -0.23424716 -0.046069536
0.21972992 -0.1339601 -0.06314015
-0.17469256 0.07755998 -0.17180668
0.13279013 0.021005107 -0.07356613
-0.12326898 -0.19826365 -0.029635254
0.094707094 -0.2635689 -0.030878192
-0.15574536 -0.17228515 -0.07769328
-0.10651533 -0.024058633 0.16019379
0.031814776 0.056816 -0.18213713
-0.0730356 0.03597984 0.106579795
0.23358011 0.06947192 -0.1680507
0.19917123 0.16907892 0.1442795
0.06120376 -0.1477781 0.007915701
-0.22135647 -0.1297287 -0.09956999
0.16924961 0.040393684 -0.11337816
-0.09711109 0.117974594 -0.027769113
-0.09142126 0.13996646 -0.0019392046
0.14264394 0.24079014 0.10528995
-0.072786234 -0.07470042 0.046148576
-0.04649105 0.24156228 0.090453595
-0.06718157 0.16575183 -0.25208592
-0.055349343 0.080460474 -0.19424072
0.029767279 0.16435619 -0.21676897
-0.16170062 0.22084486 0.1359484
-0.12215238 0.0591571 0.21927962
-0.18293679 0.06958508 0.21396425
-0.28137913 0.00998715 -0.13685602
-0.09508917 0.12593083 -0.23152481
0.029260064 -0.1494142 -0.075795315
0.1570834 0.096399635 0.13379073
0.06903978 0.20492506 0.05709799
0.105970584 -0.07883683 0.063664734
-0.13073722 -0.21258332 -0.022243794
0.035778772 -0.09043634 0.27196798
0.12064746 0.03509292 0.23144193
-0.20312642 -0.10331955 -0.07851057
0.13136199 0.13539113 -0.23663232
-0.090485275 -0.044405658 0.10654052
-0.1728139 0.14875829 0.17312972
-0.039000858 -0.3027711 -0.010528735
0.045372535 0.08693528 0.20478672
0.08748533 -0.27298597 0.008680091
0.04710464 -0.17135325 -0.027260438
-0.10512474 0.04782426 -0.030707797
0.042295106 -0.30978537 0.010571878
0.07998506 -0.18168432 -0.00036173058
0.01816414 0.113945186 -0.22545916
0.099736914 -0.059084315 0.123010084
-0.0462471 -0.28632748 0.015695201
-0.09273975 -0.033508416 0.16294488
-0.15310624 0.09136311 -0.17894596
0.12750266 0.16197176 0.09723108
-0.19028182 0.1849744 0.15447342
0.11642409 -0.21043874 -0.02360033
0.01278132 0.09111501 -0.21368165
-0.043741856 0.050702535 0.22355989
0.14500846 -0.26384965 -0.00840824
0.2029287 -0.10603052 -0.11222002
0.069284804 0.1193152 0.1880662
-0.058990773 0.019309549 0.23976237
0.13464954 0.0018313657 0.16462061
-0.08423494 0.15221675 -0.24508907
0.056132585 -0.054529984 0.2777198
0.11591599 -0.037203684 0.050955437
0.22131017 -0.13472314 -0.09744383
0.03860843 0.12908472 0.18305981
-0.033330206 0.025444537 -0.16589494
0.060491934 -0.08858087 0.2657647
0.07203432 0.24586324 0.1228109
0.13490726 -0.27794948 -0.022896258
0.22749995 -0.09904901 -0.11584486
-0.24448234 -0.020521654 -0.15585738
-0.033306025 -0.024763864 -0.14000572
0.096615426 -0.23613402 -0.009806055
0.13752182 0.02186294 -0.14125575
-0.028185977 0.00615539 -0.15595387
0.005391431 -0.14589468 -0.077586204
0.16764106 -0.019392932 0.25238138
0.11174018 0.07343967 -0.20466818
0.045351647 0.04047438 0.22874351
-0.019440083 -0.12805124 -0.08676154
-0.22104056 -0.16100685 -0.08344234
-0.012771277 -0.134024 0.01891582
0.007407183 -0.015681362 -0.14473045
-0.18140686 0.14551443 -0.2177165
-0.21943481 0.0804954 -0.2079704
0.12708822 -0.16844007 -0.07996276
-0.10806844 0.077494 -0.04330297
-0.15300868 -0.015621927 -0.1445985
-0.10956826 -0.040496893 0.27065217
-0.10352898 -0.007330556 0.21884865
0.05227873 -0.25428024 -0.00092928647
-0.10142156 0.037548605 -0.17206715
-0.11779449 0.04853022 -0.1915915
0.08980859 0.17389238 -0.22174725
0.045134015 -0.24702212 -0.039360084
-0.14267096 -0.026704203 0.26357344
0.1869311 0.1211368 -0.22933872
0.0722921 0.22990239 0.13104114
0.071799204 -0.17179333 -0.06429938
0.061899576 0.209193 0.14172988
0.007407504 -0.018102264 -0.14348237
-0.21161012 -0.18139039 -0.038245983
-0.184084 0.0009951794 0.21608017
-0.13251546 -0.020468755 0.26034817
0.04141709 -0.07797073 0.28982154
0.17149344 0.21740836 0.10868867
0.08224062 0.16224068 0.16591938
-0.15213133 0.09750219 -0.18211202
0.20165549 -0.12659743 -0.066918105
0.24615622 -0.023028906 -0.120366625
0.0044934372 0.16784985 0.16310579
0.14811687 0.20047145 0.1461395
0.15725571 -0.08612689 -0.10855882
-0.13873084 0.026389204 -0.07856775
-0.04998901 0.008972638 0.24508367
0.25153452 -0.07869156 -0.12636603
0.2646353 0.021495143 -0.17692305
0.15274552 -0.003690339 0.21671173
-0.17645547 0.036595266 -0.15068221
-0.052500933 0.14844388 -0.24317619
-0.053006843 0.21390733 0.13941555
0.05717298 -0.10019733 -0.10120183
0.1759086 -0.008729981 0.2326868
0.16834274 -0.042070486 -0.11046923
0.10845933 -0.044523414 -0.01992195
0.03185755 0.006065141 -0.15596896
