# .PCD v0.7 - Point Cloud Data file format
VERSION 0.7
FIELDS x y z
SIZE 4 4 4
TYPE F F F
COUNT 1 1 1
WIDTH 1000
HEIGHT 1
VIEWPOINT 0 0 0 1 0 0 0
POINTS 1000
DATA ascii
-0.12286595 -0.065072484 0.25672233
0.08374998 -0.09268935 0.029314622
0.13352981 0.105309725 0.0751885
0.053511675 0.029963814 0.1257746
-0.013827353 0.06118852 -0.16387044
0.033267982 -0.029781856 0.12584487
0.07782842 0.13050231 0.021388069
-0.10138261 -0.24155094 -0.060905285
-0.018187571 0.18067575 -0.05710282
0.17007965 -0.029545771 -0.08520635
-0.026029328 0.06644526 0.124386586
0.024116693 -0.017747477 0.1393422
0.06834749 0.04020621 -0.20272072
-0.25373265 -0.03955815 -0.017309766
0.019904692 0.09802378 -0.15847819
-0.015137469 0.12666716 -0.20143186
-0.12360565 -0.1730311 0.041109625
-0.02422276 -0.27261353 -0.06462997
0.2361257 0.027910616 0.16301364
0.033931717 -0.23423728 0.12416411
0.10718861 -0.0023338373 -0.23887385
0.26656935 -0.05884949 0.038268417
-0.023758084 0.032254793 -0.15744138
0.2395907 -0.044552784 0.016633788
0.01755007 0.2129951 0.04367799
0.033352684 0.032403696 -0.21703444
-0.13954836 -0.17514348 -0.08429857
-0.020856407 0.2690309 0.12264474
-0.086375095 0.24675946 -0.08465967
0.018346332 -0.25974968 0.13066532
0.17778637 -0.05431949 -0.12272109
-0.2257009 -0.08948389 -0.06889761
0.07867335 0.021326216 -0.24368659
-0.0755296 0.039308887 0.12263236
0.042108126 -0.11576139 0.0821643
0.11361217 0.14667162 0.17847034
0.07117204 -0.048505824 -0.024072634
-0.067819275 0.2622653 -0.016266467
-0.068713605 0.20190889 -0.14545122
-0.21126916 -0.17201447 -0.12514843
-0.020106126 -0.10785202 -0.117182165
0.13485724 -0.08039748 -0.26026428
-0.033905722 -0.101016715 0.18209985
0.22938636 0.018226784 0.12961529
-0.0917445 -0.22395022 -0.09554021
-0.051254414 0.15594114 -0.118669316
-0.039751388 0.14560497 -0.20872077
-0.054636307 -0.13326342 0.25758857
0.05577596 0.17371902 0.07029347
0.26852077 0.013612055 0.15383719
-0.1755766 -0.06132313 -0.07237789
-0.022632139 0.26696685 0.08047042
0.020065775 0.23835345 0.10206552
0.14658812 -0.041366912 -0.096378565
-0.070856676 -0.21676548 0.05008019
0.18524104 0.0720762 0.15853451
0.2802319 -0.07266637 0.03533501
-0.03401737 -0.16429971 0.23165274
-0.05492879 0.15082204 -0.22685966
0.003555511 0.23106447 0.054954942
-0.062642895 0.14088698 -0.26266184
-0.13750692 -0.035038456 0.21551046
0.0698385 0.011317573 -0.28179562
-0.0068197544 0.060223676 -0.2354544
0.053199835 0.031356663 0.12602551
-0.16418558 -0.13895117 0.035126604
-0.068552956 -0.13254032 0.23238167
-0.08696936 0.17981693 -0.13685678
0.03418249 -0.22118646 0.17025661
0.21042219 -0.054099053 0.006992921
-0.10008026 -0.16598055 -0.10485302
-0.06252344 0.069591135 0.07539112
-0.055005718 0.25805986 0.08978832
-0.074583724 -0.27010536 -0.094607845
0.1102163 0.14646654 0.10433605
-0.044259157 0.28664 0.08047046
-0.079700604 0.2908118 0.02119638
0.049151033 0.10468162 -0.08823318
-0.15930475 -0.0043494427 0.1328004
-0.100169055 -0.04802667 0.18599188
-0.079791024 -0.023039252 0.17152478
-0.008398827 -0.22514504 0.0134182125
-0.18884693 -0.10395447 0.061660938
0.062738396 0.041743018 -0.19505173
0.058917023 -0.07624235 -0.09507669
0.26366988 -0.052466575 -0.04414186
0.16017142 -0.046124898 -0.1148422
0.048629243 -0.04879807 -0.14140081
-0.20838505 -0.008837991 0.19527194
0.17655376 0.12499743 0.16328979
-0.10898975 0.010120978 0.12685491
-0.09132448 0.20813258 -0.17574406
0.012024547 0.18678041 0.068019904
-0.15642148 -0.14614719 0.0348442
-0.09448747 0.28613964 -0.006564234
0.019426387 -0.0012458477 0.14394793
0.2637394 -0.020262921 0.024002645
0.03704771 -0.04683032 0.10035945
0.059340116 -0.022004768 -0.29021388
-0.18830134 -0.19056173 -0.12019645
0.03399684 -0.05012736 0.10206025
-0.24443074 -0.06663583 0.033695646
0.10551562 -0.042565346 -0.13018684
0.033704784 -0.24947782 0.12819462
0.11521286 0.013921163 0.08183088
-0.018235182 -0.13300997 0.24153382
-0.22059742 -0.021676974 0.17442869
-0.09004057 0.093945466 0.007009403
0.1077314 -0.045254763 -0.23815621
-0.11384549 -0.11381236 0.18492311
-0.26134822 -0.078806736 -0.02450854
-0.1788697 -0.1086444 0.0709237
0.1621224 -0.019309226 -0.16919519
-0.24537706 -0.047316667 -0.01764358
-0.063269734 -0.2105744 0.077730805
0.24353446 -0.09356793 -0.079304524
-0.019981438 -0.2591443 0.058314458
0.0013825648 0.053570658 0.13470083
-0.061907355 0.23540594 -0.061633192
-0.08253968 0.20853445 -0.158019
-0.15825659 -0.049330596 -0.035174716
-0.19051628 -0.004014136 0.0020938586
0.028828274 -0.26970488 0.095928915
0.04755646 -0.0024603226 -0.21127021
0.19740117 -0.022655407 -0.07236123
0.024431368 0.21143146 0.053594794
0.071172915 -0.051286913 -0.03170123
0.073538 -0.014175963 -0.2942708
0.11743186 -0.014331684 0.026426617
-0.030002125 -0.23365341 0.09289806
-0.0404016 0.13681148 -0.13822085
0.24564707 -0.021534884 -0.013440155
-0.096519336 -0.061239757 0.25330713
-0.24256288 -0.076669544 0.0160932
-0.06860663 -0.2591313 -0.101093784
0.030844558 0.11288294 -0.106080964
-0.12219219 -0.04666771 0.22037116
0.10818832 -0.028272541 -0.20141363
-0.08050444 0.25213122 0.028282814
-0.036294732 0.0714612 -0.26834506
0.20377667 -0.036538515 -0.12556103
0.23632473 -0.049464736 -0.09033429
-0.11786975 0.2373807 -0.07464827
0.044887897 -0.2473207 0.12072304
0.25513074 -0.11275291 -0.14808615
0.17084919 -0.0347262 -0.05525815
0.28700662 -0.0645048 0.036403272
0.028085185 0.22996071 0.09974652
0.22651711 0.020199781 0.037949707
-0.0055425116 -0.0448969 0.15576486
0.22554012 -0.05583623 -0.1245073
0.19945937 -0.04312599 -0.14776784
-0.010538745 0.20745535 0.06833968
0.032094084 -0.083473735 -0.11742106
0.032159165 0.24784686 0.18213233
-0.16299094 -0.19813415 -0.08756607
-0.027281454 0.19329095 -0.04793011
-0.06859321 0.24402645 -0.056271482
-0.04432873 0.16506794 -0.0041002003
-0.068321645 0.28280428 0.026145106
-0.02794633 0.25656107 0.04828522
-0.0110841505 0.06999159 -0.22301817
0.12967707 0.10747708 0.12655677
0.0646932 0.07036715 0.11876397
0.06004391 -0.016544193 -0.22262876
0.02513389 0.13888417 -0.062139526
-0.045229472 0.15968724 -0.09918417
0.22445273 -0.09188326 -0.1875829
-0.16834314 -0.16004135 -0.10772099
-0.02511847 -0.044737324 -0.1433602
0.13454601 -0.00948804 0.06953285
-0.07002928 0.030137898 -0.06876678
0.11635341 0.16709664 0.2080848
-0.0075373114 0.1257713 -0.18872291
0.0054881526 0.24667376 0.091633104
0.075033724 -0.08958194 0.06864595
0.18846282 -0.021131715 -0.12244229
-0.07204784 -0.18340372 -0.08002157
-0.04999663 -0.23439622 -0.03740151
-0.050341737 0.15730311 0.0031637305
0.20354867 -0.0016605298 0.03798016
-0.24600649 -0.01415889 0.023133457
0.13162251 0.046533324 0.095605336
0.19722398 0.047886007 0.14007781
-0.032421447 -0.0750546 -0.13287155
0.16183431 0.004604657 -0.08311628
-0.07944372 0.28717357 0.014005888
-0.07986444 0.20827596 -0.15342562
-0.23186585 -0.1207988 -0.056553327
0.08625452 -0.04290675 0.057074018
0.04904879 -0.011085506 0.11830699
-0.20737557 -0.09650548 0.041798048
0.15487616 0.14556322 0.21941417
0.0051530837 0.23893227 0.07464021
-0.14790878 -0.040412992 0.0035370889
0.2304785 -0.07515704 -0.15582445
-0.123837285 -0.10456484 0.18525866
-0.06802897 -0.19551562 0.10039057
-0.013853615 -0.2924453 -0.027338445
0.1055737 0.024960212 0.086626984
0.2925158 -0.07881065 -0.029729793
-0.09409792 -0.10428821 0.24297434
-0.20303416 -0.050353266 0.14760724
-0.18200924 -0.053866792 0.18057635
0.1507254 0.04967641 -0.009270423
0.2342995 0.043494914 0.10209758
0.050654624 -0.10668041 0.08862959
-0.03497567 -0.24346134 0.062630974
0.16414131 0.13826168 0.16745798
0.029937979 -0.18698682 0.04168202
-0.007914408 -0.2234643 0.15684837
-0.20526497 -0.033228822 -0.021075195
0.21542722 -0.03698399 0.010079522
0.014295577 -0.13356 0.11842209
0.0038376227 -0.16337712 0.21600093
-0.22760382 0.012058037 0.16127226
-0.18318297 -0.003209727 0.13918293
0.21580048 0.060129654 0.18524176
0.22964299 0.065582775 0.17699896
-0.10818253 -0.25016415 -0.09215891
-0.075265184 0.2044084 -0.062437817
0.14567459 -0.06503802 -0.20704585
-0.13643302 -0.17470564 0.012931442
0.13720472 -0.068914235 -0.102724575
-0.087956026 -0.2576026 -0.10162909
-0.0752261 0.19338962 -0.1759533
-0.06419815 -0.12816451 0.24998768
-0.16214937 -0.18528982 -0.058823783
-0.025371786 0.10718503 0.009335545
0.088216275 0.20430623 0.1958844
-0.15283695 0.012229841 0.10524584
0.2660237 -0.020042228 0.11771076
0.088098735 0.052135684 0.1111472
-0.039297517 0.08792855 -0.28537986
0.16245754 0.028846594 -0.03072271
-0.038624197 0.05580526 -0.12524295
-0.103775784 0.22343753 -0.16734086
0.2615271 -0.10533098 -0.09826082
-0.056224056 -0.24823835 0.011722628
0.1451523 -0.009955952 -0.14591415
0.028011648 0.21275981 0.15359935
-0.074951164 -0.23455147 0.0046521663
-0.14326811 -0.11497874 0.07136502
0.10819429 -0.074683465 -0.0077229277
-0.138766 -0.016656244 0.07127177
0.023689434 0.08357114 -0.21785752
0.17333753 0.06787418 0.07260103
0.27244705 -0.06474169 0.03711581
-0.18381022 -0.1666521 -0.061074845
0.18364419 -0.0015916888 0.020283662
0.12690459 0.052779473 -0.048477296
-0.26282057 -0.053137757 -0.06344608
0.22781244 -0.06911283 -0.1481808
-0.0039039608 0.2360389 0.14145131
0.041570492 0.13947411 0.092023775
0.11687271 0.0010980006 -0.18150283
0.15203519 0.1356909 0.22445194
0.010300985 -0.27825668 0.07612469
0.17671794 0.138641 0.20830795
0.24044916 0.029907046 0.08521415
-0.24766834 -0.074251086 0.011393274
0.116079986 0.027639365 -0.122366175
-0.18010779 -0.025663529 0.2277381
-0.14153437 -0.10873895 0.14244643
0.24648888 -0.094617195 -0.16247085
-0.15038443 0.011577232 -0.0068785083
-0.0626816 0.10039739 -0.25792506
0.15142964 0.014766084 0.07298474
0.25554106 -0.042638298 -0.0390018
-0.10476032 -0.095498644 0.24105294
0.15860875 -0.047661845 -0.0071066134
-0.02167784 0.24027523 0.025932908
0.0910213 0.0139347315 0.07507458
0.16077201 0.13278507 0.2222498
-0.03014207 0.046782285 -0.11564645
-0.09954885 -0.06689278 0.25203294
0.005613001 0.19097981 0.010380795
-0.038122293 0.074275315 -0.012802169
0.02268583 0.24176039 0.11429416
0.091444895 0.21515633 0.190673
0.264774 0.009480472 0.13525537
0.0013620881 0.093618624 -0.23952977
-0.15542568 -0.101912394 -0.09007158
-0.26771083 -0.085234284 -0.05030487
-0.030472366 0.057146385 -0.28739074
0.03385085 0.17311954 0.026908604
0.0018221248 -0.26442704 0.08904349
-0.111160666 -0.1391549 0.13656
-0.26936498 -0.09146687 -0.066645205
0.08042775 0.080018334 -0.08023672
-0.19607715 -0.014670127 0.107574396
-0.07482686 0.2737003 -0.005578502
0.2648521 -0.020094132 0.116817124
0.15661576 -0.03066657 -0.20375848
-0.096200466 0.27592385 0.04596853
-0.0063855443 0.17407344 -0.048374183
0.044738505 0.011623971 -0.23904563
-0.10774169 -0.09045798 0.2459712
-0.26505977 -0.0077737323 0.028055994
0.18676813 0.036684874 0.08672553
-0.18244404 -0.18563196 -0.12966314
-0.049966536 0.08837308 -0.19544008
-0.051421914 0.13778584 -0.24765442
0.037284322 -0.09958255 -0.04433271
0.17465515 0.06992139 0.079456374
0.21855623 0.020207455 0.112993315
0.0006332503 -0.10219912 -0.115914814
-0.03889336 0.09401328 0.04534825
-0.051215846 -0.0034689312 -0.12726167
-0.2244657 -0.14218096 -0.08749548
-0.08497727 -0.042813886 -0.11024115
-0.037200294 0.20606966 0.068173945
0.2585979 -0.012535757 0.03044506
0.013965788 -0.18687385 0.21065895
0.22334167 -0.09939423 -0.17786124
-0.048746735 0.2295068 0.041510683
0.14816491 0.0627075 0.013330537
0.14230846 0.004708683 -0.120406315
-0.058637425 0.26020586 0.087342784
0.04827206 0.0031899055 -0.19830735
0.275846 -0.0609602 -0.038687836
0.1938596 0.04582195 0.13739073
-0.17745432 -0.15707418 -0.11895767
-0.18792275 -0.044226464 0.18957563
-0.10756972 0.22912727 -0.16261311
0.15480037 -0.053915974 -0.032686453
0.15150389 0.14511465 0.15765293
0.09511061 -0.026698237 -0.22321203
-0.26085854 -0.06858664 -0.0019827664
-0.013210548 -0.26270714 -0.03628878
0.02909209 0.23164351 0.10523517
-0.050989095 0.1419404 -0.23804902
-0.020693656 0.23026131 0.0066750445
-0.28412578 -0.0298334 -0.0016092767
0.2121455 -0.06853737 -0.17706224
-0.06975018 -0.14602919 0.20159407
0.27633438 -0.05751502 0.059845656
-0.23117714 0.0043611163 0.1187734
-0.02242657 -0.06556962 -0.13743064
-0.08105023 -0.0041501215 0.16037086
-0.04982028 0.1626957 -0.018762577
-0.036791228 0.06106049 -0.1507807
-0.022436323 -0.07911638 -0.13162562
-0.10831711 0.27643132 -0.059961982
0.048968617 -0.09052042 -0.07219077
-0.04841933 -0.17394242 0.18362157
0.1742719 0.04964091 0.12128251
0.15513311 -0.08058034 -0.2422065
-0.039581157 -0.2480542 0.044082973
-0.020891216 0.18671314 0.004646642
-0.11347684 0.23453495 -0.07221957
0.13248831 0.002379794 -0.18031833
-0.13129357 -0.19957739 -0.029722555
0.0028933464 -0.26266515 0.094822325
-0.032928064 0.18138433 0.06474257
0.07935123 0.041413173 0.11030922
-0.037987858 0.2672975 0.1126554
0.10136019 0.12580268 0.056667984
0.053887524 0.12242625 -0.04165972
-0.10958481 0.2693485 -0.08154125
-0.16562656 -0.1065417 0.10080366
-0.07535856 0.11810406 -0.0697986
0.27687564 -0.08994878 -0.09793192
-0.10170283 -0.095307976 0.24732882
0.013704481 0.024258304 -0.2719818
0.24894345 -0.06965661 -0.01841565
-0.044225127 0.10749719 -0.18753126
-0.034211487 0.19713897 -0.083249725
0.029919423 0.08501172 -0.16671936
0.18457617 0.03666607 0.028284254
0.026428198 0.12532616 -0.08828566
0.08596355 0.02154593 -0.22921653
-0.02819985 -0.005753469 -0.14529367
-0.053035054 -0.050849378 -0.13272925
0.014913641 -0.07104279 -0.13436662
0.16325124 0.07195644 0.06184615
0.1413841 0.06624802 0.007782628
-0.15609172 -0.122112356 0.08623724
0.26389682 -0.06446775 0.021269394
-0.027217396 0.17874913 0.060100168
-0.07009502 -0.2435327 -0.09530643
0.010495307 0.25226587 0.15325926
-0.06043707 0.28088948 0.037247505
0.24722882 0.052392896 0.1457262
-0.06667126 0.1937709 -0.15871426
-0.0629068 0.06320109 -0.047886588
-0.08803457 0.29096663 0.052723326
0.03789241 -0.10266965 -0.06973449
0.22642843 -0.08573289 -0.18593894
-0.17344615 -0.060998466 -0.07366176
-0.013404077 -0.12964056 0.07348725
-0.11387272 0.20511985 -0.13510266
-0.030660307 0.23691572 0.0015814208
-0.12240602 0.26046404 -0.059883785
0.012930587 0.23191868 0.16508783
-0.039833207 0.1099768 -0.28412217
-0.0902648 0.2618567 0.030072298
-0.0076988204 0.12223811 -0.16036746
-0.0011075047 0.0560585 -0.16998859
-0.19792911 -0.13140097 -0.01375083
0.036864184 -0.2698692 0.054546017
0.005513179 -0.21532127 0.02473664
-0.10916983 -0.21110454 -0.011565877
0.043226242 -0.0967939 -0.07227211
-0.16359648 -0.053763185 0.21616715
-0.012696767 0.051806618 -0.26451993
0.010013145 -0.2030379 0.14410561
0.14832509 0.03977274 0.10800702
0.033513725 -0.22165112 0.080880515
-0.017336356 0.09427228 -0.18374929
-0.0805031 0.16397518 -0.15789112
-0.07517211 -0.232198 0.009198365
0.038593467 -0.24191263 0.143324
0.16109028 0.063552685 0.09413894
0.07656992 -0.10068462 -0.030991195
-0.14562243 -0.1275364 0.09489409
0.24452767 0.02503224 0.08275513
0.08287037 0.18286613 0.105532974
0.04590792 -0.13913761 -0.0019823008
0.16244216 0.13028258 0.22048731
0.107914634 0.12641674 0.070557356
-0.06295171 0.2736187 0.08141045
-0.24057777 -0.06226075 -0.039983593
0.0026530358 -0.062909596 0.14204682
0.2910616 -0.049261205 0.015248077
-0.102225654 0.16948089 -0.1879929
-0.003186541 0.24342547 0.06810814
-0.0731492 -0.13742162 0.21324265
-0.17415124 -0.059768718 0.18320794
-0.1334675 -0.018104013 0.06862596
0.05274816 0.20615888 0.18717901
-0.1066475 0.2710918 -0.07221682
-0.2725069 -0.024109486 -0.020750085
0.19411203 0.014942242 0.0007230283
-0.15687265 -0.12734129 0.07369557
-0.27420172 0.0047501978 0.038005017
0.033121176 0.20289335 0.14257711
0.24630179 -0.005503903 0.11199358
0.25331035 -0.0039049143 0.03851442
0.2819108 -0.08768327 -0.08347409
0.27976647 -0.09347626 -0.06509948
-0.07098937 0.24752332 -0.05349005
-0.100930385 -0.102706954 0.23318876
0.0051439595 0.07850694 -0.26418
0.07462896 0.22692637 0.18275036
0.20380062 0.03445713 0.114740424
0.045777347 0.2320984 0.17698306
0.14262739 -0.064394936 -0.047475778
-0.14259544 0.011942391 -0.033408098
-0.043029726 -0.013737872 0.1657402
0.0063776807 -0.26740998 0.09149507
0.17511037 0.078287885 0.08894975
-0.01655846 0.1592032 -0.09932071
-0.021302303 0.17677365 0.018239524
-0.060954694 0.11842211 -0.03590005
-0.01693456 0.1257132 -0.20689918
-0.009552075 0.17708232 -0.048102103
0.019436048 -0.23814784 0.17690332
0.10999971 0.13057545 0.083344884
-0.06744435 -0.21549255 0.059323665
-0.07115083 -0.19879173 0.0874739
-0.20356074 -0.12492682 -0.10121646
-0.1455096 -0.12890875 0.09221329
0.19544183 -0.027114283 -0.12167028
-0.028357375 0.06701018 -0.07701614
0.0076563098 -0.2681037 0.092486106
0.1645295 0.12959698 0.1499051
0.12500629 -0.04643653 -0.27522877
0.034516744 -0.2749657 0.05194236
0.25852588 0.026478577 0.1595992
0.07663701 -0.020057969 0.034613427
-0.15434204 -0.037434783 0.23544195
-0.26401573 -0.04292985 0.046136618
-0.22057989 -0.06048164 0.09251074
0.20641665 -0.05927872 -0.16851482
0.101602316 0.17377897 0.20776935
-0.12200127 0.027136957 0.039758954
-0.0032945499 -0.074972935 -0.13423799
0.012779308 -0.2674442 0.0133995395
0.055674493 -0.024353316 0.094595805
-0.07577179 -0.24240865 -0.013516964
-0.04107451 0.16513383 0.0057173204
-0.16131462 -0.16496435 -0.014294878
0.27430484 -0.025085961 0.0341135
0.14233367 0.10787407 0.15170993
-0.0062030996 0.21578619 0.0083519565
0.08006602 0.17812833 0.18045957
0.11991098 -0.017130284 0.02527854
-0.12925541 -0.06652 -0.06976902
0.06507244 0.18878897 0.08384941
0.15319206 -0.064108305 -0.26889956
0.08475723 0.024194933 -0.22594088
0.12481965 -0.0071455287 0.055795692
-0.051171698 0.16065758 -0.0114768585
-0.2750946 -0.002166793 0.1056829
-0.119773544 -0.21749842 -0.13254768
0.1578783 0.15022627 0.2168957
-0.0065450952 -0.09890715 0.15156981
-0.05953737 -0.10885535 0.20940001
-0.11899645 -0.0016431285 0.0649154
0.052935913 -0.11520057 0.07651527
0.009926868 -0.103694715 -0.11066475
-0.22905874 -0.14575687 -0.11944115
-0.105926745 -0.11051701 0.08348437
0.2005954 -0.03302008 -0.124242105
-0.26046753 0.0035140994 0.10809212
-0.061472006 0.28005528 0.033497144
-0.025096463 0.09191839 -0.29255223
-0.1000278 -0.15141226 -0.0979909
-0.074178606 -0.16872777 0.14514932
-0.09283413 -0.2365422 -0.033905353
0.0055026338 -0.25146586 0.123486795
-0.022416903 0.001035376 0.15780345
-0.012052769 -0.122305594 0.06776597
-0.06646346 0.13876109 -0.0066706063
-0.17221485 -0.10149377 0.098808676
-0.20582697 -0.15353903 -0.12391372
0.13923651 -0.07506146 -0.27037004
-0.25320083 -0.05135028 0.049129188
0.146465 0.037282344 -0.043629233
0.15135558 -0.050347194 -0.067390285
0.08544439 0.012622036 0.085975446
-0.18418165 -0.037288878 -0.05054512
-0.011275596 0.10529734 0.094878145
0.030561334 -0.12341453 0.06271069
-0.018408993 0.27042168 0.122742146
-0.105159126 -0.029318407 -0.05988316
-0.01472348 -0.037278466 0.16184263
-0.12738572 0.018066665 -0.0703821
-0.27636105 -0.07768672 -0.06774024
-0.041227374 0.16929804 -0.16151929
0.00095962395 0.0708176 -0.2884571
-0.12601157 0.033001408 0.039333656
0.16674744 -0.07970345 -0.19753526
0.050774507 0.056361075 -0.18716283
0.22439438 -0.055276025 -0.12552528
0.030505199 -0.25682446 0.13269539
-0.2415505 -0.015960967 0.14624864
-0.055223618 0.08884016 -0.2680054
-0.008626203 0.2732389 0.12564844
-0.04144979 0.09108458 0.046174288
-0.073693685 0.18794069 -0.094197005
-0.10351539 -0.19583589 0.03154245
0.030347597 0.2537066 0.15424147
-0.07076316 0.0038632492 -0.08962308
-0.10432317 -0.13477287 0.15894961
-0.010107378 -0.25348446 -0.029610386
-0.24780126 -0.0556531 0.050414726
0.12234808 -0.03696989 -0.2810557
-0.05474452 0.09606695 -0.27690166
-0.0281787 -0.18992391 0.18875381
0.24149765 0.0006700315 0.11580319
-0.027525641 0.26272586 0.062112033
-0.09184334 0.24861097 -0.00093386107
-0.22305587 -0.011928001 0.09997373
-0.049007796 0.27075705 0.099132724
-0.12302106 0.26606494 -0.0990067
0.028447667 -0.09618868 -0.10545788
-0.19775201 -0.01064425 -0.004736323
0.20213121 0.018245928 0.077297665
-0.1540988 -0.12388471 0.059171773
-0.058631662 -0.036152177 0.17577033
-0.003600769 -0.20450023 0.2051851
-0.044844117 0.07844097 0.022381367
-0.114516355 -0.09177221 0.23018065
0.025971655 -0.0061287447 0.13981393
-0.21987492 -0.015432072 0.18900526
-0.14054224 0.24732938 -0.09719331
-0.10043718 -0.17471693 0.082056835
0.25499836 -0.0321205 -0.017831596
-0.18997172 -0.09791512 0.072254784
0.1746953 -0.07376725 -0.24010985
-0.105459884 -0.16157812 0.10015718
0.29869226 -0.083497405 0.0063566854
-0.05902685 -0.008024672 -0.12107541
0.16258956 -0.08561419 -0.23521475
0.16524121 0.05194845 0.023412887
-0.2011496 0.008330664 0.1400434
-0.08349277 -0.24081594 -0.024986498
-0.1876305 -0.02383736 0.22389409
0.06639121 -0.0027193541 -0.29882637
0.026273526 0.04812902 -0.18028644
-0.18377338 -0.00296228 0.10548146
-0.16998167 -0.14440176 0.012481879
-0.027526237 0.0953065 -0.18885776
0.08219352 -0.037856977 -0.033832338
0.0064612897 0.21586223 0.11875213
-0.19926652 -0.15286867 -0.061657388
0.09477452 0.17210704 0.10567922
-0.13343953 0.0016422314 0.1201495
0.055678412 0.07468826 -0.0038525625
0.034444768 0.10542392 -0.11491679
-0.007343723 -0.16987617 0.15179545
0.036111884 0.011546932 -0.25578007
0.081592634 0.0069123833 0.08654581
-0.11270683 0.0029427635 0.055257317
-0.025827738 0.1660703 0.031408016
-0.2625077 -0.05635056 0.020689704
-0.109736845 -0.16162212 0.09184706
0.03479337 0.062436413 -0.24116099
0.05338035 0.04249822 0.12624593
0.15993686 0.08630591 0.13997559
0.0042884154 0.032951027 -0.2717114
-0.051327627 0.14076048 0.02773909
-0.060706597 -0.21813744 -0.05013692
-0.13797817 0.01961407 -0.028695982
0.039596133 0.12967904 -0.053797625
0.2374377 -0.0023646748 0.011275192
-0.15700477 -0.047436774 0.24219151
-0.052788038 -0.0369808 0.17498747
0.06334881 -0.121164024 0.023354372
0.2958922 -0.043610148 0.03646248
0.028445296 0.022962492 -0.30116293
0.07626931 0.0498424 -0.15195322
0.0449799 -0.24698596 0.121167906
0.09929813 0.19618891 0.1652276
0.18497254 0.039937235 0.035951946
-0.10132434 -0.2355039 -0.04802344
-0.0997754 0.21334879 -0.18096279
0.23093536 -0.052932605 -0.10801049
-0.02908656 -0.1380906 0.20615487
0.2009987 0.05759904 0.06791109
-0.016588045 -0.1437624 0.035288613
-0.07853537 -0.091721825 0.20908763
-0.037213553 0.010652978 0.15500118
0.23884554 -0.104096405 -0.15837768
-0.039785217 -0.15118583 0.24826774
0.17029665 -0.06433286 -0.24857607
0.028758192 0.10352454 0.111219585
0.022587985 -0.13050462 0.008986252
-0.021052927 0.10927001 -0.24953662
-0.10353393 0.24945381 -0.111933045
0.22472018 0.04928529 0.17799616
0.29597628 -0.08399031 0.0042391024
-0.03399096 0.07520571 -0.25601137
-0.23759633 -0.027511235 0.03913129
0.26985914 -0.10165507 -0.07928313
-0.10891105 0.20076898 -0.1968326
-0.14976288 -0.12940773 -0.0906061
-0.04118394 -0.16962658 -0.07300129
0.26936266 -0.09604512 -0.105344735
0.067641 0.0072098775 -0.294692
0.080622524 -0.013968663 -0.1604645
0.010570025 -0.17338543 0.027157305
-0.12342107 -0.22253942 -0.06309207
-0.100108236 -0.07043129 0.2064665
-0.18911205 -0.08873042 0.09330281
-0.013364622 -0.060405955 0.15859151
-0.09480576 -0.04143915 0.20594604
0.16301355 -0.07040133 -0.18506297
0.29477435 -0.06831894 0.025448978
0.15425609 -0.061963037 -0.25740945
0.05124245 0.16338657 0.09395545
-0.1201458 -0.14686778 0.10301048
0.13931938 0.09229472 0.11301638
-0.010841249 -0.17192899 0.2285279
-0.0991171 0.27355197 -0.052554697
0.19480461 0.06330055 0.1583735
0.26718578 -0.09487566 -0.036630843
0.13687402 -0.06337048 -0.06740714
-0.11184408 0.25766787 -0.10158359
-0.13858338 0.25158793 -0.11096533
-0.21638402 -0.007838698 0.19518693
0.07030539 -0.09073429 0.08220092
-0.005316981 0.070767425 -0.29967603
0.21863036 -0.060074374 -0.14673185
0.06832797 0.039309707 -0.18945289
-0.067666546 0.23928212 0.02580912
0.047967672 0.23849533 0.15596604
0.065533765 0.042392988 0.11947618
0.16633321 -0.048255917 0.012461689
-0.044057984 -0.25223288 0.026658762
-0.07718242 -0.11750583 0.24755494
-0.0369731 -0.14142059 -0.0980673
0.21779889 -0.07459239 -0.17899026
-0.05040522 0.08525468 -0.18569499
-0.03636958 0.1594504 0.05553139
-0.070208766 -0.19178428 0.10408284
-0.08473002 -0.019046756 0.16901486
-0.12846923 -0.09723792 0.06044725
0.0024796256 0.03468225 -0.1695081
-0.07755966 -0.19011216 -0.07680078
-0.10079439 -0.24422175 -0.0654163
0.2493759 -0.006114873 0.11660867
-0.0455294 0.09976577 -0.2818426
0.058266606 0.057346232 -0.20681809
0.11477433 -0.035475764 -0.023332994
0.020644378 -0.19130379 0.010667135
-0.26989025 0.0018460371 0.03909162
-0.033109233 -0.19205002 0.17479235
-0.008100168 0.26437405 0.102909826
-0.094073564 -0.18759713 0.0670807
0.16614741 -0.0867771 -0.213627
-0.08865508 -0.063261695 -0.11297616
0.20622824 0.07746071 0.11990279
-0.059503816 -0.14814416 -0.09857197
-0.056459323 -0.23083527 0.048024192
-0.22222896 -0.09355827 -0.09391289
-0.15172437 -0.10924359 0.121805266
-0.14754738 -0.0917237 -0.09265979
-0.09666905 -0.04211409 0.18045764
-0.19895783 -0.0008328554 0.05202758
-0.12817204 -0.100421265 0.18568248
-0.024430048 0.14917588 -0.1717466
0.117656514 0.034176994 -0.10552945
0.100713946 0.053142026 0.111717254
0.10121873 0.1820898 0.13914149
-0.015300429 0.1442711 -0.12843913
-0.18164372 -0.025257815 0.22692831
-0.16699499 -0.028597688 0.17246479
-0.04541758 0.07599517 -0.17994031
-0.09192241 -0.2127831 -0.072297536
-0.060290202 -0.11416783 0.25352603
0.1561738 -0.04666378 -0.23839204
-0.2694504 -0.00021750246 0.119052105
-0.016385768 -0.14212641 0.03275122
0.018125974 -0.21400253 0.13653454
-0.20078929 -0.1366235 -0.12059509
0.29336318 -0.03633048 0.064925395
0.11001015 0.056882944 0.107236154
0.050116863 0.0112288585 -0.1827854
-0.22770557 -0.033714734 0.13535216
-0.11223845 -0.23242077 -0.12344347
-0.03162186 -0.28187314 -0.012048351
0.0041850465 0.017438062 0.14741258
-0.07085938 0.22487678 -0.01074756
-0.056970384 -0.0015979232 -0.1197464
0.0069931597 -0.011087135 -0.1596306
0.11189696 0.19092114 0.17830485
0.0724774 0.038980275 0.114810176
0.027916783 -0.20777245 0.16850166
0.17423159 0.10911481 0.20530526
0.055259716 0.019179456 -0.20287818
-0.021606917 0.029411534 0.14619055
0.2312939 -0.017918643 0.056944214
-0.13188857 -0.11097338 0.078644715
0.0377572 -0.23840496 0.14935285
-0.10337379 0.25682968 -0.0057276497
0.0030069267 -0.24884573 0.12422622
-0.1559197 -0.18068787 -0.037136856
-0.012188354 -0.09350424 0.15213872
-0.078561746 0.09509331 -0.008415559
-0.008204684 -0.2213273 0.16080388
-0.042545427 -0.08875125 -0.12650214
0.14430107 -0.041110136 0.021489616
0.27712196 -0.06803199 0.039147645
-0.026836084 0.18710032 0.061387345
-0.18296772 -0.051102843 0.184572
0.048034094 -0.1384938 0.02997314
-0.023758598 0.24572675 0.033448264
-0.054508466 0.22928508 -0.060346503
-0.20347041 -0.17904061 -0.12500525
-0.20745407 0.011184572 0.17981192
-0.118088424 0.25488454 -0.038102426
-0.023322267 -0.1904015 0.19707419
0.13118215 0.15875009 0.14741062
-0.040266253 0.049268156 -0.14440463
-0.086486965 -0.20437782 0.0462151
-0.16509166 -0.21233842 -0.121599674
0.22865362 -0.06789376 -0.14398973
0.065109946 -0.011637588 0.09470831
-0.0731492 0.25817493 -0.035144
0.15732436 0.05113512 0.0064876787
-0.046652492 0.2019849 -0.102910355
-0.13206123 -0.0013620795 0.14609128
-0.28564897 -0.03549057 0.02028826
-0.11428318 -0.23828898 -0.078799605
-0.055852298 -0.28508368 -0.06537657
-0.10178206 0.28221253 -0.025383739
-0.037318535 -0.08114189 -0.130021
0.078545965 0.01909725 0.10182437
0.11849136 0.10461577 0.099025585
0.02390124 -0.27825555 0.056359462
-0.12141676 -0.20081069 -0.119380385
-0.04300412 -0.023965327 -0.13768601
0.1018481 0.19856055 0.17513506
0.041912492 -0.015870545 -0.18689924
0.057579294 0.08192226 -0.12010713
0.16641751 0.031357583 -0.017811166
-0.1469344 -0.17569871 -0.09966022
-0.05567463 0.11880265 -0.20559423
0.104719244 0.0255578 -0.1485863
0.04744235 0.115015894 -0.06969116
0.08628541 0.08526465 0.11111829
0.06105902 -0.012424698 -0.16325517
0.12498689 0.049188618 -0.05974525
-0.19268456 -0.02011296 -0.026568592
0.08273628 0.069159545 -0.09873353
-0.21030565 -0.0131404335 0.042320054
-0.123290695 -0.22391069 -0.12861565
-0.08291434 -0.078715585 -0.11742226
0.21458691 0.046534646 0.07064792
-0.0047282674 0.03901383 -0.27622956
-0.003197893 -0.19495842 0.13578987
0.08651413 0.04328716 -0.1461163
-0.025021657 0.097614065 -0.15270495
0.25561938 -0.00021577069 0.050741263
0.20459558 -0.042822562 -0.13725948
-0.122772664 -0.05399754 -0.06392458
-0.008005553 0.03968978 -0.30382922
0.1655612 -0.07015775 -0.24680232
-0.21948746 -0.044389382 -0.0089122085
-0.18474527 0.01201708 0.05467488
-0.13045587 0.025806911 -0.038306348
0.018619988 0.21430092 0.048490953
-0.17801344 -0.074869946 0.14389704
-0.019160075 0.10003495 -0.2654032
-0.054594994 0.13375415 -0.17194411
-0.12931141 -0.08420156 0.21774822
-0.024478035 -0.0947947 0.1773696
-0.085121445 0.16168876 -0.25121772
0.07581286 0.15589651 0.07114596
-0.2117064 -0.06308048 0.10406782
-0.019744799 -0.048903916 -0.14358112
-0.18260401 -0.10019331 0.081597924
-0.23687589 -0.08929095 0.00036351805
-0.05024646 0.14399952 -0.23227361
0.1296514 -0.036841273 0.0023626357
-0.0861662 0.29175496 0.045033544
-0.17256424 -0.029926302 0.15896066
0.27007896 -0.037203655 0.00040448943
-0.1453176 -0.056221776 -0.024872063
-0.059635542 -0.14606299 0.22095333
0.26362807 0.0026591767 0.07219836
-0.27171272 -0.022860318 0.07373506
-0.072770685 0.23894428 -0.07502944
0.20240505 -0.032133754 -0.028573439
-0.18416204 0.0043024565 0.14123936
0.020882145 0.19080803 0.03935074
-0.1123242 0.26475033 -0.0061929114
-0.019023063 -0.17618878 0.23534891
-0.04189999 0.05534867 0.12758893
0.037931636 0.17100054 0.03027212
0.0315048 0.070019804 -0.19533454
0.19463617 -0.020139737 -0.072360165
0.13707256 -0.061000332 -0.2541253
0.009197499 -0.17271 0.2186331
-0.13980255 0.014226188 0.026117
0.03516055 -0.10341661 -0.07987092
0.09337718 -0.076156095 0.04061708
0.20242287 0.07203967 0.10114457
0.17755546 -0.042019494 -0.18750918
0.12418077 0.01857992 -0.12593584
-0.060786735 -0.093246825 0.25511307
0.03381292 0.19740734 0.13232075
-0.09024902 0.011787361 -0.07615304
0.14885296 0.056444254 0.0859745
0.1051787 -0.011329721 -0.26173306
0.055472832 0.122610696 -0.03822469
-0.22839889 -0.110949256 -0.029093027
0.23595294 0.02320322 0.15274023
-0.12685995 0.05229717 0.021619828
0.006825464 -0.2064711 0.21037032
-0.025063787 0.11748744 -0.1456474
-0.11482045 0.2561631 -0.119444996
0.014288196 0.23401691 0.17212856
-0.03887319 0.06462798 0.12067281
-0.073649675 0.2674601 0.07382493
0.04278535 0.1855081 0.07023502
-0.004967592 -0.21842712 0.0033496271
-0.014024213 0.022631371 -0.16155516
-0.24130712 -0.012947222 0.022381427
-0.0005739811 1.2996618e-05 -0.1592399
0.13670443 0.0064479327 -0.1274994
-0.01790992 -0.16088022 -0.0032992787
-0.097792216 -0.10101177 0.242797
-0.16699977 -0.09448739 0.12362403
-0.28681296 -0.009143196 0.046599146
0.029101077 -0.019131975 0.13417453
0.22315681 -0.058392547 -0.13448457
-0.04705858 -0.1036003 -0.119916074
0.036540575 -0.07419689 -0.12474121
-0.28433233 -0.05538895 -0.042669605
-0.27065128 -0.04426898 -0.053347737
-0.0037488656 0.217467 0.01220661
-0.00079808454 0.11315313 -0.16629772
0.098802246 0.16415091 0.18693438
0.11633992 0.185749 0.20157479
-0.07541176 -0.042554617 0.18993466
0.04942143 0.16445744 0.0927185
-0.049906544 0.05446181 0.124563515
-0.050069172 0.13220705 -0.25683674
-0.28741363 -0.025788944 0.037388235
-0.18754138 -0.1386883 -0.009185619
-0.052624106 0.108788155 -0.27764562
0.18866505 -0.0036288938 -0.048961267
-0.025377024 -0.28799945 -0.042188343
-0.08376107 0.28595626 0.026516195
-0.05003557 0.031192908 -0.088820435
-0.0008492017 0.14320216 0.07736377
0.28514206 -0.04706934 0.008505481
0.08236662 -0.05752659 0.084274784
-0.110050395 0.22221768 -0.09165079
0.0782006 0.06769572 -0.110538736
0.20141275 -0.04183545 -0.006658591
-0.17121433 -0.016364684 0.009553026
0.24676794 -0.014599943 0.09367944
0.109615125 -0.014054524 -0.25896603
-0.03902858 0.14432974 -0.21002662
-0.017412996 -0.20665784 0.17409506
-0.10287819 -0.0030814798 0.15132798
-0.11217376 -0.020123698 0.16594703
-0.09270572 0.044535354 -0.075917765
0.05469761 -0.0039799777 -0.25286797
0.04650977 -0.03098568 0.105460435
0.13780375 0.041940384 0.09376768
0.16158904 -0.02126557 0.03692311
-0.11925637 0.034088492 -0.05518664
0.1572211 0.014435716 -0.07121592
-0.04080839 0.21949051 -0.05471207
0.19535142 -0.013015908 -0.05594112
-0.050433036 -0.1634553 0.20190087
-0.20040908 -0.0027214084 0.05678889
0.014877525 -0.24605604 0.15292075
-0.044267092 -0.10872083 0.2521548
-0.20629714 -0.13368095 -0.0346407
-0.12842652 0.26258752 -0.11640089
-0.0896774 -0.23319282 -0.020767916
0.033135638 0.15870215 0.07735757
0.13698523 -0.011760306 0.06942003
-0.07907254 0.21026997 -0.14769284
-0.085081354 0.08999365 -0.022702515
-0.074403055 -0.19926922 0.08021807
-0.09099446 0.27951822 0.06596983
0.0072173225 0.094001815 0.11374824
-0.017420927 -0.10085175 0.1737605
-0.047674756 -0.1590603 0.21648139
-0.039339382 0.057366244 -0.05486434
0.2357608 -0.10260083 -0.113314636
0.1604666 0.1425949 0.16954963
-0.09591269 -0.23732775 -0.041479126
-0.0101436 -0.15043089 -0.016102059
0.106390074 0.19722842 0.19801784
0.15615296 -0.05260099 -0.024067836
-0.1785835 -0.09776163 -0.07728766
-0.07749831 -0.11899581 0.24380206
0.0027427895 -0.2216157 0.048377395
0.09306858 0.10573497 -0.00164098
-0.059267063 0.1793635 -0.17491688
0.03364018 0.04929858 -0.2711226
0.19047715 0.10834498 0.15486899
-0.124220245 -0.21428438 -0.04719431
-0.06127619 0.1469282 0.0030512547
-0.17702183 -0.17019914 -0.13893506
0.013271753 0.131463 -0.10060034
-0.07786723 0.28120235 0.004423596
-0.036080573 -0.21428597 0.12212373
-0.071718186 -0.14844427 -0.09948042
-0.15623905 0.009251974 0.09242102
0.20240577 -0.07343412 -0.20611459
0.0006413598 -0.07676777 0.13389286
0.12726545 0.05148931 0.09826205
-0.16596268 -0.15015917 -0.082277946
0.0031032609 -0.07416819 -0.13429484
0.2487369 -0.04044027 -0.04742976
0.028950742 0.12065985 0.10165718
-0.11422255 0.19653042 -0.19291088
0.18094115 0.121538445 0.16441327
-0.22649394 -0.0017708438 0.17578653
0.097123705 0.062345475 -0.085486025
-0.058213238 -0.002831967 -0.11903255
0.0709535 -0.007321059 -0.1651736
0.10252258 -0.012802057 0.001015501
-0.17088693 -0.15800591 -0.108309105
-0.03964796 0.063564874 -0.110821456
0.23799151 0.057674423 0.17047279
-0.233395 -0.07795051 0.030999754
0.15431504 -0.06359662 -0.18740302
0.24443528 -0.04938962 0.015725592
0.1640961 -0.08879931 -0.23148386
0.05298901 0.08058582 0.119604506
-0.07210866 0.12792155 -0.21790653
0.02574456 0.060256056 -0.2631483
0.13430616 -0.02320617 -0.2308615
0.16528375 -0.038526833 -0.11338666
0.10545523 0.044876516 -0.106373094
0.06857619 0.15008175 0.04496321
-0.20151761 -0.17629264 -0.12966202
-0.10712761 -0.043011457 -0.082144074
0.01884681 -0.2072327 0.15221646
0.18659955 0.028260667 0.014418576
-0.03452291 0.15224949 -0.1846445
-0.07830998 -0.23366714 6.751015e-05
-0.004799109 -0.08560182 0.13391034
-0.033786643 0.2196885 0.049514085
0.07514301 0.16020447 0.13723743
-0.048522335 -0.18165317 0.16713901
-0.21479918 -0.117279194 -0.10665524
0.035878595 0.061962783 -0.24007696
-0.115788504 0.034646135 0.044692554
0.15491095 0.081940696 0.06690958
-0.062331382 0.14866117 -0.00955389
0.09764459 -0.03939761 -0.13700682
0.21859227 0.06515335 0.18400922
-0.19260092 -0.11270427 0.03597037
-0.22565974 -0.05057513 0.103673585
0.11325968 -0.017576294 -0.25940356
0.030073384 -0.2330199 0.11932285
0.18084987 -0.006317592 -0.069653116
-0.07811485 0.291431 0.02554946
