# .PCD v0.7 - Point Cloud Data file format
VERSION 0.7
FIELDS x y z
SIZE 4 4 4
TYPE F F F
COUNT 1 1 1
WIDTH 1000
HEIGHT 1
VIEWPOINT 0 0 0 1 0 0 0
POINTS 1000
DATA ascii
0.034289174 -0.07193823 -0.1828761
0.101800404 0.1979511 -0.043961626
0.09352837 0.2864221 0.01506385
-0.122206554 -0.0725655 -0.24545726
-0.046875585 0.08255903 -0.13207193
0.24025624 -0.12664886 -0.12513664
-0.1089785 -0.2669697 0.0883633
-0.1027537 -0.27941656 0.082416974
0.06973466 -0.07807594 -0.17499052
-0.17521305 -0.047018226 0.07251205
-0.12362457 0.001238966 -0.20970519
0.086775705 -0.04702747 -0.05837768
0.06639887 -0.109238476 -0.1254266
0.018387876 0.01992159 -0.12022705
-0.010084 -0.15437998 -0.25110763
0.16537525 -0.019161802 -0.11670496
0.2611178 0.16743322 -0.0018002283
-0.05732658 -0.16373983 -0.013450292
0.09651592 0.05762225 0.048872095
0.11880791 0.038938515 -0.010431939
0.03767316 0.075253926 0.2758217
-0.18415327 -0.16292766 0.061923962
-0.1039236 -0.13119699 -0.26689196
-0.03609104 -0.0065863845 0.033301864
0.025393898 -0.006363744 -0.15345807
-0.1392162 -0.14935564 0.048045475
-0.21684097 -0.0221545 0.12128546
-0.09562706 -0.047698423 -0.12064408
-0.1978523 0.030823963 0.20705865
0.06296985 0.26534086 0.012567487
-0.04267683 -0.10649348 -0.20222369
-0.09110817 -0.050815422 -0.18981048
-0.16853221 -0.21397729 0.060617704
-0.10852002 0.13715602 -0.13841945
0.11372258 0.11215899 -0.06819344
0.12435501 -0.06642554 -0.15248838
0.08605585 -0.0066663125 0.23947497
-0.23339687 0.124847844 -0.15362626
-0.020940501 -0.21285275 0.07445842
-0.20582238 -0.025984537 0.12907664
-0.05358625 0.2967443 -0.043285295
-0.23220742 -0.12768307 0.083356805
0.20414175 0.093216054 -0.063856766
0.18753694 -0.00033886317 -0.059695274
-0.20665853 -0.032159876 0.17346972
0.12491979 0.21717161 0.007992046
-0.21772881 0.03614733 0.1798374
0.2332051 0.2020427 0.007240603
-0.17297909 -0.16571455 0.118338116
-0.018060457 0.16308694 -0.08373078
0.04205994 -0.1544687 -0.23512287
-0.04859497 0.29398522 -0.043103833
-0.19910933 0.10739664 -0.18085712
0.10826668 -0.065931104 0.084618844
0.06944334 -0.25505188 0.14905092
0.07119305 -0.004744445 -0.13858609
-0.039898977 0.0908568 0.2850463
-0.09111535 -0.01322771 -0.2068057
0.1704666 0.2690579 0.02351724
-0.041207206 0.21713977 -0.0785114
0.04834353 0.035993006 0.28526986
-0.07912664 -0.004016248 -0.09233535
-0.25276172 -0.0631677 0.12018409
0.15741605 0.20424587 -0.023780152
0.31612623 -0.017879993 -0.07256961
0.0673631 -0.0840478 0.23225805
0.017802916 0.19671786 -0.05621673
0.18076704 0.26537675 0.013371534
-0.08197876 0.11278283 -0.035943255
0.29108533 -0.03187634 -0.09846707
-0.16014776 -0.044500515 0.07544715
-0.09028366 -0.16619961 0.14351931
0.2995536 -0.022217844 -0.055705342
0.20093855 -0.022095079 -0.046512425
-0.13418706 0.0612754 0.16115436
-0.11018385 -0.11435541 0.016884819
-0.020448625 0.0144786695 0.25357515
-0.03338394 0.09136723 0.13932437
0.08424612 -0.08858837 0.23522122
-0.076460615 -0.17076026 0.14553207
-0.12633315 0.065316185 0.24595477
0.18492286 0.17085713 -0.031695757
-0.13409181 0.06494454 0.24338755
0.2149181 -0.13385615 -0.17188221
-0.011949093 0.2989905 -0.006031936
0.3102398 -0.035602245 -0.08440885
0.07918154 -0.0068064495 -0.13714156
0.10765196 -0.18287079 0.16076434
-0.032439742 0.076154366 0.28013027
0.068438105 0.12452927 -0.07604781
0.08509986 -0.053627297 -0.06177874
-0.20341694 -0.19609828 0.066373564
-0.0048359362 -0.21670811 0.14501926
-0.07187386 0.075583376 0.26772884
0.0044464404 0.1901026 -0.06356579
-0.15212433 -0.24857315 0.08412123
0.044226605 0.29767403 -0.012762818
-0.17469186 -0.025458194 0.084215656
0.06810928 0.012776627 0.20451662
-0.16006342 0.015311396 0.17126101
0.18420736 0.23757015 0.024616148
0.06392478 -0.10717354 -0.060943082
-0.112867564 0.05450055 -0.14486074
-0.16254307 -0.0295268 0.18832117
0.06244826 -0.22077343 0.12828511
0.10688615 0.22990578 0.008692159
-0.07936363 0.16278803 -0.08146649
0.21255894 0.07141715 -0.03653562
-0.04048254 -0.23074658 0.09175595
-0.059467424 0.08648271 0.042261384
-0.11651124 -0.019769933 -0.18239696
0.20460173 -0.15219635 -0.18404575
-0.01262975 -0.113052815 -0.1473239
-0.021345185 0.12301455 -0.10438824
0.015205032 0.044234127 0.27912444
0.12382944 -0.108341314 0.1568465
-0.064137846 0.29322225 -0.037270267
0.108636476 0.2849946 0.010755402
-0.15114886 0.17107524 -0.13489197
-0.16338785 -0.088407226 -0.24247722
0.01610179 0.03456994 0.2746615
-0.07288244 -0.060542606 -0.10298159
0.043235168 -0.10997668 0.08774339
0.23748575 -0.07124127 -0.13424376
0.20378084 0.2341858 0.005152097
0.17070347 0.024616268 -0.09360175
0.0383531 -0.029531922 0.2500705
0.037355136 -0.08846972 -0.19003928
-0.19663523 -0.046887577 -0.22032195
-0.081238836 0.038826354 -0.1640776
0.22456455 0.17994937 0.020370394
-0.05774273 -0.040658228 -0.19582799
-0.025831182 0.032407127 -0.15019374
-0.034491412 -0.26566806 0.11189722
-0.053178076 0.054812826 -0.14761378
0.26447785 -0.07421383 -0.1274047
-0.14332987 -0.04775993 -0.23978722
0.08124956 -0.11055198 0.050313693
0.0063562505 -0.14412262 0.18404958
-0.03416861 0.24911396 -0.060670294
-0.058276083 0.14186323 -0.10649843
-0.045217562 -0.25731996 0.07727097
0.07452244 -0.07704596 -0.04394377
0.0940817 -0.026410945 -0.0075670695
-0.19519484 -0.19441076 0.09743884
0.07154396 -0.17024876 -0.2337975
0.02425965 -0.011073667 0.25478953
-0.027371034 -0.081239425 0.19861712
0.07915499 -0.16301848 -0.22791271
-0.08283196 -0.045522835 0.20497999
0.07834472 0.10196602 -0.08406573
0.02854088 -0.24750218 0.14017966
0.11932242 -0.039865214 -0.1410121
-0.1275858 0.059618417 -0.18229835
0.0532957 -0.25445548 0.10895699
0.10450043 -0.10118285 0.045358595
-0.014095895 0.24772212 -0.019759566
-0.16117616 0.12245992 -0.1263884
-0.15634584 -0.14383507 0.05983878
0.02665734 0.05733828 0.2890699
-0.048925944 0.14166288 -0.011622929
-0.18787678 0.07500745 -0.15786248
-0.09591479 -0.13894524 -0.0009080537
0.09126039 -0.12530221 0.113107294
0.26726598 0.04887108 -0.030774087
0.02088282 0.14798291 -0.07916576
0.059250005 -0.14054282 -0.22301076
0.24754722 0.103082426 -0.04567741
0.020676823 -0.20313488 0.07870635
-0.117511 -0.06757277 -0.24156602
0.061629992 -0.20224619 -0.2353075
0.17972288 0.21283138 0.022709267
-0.04069914 -0.14715694 0.16809776
-0.042299844 0.30128872 -0.0365037
0.1737937 0.066551246 -0.072091036
-0.018083612 0.1155181 0.09016148
-0.089747466 -0.13106973 -0.2287425
-0.18132196 -0.14858977 0.05989976
-0.006789897 0.10191047 0.12508094
-0.1400078 -0.20644568 0.108501434
0.094528526 0.20927095 -0.005223786
0.06853335 -0.26699013 0.13577653
0.18245323 0.21440147 0.024318265
-0.07993827 0.15974669 -0.10438852
0.08947106 -0.14774433 -0.18182962
0.22561954 0.20056917 -0.0046178205
0.13521291 0.13482152 -0.050475605
-0.10698116 0.23054837 -0.092154644
0.15550064 -0.07176786 -0.15970324
0.08433943 -0.16588557 0.14564337
-0.06488895 0.023512244 -0.040685415
0.05327628 -0.2700621 0.12520936
0.11957178 -0.014998985 -0.12874323
0.10191775 -0.21745844 0.17746578
-0.19835599 0.031535733 -0.21782164
-0.11724013 0.025706477 -0.12770458
-0.0026195266 -0.13854027 0.18402776
-0.0390246 0.075111195 0.24217167
-0.075524926 0.054386202 0.07818406
-0.04036499 -0.2855299 0.10035418
-0.049728904 -0.11649179 -0.09098761
-0.19945991 -0.20895153 0.08899831
-0.00043598082 0.16160432 -0.00029067078
0.1121976 0.24122174 0.015873699
0.16076876 -0.13477652 -0.18897828
0.15160158 -0.14497831 0.22618365
-0.076785624 -0.02854736 -0.060256623
0.019323112 -0.25649968 0.13293481
-0.12163292 -0.1124202 -0.22939944
-0.1671445 0.0106830755 0.20662248
-0.06768803 0.101890326 -0.12899114
0.13951607 -0.06107948 -0.14520676
0.07434324 -0.16830783 -0.19656211
0.06726563 0.038782936 0.13974494
0.054550666 -0.1322612 0.20467955
0.2751002 0.123737834 -0.02708017
0.2956437 -0.0015957709 -0.08221884
-0.17862548 -0.15112962 0.05863024
-0.215147 0.09298608 -0.19285259
0.037180096 0.0891825 -0.10298714
-0.19620906 0.0243509 -0.22068423
-0.059879173 0.050708257 -0.023156697
-0.010960483 0.034310658 -0.14468952
0.098854825 0.10220694 0.027452856
-0.21546386 0.13970242 -0.13462122
-0.03280009 -0.0012568282 0.020413108
-0.12587316 0.024400158 0.22603413
-0.24316636 -0.016914751 0.13430026
0.17300518 0.055422675 -0.07778945
0.14221606 0.14104708 -0.024016876
-0.08837134 -0.23198946 0.11184947
-0.012925139 -0.057934668 0.22038187
-0.09333861 0.15458049 -0.12089497
0.03401729 0.029740734 0.2232739
0.13492933 0.116785236 -0.01008893
0.056124378 0.049430817 -0.07066358
-0.16162986 0.22068612 -0.07836569
0.13768514 -0.19126377 0.20130387
0.06585808 -0.10134166 0.22331586
0.025040446 0.019490756 0.27001575
-0.12826572 0.21339597 -0.107107274
-0.23944743 -0.15489587 0.0955068
-0.0949734 -0.12960425 0.16002135
-0.080019735 0.16947438 -0.10983502
0.11667289 -0.087211624 -0.17921087
-0.1303655 -0.265914 0.08230709
0.09852897 -0.11428075 0.057427328
0.09183685 0.01413048 0.2879195
0.11371344 -0.22548756 0.17715488
0.114387244 0.27154952 -0.0040060976
0.21440445 0.21313177 0.020503275
-0.04538549 -0.03191787 -0.1877442
0.104682826 0.18299831 -0.01498461
-0.25120822 -0.086670384 0.1330484
-0.09323117 -0.12244252 -0.02004736
-0.14990632 -0.047430936 -0.2042825
-0.108782984 -0.08019111 0.04277512
-0.22435391 0.14217082 -0.17156637
0.054008592 -0.106212415 0.030834245
-0.08093599 0.13228199 -0.0336032
0.21858396 -0.08353498 -0.14608213
-0.003500651 0.07087187 0.19481482
0.03198137 0.032730136 0.2786406
0.071586125 0.12005772 -0.077272505
-0.11529223 0.028318984 0.0686893
-0.045756884 0.10326054 -0.026009245
0.04206881 -0.094202176 -0.2055705
-0.22685358 0.07037481 -0.1848417
-0.12578557 0.045230146 0.053209238
-0.081208594 0.12634489 -0.12115675
-0.17265452 -0.1527061 0.055850673
-0.15633562 -0.25183 0.081229955
0.29454046 0.12487847 -0.01086528
-0.067490466 -0.029893259 0.21735938
-0.21728091 -0.19279027 0.0914446
0.027018353 0.0697142 0.28233823
-0.12987651 0.17072192 -0.1285266
-0.094993904 0.07343051 0.023420284
0.13867608 -0.18435809 -0.22007987
0.034243915 0.030437823 0.27821207
-0.022791594 -0.0034605635 0.24405938
-0.21444146 0.09593393 -0.15576732
-0.03212034 -0.20046972 0.04778764
0.17155099 0.02674117 -0.025168188
-0.14367278 -0.24770549 0.07119884
0.114664726 -0.08991956 0.14171991
-0.15110351 0.26697034 -0.07855577
0.122643426 0.14014141 -0.05173127
0.07134487 -0.111168034 0.025514295
-0.19291303 0.19867146 -0.1238481
-0.20625992 -0.14576219 0.11789074
0.05305247 0.05340979 0.29408893
0.022638401 -0.069901615 -0.18545894
0.1022921 0.105204105 -0.07511701
0.07405342 -0.18950403 -0.22804053
0.01684741 0.15154175 -0.0786609
-0.19137746 -0.09320619 0.14823481
-0.06564987 0.12064228 -0.11916964
0.09719368 0.196391 -0.010719821
-0.11386935 0.210023 -0.10433628
-0.032407835 -0.07823426 0.20325096
0.27680007 0.10638036 0.00035415203
0.17724606 -0.0804611 -0.1572817
-0.037638463 0.039956514 -0.15012151
0.076726586 -0.16903786 0.09502502
-0.061671678 0.02151351 -0.06371588
0.08644492 0.21694621 -0.03936751
-0.07671458 -0.058111526 -0.09126096
0.11569687 -0.08130903 0.012481608
-0.024618456 0.22593755 -0.06909883
0.13540962 0.24701793 -0.009572256
0.20409627 0.19955073 -0.011733228
-0.024963858 0.06421313 -0.13433237
-0.23612358 0.013376265 0.16194397
-0.027634505 -0.28243613 0.07782608
0.11106352 -0.09887293 0.009636853
-0.16054638 -0.00021833602 -0.18634602
-0.18647823 -0.017975908 0.18662754
0.17887072 0.19457132 -0.021928957
-0.026230495 -0.26479623 0.11486438
0.19201584 -0.047894232 -0.13677314
-0.111225516 -0.15368849 0.14321697
0.047273234 -0.024642527 -0.15569511
0.06500733 0.26912534 0.015049537
0.19617665 -0.036823902 -0.13006641
-0.10079111 -0.06465254 0.021690771
0.17002323 0.15226662 -0.04539097
0.25051838 -0.062634565 -0.09059525
0.11388762 0.05423053 -0.09654578
0.21300006 0.013017075 -0.10045723
-0.19208258 0.19977091 -0.112244636
0.07517297 0.24131942 -0.030882271
0.13757128 -0.19211403 -0.20310779
0.084617645 -0.021418069 0.099055864
-0.059129607 -0.12434368 0.16486485
0.07203609 0.06899409 -0.102171585
-0.056165576 0.09966507 -0.12654047
0.19281843 0.20634207 0.023553142
0.14763469 0.13014765 -0.027695592
-0.09421086 -0.07487597 -0.23798469
-0.041804593 -0.17510578 -0.25273186
0.06720271 0.21850318 -0.04451905
0.06573088 -0.18549895 0.18201306
-0.006791394 0.16855815 -0.02056665
0.29875922 0.078145474 -0.0272602
-0.19392237 0.04137789 -0.2116328
0.2807057 -0.083946 -0.11024295
-0.08325409 -0.2792722 0.07916366
0.103859924 -0.08871119 -0.07761594
-0.092419796 0.0803182 0.26373497
-0.06399633 0.25020763 -0.03387944
0.04640428 0.121385254 -0.08436249
0.15577887 0.001888032 -0.10933375
-0.13833101 0.11567098 -0.15811789
-0.2105601 0.15535124 -0.16086394
0.12038037 -0.13322599 -0.1652098
-0.11036159 -0.051038723 -0.1495165
0.08044996 0.020236814 0.09118671
-0.08451511 -0.04709491 -0.046065327
-0.058634702 -0.24012117 0.11700261
0.011663635 -0.13231204 -0.23360218
-0.10667586 -0.17528565 0.04140887
0.2935994 -0.015070752 -0.08945411
0.19288728 -0.17139927 -0.17511114
-0.19752578 -0.1866221 0.100541376
-0.06750634 0.088686444 -0.13540916
-0.02862841 0.044675443 0.26586723
-0.026892224 -0.27619916 0.10907024
-0.021882394 -0.16992897 -0.26235798
-0.07151796 -0.25463566 0.065121464
-0.069417655 -0.1825342 0.025061773
-0.04579865 -0.051320493 0.21352077
0.040019423 -0.117002584 -0.12062661
-0.05500433 0.089705214 0.016890151
-0.094200134 -0.0034312657 0.089568794
-0.028003648 -0.08573132 -0.22295639
0.077638514 0.0484731 -0.11051148
-0.012917836 0.17328335 -0.077150196
-0.22856393 0.14360319 -0.16801962
0.0019882745 0.0817085 -0.117469035
-0.12957078 -0.0077756825 -0.01720939
0.107139796 0.089724176 0.015881414
-0.14176023 0.08709584 0.2480252
0.08616047 -0.115042664 0.04006414
-0.12201621 0.10527308 -0.15820129
-0.0016105897 -0.2909032 0.10740404
0.039206367 -0.11624183 -0.11074569
-0.20268026 -0.02941023 -0.24903359
0.038615916 -0.11299073 -0.21584383
0.0775984 -0.01624109 0.26865083
0.11520312 -0.08379394 0.24708736
-0.0770805 0.030431127 0.24398945
-0.03706535 -0.19520536 0.14565544
0.015912296 -0.12429047 0.19671074
-0.050339296 0.09570658 0.27753577
0.20343228 0.07478981 -0.07310981
-0.23037122 -0.060348548 0.11693664
-0.12888357 0.021656541 0.030469319
0.13972098 -0.027867137 0.2521667
-0.20266452 0.024400473 0.2024299
-0.2171341 0.09746292 -0.19126831
-0.11581037 -0.24159226 0.09870635
-0.21913254 -0.1019063 0.13543761
0.11596474 -0.046973176 0.22995284
-0.08785159 0.037436515 -0.1667921
0.008889835 0.21327369 -0.06500817
-0.054256596 0.0774035 0.15194003
0.13851 0.20305265 -0.030176247
-0.074843794 0.06218251 0.044301014
0.13483608 0.25425076 0.02922026
0.1509205 -0.06013365 -0.06676015
-0.21533272 -0.030793814 0.113842964
-0.15958996 0.021187836 0.12516427
-0.16765861 0.029084722 -0.17416444
0.05501103 0.13304159 0.04767632
0.096288376 -0.09570778 -0.00322329
0.20814142 -0.14065683 -0.17729983
0.23358601 -0.120646514 -0.15966725
-0.03715463 0.26876125 -0.051955055
-0.079340234 0.22550015 -0.04746624
0.24981421 0.09367535 -0.014170481
-0.022467425 0.17639624 -0.078559354
0.063106164 -0.17927368 0.18425837
-0.0627474 0.11369337 -0.12168513
0.11016472 0.017046979 0.2659893
-0.021143949 0.17063324 -0.08097826
-0.11282252 -0.121264435 0.026174042
0.07171306 -0.14816515 -0.22291747
-0.13329352 0.0007510627 0.020381596
-0.07398465 -0.17353036 0.14493497
0.043446064 -0.18197584 -0.21276093
-0.07224233 0.06134992 -0.058169197
-0.17326376 -0.21181312 0.09564764
-0.07477315 -0.11657866 0.16739397
0.14636944 -0.12501112 0.23645814
-0.19762792 0.14180796 -0.16352911
-0.13902658 -0.0129701365 0.030972295
-0.12158434 0.013588131 0.22205111
0.12804426 -0.036565814 -0.044614095
-0.040329058 0.089914456 -0.12645335
-0.04844553 -0.041244786 -0.19325766
-0.047853436 -0.12017057 -0.088363126
-0.1347096 -0.0047546667 0.019270264
0.06493423 0.12021662 -0.07923889
-0.012144042 0.09763666 0.13339886
0.1112885 -0.08310816 0.16836424
-0.0978505 -0.22516418 0.11228193
0.016210664 -0.15509251 -0.24337433
-0.1963532 0.000223321 0.15709253
-0.12593482 -0.20303519 0.07907646
0.08091018 -0.08098637 0.23792331
-0.07397375 -0.07290368 -0.0945944
-0.027824346 0.20486334 -0.044993993
0.09835853 -0.15961748 -0.2203421
-0.25317642 -0.06224377 0.13154793
0.139009 -0.03265586 -0.13142595
0.2388909 -0.06940953 -0.1329141
0.14575978 -0.18674992 -0.20893455
-0.012268083 0.092430465 0.14448419
-0.039841853 -0.19325583 0.14575818
0.036076564 -0.13793503 0.08190114
0.021068053 -0.033874076 0.24262856
0.20529808 -0.091525726 -0.15408373
-0.02251006 0.0036156618 -0.16328995
0.11852802 -0.12764801 0.1573832
0.18946639 -0.013124351 -0.08508592
0.06155738 0.016691295 0.24444497
-0.038714476 -0.28230435 0.087530985
-0.22622569 0.04292685 -0.1853799
-0.14349666 0.09360042 0.22543085
0.055257823 0.11882606 0.06946841
-0.2363674 -0.053929433 0.11824084
0.08835327 0.032257088 -0.115168825
-0.07711458 0.14146557 -0.11248415
0.028273713 0.27455902 0.006422501
-0.10161423 -0.15948237 -0.25541556
0.16748068 0.21624148 0.020618265
-0.15693046 -0.11812325 0.14660557
-0.20206049 -0.031611457 0.102267265
-0.09849539 0.0111719165 0.22796376
0.13656716 0.020355558 -0.014084716
0.025009027 0.046286207 0.2070965
0.13055146 -0.19395608 -0.19186088
-0.18147463 0.16684212 -0.11086635
-0.14451396 0.088356696 0.22816741
0.007772754 0.11361345 0.10109107
0.22415254 0.19685115 -0.00689179
0.17197853 0.16028863 -0.005433807
0.10035761 0.10313933 -0.07672384
0.21313033 0.10936286 -0.053177375
-0.18566696 -0.075754374 0.095617704
0.005158886 0.27288598 -0.0015027979
0.079562195 -0.13667352 0.10393576
-0.22149338 0.07906012 -0.20163149
0.26736924 -0.036117606 -0.07241384
0.08473878 -0.10046451 0.123280995
-0.03144169 -0.023899894 -0.17952654
-0.17251211 0.025013482 -0.21307527
0.09985494 -0.15449347 -0.21736965
0.16448224 0.060352925 -0.016270122
0.11979086 0.07298089 -0.085537665
0.056492858 0.27732557 -0.018969733
0.31101003 -0.009793127 -0.07590936
0.11723008 0.11815475 -0.064175315
-0.00842254 0.30624396 -0.024744105
0.3028253 0.05535109 -0.03542355
-0.13688757 -0.10400102 -0.26211834
0.10182956 -0.114768706 0.22778954
-0.03960869 -0.10422182 0.12156435
-7.081709e-05 -0.12831146 -0.15779687
-0.113948956 -0.05513338 0.013852079
0.09748516 0.0031754393 0.2842842
0.106734045 -0.035356168 0.17408334
-0.08054337 -0.040413838 0.2081883
0.11066301 -0.028873842 0.27262047
0.011927392 0.06987036 -0.11913451
-0.11044522 0.070080176 0.2531743
-0.17540364 0.057095613 0.22684085
0.037400912 0.037208006 0.20943917
-0.12404074 0.10725866 -0.15785004
-0.07887564 -0.21694107 0.07133172
-0.11872849 0.00946573 -0.052576978
0.13067038 0.012991953 -0.111607306
-0.16664131 -0.13499622 0.13534772
-0.046832964 -0.1309858 -0.25093302
-0.006559954 0.12640883 -0.098179325
0.04353939 0.2774633 -0.022883745
0.18038104 0.06738311 -0.048403908
0.09808138 0.21819086 0.0002420929
0.007298864 -0.19001585 -0.248184
-0.00044490446 0.08334726 -0.117413715
0.14109914 0.006939215 -0.111369394
-0.041911308 0.13557805 -0.104549624
0.050521128 0.05655354 0.2923429
0.004481849 0.024308862 0.2660587
-0.07051484 -0.20297909 0.045235064
-0.0002948568 -0.2501222 0.13003185
0.055991467 -0.11338132 0.10811103
0.070408136 0.077011056 0.10390016
-0.013604551 0.122117974 0.07689659
0.019919729 -0.040853053 0.23885384
0.17240666 -0.16678049 -0.20109335
0.048873436 -0.16354686 -0.23747966
-0.19732541 0.19168979 -0.1130693
0.09425992 0.18787669 -0.015796488
-0.15047675 -0.1950119 0.110889725
0.078331016 0.19517724 -0.040139154
0.15409178 0.2453994 -0.0046232473
0.058932744 0.25243035 0.004996582
-0.10157394 -0.033840757 0.20494702
0.040639084 0.22519793 -0.013979199
-0.18263666 -0.038480897 0.099434376
-0.21167837 0.0059059295 -0.22093189
-0.22196913 0.03402116 -0.18843833
-0.016058417 0.2275565 -0.06567337
-0.0011332822 -0.29066035 0.10989744
0.12948918 0.22715385 -0.021131987
-0.09241097 -0.16799645 0.025750965
-0.1845691 -0.022925928 0.11584441
0.14079861 -0.1394093 -0.19738816
-0.07348298 0.078667924 0.23332374
-0.11050755 0.031004991 -0.17690916
-0.17937371 -0.003492492 -0.22916129
-0.18024613 0.06604432 -0.19533463
-0.21177341 0.024987442 0.164495
-0.12910186 0.034711212 0.123828836
0.2625139 0.013241948 -0.049704395
-0.22303358 0.12590529 -0.17913614
-0.03361325 -0.09806179 -0.23072653
0.12685631 -0.09110085 -0.17798753
-0.18568267 0.13097958 -0.12974383
0.06699395 0.08296861 0.10262393
-0.09788674 0.005040833 0.11704094
0.2502741 -0.008140079 -0.06395088
-0.027461227 -0.041951653 0.22375119
-0.091268905 -0.15104471 0.0046008094
-0.11274212 0.21549152 -0.10130788
-0.0045317058 -0.04242422 0.23056756
0.1559378 0.2651786 0.021507222
-0.05535474 0.086915046 0.1115153
-0.1258116 -0.23670802 0.06260405
-0.03315766 0.09875514 0.12013366
0.16873658 0.019182092 -0.09687124
0.15729412 -0.104312874 0.21454184
0.14824922 -0.165422 -0.17242958
0.10446064 0.2846466 -0.0006355982
-0.08931918 0.013293099 0.23182437
-0.123371296 0.16491127 -0.12937583
-0.106283955 0.24024524 -0.051763218
0.2496502 -0.11322502 -0.1510903
0.02748784 -0.11090784 0.20683107
-0.02342654 0.036217544 0.2633191
-0.17546976 -0.09516947 0.15216191
-0.049928565 -0.08110039 -0.22742476
-0.10444112 -0.07691654 0.022218686
-0.04187765 0.26130357 -0.021639947
-0.06429903 0.14842017 -0.02251206
-0.16201703 -0.18681113 0.07594056
-0.025557093 -0.21276228 0.1405847
0.011138629 -0.28206423 0.11788453
0.19215488 -0.17381923 -0.16305119
-0.19877203 0.18412763 -0.14313087
-0.14410315 -0.08933373 0.164665
0.16830404 0.000458219 -0.022144295
-0.041951038 -0.29004818 0.09765059
0.00842436 -0.14446583 -0.06350361
-0.0034371198 0.29453993 -0.028950615
0.04897793 -0.104250565 -0.14635906
-0.21605586 -0.026112786 -0.22580126
0.19087596 0.19288215 -0.019066922
0.13101012 0.09015811 -0.073666744
0.08632252 0.012778032 0.075562224
-0.097472616 0.049184814 0.24691643
-0.12414309 0.055951886 0.24203634
0.032926705 -0.19917299 0.16522472
-0.012476082 -0.18840452 0.15654853
-0.115512304 0.056027547 0.05928392
-0.17162055 -0.05558521 0.066600785
-0.0706019 -0.042212505 -0.17242032
-0.21162932 -0.09774324 0.13978516
0.20084405 0.23197733 0.0031664465
0.09927878 -0.00868272 -0.13188413
-0.01919547 0.280823 -0.040520232
0.24307652 -0.059651118 -0.091419995
0.07388743 -0.09695767 -0.15005095
-0.015165697 0.09311485 0.14259385
-0.08102048 0.042776458 0.09105296
-0.03765054 -0.27807102 0.10484524
0.10456756 -0.14648296 0.21308078
0.05380695 -0.012662392 0.26309264
-0.12653254 0.03855782 -0.0915398
-0.14372641 -0.020932212 0.19831888
-0.2027281 0.014737273 0.19767228
0.096261576 -0.15310183 0.20728223
-0.12238667 -0.060791638 0.18533488
0.13300931 -0.11112903 0.23915817
0.032485805 -0.04905569 0.23869456
0.14854214 -0.07307939 0.25428122
-0.15500355 -0.01589641 -0.22775252
-0.009890749 0.08113924 0.16685843
0.0808395 -0.16656134 0.104011215
-0.07044745 -0.13133746 -0.25836426
-0.09680021 0.24316463 -0.047416642
0.25814015 0.14328475 -0.022709087
0.079406895 -0.17141393 0.1931229
-0.013550438 0.24997713 -0.018486355
-0.1683159 0.15121333 -0.1499074
-0.04912489 -0.17018096 0.15421909
0.1615412 0.09636283 -0.061239548
-0.029392932 -0.28265607 0.08051505
-0.014656294 0.12514588 -0.101287164
-0.1425698 -0.15676086 0.06141097
0.026322206 0.084113955 0.14588691
-0.036849115 0.21930814 -0.040685557
0.18218628 0.1213172 -0.056827925
0.18223247 0.15738519 -0.0037054294
-0.11698962 -0.02707255 -0.22154754
-0.11285674 -0.097615615 -0.25486568
-0.043745536 -0.14498425 -0.052772317
0.22795248 0.120523944 -0.0077257794
0.041466374 0.11405407 0.08736957
0.21690512 0.130374 -0.00082617544
-0.014823098 -0.10741377 -0.22953591
-0.020250788 -0.17758715 0.15946282
0.09647642 0.03304482 0.2690661
-0.098358385 -0.07732572 -0.012989419
0.0036973655 -0.16628794 -0.21728714
0.0025020123 0.07070758 0.28819996
0.15360852 0.009084244 -0.106472425
0.07733405 -0.13051157 -0.21253343
-0.039137706 0.09405018 0.27958688
-0.22783963 -0.058304973 0.1541394
-0.1685065 0.005915697 0.123330735
-0.0059543257 -0.1914802 0.046129983
-0.06875517 -0.1455 -0.26478785
0.13313448 -0.12260526 0.17415136
-0.078854 -0.138232 -0.26428583
-0.22470279 -0.16268262 0.08480927
0.1818014 -0.07498878 -0.15319812
-0.0054295766 -0.07806543 -0.19808969
-0.11701612 -0.12076433 0.04045969
0.24454413 0.06600091 -0.029359123
-0.055699017 -0.15167943 -0.03356243
-0.20884044 0.16297585 -0.15659674
-0.058383763 -0.14584525 -0.04058775
-0.041394997 0.10836864 0.07329872
-0.18703656 0.013174485 0.16630672
0.07108249 -0.21719839 0.16811506
-0.18129683 0.06759219 0.23017572
-0.038912587 -0.020209817 0.23089163
-0.17157903 0.058859494 0.22888106
0.17160703 -0.12564178 -0.18116756
-0.23012994 -0.12871584 0.118911736
-0.15932374 0.08366529 -0.18026352
-0.048862513 0.13612042 -0.014321612
-0.0593941 0.092293635 -0.13114733
-0.12482534 0.061813917 -0.14495063
-0.22759978 -0.1365061 0.080447234
0.16560909 -0.07588702 -0.15861578
0.1709586 0.22408085 -0.009891577
0.12724386 -0.11716999 0.16269937
0.14685807 -0.17263442 0.20283489
0.16584556 -0.13014387 -0.14972313
-0.103165574 -0.13732383 0.15371795
-0.097830184 -0.18341726 0.04679041
0.1579983 -0.11279757 0.21059829
0.007132588 0.073195264 0.17510155
-0.12445614 -0.061557546 -0.24075136
0.18172027 -0.15372463 -0.19182855
0.18618971 0.1924962 -0.020696541
0.12232926 0.20817064 0.002782165
-0.103469715 -0.06454999 -0.2357674
-0.08058382 -0.14003384 -0.023713658
-0.09157817 -0.14846946 0.0022372236
0.038617946 -0.23302886 0.15037397
0.07973898 0.2609604 -0.019848276
0.03738756 -0.16626754 0.18272994
-0.15061148 -0.008390319 -0.1872992
-0.090647854 -0.18241009 0.03963494
-0.01515391 -0.24973013 0.12565643
0.1600349 0.23630199 0.02816572
-0.1828616 0.034038316 -0.21183152
-0.040365346 0.011579818 -0.16487347
-0.0027612513 0.09373387 0.27031717
-0.21487398 0.11860923 -0.14478241
-0.0716895 -0.022232136 0.2198249
-0.04578203 0.10799212 0.05001024
-0.037442114 0.18493591 -0.07897534
0.006824499 -0.17376262 0.16966039
0.15012433 0.14126144 -0.021480747
-0.054531068 -0.051802527 -0.21289471
0.07515983 0.01938204 0.117147885
0.1715312 0.052873753 -0.07949294
0.0039185104 0.28430086 -0.03171023
-0.036977775 -0.1264749 -0.24569213
-0.014962598 0.1840292 -0.07250988
-0.024164947 -0.14535768 -0.06012926
-0.03573864 -0.046141516 0.031323887
0.24299693 0.0007548522 -0.061826147
-0.23359507 0.0044945115 0.18316211
0.10251717 -0.02513867 0.17668872
0.08838445 -0.13165319 0.21537775
-0.09928951 0.22569968 -0.05674522
0.12736186 0.13824221 -0.026167829
-0.092104316 -0.13095789 -0.26483488
0.15184174 -0.12081706 0.24019668
0.0035578732 0.27887625 0.0009420347
0.29094586 0.13443647 0.0027948087
-0.021352984 -0.1900783 -0.23781575
0.0039855726 0.14685033 -0.08491489
-0.03265996 0.036748596 0.26074108
0.14957106 -0.062208377 -0.06405856
0.012360493 -0.1840415 -0.22332929
0.1709218 -0.016213652 -0.03029277
-0.032729138 -0.1821377 0.010690761
0.11621801 0.15752822 -0.023927186
0.012851018 0.06790865 -0.097955
0.06392257 -0.10884956 -0.12789647
-0.018101571 0.07035246 -0.12921241
-0.11078237 -0.07554612 -0.243407
-0.06251323 0.2758143 -0.020868404
0.05887006 0.047845524 0.25889432
0.024570605 0.08314995 0.14876464
0.12704112 -0.056656618 0.26403236
0.0296907 0.07986131 0.2738413
0.23727994 -0.08379457 -0.14046255
-0.011618305 -0.1563974 0.17250602
0.2750899 0.03892857 -0.033244103
-0.13311197 -0.018021958 0.20300893
0.09834801 -0.05332899 0.22142133
0.00946801 0.22380035 -0.059668653
-0.1447249 0.06447802 -0.14976096
0.065035924 -0.112348944 -0.1184786
-0.23296425 0.019382633 0.18537173
-0.01598608 0.21477628 -0.07191762
-0.13746963 0.13309938 -0.14930762
-0.12780055 -0.1103149 -0.2656859
-0.08732915 0.030411864 0.24082993
0.21838905 0.20497154 0.025306115
-0.03990255 -0.06239621 -0.20100297
-0.066705495 -0.025358116 -0.19108106
0.11112861 -0.07153002 -0.15905674
0.18486652 -0.16869053 -0.19819927
0.16395439 0.123180956 -0.047348805
0.07236944 -0.20056346 -0.24840732
0.044653792 -0.0045684865 -0.14665799
0.21603604 0.15330498 -0.030738575
0.109107345 -0.043259468 0.17163996
0.09068729 -0.15365343 0.20529841
0.10832835 -0.040180236 0.17246795
0.2588192 -0.073082745 -0.12858956
-0.19169743 -0.11366229 0.13810621
-0.16614081 0.13355441 -0.15789752
0.03907432 -0.14223573 -0.018418016
0.10951765 -0.1919647 -0.22813007
0.02635321 0.1254078 -0.08855331
-0.17272931 0.03684452 -0.17191833
-0.13689595 0.16999316 -0.09561829
-0.027400114 -0.015349364 0.23681355
0.08280637 0.04499696 0.27172884
-0.040387113 0.1186682 -0.11237216
-0.091252506 0.17407516 -0.11500994
0.25122535 0.011004714 -0.054271303
-0.0415903 0.093623616 0.12261643
-0.11804833 -0.007355934 -0.21220548
-0.10335554 0.2685163 -0.07242351
-0.013800722 0.08309264 0.2369189
-0.20166592 0.18421547 -0.12719503
-0.034267176 0.30308828 -0.0327169
-0.091062285 0.097859845 0.26491606
-0.17475311 -0.051882863 -0.21604519
-0.075889654 -0.0044893245 0.22723313
0.000926227 -0.17549263 0.008729809
0.058411766 0.109301716 -0.08659598
0.13209492 0.11475345 -0.061273854
0.18777809 -0.14033265 -0.18340026
0.13589528 -0.0075886925 0.01987572
-0.25721115 -0.08685576 0.13111235
-0.15384379 -0.23862697 0.05643779
0.010419348 -0.055010695 -0.18191345
-0.084544115 0.25380513 -0.038431715
0.106321506 0.16230348 -0.045881648
-0.0579084 -0.18907855 0.14225297
0.034076408 -0.21003608 0.16025159
0.026910435 0.05968764 0.18263182
0.029525535 -0.14625287 -0.2349471
0.10333827 -0.03431197 0.18116905
-0.0051054116 0.057239924 -0.13164687
-0.2196118 0.023608334 -0.2065082
-0.10548759 -0.075646214 0.03080194
-0.1651838 0.14859551 -0.1148057
-0.16955328 -0.03195952 -0.24010073
0.16241471 -0.11143801 -0.17702909
0.12352549 -0.11486988 -0.1906656
-0.22053681 -0.03095437 0.118037194
-0.03818803 -0.10374977 -0.23492198
0.18065907 -0.0306969 -0.09640938
-0.16773644 0.05579471 0.22855935
-0.072869636 -0.122172885 -0.05474606
0.2806365 0.14587556 -0.01452392
0.0216395 -0.09594333 -0.16496854
0.14770797 -0.0846356 0.24173947
-0.06383108 0.16885704 -0.02509714
-0.097382374 -0.05741817 -0.19497664
0.1718224 0.24007289 -0.0017849292
0.00448879 0.14340934 -0.086447306
0.2632386 -0.039076794 -0.07513446
0.029711267 0.026920186 0.27509394
0.23018953 0.07479455 -0.029459989
0.23041795 0.18399592 -0.011269159
0.15463385 -0.06131077 -0.11941994
0.009933626 0.117834374 0.092539385
-0.00086283253 0.13614762 -0.091652915
-0.12609823 -0.03313706 -0.22732082
0.08322549 0.098438 0.061291505
-0.076141275 0.065496266 0.26147124
-0.22090559 0.04365642 -0.20690928
-0.09494359 0.17509659 -0.115643546
-0.056560684 0.08469101 0.11663141
-0.20378146 0.052945446 0.21106349
0.23817016 -0.009175082 -0.10360186
0.14756316 0.042613883 0.00020888906
-0.03699893 -0.047900736 -0.19300273
0.035600815 0.13070516 -0.08311314
0.080357864 0.03289868 0.27984008
-0.048797008 -0.17516208 -0.24865058
-0.10918253 -0.17309262 0.13433026
0.12447404 -0.12576057 -0.19571413
0.09510749 0.28346762 0.019848328
0.15971655 0.26542518 0.028808251
0.28376415 0.0062708342 -0.08201332
0.100674495 0.06313993 0.035280716
-0.14972973 0.007250626 -0.21478209
-0.01688073 -0.17009877 -0.26090407
0.22394064 0.21179484 0.00037034616
-0.10080751 0.067058854 0.15412557
-0.09449065 0.26003122 -0.038436364
-0.05167709 -0.2044848 0.13661444
-0.1279806 -0.052091043 -0.20004928
0.23214807 -0.07624901 -0.1383402
-0.14930293 0.13326143 -0.11744232
0.024550956 -0.12980331 -0.088957295
-0.10415015 0.06826085 0.25421724
-0.17678262 0.05249788 0.22416244
0.09979208 -0.19682375 -0.22226481
-0.018697934 -0.24231409 0.12820314
-0.21717036 0.028557017 0.20000942
-0.16537407 0.18958709 -0.09476494
-0.1434097 0.22082047 -0.07269918
-0.09880447 0.049496636 0.20788534
0.2516499 0.032034703 -0.043829348
0.30821538 0.014673735 -0.07037723
-0.09693479 0.27893123 -0.046285797
0.096595414 -0.23907913 0.14949223
-0.013626233 -0.0016049625 -0.16311865
0.105701566 -0.07717621 0.190005
0.11150547 -0.06709447 0.17010926
0.1264567 -0.101317845 -0.1090307
0.2711964 -0.073388815 -0.0895121
-0.22270566 0.050125584 -0.20176058
0.14947379 0.0039041394 -0.01818373
0.010254534 -0.03326449 -0.17130166
-0.112127475 0.05023943 0.18909317
0.07195529 0.12109232 0.05003049
0.013662817 -0.097450845 0.20917985
0.07753985 -0.05749625 0.24840455
0.20385335 0.015073885 -0.09998273
-0.11224159 0.15149496 -0.0971104
-0.1862263 -0.04682022 -0.24168131
0.110477515 0.21409036 0.0020417224
0.038357545 0.16775209 -0.064100854
-0.117467634 0.10636871 -0.15626553
0.088803686 -0.00964232 0.16906244
-0.060924597 -0.106650524 0.13787629
0.042595506 0.2965293 0.007540045
-0.049185894 0.11388263 -0.025324157
-0.17878003 0.07133777 0.20948441
0.27743262 0.14507808 -0.015899878
-0.0451572 -0.2805281 0.084929556
0.20486124 0.17010668 0.0094877025
-0.053096738 -0.13379712 0.17083745
-0.07350222 -0.066052936 0.19778153
-0.13365081 -0.049403377 -0.18240973
0.16570674 -0.03332359 -0.06541965
-0.12552032 0.0035268974 -0.02185718
-0.03010541 -0.2611597 0.11545629
-0.17995639 0.09157559 -0.14730431
0.058829702 -0.18834512 0.108214416
-0.08229345 -0.066890925 -0.07306351
0.21198353 0.11875556 -0.013501357
-0.11529274 -0.029527254 -0.167184
0.11519596 0.034601763 -0.10576813
-0.051215548 -0.0021012663 -0.17491636
0.05650264 -0.11758296 -0.011995462
-0.14753717 -0.05173482 0.18204466
0.075392365 -0.04776426 -0.15838888
0.040901028 0.2527013 -0.00041317238
-0.061211165 -0.13145491 -0.25558266
-0.094429374 0.12518282 -0.09071929
0.12887894 0.27015707 -0.00023392687
-0.13437706 -0.1974824 0.114627
-0.04853724 -0.1475866 -0.0455617
-0.021310356 0.058563087 -0.13597907
0.038267437 -0.20256904 -0.22445008
0.1687318 -0.10934689 -0.17406182
-0.19045183 -0.09409136 0.110668324
0.12254339 -0.012890312 -0.03469638
0.037428267 -0.20087156 -0.23038654
-0.18245593 -0.15855092 0.1189375
-0.13547376 -0.26383278 0.077668004
0.05105409 0.11601945 -0.08556344
0.21258749 0.21113144 0.025315382
-0.079691075 -0.030146906 -0.04546019
-0.0722949 -0.22422798 0.12059664
0.11548591 -0.13884309 -0.20489134
-0.073694214 -0.016733507 -0.058191184
-0.06343195 0.065239154 0.22982901
-0.19223359 -0.19329727 0.09889526
-0.0948709 -0.15439166 0.14789881
0.14004205 0.15604524 -0.017330837
0.09269374 -0.002196132 -0.022270316
0.26155433 0.07083008 -0.02176275
0.11979931 -0.03462059 0.06984938
-0.16862786 0.1328063 -0.12360583
-0.05104923 -0.059566654 0.071439974
-0.04524258 -0.1850191 0.14813672
0.098478466 -0.11809833 0.04476411
-0.13377321 0.04823468 0.23529232
0.10318217 0.22642677 0.005847961
-0.033593412 0.27316567 -0.013277724
-0.13372606 -0.15254603 0.04445457
-0.015504161 0.09188306 -0.11785683
-0.11437754 -0.18284532 0.06030148
0.017533205 0.17617163 -0.06637383
0.27268693 -0.05117885 -0.078164056
-0.10817236 0.057520486 0.24771461
0.12871632 -0.16201921 0.21288583
-0.051716097 0.16968052 -0.09084263
-0.14319974 0.047180045 0.23187761
-0.06531057 -0.23047553 0.11967983
-0.22396441 0.037922375 -0.19689146
0.08666444 0.03017523 0.28609598
-0.0044687744 0.17265385 -0.028969115
0.047945376 -0.1294959 -0.036414076
-0.21428186 0.15738124 -0.12948753
-0.092525505 -0.088768214 -0.2442779
-0.06013796 0.106951036 0.25338355
-0.038320784 -0.019222323 -0.17934775
0.118507035 0.00408891 0.26514456
0.16410826 0.16558576 -0.04067867
-0.021641301 0.1814406 -0.054578014
-0.04611963 -0.21054846 0.13534969
-0.11107308 0.09706358 -0.076979905
0.09323284 -0.055053618 0.2167855
0.13313112 -0.16778424 -0.21365781
-0.044079617 -0.04567098 -0.1940859
0.03899438 -0.087378144 0.22190492
-0.060485616 0.13139275 -0.020211887
-0.06856312 0.074020974 0.09316157
-0.12137178 0.2221334 -0.10070409
