# .PCD v0.7 - Point Cloud Data file format
VERSION 0.7
FIELDS x y z
SIZE 4 4 4
TYPE F F F
COUNT 1 1 1
WIDTH 1000
HEIGHT 1
VIEWPOINT 0 0 0 1 0 0 0
POINTS 1000
DATA ascii
0.12329414 -0.18166861 -0.062189482
0.08704408 -0.27419478 0.0038211897
-0.20619963 -0.1205477 -0.03636484
0.007903804 0.25730163 0.009193191
-0.21675192 -0.029309748 0.06889298
-0.18379033 -0.07968034 -0.15849055
0.21394034 -0.115229 -0.15122826
-0.24124582 -0.13760011 0.052918795
0.105939895 -0.016308375 0.19169934
0.099389 -0.2652803 -0.021349058
0.010509454 0.15249977 -0.22650523
-0.027139338 -0.041844733 0.09906949
0.016306886 0.2260665 -0.08849767
0.019446336 -0.17559645 0.03376816
0.18065257 -0.04694176 0.15774351
0.20262793 -0.122875564 -0.14923415
0.26511592 0.0010249226 -0.10490889
-0.18919204 -0.0022016037 0.08015991
0.07051824 -0.19302504 0.20538609
-0.029809171 0.19116007 0.030094704
0.008133782 0.28543633 -0.06062153
0.12632564 -0.14898318 -0.08760629
-0.2154265 -0.09297888 -0.07337164
0.1029448 -0.08376152 -0.041886505
0.10642097 -0.21399578 0.06409706
0.07966865 0.049329195 -0.082440466
0.09279233 -0.1600258 0.2296879
-0.12056125 0.04949508 -0.05515555
-0.10071358 -0.01136636 -0.1801595
-0.2574402 -0.12739205 0.07223829
0.12754697 0.018267179 0.16295043
0.07660563 -0.2191967 0.16015196
-0.17048477 -0.13793579 -0.20242913
0.07152636 0.06431835 0.114586994
-0.070091635 0.094095156 -0.19234468
-0.01094035 0.15832002 -0.26649687
-0.003635565 -0.06722204 0.10846661
0.03887182 -0.09943051 -0.09200851
0.2098855 0.012330316 0.18055363
-0.17016602 -0.050737206 -0.114456415
-0.006373036 0.21051821 -0.17020814
-0.059177954 0.12490739 -0.11317887
-0.19404149 -0.07610908 -0.113891296
0.0834565 -0.20792902 -0.038121626
-0.13481548 0.039245 -0.025999987
0.08509643 -0.07904734 0.18191877
-0.036411565 0.2793871 0.086603835
0.20824264 -0.13444611 -0.13050094
0.10745255 -0.23024197 0.025300829
-0.13805215 0.065461814 0.042263076
-0.005798817 0.041295882 -0.14973985
-0.11834774 0.111471385 0.070718616
-0.022321567 0.15716895 -0.22802849
0.15020442 0.00831028 -0.06290635
0.13846523 0.03457112 0.093102336
0.12189898 0.018273477 0.1634237
-0.07086709 -0.08490285 0.082609564
-0.13896714 -0.095615834 -0.22444868
0.12591611 -0.061761018 0.24818279
-0.152183 -0.06721204 -0.103774406
0.19137433 0.0051558292 0.23167013
0.008581689 -0.16900535 0.04514996
0.2300336 0.05872748 0.18488184
0.023320807 0.17384511 -0.22650768
0.16194193 -0.028513676 -0.10365311
-0.09700589 0.00022881548 -0.29669243
0.015805544 0.1396143 -0.27565718
0.05894319 -0.15587854 -0.028786909
0.18780178 -0.1699342 -0.14430328
-0.19159448 0.018173508 0.10372121
0.039992955 -0.2173189 0.07539826
0.16464633 -0.05793605 0.19159795
-0.016204063 0.16200909 -0.2395891
-0.12001546 0.16527165 0.2350384
-0.19176866 -0.008731147 0.075331345
0.027800558 0.24371774 -0.18898746
-0.050704252 -0.020242933 0.09019275
-0.055217944 -0.03689681 -0.069453746
0.014890825 -0.09662488 -0.09133532
0.26738355 0.04071609 0.03495543
0.0233932 0.27526328 -0.0077552493
-0.0049103037 0.3106709 0.040809
-0.24298757 -0.12747699 -0.04869733
-0.24126737 -0.041453212 0.17822683
-0.032634918 0.19775096 -0.051382605
0.057828374 0.26368117 -0.15667611
-0.09258408 0.016534872 -0.27890354
-0.07540098 0.16752991 0.03724063
-0.27270395 -0.101048894 0.11581414
-0.05619195 0.060350478 0.07399793
-0.118494555 0.10737915 0.14025563
-0.14798145 -0.09591433 -0.19265668
-0.2184104 -0.10525074 0.040608045
0.021483662 -0.17470828 0.058458604
-0.172672 -0.059718173 -0.15538925
0.21736977 -0.00096960063 -0.09721433
-0.2533364 -0.15270637 -0.0121060135
0.038310733 -0.2405213 0.122750066
-0.21585603 -0.11467382 0.023548601
0.03789336 0.23864695 -0.18510418
-0.13459572 0.10022018 0.18273394
0.09204742 -0.021085942 0.052284393
-0.2382099 -0.030346293 0.1438679
0.1283219 -0.22843076 -0.045881484
-0.17352471 0.10347873 0.20010647
0.21099976 -0.11179143 -0.091499954
0.063073605 0.14674912 -0.015246523
-0.23772477 -0.101717435 0.11773776
-0.04605728 0.03119545 -0.28491828
-0.09966175 0.0581847 -0.111593634
-0.23584414 -0.13451426 0.040145956
0.04988501 -0.25346166 0.052562404
-0.13829824 -0.017064657 0.12219125
0.26335895 0.0048226546 -0.02807475
-0.07767308 0.060905755 -0.236738
-0.23629631 -0.16203083 -0.017649835
-0.07287229 0.22365895 0.19629954
-0.078592956 0.08316038 -0.13347049
0.03707568 -0.06293084 0.11146951
0.18946603 0.0041310196 0.2363221
-0.17525856 -0.012869555 0.12787913
-0.1259447 0.10762271 0.08974338
-0.062953226 0.10804677 -0.18790217
0.274405 0.08702189 0.087348774
-0.104155734 0.055986308 -0.053980496
0.10971147 -0.11492337 -0.10328739
-0.17029661 -0.025083566 0.06779137
-0.08053928 -0.02294381 -0.27775532
-0.2169971 -0.1260946 -0.13923334
0.18358523 0.0028348863 -0.088579394
-0.10430715 -0.089968614 0.049325995
-0.078663155 0.07419844 -0.18971154
0.2204541 -0.07831563 -0.05322769
-0.13439086 -0.083616614 -0.0020473495
0.14057481 -0.17355993 -0.10122115
-0.04626256 0.061387688 -0.29009038
-0.09395014 -0.036848705 -0.27255574
-0.09262432 0.1717041 0.18607761
0.010358193 0.20004104 -0.12329556
-0.11449887 0.032896224 -0.11281628
0.043008063 -0.25762495 0.08020853
0.0775413 0.13135798 -0.041134123
-0.1008596 0.18993546 0.1253382
-0.1431749 -0.019112557 -0.17384066
-0.0024854962 -0.008028643 -0.023948556
-0.0049288534 0.25788397 -0.07311705
0.023399903 0.1545924 -0.07510047
0.107735805 -0.10343248 0.24542314
0.043435957 0.27113646 -0.13440543
0.14207809 -0.017254425 0.23091467
0.1941912 0.06478356 0.06641842
-0.18441205 0.08687011 0.20341645
0.10116238 -0.110348135 -0.08238201
-0.2428259 -0.16301467 -0.062013563
0.006765344 0.2179822 -0.051658574
-0.12656386 -0.012955922 -0.22031802
0.23783205 0.08672435 0.11090462
-0.15583353 -0.05139003 -0.1979945
-0.095560364 0.05889515 -0.12481739
0.030505197 0.08887056 0.114104114
-0.015488369 0.17677361 -0.21027979
-0.108445525 -0.023975525 -0.17956693
-0.21984425 -0.1601555 -0.10011363
0.15378219 -0.19829749 -0.07242378
0.10533096 -0.19580035 0.107314795
-0.12578867 0.07522475 0.019218152
-0.07354759 0.074078664 -0.22313657
0.023713348 0.27003175 -0.14994921
0.012822854 0.19627573 -0.14029518
0.16755044 -0.15790226 -0.034731608
-0.050318778 0.22994553 0.029877558
0.079864785 -0.020739459 -0.11284534
0.04931254 -0.120255224 0.17043257
0.0197747 0.32956108 -0.0026208267
-0.00038046838 -0.09295722 -0.08288713
-0.23052244 -0.100842185 0.093711615
0.02515027 0.18672454 -0.20527849
-0.16802369 -0.053221796 -0.15808718
-0.021572487 0.013967912 0.13275446
-0.1298764 -0.06870529 0.050790727
0.15683264 -0.062012266 0.21091075
-0.07097849 0.24087664 0.1278241
-0.020733392 0.289137 0.051245112
0.04701124 -0.1443742 -0.02453987
0.06830727 -0.007029066 0.10326937
-0.21413931 -0.083618954 0.07195367
-0.18857959 -0.12369111 -0.19215144
0.2577762 0.043774564 0.076130845
-0.15956838 0.03672709 0.057632603
0.15641817 -0.18467934 -0.05249975
0.17096111 -0.12541926 0.02314328
0.07666401 -0.24896228 -0.03408077
0.2063521 -0.14560293 -0.14779222
-0.14074096 -0.01552716 0.12519734
-0.046321426 0.13240081 -0.1951571
-0.041366555 -0.11496516 -0.031810787
0.12131962 -0.14231484 -0.09096978
-0.11114819 -0.050513443 -0.22715116
-0.24404739 -0.08548283 0.045805406
0.1472506 -0.21735589 -0.09007768
0.07515008 0.09294031 0.06359918
-0.22954005 -0.14738072 -0.12168056
-0.041397557 0.062434338 -0.2888342
0.08506853 0.004136078 -0.11324928
-0.048320808 0.1741057 -0.046002842
0.20180379 -0.048829377 0.07755854
0.23780906 0.053481445 0.16894217
-0.036506474 0.23430303 -0.010414683
-0.05070218 0.05642869 -0.16709135
0.11857483 -0.16208999 0.13245513
0.18249042 -0.05565569 0.1323129
-0.10070501 0.13332483 0.054426767
0.15726003 -0.026211267 0.24776438
-0.028109912 0.1773373 -0.1636463
-0.06716181 0.10428839 -0.12897916
-0.030392041 0.09583949 -0.1561032
-0.112951465 0.003377726 0.12040952
0.15200034 0.0043016365 0.1693782
0.19537336 0.06753603 0.04296217
0.22084376 -0.003938132 0.10598995
0.028667962 0.23361541 -0.116674684
-0.20688313 -0.071063735 0.07295666
0.18312104 -0.04290935 0.1575702
-0.07562145 0.048979964 0.11935728
0.10708085 0.053721555 -0.07514429
-0.081713304 0.17942326 0.08563914
0.060757827 0.14354081 -0.038315736
0.12888774 -0.15619826 0.10806937
-0.084909834 0.20848693 0.2076048
0.019783404 -0.069086924 0.11182277
0.06183383 -0.17147666 0.186615
0.16046704 -0.19431093 -0.08786745
-0.035541363 0.0017775003 0.13529168
0.0039925957 0.27417707 0.059709474
-0.009082472 -0.079039834 0.108929925
0.14404489 -0.1273255 -0.11420384
0.11073247 -0.19102894 0.09818005
-0.25544587 -0.15191795 -0.029368307
-0.10483845 0.0023205206 0.119334005
0.0047257394 0.26803967 -0.08592614
0.13521484 -0.003496654 -0.06261284
-0.23919863 -0.16192329 -0.03625091
-0.055516273 0.13424008 -0.10620085
0.1992202 -0.1080883 -0.041115616
-0.07622612 0.08439456 -0.18922043
-0.049173605 0.109628834 -0.23407133
-0.04401556 -0.12899245 0.061333407
-0.20244423 -0.08650839 -0.10611369
-0.100276366 0.1075943 -0.0026811569
0.07251101 0.061199173 0.109616734
-0.17527103 -0.08027509 -0.19043067
0.2263629 0.057038978 -0.0005080071
0.100397825 -0.10234236 0.19714434
0.063152485 -0.19651322 0.12780346
0.044428274 0.28050935 -0.114335924
-0.098061614 0.13060904 0.039050706
0.27466345 0.08757222 0.08382778
0.026040504 0.20941742 -0.21929665
0.014650591 -0.11644891 0.11371591
-0.054260727 -0.0065524313 -0.18334141
0.13314801 -0.10503294 -0.11596522
0.061548833 -0.06110259 0.17191763
-0.163479 0.13176191 0.22503732
0.0024173197 -0.09304106 0.11236925
-0.19665767 -0.1253654 -0.08110358
-0.0538152 0.069302395 -0.1747099
-0.18239357 -0.0942547 -0.06524675
-0.095752455 0.03658038 -0.22421323
-0.12157304 0.086276606 0.027913636
0.022356115 -0.1119366 0.11710878
-0.03973472 0.16186428 -0.15523021
0.094424166 -0.16390786 0.21543275
-0.032273114 0.018788047 0.13028026
0.21629788 -0.049774934 0.023362502
0.018140176 -0.16065066 0.08839212
-0.07281745 0.20572314 0.18826993
-0.24008085 -0.036458347 0.13740085
0.17285442 0.050616518 -0.044000812
0.029028496 -0.123704426 -0.03415619
0.07775412 0.0894025 -0.07967893
-0.06642358 0.18105921 0.034154575
-0.24394724 -0.059508994 0.10153464
0.20519215 -0.08354537 -0.009603893
-0.025432847 0.07202479 0.06369427
0.10664812 -0.08770271 0.20626886
-0.020086125 0.19941528 -0.14484018
0.19298841 -0.14408854 -0.14702167
0.031768266 -0.161669 0.1062481
0.09555503 -0.15758628 0.22501409
-0.22063336 -0.12305192 -0.11957857
-0.1466932 0.027334651 -0.008980004
0.1271557 -0.19839822 0.023170143
-0.2401844 -0.12940447 -0.06294621
0.016784497 -0.16189761 0.084310405
0.061566245 -0.16757537 0.19600263
-0.17808409 0.08139754 0.1688282
0.061981983 -0.17471808 -0.047232427
0.28328964 0.07432672 0.050302796
0.021935083 -0.047082797 0.105152145
0.15507106 -0.18897732 -0.056933515
-0.10533812 0.1298117 0.06351207
0.043275025 -0.22421962 0.15483698
0.17808478 -0.06769855 0.12215817
-0.061919577 0.116435975 0.118936755
0.23245457 0.043497987 0.16665016
0.23158877 -0.10013385 -0.14041092
0.039869647 -0.032807454 0.12053664
0.062651284 -0.2529166 0.1340165
-0.053669076 0.0124472305 -0.17341703
0.13591461 -0.050047826 0.24737418
0.074430875 -0.04437643 0.17876558
0.10826418 -0.21427552 0.0568612
-0.06625467 0.098111965 -0.14557958
0.10958719 -0.21814865 0.043736316
-0.24738756 -0.07868798 0.072496906
-0.050752755 0.023386968 -0.28488556
0.0167317 0.20346156 -0.06519748
-0.09019842 0.1258386 0.0004533464
-0.21235374 0.015839726 0.15056837
0.28811648 0.04120867 -0.038584705
-0.27301788 -0.10422349 0.10957974
0.072833 -0.17248136 0.14486618
-0.21868937 -0.08868339 0.077389956
-0.010585552 0.102476574 -0.14528494
-0.047578912 -0.041622147 0.09644548
0.014595653 0.24181527 -0.048330206
0.13075265 -0.05367982 0.19098434
0.09417459 -0.023124078 -0.11080387
0.023512375 -0.0771551 0.11443961
-0.1460609 -0.0071665286 -0.085761555
-0.043781362 0.06988958 -0.20954672
0.11803732 -0.08929 0.25181407
-0.064105265 0.25630033 0.1688883
-0.11718446 0.041272152 -0.08506385
-0.070300944 0.08830312 -0.20409988
-0.12908968 -0.08045046 -0.055646643
-0.03352335 0.18351999 -0.07891852
-0.0023853253 0.27895764 0.09298312
0.15928568 -0.21111783 -0.12244989
-0.06454382 0.21763049 0.18421358
0.06930657 -0.2052925 0.061983515
-0.002644607 0.21864131 -0.16608214
0.023058962 0.2815087 0.0069351112
0.12823576 0.09732555 -0.03435471
0.07930582 -0.14846407 0.2257444
-0.23209596 -0.046311777 0.08738955
-0.23092206 -0.081991754 0.13585816
0.20596802 -0.09572709 -0.038702242
-0.19722646 0.07069311 0.21459146
-0.063549675 0.04582657 -0.29202753
0.1946006 -0.13615903 -0.14745471
-0.07139627 0.11939375 0.117532305
-0.23383194 -0.10191111 0.103312105
-0.015793188 0.18756351 -0.18588205
0.14907928 -0.19588114 -0.0502822
0.26518273 -0.037337396 -0.12568404
-0.12659429 0.009015671 -0.120861776
0.09406471 0.04916217 0.0816602
-0.23204634 -0.073713906 0.028035268
0.037042845 0.28146514 -0.043477997
0.04492354 0.2942502 -0.06944031
-0.026668517 -0.14792323 0.02126325
0.15124756 0.027947802 -0.062754646
-0.19778585 -0.031032681 0.04882262
-0.008520288 0.2949505 0.019852154
0.18769026 -0.07499471 -0.10048603
-0.080430284 0.1615432 0.04240919
0.23192963 -0.06598501 -0.06789211
-0.09945568 0.22568224 0.19808751
0.046240713 -0.25429475 0.10208088
0.26289973 -0.026840888 -0.09480151
-0.00084790017 -0.16290092 0.045907132
0.1220974 0.088069014 0.058900695
0.23346588 -0.089089066 -0.1233145
0.01847998 0.07442339 -0.09710725
-0.11311928 0.1094 0.047431476
-0.097200826 0.12527786 0.024440605
-0.18503298 -0.11985718 -0.11103802
-0.21026129 -0.0075171706 0.09259989
0.23897085 -0.0015223529 -0.08376414
-0.12223771 -0.028497482 -0.2694473
-0.08134986 0.056884192 -0.18029329
0.14049268 -0.098834075 0.19019029
0.15762272 -0.009722731 -0.06824205
-0.23197941 -0.14383447 0.0061120577
0.21340278 0.07309204 0.13788205
0.07180792 0.011572896 0.13084447
-0.19751279 -0.13604093 -0.1010817
0.15888765 -0.1763956 -0.043497156
0.18751699 -0.15969755 -0.1482511
-0.13560538 0.1086384 0.12669972
0.051895738 -0.18141448 0.09872718
0.0069523216 0.16586109 -0.25390112
0.21113838 -0.10491452 -0.07714733
-0.21061116 -0.14657867 -0.076705545
-0.022889998 0.21956185 -0.09124568
0.14826657 0.022454137 -0.064242974
-0.16799596 0.08247694 0.2368013
-0.103251114 0.05411835 -0.107458785
-0.23795329 -0.12346934 -0.058157362
0.18808521 -0.16150996 -0.1164138
-0.22791706 -0.12566864 -0.099020064
0.0897097 -0.27171227 -0.0004102454
0.21148784 0.048632737 0.1928888
0.041881353 -0.10242928 0.14803295
-0.06566679 0.06952479 -0.26132792
-0.06732656 -0.11503291 -0.017183745
0.23641025 -0.043976285 -0.036486767
0.023880018 -0.016141636 0.14626938
-0.002811886 0.20621653 -0.19231187
0.14259903 -0.016468063 -0.05789603
0.12720756 -0.057356335 -0.06166499
0.01758381 0.09351589 -0.13206492
-0.21779154 -0.14208995 -0.041174274
-0.090105094 0.23331743 0.18032262
-0.043847583 0.25062132 0.16861042
0.12318162 0.027140904 0.13529676
-0.0827502 0.2325134 0.15212238
0.1751598 -0.082676515 0.10033917
0.09695807 -0.19914731 0.13021341
-0.14364092 -0.09318475 -0.20237951
0.14519893 -0.032756418 -0.073279284
-0.049387503 -0.02543187 -0.14207622
0.13823739 -0.1575939 0.07141247
0.13514572 0.1033536 0.008548104
-0.25759098 -0.057671964 0.15459634
-0.09196721 0.19091474 0.09545496
0.22561352 -0.0028635857 0.09114633
-0.079438776 0.0018148222 0.080705844
-0.038656663 0.15428877 -0.15446037
0.15440461 -0.21479201 -0.110283256
0.09819247 -0.12093182 -0.09455082
0.03543737 -0.177149 0.006392748
-0.14855811 -0.021361766 -0.10742937
-0.18812744 -0.115122885 -0.08967949
-0.14667843 0.11297703 0.23811935
0.020146001 0.07913768 -0.09803648
-0.19982296 -0.07390121 -0.08831908
-0.015080442 0.30097607 0.056470565
-0.18753289 -0.048084565 0.052951586
0.14072545 -0.14713715 0.085041404
-0.2011758 -0.14297645 -0.1573747
0.07858728 -0.21882042 -0.04877072
0.0850853 -0.27115017 0.017443664
0.05367472 -0.22410321 0.071559384
0.14043126 -0.22872138 -0.09008249
-0.1739427 0.05012431 0.21613465
0.271632 0.08749099 0.036190215
0.015172716 0.28575766 -0.085255735
0.14140952 -0.15116903 -0.08720795
0.23077281 -0.0842702 -0.10321723
-0.21778426 -0.0903849 -0.05928537
0.19474606 -0.0182178 0.16906117
-0.15504025 -0.029905006 -0.10255475
0.21818393 -0.019446826 0.08206949
-0.056988377 0.26356018 0.12646867
0.23475258 -0.09689315 -0.14479706
-0.07944863 0.187351 0.09071137
-0.26852497 -0.13333446 0.038543638
-0.03831305 0.13573328 0.1049138
0.03442491 0.25843775 -0.17482245
0.18187399 0.043104943 -0.0436039
0.17125073 -0.059472833 0.16451338
0.02483907 -0.042529177 0.10399437
-0.056695513 -0.02767674 -0.07246462
-0.15676855 0.007043403 -0.016545648
0.024174608 -0.038248647 -0.11243026
0.053903297 0.062428378 0.1226968
0.09278226 -0.18715264 0.17114364
0.06700719 -0.18553337 0.13764404
0.0738208 -0.2152774 0.17863597
0.07642834 -0.17626709 -0.05088961
0.111101195 -0.23910686 -0.0069717523
0.26628882 0.04762041 -0.07583453
0.10389103 0.0040103197 0.16888908
0.08236497 -0.24500334 -0.046046406
-0.1581036 -0.06139072 -0.0679291
-0.2503973 -0.14321314 -0.055636305
0.097667955 -0.13497472 0.24320582
0.030976072 -0.17836472 0.019244414
-0.072836965 0.06951579 0.13417922
-0.041843973 0.14629634 -0.18125951
-0.040820096 0.286856 0.1275154
0.2309771 0.01839716 -0.034157693
0.13838854 -0.22098595 -0.06602851
-0.08232649 0.10813964 0.13098899
-0.069431074 0.045740537 0.09008668
-0.20308186 0.040205948 0.16982464
0.018245703 0.15998392 0.024549503
-0.017511528 0.22042964 -0.108724065
-0.048580155 0.057645313 -0.16646121
0.11668948 -0.15504639 -0.082342006
0.14940578 -0.10372373 0.07393056
0.14027004 0.08969254 -0.031696912
0.23598054 -0.0035645922 0.05232945
0.040717117 -0.055145662 0.109370716
-0.043909438 0.037747145 -0.2784988
0.033500876 0.2502731 -0.09809242
0.06311934 -0.14502618 0.19812365
-0.002800536 0.17927308 -0.2505365
0.11902242 -0.13587934 0.18744783
0.01127168 0.022990704 0.13291629
0.24897948 0.03341371 -0.044333536
0.28618202 0.05627185 0.0009045935
0.007721452 0.023175957 0.1325365
0.23262624 -0.09488188 -0.13280317
-0.14887398 0.086512044 0.20450853
0.014225342 0.20770383 -0.04777546
-0.27647972 -0.11035605 0.10879212
-0.10609438 0.02359121 -0.16315325
-0.070748106 0.19042867 0.14779608
0.24230118 0.06505272 -0.0015634575
0.09448543 -0.016285678 -0.1023147
0.024761446 0.18295218 -0.23596153
-0.0058038095 -0.0030301851 0.033872314
-0.04420527 -0.07062436 -0.057932183
-0.08025172 0.05179257 -0.24713925
-0.059616107 0.18241598 0.09043549
0.2244817 0.004442769 -0.05465595
0.10327644 -0.019725341 0.19217224
-0.024961561 0.20177418 -0.12220305
0.05434604 0.048902113 0.12873605
-0.016463112 0.19875626 -0.029557282
-0.029306384 0.029845033 -0.15961428
0.0053074295 -0.07485262 0.11151882
-0.21703808 -0.040540628 0.1754129
-0.074135534 0.0022893636 -0.24630658
0.060691036 -0.14903854 -0.024836788
-0.029371351 0.18461862 -0.12251853
0.07397994 -0.08795353 -0.091900155
-0.10997792 0.15311767 0.1186946
0.02623852 -0.051362965 -0.10815129
0.20289771 -0.13611099 -0.11486411
-0.059237238 0.17892885 0.0036948787
-0.06404531 0.13306984 -0.07803842
-0.19693121 0.019809477 0.103645615
-0.23216702 0.009424055 0.20800869
0.10386942 0.0062150136 -0.068484284
0.008980558 0.19298099 -0.043657176
-0.15862559 0.0069952663 -0.00996684
0.13215569 -0.18871666 0.02608572
0.097241245 0.021668965 0.090526715
0.09031328 -0.1727838 0.21105734
-0.06641522 -0.12383567 0.025907915
-0.053119868 0.102152355 -0.23601562
0.13152924 -0.18799983 -0.099854834
0.13390516 -0.028392874 0.23627064
0.08150325 -0.14243555 0.22923894
-0.14805362 0.11658884 0.13676393
0.20846155 0.07005486 0.1807197
0.08139369 -0.12254959 0.2218905
-0.041559342 -0.104690306 -0.040742844
0.15404613 -0.026588595 -0.09179534
0.06264105 -0.25373584 0.13274819
0.27294368 0.038360313 0.009861316
0.1699972 -0.19309631 -0.11953868
0.19623752 -0.14080995 -0.10104664
0.07103456 -0.14742827 -0.054046724
0.0050770487 -0.09331684 -0.06976783
-0.1333685 0.089387454 0.1549237
-0.088507175 0.23834945 0.18543996
-0.08921081 0.07378061 -0.11551956
0.15266545 -0.05387382 0.24348201
0.25270236 0.034087256 -0.05627594
-0.13336416 0.105727755 0.11234908
0.04547027 0.14198555 0.028457882
0.1616177 -0.066959225 0.1830096
-0.124308564 0.17771204 0.18331929
-0.15146208 -0.08368774 0.028124535
0.17073481 -0.09651592 0.086375326
-0.22459604 -0.050329454 0.18146984
0.14107446 -0.12037291 0.14158277
-0.027032621 0.23355933 -0.04610872
-0.12537578 -0.04108924 -0.15560283
-0.22564033 -0.026418425 0.10711987
-0.02782299 0.11239156 -0.17518628
0.16436076 -0.17957453 -0.070056096
-0.18767472 -0.072957516 -0.12999465
0.045606837 0.14744824 -0.05642594
-0.19372547 -0.123951375 -0.088601716
-0.15176518 0.013769998 -0.020022742
-0.12406848 0.037568167 0.12285809
0.19089776 0.06368921 -0.008764009
-0.14946483 0.056770213 0.06456061
0.05752798 -0.23379844 0.14676178
-0.08413356 0.15702885 0.12383309
-0.1573721 0.13429746 0.23205122
-0.102021106 0.19645204 0.14359038
0.19091432 0.005471867 0.23400754
-0.04934082 0.25101778 0.16970004
0.25412548 0.013654671 -0.10552094
-0.090487935 0.068945445 0.13133782
-0.045024883 -0.07695985 -0.05560819
-0.2214838 -0.010752262 0.12599534
-0.09644185 0.10047274 -0.009052318
-0.033530395 0.18618225 0.044993587
-0.17584778 0.024212914 0.08918679
0.2836716 0.03153914 -0.043471657
0.11486679 -0.24661985 -0.036745366
-0.11921387 0.013836849 -0.13700916
-0.013195183 -0.15604277 0.029213667
0.19639236 0.005245986 0.21380801
-0.032074478 0.07700446 -0.23630752
-0.0643436 0.26257935 0.1634861
0.111253254 -0.100506544 -0.09743733
-0.25579527 -0.061174367 0.14057234
0.06907757 -0.062344104 0.11418734
-0.17378943 -0.06905403 -0.1715295
-0.19513963 -0.10057068 -0.162765
0.16422878 0.0025141565 0.2360667
0.16432017 0.06537169 0.10409651
0.12095379 0.10512136 0.03456385
-0.23119304 -0.11640706 -0.06723393
0.10696586 -0.26399803 -0.04584359
0.21905671 -0.07980401 -0.15410525
-0.03135634 0.16393264 -0.12901266
0.042233717 -0.17416866 0.09850394
-0.1650172 0.019944893 0.04099743
0.014944825 0.117926545 -0.15399317
0.024234768 -0.13643497 0.111809686
0.09905306 -0.019923272 0.18800473
-0.015414981 -0.06158188 0.10554649
-0.23621926 -0.06759633 0.05626236
-0.15891355 -0.030168045 -0.08918424
-0.13003144 -0.0849749 -0.233624
-0.09800692 0.12833963 0.033953343
0.11712435 -0.0027388318 -0.06448904
-0.05624566 0.19581406 0.1072409
-0.050828796 0.20417908 0.027967343
-0.08639291 0.23627125 0.17334542
0.10677437 -0.19213317 0.110038616
0.18143958 -0.122372344 -0.007980791
-0.12491854 -0.08287981 -0.054852724
0.16380072 0.0856116 0.0058853226
0.09317416 -0.010100542 -0.11495861
0.012657675 0.13020013 -0.1660352
0.06919928 -0.09384326 0.17356963
-0.21333915 0.01598662 0.15443149
0.011072967 0.022121344 -0.08185928
-0.17756094 -0.09690729 0.028806623
0.20010544 0.04211435 0.15032083
-0.14369532 -0.08759368 -0.19011074
-0.07018525 0.2583189 0.1687353
0.19047017 -0.06609713 0.053995565
0.09907439 -0.07898528 0.186557
0.14832963 -0.049692318 0.2553548
0.13001208 -0.17575128 0.061798353
0.27163753 -0.013567101 -0.116133265
-0.25474352 -0.087663256 0.07958421
0.016520584 0.16550142 -0.06348077
-0.023605548 0.23702912 -0.050948057
0.15410359 -0.013837079 -0.064463824
-0.23650953 -0.11913364 -0.05398811
-0.21063195 -0.09199053 -0.088490576
-0.04409863 0.17371693 -0.0620342
-0.17028654 -0.001748337 0.10859844
0.013514309 0.27535114 0.027982343
0.04230161 0.24754897 -0.13564368
-0.11577341 0.16435641 0.1237639
0.0054967226 0.1412406 -0.20172611
-0.17738341 -0.13463518 -0.17047758
0.20504215 -0.07164415 0.016636953
0.03862324 0.3175917 -0.003645952
0.04923347 0.05475409 0.12644674
-0.08712099 0.08485099 -0.09913324
-0.12121203 0.13853422 0.21731484
-0.19884203 0.06499493 0.20810013
-0.10907519 0.18148807 0.13665882
-0.25304592 -0.07245046 0.14734201
-0.24182896 -0.12540342 -0.048388235
0.27517667 -0.0038476267 -0.10914481
0.013121209 0.2614338 -0.00065911876
0.17276378 -0.13487725 -0.14018586
0.27214792 0.04262173 -0.07594622
0.03849158 0.1463834 0.026207255
-0.09434612 0.0015024171 -0.1752819
-0.22453684 -0.03620385 0.1906417
-0.18148811 -0.11048853 -0.10356336
0.0010337123 0.22837715 -0.15829244
0.23543662 0.045542568 0.02287474
-0.053416636 0.13589856 -0.1101747
-0.016086092 0.13926873 -0.15937884
-0.26733753 -0.12462532 0.0628862
-0.061580647 0.052528612 -0.18299152
0.22367495 0.034869455 0.17960852
0.10823419 -0.027457435 0.18774796
0.18630636 -0.082176596 -0.10112964
0.03339225 -0.18124177 0.018470537
0.14401557 0.077964075 -0.043546416
-0.07458757 0.19606446 0.08084414
0.04712638 -0.23630755 0.09953318
0.0030973584 0.06338828 -0.14798132
0.14209038 -0.0018333808 0.17385913
-0.22147588 -0.07210257 -0.0065203817
-0.26600292 -0.1181452 0.11163757
-0.038460508 -0.09440449 0.096355125
0.06066589 -0.26480094 -0.0017856177
0.14311731 -0.1851833 -0.005726594
-0.25209728 -0.05814229 0.13381247
-0.19118083 -0.0722827 -0.11592082
0.14464429 -0.15316589 0.05792066
-0.1245551 0.10362875 0.076117925
0.17447157 -0.11840904 0.025648002
-0.11041132 0.064461395 -0.05935926
0.1133287 -0.17416957 0.12524667
0.15338197 -0.006820098 0.21277274
-0.08789491 0.0451464 -0.23399037
-0.26295874 -0.13919401 0.03007016
0.090834476 -0.24624555 0.05053788
0.2753817 0.085795045 0.009782575
-0.044712037 0.16784124 -0.07251521
0.018988252 0.26932982 -0.13446204
0.09473365 -0.1725164 0.19572859
-0.020489454 0.14601946 -0.25869948
0.11594055 0.07636907 -0.06508209
0.091561824 -0.10852982 0.21557829
-0.04763094 0.09955777 -0.26137042
0.08015788 -0.03530353 0.15525971
-0.052560348 -0.12868983 0.044175323
-0.13508683 -0.021138791 -0.2073206
0.12566976 -0.22871497 -0.03695149
-0.029763833 0.021668924 0.12960912
0.19994935 -0.08997329 -0.0046194377
0.14643186 -0.15555859 0.046321563
0.08378761 -0.13821682 0.23109071
-0.17514266 0.06895947 0.13138409
-0.1394989 -0.09684529 -0.2334179
0.22806315 -0.07986968 -0.08396398
-0.016123904 0.12848099 -0.18253906
0.22663507 0.015479905 0.12708424
-0.07824206 0.09879663 0.14876422
0.051644493 -0.24066545 0.073864274
-0.047542684 0.24498387 0.05236334
0.1097725 -0.14893389 0.19254063
-0.05268502 0.060715187 -0.19732109
0.08558087 -0.17006686 0.22646984
-0.029714674 0.16916032 -0.123630926
-0.061437905 0.045730483 -0.29160985
-0.21636254 -0.13727489 -0.15625402
-0.17808662 0.080218025 0.1662894
0.10954927 -0.06854661 0.23719838
0.07768599 -0.27759784 0.015034873
0.17315309 0.080432646 0.02472887
-0.115894 0.005617715 -0.16670401
0.21543396 -0.038948122 -0.08420368
-0.021257622 -0.1202999 -0.031975836
-0.1316735 -0.08935768 -0.10238283
0.027536001 -0.13209438 0.11534181
0.016248725 0.1877591 -0.23862167
-0.013992722 0.037601046 -0.15646999
0.13518858 -0.036559705 0.25044334
-0.060706615 0.0011715044 0.08260446
-0.056724306 0.027932215 -0.16445245
0.117106885 0.0063890773 0.11234127
0.13215987 -0.04615838 0.20418535
0.06603493 -0.004468629 0.11697539
0.27073675 0.044545088 -0.075083606
-0.031881515 -0.08327416 0.1016054
-0.06086562 -0.072468564 -0.058110006
0.15429156 -0.080495186 -0.10859092
0.27460313 0.018493138 -0.03901416
0.119230725 -0.1959797 -0.07283355
0.028789893 -0.11094293 -0.038734917
-0.23002455 -0.077768125 0.012005808
-0.15104632 -0.038676042 -0.18776509
0.17042902 -0.08259586 -0.10504964
0.029183393 -0.1485357 0.1194417
0.1316089 0.01872352 0.16233176
-0.1410078 -0.069432184 -0.16056073
-0.26668748 -0.12704834 0.05802489
-0.025629064 0.10171805 -0.20613094
-0.03169153 -0.14082514 0.051523075
0.21908797 -0.007525555 0.10456092
-0.04122748 0.051881645 0.068547875
-0.074956715 0.028264396 -0.2909736
-0.16245553 0.11243384 0.17961422
-0.015456417 0.2954372 0.045861404
0.032448765 0.26337007 -0.06602412
-0.22312956 -0.09316487 -0.046054196
-0.14533523 0.023475725 -0.022199115
0.10335013 0.099537484 -0.057896502
0.20035869 -0.13871616 -0.15050025
-0.09066234 -0.07180898 -0.09884081
0.07988482 -0.11290386 -0.033491254
-0.2478088 -0.030844387 0.17733227
-0.035905186 0.267001 0.058034666
0.12952548 -0.24045351 -0.07617648
-0.0008512504 0.2500957 -0.104609355
-0.005411064 0.17710479 -0.07280632
0.22715941 -0.045593455 -0.13643596
0.25274816 0.0077503934 0.016428402
0.007579285 0.096703425 -0.14763872
-0.22071677 -0.14895307 -0.045469016
-0.13453394 0.017307071 -0.074387744
-0.14643736 -0.044796903 -0.21756864
0.03803663 -0.14694281 0.12931685
0.16216777 -0.07779767 0.15762472
-0.02082907 0.19763824 -0.09410688
-0.10605621 0.05142007 0.12938894
0.04912286 -0.12598374 0.17085063
-0.14353482 0.118759796 0.12876424
0.26155597 0.024580695 0.021079903
0.01794141 0.2069565 -0.047205295
-0.073620014 -0.04112213 0.09110464
0.01261948 0.00253827 0.13942002
-0.09025449 0.0022583632 -0.3013914
0.066926084 -0.18642068 0.10978501
-0.0018947783 0.2715518 -0.054518525
-0.07292337 0.07066713 -0.23274861
-0.15329446 -0.07294483 -0.021630274
-0.18897134 0.086427584 0.21886665
0.12659232 0.10070836 -0.030412178
-0.09005715 -0.022758877 -0.27827618
0.26358083 -0.0032423707 -0.10848052
-0.0015318242 0.24152552 -0.120667875
-0.2406536 -0.10041324 0.0013495309
0.08305732 -0.2454597 -0.049522202
-0.054383807 0.23017971 0.17475407
-0.13618359 -0.06589612 -0.1702845
-0.02340938 0.077925645 -0.26549897
-0.199563 -0.06652451 0.056418512
-0.03637623 0.25028488 0.1533749
-0.22920579 -0.04699285 0.18227676
0.0009756389 0.17081484 -0.25501522
0.07019265 0.044509605 0.13154331
0.10628106 -0.19633104 0.10274875
-0.13150236 0.08162752 0.13145137
-0.0437709 -0.016079925 -0.14768665
-0.08359715 -0.10931233 0.038538106
-0.13939328 0.088693336 0.17510399
0.14903854 0.085360035 0.048167754
-0.08868943 0.22380938 0.15469737
0.09901113 -0.2700401 -0.030268496
0.09853234 -0.012197178 0.18019027
-0.19944537 -0.1461809 -0.11602429
0.13846295 -0.085079916 0.2271965
0.08857132 -0.11644345 0.20924965
0.13335977 -0.11314056 -0.11693111
-0.18942197 -0.07143274 -0.12041603
-0.028017888 0.17124273 -0.17713943
0.06617781 -0.08650695 -0.09356522
0.12696314 -0.22002251 -0.022835203
0.2869235 0.021365969 -0.07714268
0.09714496 -0.19619961 0.13590774
-0.073841356 -0.06771612 0.08751676
-0.14323783 0.00976565 -0.059354074
-0.0387846 0.1528053 -0.12631336
-0.057116408 0.031842984 -0.24372436
-0.16514494 -0.06943399 -0.07371239
0.09638014 -0.060358677 0.1850665
-0.06374453 0.19156337 0.12504521
-0.09342572 -0.059153967 -0.11506941
0.076931514 0.024204416 0.13848954
0.07894564 -0.13918082 0.23370697
0.18277441 -0.06916074 0.070934795
0.108387046 -0.027089631 0.18961932
-0.2685415 -0.11897355 0.1066903
-0.14304212 -0.054119788 0.062084716
-0.08008918 -0.035594895 -0.138074
-0.042694423 0.2457325 0.16627866
-0.01934828 0.22669668 -0.08858148
0.051047146 0.26807445 -0.12958364
-0.082325555 -0.013564599 -0.25107577
0.022834219 0.061120227 0.12206736
-0.06868457 -0.0034790547 -0.21747792
0.04844727 -0.19355045 0.044889018
0.19686185 0.052298117 0.1839843
-0.13572958 0.11032725 0.13079308
-0.11762901 -0.066349775 -0.23802981
-0.000211788 -0.124553524 -0.032952167
-0.083304904 0.09496573 -0.038066372
0.026970044 0.210137 -0.16126755
0.14267488 0.011197929 0.16596346
-0.19894978 0.058066938 0.19352622
-0.2654568 -0.13127244 0.02395781
-0.16641182 -0.015780943 0.1414036
0.17353325 -0.1510217 -0.041401204
-0.22869122 -0.06732518 0.029759383
0.043657076 -0.09637462 -0.09252793
0.07321602 0.13324332 0.0222929
0.0959073 -0.26239067 -0.0025812238
0.15751946 -0.08553721 0.15763742
0.16852246 -0.044735905 0.2061565
-0.18185985 -0.08874758 -0.18501945
-0.07100188 -0.0057023284 -0.218595
0.06428101 -0.23268144 0.045636833
-0.11242979 -0.09546213 0.01678312
-0.14203699 -0.0069762915 -0.099830575
-0.1455138 -0.016973155 -0.16080485
0.13892332 0.08190448 0.058752876
0.011184915 0.13941324 -0.25719672
-0.03324908 0.06339993 -0.28664914
-0.21706392 -0.12566635 -0.008325084
-0.024940534 0.16008443 0.078252465
-0.03068704 0.12621444 0.10958932
-0.19151351 0.06659587 0.18518543
0.27320957 0.055416755 0.045738775
-0.10342983 0.07253247 -0.06705158
0.025966762 0.23729979 -0.19725855
-0.10337432 0.020454645 -0.17971383
0.030928645 0.099080265 -0.09636111
-0.043489955 0.10645337 -0.26137865
-0.0046994295 0.27526647 0.09333923
-0.23232396 -0.16645537 -0.06010408
-0.03299896 0.16060224 -0.13029508
0.21106192 0.056073256 0.18838896
0.067999974 -0.17455462 0.1577799
-0.14378354 -0.094726406 -0.20519768
0.16729052 0.06243459 -0.038828444
-0.11120269 0.13039514 0.08587455
-0.11264819 0.18173353 0.22099622
0.15736343 -0.116531394 0.091265924
-0.17279597 0.035910524 0.18131232
-0.020944014 0.18515728 -0.17254354
0.24605308 0.07180167 0.15783449
-0.053973693 0.04657561 -0.2903042
-0.07998187 0.21980093 0.114708126
0.16606879 -0.025547689 0.24996549
0.013155373 0.18535456 -0.16507633
-0.15101169 -0.09329887 -0.23425424
-0.056581184 0.19824176 0.035845578
-0.13427727 0.140569 0.1389774
-0.12338007 -0.010251244 -0.22593285
-0.15471223 0.11911301 0.16617553
-0.018584257 -0.14313343 0.07027547
0.087007046 -0.01934489 0.16507751
-0.00097111426 0.18737683 -0.23962161
-0.13438685 -0.09090194 -0.23885798
-0.21535398 -0.094285645 -0.07645444
-0.11326632 0.03454623 -0.1136866
0.20210953 -0.10340641 -0.04140244
0.29043442 0.04273726 -0.043624017
-0.12060535 -0.012108237 0.115503594
-0.09978841 0.11039022 0.0015988434
0.15450354 0.058634788 0.078026146
0.11417121 -0.25305888 -0.048147406
-0.11286316 0.16842452 0.22650078
0.27077222 0.046434354 0.035110477
0.03138075 0.0585046 -0.091370925
-0.07939499 0.1673947 0.051320724
0.18025985 -0.005997327 -0.09460365
0.26650274 0.016100943 -0.09665355
-0.025783032 0.12979609 -0.2746848
0.16741827 -0.1509506 -0.14898738
0.16676843 0.055871695 0.12595865
0.18019295 0.036898144 0.21705393
0.100493774 -0.030425092 0.18159673
0.06650681 -0.0055399463 -0.08707184
-0.19438756 0.0020403669 0.0937381
-0.17434785 -0.065002345 -0.16076936
-0.028417328 0.15078385 -0.21988305
-0.12973884 0.091358654 0.1461197
-0.0508608 0.1116243 0.12117691
0.057194594 -0.14483826 0.18732548
-0.069390014 0.035643354 -0.19135442
0.09557187 0.026139393 -0.07519376
0.18354397 -0.17414697 -0.12736304
0.1272026 -0.22849457 -0.0963661
0.26040685 0.0049757925 -0.113275625
0.24032427 0.03983162 0.0006713624
0.037239116 0.28849483 -0.10699803
-0.018074332 0.27223355 0.13491659
0.2618114 0.03723774 0.047495224
-0.10198439 0.10550781 -0.0010403703
0.07376546 -0.21650654 0.046438638
-0.03297675 0.17190403 -0.15786579
-0.114709884 -0.088918954 0.036270745
-0.21138696 0.016316552 0.1481186
0.046820436 -0.15109439 -0.020850705
-0.065815136 -0.008333861 -0.20020027
-0.22937152 -0.064342715 0.038647793
-0.15819532 0.119917534 0.23491499
-0.180773 -0.1336514 -0.19967788
-0.18262295 -0.09927288 0.028062625
0.10650383 -0.23252559 -0.09377581
-0.013244638 0.15284036 0.081773445
-0.18849963 -0.05581097 -0.0381003
0.027552431 0.26484746 -0.17495804
0.1170149 -0.06019898 0.25166214
-0.078090176 0.23046961 0.13094012
-0.015315021 0.1958917 -0.16961773
-0.16329637 -0.06986211 0.022737902
-0.009861816 0.20554374 -0.038651958
-0.2657765 -0.110257365 0.070492014
-0.007904025 -0.08184475 -0.06291363
-0.016613204 0.10707934 -0.22699583
-0.046483733 -0.12653819 0.062274147
0.13831896 -0.05188402 0.24940349
0.17446819 -0.084881954 0.09806497
0.22090125 -0.04210588 0.023359273
-0.04608024 0.13238917 -0.19604999
0.121609665 -0.22683926 -0.01829228
0.13303903 -0.12828396 0.15341423
0.118705265 0.11236121 -0.007897513
0.2693882 0.039645102 0.025429685
0.015499586 0.19372858 -0.15542755
-0.099281915 -0.09986159 -0.01791031
0.006731902 0.19055425 -0.1307314
-0.0064519756 0.06955547 0.073462136
-0.23212774 -0.14849097 -0.0034105382
