# .PCD v0.7 - Point Cloud Data file format
VERSION 0.7
FIELDS x y z
SIZE 4 4 4
TYPE F F F
COUNT 1 1 1
WIDTH 1000
HEIGHT 1
VIEWPOINT 0 0 0 1 0 0 0
POINTS 1000
DATA ascii
-0.12287575 -0.10740093 -0.050033443
-0.01243241 -0.07215657 -0.20833096
0.0026235834 -0.15097375 -0.13235857
0.05623493 0.07042125 -0.28657186
0.14734247 -0.06043874 0.016334377
0.07441936 -0.037161995 -0.071720384
0.03442175 -0.015632866 -0.13717788
0.2668417 -0.01697214 0.003008739
-0.07876269 0.015720673 0.08562418
-0.021451212 -0.24634257 -0.12754636
0.030934501 0.10519172 0.25547746
-0.030469405 0.13898858 -0.17817962
-0.17055546 -0.0031812785 0.051130664
-0.14528237 -0.074864626 0.05027139
0.059222497 0.058421202 0.25503448
0.26200527 0.10016504 -0.035911705
0.16927683 0.22780913 0.087698005
0.03983255 0.10751518 -0.2792197
-0.19451447 0.105443425 -0.012616934
-0.10717345 -0.24229388 -0.06770175
0.053233236 -0.119999476 -0.24293998
0.11159846 -0.13299121 0.08557273
0.13504075 0.03918224 0.1364275
0.21092099 0.18775482 0.013489601
0.021914223 -0.050102618 0.1836785
-0.126598 0.17891571 -0.11087664
-0.049248666 -0.112664536 -0.1428691
-0.10090714 -0.2249395 -0.07847271
-0.03395732 -0.019418664 0.14674997
0.16099824 -0.15273273 0.15956731
-0.09800575 0.033473447 -0.10438466
-0.24611951 0.093957804 0.0548982
-0.14346732 -0.014010556 0.072529055
0.017588118 0.10074573 -0.20213431
-0.0024330663 -0.10042869 -0.22384153
-0.19038436 0.2320599 -0.0124906665
0.21925849 0.06485651 0.05036509
0.18667045 -0.08881106 0.008742645
0.109980755 -0.04457975 -0.053655967
0.27078065 0.09727089 -0.020417588
0.13407488 0.05130576 0.16093789
-0.12622355 0.10354217 0.025717951
-0.1501309 -0.071842335 -0.021084737
0.14159362 -0.10635466 0.03105012
0.19639613 -0.15013698 0.114108436
0.11264415 0.16730271 0.04573492
0.17771101 0.22404802 0.07103531
0.10795431 -0.015524203 -0.05822686
-0.13647167 -0.061126944 0.06386254
-0.014546351 -0.11370199 0.051404856
0.05018957 0.12233034 -0.029286148
-0.11834097 -0.2658784 -0.0023887763
0.01580039 -0.17416185 -0.23515749
0.028005674 0.063883856 0.27019346
-0.15371265 0.09169051 0.016268903
-0.22702101 0.13386409 0.024164505
0.21603355 -0.068905294 0.07602836
-0.07215614 -0.046866536 0.115832254
0.20629527 0.053096324 -0.026502809
0.21266769 0.042591438 0.06233983
0.03200293 0.032885235 0.24520808
-0.038042985 -0.13184476 -0.027734231
-0.07173103 -0.21599111 -0.11703916
-0.14049518 0.11229338 -0.06302425
0.20539787 0.19971001 0.029554697
-0.17134266 -0.1050458 0.011257661
-0.011534116 -0.15139958 -0.14244299
-0.022989396 -0.23599456 -0.12725686
-0.0748429 -0.2780425 -0.08913908
-0.18999812 -0.015931835 0.049778286
-0.0807048 -0.035824288 -0.11522906
0.06851678 0.0057125883 -0.120244235
0.014478659 0.0432633 0.20866579
0.032766316 0.067580685 -0.24713212
0.20309153 0.04408116 -0.031053811
-0.2280345 -0.15055053 0.107242815
0.13764074 0.008942859 -0.061393064
0.14131631 0.1865597 0.12992379
0.046884306 -0.1031557 0.08031556
0.051465776 -0.068854555 -0.24893458
0.21230578 -0.06492617 0.08013022
-0.1555813 0.2331619 -0.034164134
0.008293624 -0.23256223 -0.16761518
0.05201345 -0.015249385 0.27608225
0.15782113 0.10468515 0.122119375
-0.13530177 0.19593461 -0.10254505
-0.1516026 -0.107562535 0.067373395
0.032340854 -0.047214583 0.1926808
-0.13401577 0.14215665 -0.0031979943
0.27835345 -0.013018975 -0.012276332
0.15339802 -0.18002635 0.14535508
-0.1816889 -0.048320267 0.044425473
0.006691359 -0.16335385 -0.13487108
0.08162993 -0.01705688 0.238689
-0.027157873 -0.18111601 -0.1307984
0.060316585 -0.09529624 -0.28122953
0.011421475 0.10013079 0.10510878
-0.151523 -0.040807325 -0.024316011
0.17592461 -0.16247435 0.14214514
0.27759874 -0.031372856 -0.008358015
0.033395156 0.04566443 -0.15631802
0.05396 -0.11823626 -0.29272646
0.117302425 -0.00033669124 0.19060358
0.14398907 0.100903146 -0.04308713
-0.0038925873 -0.13726568 -0.1674694
-0.15158238 -0.20477973 -0.017241761
0.03786676 -0.044943348 0.1978338
0.18354747 -0.027143681 0.11063308
-0.13712543 0.030558849 -0.054138005
-0.11086631 0.021328893 -0.08606288
0.24793085 0.022698997 -0.027901432
-0.23349635 -0.15764633 0.0793902
0.24832582 0.08055525 0.010848646
-0.07562272 -0.20660172 -0.065022945
0.10348728 -0.15991421 0.18532576
0.049199868 -0.071011126 0.19143763
-0.26041597 -0.00089679554 0.132664
0.06909481 0.055160705 0.24299842
0.10609926 0.11346517 -0.051140472
0.16869149 0.10292811 -0.024623567
0.108773515 0.15208058 0.1768892
0.10108773 0.12903126 -0.0026030748
0.268501 0.044910092 -0.009077088
-0.21461195 0.13645655 0.056535408
0.06719532 0.1244021 -0.031812504
-0.08956866 -0.19856597 -0.09715075
0.053704087 -0.07412487 0.18756449
0.027219396 0.13842142 0.047525723
-0.14955968 0.1998773 -0.08503873
0.0148735 0.112437345 -0.22297959
-0.13191615 -0.09322387 0.045878857
0.082996726 0.025794059 0.23004283
-0.2322408 0.042240594 0.09415262
-0.119764335 0.057262823 0.04576904
0.040691458 0.05006405 -0.25439298
0.04556858 -0.017126683 0.28458565
-0.058014024 0.05342159 -0.1584858
0.08662537 0.164529 0.15448664
-0.19795613 -0.15619126 0.03393345
0.2863941 0.06601178 -0.035245806
-0.14420973 -0.10507163 0.06505309
-0.13337699 -0.020115158 0.07456262
-0.12826343 0.2666872 -0.11596583
0.28487852 -0.03063209 -0.017740551
-0.1279992 0.24551596 -0.07125103
0.20189032 0.1959247 0.011298934
0.19931708 0.20623404 0.052951418
0.053784527 0.11138565 0.25341704
-0.056670394 0.08474761 0.08674673
-0.0105521595 0.18273582 -0.21057394
-0.19239199 -0.017348386 0.05305242
0.19508757 0.002534517 0.091165446
-0.25703996 -0.11135536 0.10188631
-0.17783777 0.04171839 0.07759583
0.19277102 0.06946884 -0.029558979
-0.119606964 -0.1371908 -0.049390543
-0.16715649 -0.19225925 0.00055699836
0.26775655 -0.005893707 -0.04851891
-0.07791329 0.010059977 -0.12617712
-0.07233776 -0.109798744 0.0609605
0.16649225 0.082615405 0.11464389
-0.15847668 -0.25511485 0.012346406
-0.28104967 0.093731016 0.1090016
-0.19802913 -0.20792152 0.07463012
0.0633445 0.043665014 -0.13209686
0.14883375 -0.17836648 0.17702273
0.08847299 -0.14286199 0.2016815
-0.047038704 0.21790393 -0.21527533
0.023132253 0.089324966 0.09194959
-0.05205456 0.061944716 -0.16744284
0.1456279 0.052102137 0.1461094
0.10462738 -0.09691356 0.2222979
0.06901106 -0.07478148 0.26404932
-0.18646723 0.021749698 0.010065038
-0.099951796 0.05890359 -0.10600726
-0.08672428 0.21142526 -0.11827502
0.27025926 -0.052508444 0.0043870998
-0.25084457 -0.11657411 0.11288414
-0.1807609 -0.1918877 0.017807374
-0.029624121 0.13542198 -0.22725789
-0.02091105 -0.21879844 -0.18125063
-0.16338123 0.19074541 -0.06598023
-0.1687366 0.014978923 -0.011404156
0.041363098 0.14266899 0.23549667
0.19344337 -0.1117908 0.054741655
-0.15132976 -0.071377575 0.04787101
0.051879223 -0.11883826 -0.24140455
0.048133675 -0.07471731 -0.29232815
0.033213783 0.13218367 -0.26703575
0.1565051 0.041686516 -0.059029
-0.098474115 -0.0639823 -0.08808039
-0.08607468 0.097050056 -0.12981318
-0.06593362 -0.22822452 -0.07386638
-0.1246226 0.15291613 -0.060622163
0.2321941 0.04409481 -0.011325923
0.24138857 -0.13731189 0.012252939
-0.08484574 0.19201192 -0.16611424
0.035983767 0.11601539 0.12958823
-0.031238193 0.03285341 0.10286982
-0.14008273 -0.25508392 -0.023765996
-0.056942362 -0.013495299 -0.09001093
0.064774014 -0.098368905 0.08567862
-0.11442191 0.15043591 -0.11614047
-0.084737 0.21087624 -0.16929328
0.010963558 0.022617904 0.17647874
-0.056613423 0.13621397 -0.14446601
0.031523645 0.02516383 0.20981243
-0.012779363 -0.14383715 -0.08053039
0.023461841 -0.18220797 -0.19503173
0.1950456 0.02744636 0.08720384
0.27912462 0.06094788 -0.025180398
0.082754694 -0.14868574 0.21527682
-0.05963993 0.18929128 -0.14917043
-0.025083283 -0.14317954 -0.09779188
-0.047250018 -0.27370954 -0.090978354
0.26123232 0.12729365 -0.013107217
0.0400592 -0.07345678 0.17930715
-0.091440044 0.07295454 -0.11910221
-0.069631696 -0.11508606 0.04850783
-0.25521612 0.07931155 0.11741125
0.23509811 0.13711426 0.01856422
0.22524285 0.1333896 -0.016873423
-0.14420831 -0.2548626 0.020001555
-0.24676928 -0.08050289 0.08384508
0.023622112 -0.009022286 0.2771998
-0.22665158 0.05116899 0.08560091
0.13696896 0.15250354 0.027899347
-0.27963364 0.05330853 0.10684625
0.03922396 -0.18237394 -0.23521471
-0.03916582 0.0845182 -0.18748143
0.07081754 -0.020923806 -0.08607764
-0.029276028 -0.19880581 -0.17382932
0.119465426 -0.08478987 -0.017950077
0.2279137 0.19002326 0.019177234
-0.011134528 -0.06365723 0.15167265
0.19045886 -0.0055000293 0.09835011
0.25885123 0.10441916 -0.04412821
-0.14064974 0.11896867 0.00025621708
0.102446996 0.020850541 -0.098778166
0.09548005 -0.15522125 0.20933065
-0.025892379 -0.107883014 0.08747082
-0.03390273 0.08226879 -0.012925386
0.042093348 0.06787758 -0.30745092
0.0008008431 -0.024796667 -0.24014677
-0.13010707 0.022487495 -0.061767656
-0.15731333 -0.17111376 0.033201355
0.2383544 0.055876832 -0.021063434
-0.069782734 -0.26989585 -0.11082949
0.14063546 0.024803098 0.1568622
0.046960812 0.045466125 -0.14425592
0.040333387 -0.13619432 -0.27249384
0.044216625 -0.02742923 -0.14923273
0.06401512 -0.103939526 -0.28867468
0.010734481 0.059434906 0.10031417
-0.25983924 0.13209337 0.079692096
-0.12613858 0.13802847 0.009369794
0.18978286 0.2124422 0.06408179
-0.0034904843 0.025613243 -0.19175617
-0.06543431 0.011590933 -0.14230177
0.06726181 0.15361811 0.14429277
0.04501533 0.14960758 0.14692852
0.10952233 -0.07645288 0.21277161
0.057447426 0.12811026 0.10032837
0.04103178 -0.04254174 0.27374896
0.22502181 -0.016047182 0.056071583
0.07209589 -0.1008478 -0.03219385
-0.07029972 0.027213221 -0.13862935
0.1564842 0.09734677 -0.03729189
0.012115673 0.10582586 -0.27559865
-0.24882957 -0.09976943 0.089571424
-0.11145332 -0.2765754 -0.045235697
-0.17630918 -0.08688014 0.014648717
0.24057111 0.030478714 -0.019790271
-0.22903232 0.053149115 0.03973347
-0.04470595 0.20576012 -0.21940486
-0.07577444 -0.24731663 -0.106844895
-0.25863624 -0.04262455 0.13151917
-0.21791033 0.010265852 0.032494083
0.2240786 -7.918781e-05 0.05469871
0.037647627 -0.03409158 0.20321275
0.0386559 -0.06786932 0.2661078
0.017845739 0.08833084 0.26097372
-0.1335821 0.108112805 -0.07114736
0.20618042 -0.08132494 0.09056751
0.17195821 0.06812906 0.11002311
0.17972977 -0.028188188 0.11565935
-0.16771103 0.1723314 -0.057502605
0.21731994 0.12457659 0.043205567
0.024211846 0.0670697 0.26817003
-0.091801874 0.24373643 -0.11702239
-0.15411027 0.21351239 -0.081446014
-0.1634405 0.21645308 -0.07004831
0.124891326 -0.08325344 -0.015626378
-0.19288668 0.17534317 0.022623584
0.011961009 -0.16883284 -0.18255393
-0.08951836 -0.21561997 -0.09446585
0.1355322 0.07978639 -0.06511672
0.07320463 0.024350999 0.24273497
0.1164089 -0.036584444 -0.0015813503
-0.18436944 0.24091092 -0.03823262
0.08029059 -0.024634236 -0.06773229
0.11361193 -0.08722589 0.20930451
0.16941306 -0.12554689 0.088618815
0.19300811 0.058157466 0.08484575
-0.08228723 0.11859576 -0.13810538
0.17402172 0.11897202 0.09920306
0.047303114 0.10634021 -0.096815005
0.03567583 0.13804017 0.2393734
-0.13399883 0.13333055 -0.074681506
0.18435925 -0.13827384 0.07893452
-0.14386618 0.15842511 0.0033325194
-0.08171673 0.23769881 -0.12888204
0.017091163 0.06769065 0.1614163
0.12579805 0.15070103 0.01827676
0.02400787 -0.10880228 0.089897916
0.031558424 -0.055138987 0.26769313
0.070499875 -0.09662859 -0.26867723
-0.107773416 -0.118997745 0.032469623
-0.14094678 0.17388031 -0.04322966
-0.055965796 -0.095372796 0.09311099
0.13063818 0.07141925 0.16206951
0.20984602 0.064306766 -0.019209312
-0.100753054 0.052203 -0.10390778
-0.0019775275 0.14719062 -0.21575548
0.11629823 0.16083951 0.16590239
0.054045614 0.15032122 0.10461009
0.23135999 0.035907645 0.039632913
0.18875648 0.17026421 0.023609126
0.060613263 -0.0978422 0.22987443
-0.19285312 -0.024139583 0.025587019
0.10060581 -0.093000345 0.22678432
-0.096077725 0.082483664 0.011564768
-0.051235303 -0.27157012 -0.08558233
0.073443286 0.15001309 0.1407186
-0.028178152 0.1192423 -0.12741996
-0.00919752 -0.062272206 0.15406322
-0.029020686 -0.25124556 -0.11712437
0.15138003 0.094276845 -0.04315011
-0.17704804 -0.10454417 0.018436171
-0.11662672 0.24408427 -0.085491054
0.116678834 0.11972994 -0.034107313
-0.058357105 0.16194582 -0.1949727
0.053134106 -0.097524896 0.070027314
0.032922775 0.028754197 0.28730285
0.053231914 0.076889485 -0.27467355
0.0017296928 0.06354949 -0.20699058
-0.11978947 0.25630423 -0.08343616
-0.05332445 -0.1065896 0.07756695
0.15432215 0.017810607 -0.053282097
0.09579732 0.10623956 -0.06818844
-0.1663804 -0.11281612 0.071942605
0.038430568 -0.167196 -0.25167593
-0.057823356 -0.16623569 -0.14275485
-0.20604154 -0.16616653 0.045829155
0.035895627 -0.03300929 -0.1789692
0.036130298 0.15823984 0.2226782
-0.20909229 -0.030375121 0.07640206
-0.22371723 0.020743053 0.038194004
0.119505346 0.009563253 0.18620495
0.20219603 -0.016349405 -0.039071742
0.018494159 0.051598378 0.24444576
-0.13164343 0.07715105 0.05075572
-0.09596841 0.2055722 -0.15414716
-0.004768419 -0.014670176 -0.2346926
-0.08806458 -0.256964 -0.089651644
-0.01263681 -0.08732456 -0.19353947
-0.041677844 -0.1484486 -0.023009803
0.06476807 0.033895705 -0.2824225
-0.0187964 0.12588821 -0.23949832
0.18699022 -0.06688491 0.11265822
-0.26702 -0.0318003 0.1266978
-0.24604388 -0.104534335 0.08679517
0.12868361 -0.015365156 0.17854396
0.25185418 0.1490456 -0.016852353
0.23364334 0.12290335 0.022705533
-0.042991746 -0.14522597 -0.16501336
-0.15422432 0.17571148 -0.075208075
-0.18530893 0.13813013 0.018979728
-0.0398454 0.081982374 -0.20563842
0.26488912 -0.020619852 -0.042496905
-0.033432864 -0.14197336 -0.17770074
-0.14914186 0.24868043 -0.04485888
-0.09375909 -0.12867083 -0.0836536
0.16655572 0.21868674 0.04819463
-0.034440476 -0.05210573 0.14169858
0.12110998 -0.089163855 -0.0039501567
-0.039778188 -0.17812374 -0.16379957
-0.017893529 -0.1374455 -0.19820257
0.19077846 -0.15360197 0.07323737
0.17656733 -0.03495258 -0.024959462
-0.18703265 -0.122430176 0.014592635
0.20176521 -0.0035464664 0.0836488
0.018582381 0.036822926 -0.22412689
0.26257333 -0.08484546 0.019379573
-0.056341458 0.18747556 -0.15307508
-0.19485208 -0.010528787 0.02593633
0.21249735 -0.043435078 0.07642225
-0.1527431 -0.038519643 -0.02313214
-0.09197011 0.061380837 -0.11656263
0.0067915693 0.025999978 0.15352103
-0.2775718 0.0062200883 0.10906025
-0.012769583 -0.078220725 -0.19483747
0.16844821 0.20904997 0.043197628
-0.01704992 0.2008028 -0.22715054
-0.15014176 0.09619385 -0.048155032
0.18478152 -0.18412791 0.119792335
0.045977335 -0.08419601 0.22420056
0.039103232 -0.0784371 0.1997389
-0.040122744 0.076170005 -0.18491793
-0.21409433 -0.21396017 0.06410232
0.094591305 0.115465134 0.20083639
0.0619325 -0.106737465 0.15136205
-0.043051247 -0.035056863 -0.1632641
0.12414349 -0.17844203 0.16941929
-0.022628542 0.055273466 -0.2118411
0.044376098 -0.03323376 -0.15162742
0.12283778 -0.1606062 0.20939304
-0.21454221 -0.08199458 0.043078933
-0.109917745 -0.20989673 -0.020818245
-0.27104393 -0.07805218 0.12565295
-0.09852683 0.047130417 -0.10592284
0.13618265 -0.12471652 0.18662804
-0.12204367 -0.024447761 0.076584026
-0.13983949 0.16855028 -0.09235767
0.0071439827 -0.2068295 -0.21887784
0.016332734 0.10779175 -0.21823964
-0.08675884 -0.04529691 -0.10599891
-0.2222627 0.2283934 0.007069328
-0.13527027 0.05619993 -0.060631797
-0.1584053 -0.06673905 0.04514525
-0.23190184 -0.028401865 0.056529287
0.19764067 0.1559981 0.06318156
0.13813728 0.14200044 0.14115116
-0.032990884 0.0026074196 -0.18213569
-0.20106867 -0.0113658225 0.06312844
-0.0077808676 0.06621262 -0.195319
0.07009829 0.05724808 -0.29296875
-0.018495694 -0.20175341 -0.18707149
-0.019416 -0.019718956 0.15839651
-0.006643413 -0.1435389 -0.21153587
0.14162354 -0.12840626 0.1317215
-0.0134323 -0.08518401 -0.21230322
0.24535838 0.11859661 0.008493036
0.089670174 0.17855585 0.19692945
-0.0353609 -0.19069828 -0.11881626
-0.103525326 -0.058970403 -0.08246103
0.24110988 0.01692005 0.03028742
-0.2546548 -0.06456158 0.09130883
0.014525137 0.0905176 -0.13863899
-0.23093785 -0.14490324 0.074080914
0.14988434 -0.14931777 0.17315862
0.0052244007 0.14188567 -0.27264154
0.17595015 0.02823012 -0.040482644
0.13258943 0.08869426 -0.060357768
0.036116462 -0.07175866 0.20367093
-0.22073342 0.06760481 0.026843872
-0.17564401 -0.1453329 0.0037930224
0.16076535 -0.11726373 0.040220566
0.2853215 -0.066376805 -0.012542668
0.06380879 0.15354314 0.23386702
-0.12220149 -0.2740316 -0.034927346
-0.08315684 -0.102396645 0.067564815
0.08239268 0.07497663 0.22288394
0.019118816 0.0030684634 -0.26794603
0.063058905 -0.120341696 -0.28655446
-0.11366958 -0.04100277 -0.07244924
-0.05111131 0.07680291 0.106942
0.14516944 0.12509102 0.13492873
0.23882754 -0.15063247 0.06019794
-0.026534362 -0.0570326 0.14528154
-0.2718891 0.10462684 0.0898419
-0.008405608 -0.21018009 -0.19855183
-0.17799547 -0.13243885 0.0047067404
0.010990608 0.14325206 -0.2737956
-0.07859526 0.08346169 -0.13714007
0.089044094 0.029706687 0.22171737
-0.24886319 0.05913098 0.112580046
-0.04817302 -0.0027067096 0.12934011
-0.1929981 -0.13196449 0.023719897
-0.14614412 -0.23507063 -0.0192792
0.05545145 -0.071187355 -0.29420626
-0.11082102 -0.10762332 0.045016233
0.25314376 0.10720611 -0.046453524
0.20986187 0.18971263 0.009071049
-0.19068004 0.07257463 0.036379874
0.033077605 0.121396 0.022285031
0.21123166 -0.16580154 0.09775648
-0.2662699 0.123277515 0.081048116
0.023429606 0.04608172 0.22272235
0.2116067 -0.054574654 0.079351366
-0.02848511 0.114440896 -0.2253252
-0.07050586 -0.17833143 -0.124668
0.18102814 0.11897994 0.090286136
0.22533555 0.024620522 -0.01609926
0.24543148 -0.14161918 0.050341703
0.03369651 -0.06926951 0.2616321
-0.12101 0.03789821 -0.075826466
0.10153618 -0.15840124 0.20335183
-0.14758395 -0.22907987 0.03016492
-0.027186833 -0.020796452 -0.1857483
0.14664532 0.09917924 0.13722686
-0.05058262 -0.11550691 0.05386544
-0.110420264 0.13677125 -0.10523784
-0.08196175 0.11696148 -0.0119539555
0.08609664 -0.12123659 0.2497975
-0.038975697 -0.23149668 -0.107640706
-0.21334372 0.19106904 0.046118796
-0.2491894 -0.030748459 0.07890467
0.12202502 0.14924306 0.16048503
-0.253731 0.09515784 0.06438959
0.06782692 -0.12294279 -0.26405022
-0.14317258 -0.08836814 0.06881975
0.09345691 -0.10077478 0.23713377
0.024369841 -0.10960832 -0.11749168
-0.13925669 -0.11374715 -0.028166926
-0.12217428 0.05860994 0.048618212
0.06503713 -0.09500542 0.17123835
0.09908733 -0.14836277 0.22306673
-0.013183741 -0.15868245 -0.14912951
0.1214554 -0.04510498 0.19253463
-0.19587164 0.006283432 0.024524093
0.15994419 -0.005603834 -0.023778219
-0.0269817 0.087537065 0.11229929
0.20066269 -0.09804356 0.03796448
-0.20331918 0.07738662 0.010779577
-0.23834774 -0.14090136 0.082864024
-0.06734867 -0.083372705 -0.12455978
0.006262517 0.14310507 0.012859269
0.010798663 0.07106534 0.10405643
0.2610549 -0.027145404 0.012011341
-0.056273732 -0.009061689 0.12622164
0.25581962 -0.010811274 0.01604053
-0.21872121 -0.14879328 0.059163705
0.09787924 0.07917468 -0.09154014
0.16080625 0.20182665 0.054086
-0.018779127 -0.07897825 -0.1870692
0.1294589 -0.16997623 0.15390052
-0.13187203 -0.09069983 -0.041278254
0.01890469 -0.118338555 -0.2481056
-0.034153067 0.11746644 -0.21860103
0.053921603 -0.10265387 0.13573462
-0.22049408 0.018993655 0.034374837
0.17010453 0.084889844 0.10968047
0.07782096 -0.07137381 0.25229058
0.186946 0.009587124 0.100388184
-0.27154735 -0.014157898 0.104679205
-0.1534085 0.186405 -0.02939195
-0.21904458 -0.14549688 0.05904336
0.11491442 -0.021526108 0.19705743
-0.22037308 -0.00848967 0.038651034
0.21071643 0.18763953 0.009126558
-0.12817961 0.24799195 -0.07142052
-0.14236847 -0.21438748 0.021160742
-0.20672087 0.2138362 0.03402222
0.19652146 0.18443424 0.060021933
0.02099329 -0.19406259 -0.23855768
-0.25024995 -0.061161388 0.13373373
-0.05255618 -0.11767922 -0.13785242
0.1904763 -0.0015396442 -0.041631512
-0.2165018 -0.042787977 0.039253134
0.07796211 -0.029241636 0.2453197
-0.0901219 0.14057395 -0.047004294
0.09285379 0.21196263 0.15825237
-0.26782984 0.023363136 0.09390099
-0.017864084 -0.17252754 -0.19258578
-0.16639297 -0.092794545 0.002984599
-0.042461187 -0.117263846 0.02811814
-0.07297398 -0.027332831 0.11639107
-0.14858538 -0.12816472 -0.013972989
-0.10528612 -0.22480601 -0.0729221
0.042248037 -0.021874126 0.240998
-0.08480901 0.13761373 -0.15413585
0.04330619 0.06854688 -0.30434832
-0.026754875 -0.15114407 -0.0549755
0.17588647 -0.116902046 0.057341095
0.13456386 0.03425839 -0.075797506
0.02335289 0.008187104 -0.2741588
-0.17965752 0.18601246 -0.04450669
-0.07276454 -0.1703365 -0.010182524
-0.0783229 -0.280718 -0.05313351
-0.08335342 -0.13288502 -0.09621477
-0.24308147 0.07798236 0.05360758
-0.14444922 0.25234687 -0.09999842
0.09939616 0.021836737 -0.10157491
-0.021056594 -0.24539253 -0.12820166
-0.10716575 -0.27757958 -0.04721125
-0.2495254 -0.06195036 0.08436148
0.14201747 0.015474739 0.14771712
-0.1446297 0.1468995 -0.07088243
0.006712566 -0.07826315 -0.19047315
-0.06916301 0.17969812 -0.10061389
-0.23781405 0.035504274 0.10232895
0.049975675 0.07704472 0.26379874
0.14254019 0.11435439 0.1400047
0.2526982 0.01146982 0.016420674
-0.24028875 -0.15748148 0.093513824
-0.17693774 0.1708775 0.012394751
0.12651326 0.21092664 0.09625467
-0.2406118 -0.09696358 0.078662865
0.13054395 -0.16499385 0.20029397
0.068125896 0.10477744 0.045355808
-0.18326518 0.09614603 -0.006000565
0.1316383 -0.13142578 0.08101033
-0.037637707 -0.265096 -0.10392696
0.19999135 0.13647121 0.014760129
0.24913087 -0.11853612 -0.0058942847
-0.042017184 0.12757099 -0.0644905
-0.18075463 -0.2291055 0.07237601
0.071030855 -0.08277705 0.19014655
-0.069957025 -0.079331465 -0.12189205
0.1450757 -0.10989917 0.02719089
0.2854187 0.005056014 -0.024179695
0.09415776 -0.034726765 -0.06205016
-0.008781456 0.071352325 0.108911246
0.11463678 -0.015174308 0.19638677
0.2486136 0.08371391 0.009973453
-0.07519349 0.20376553 -0.12338977
0.02185684 0.038119595 0.257274
0.13496734 0.18969958 0.054315235
-0.2543981 -0.00706771 0.13029295
0.08455116 -0.13074574 0.23195751
0.25066867 0.008353841 0.019505465
0.070043236 0.17561084 0.22237796
-0.024335194 -0.17604193 -0.18378568
0.25904325 0.14614113 -0.013359741
-0.16608003 0.18672372 -0.061897647
0.1343686 0.18666296 0.13874774
0.21016711 0.07539772 0.060233966
-0.19740649 -0.16560388 0.034751024
0.06750225 -0.09554552 0.08087143
0.01131713 -0.06995557 -0.24624923
0.04257375 -0.05717475 -0.20100085
-0.22875835 -0.17842016 0.07670998
-0.092231035 0.25134712 -0.14208743
0.1994482 0.09802071 -0.032228626
0.1899836 -0.11853746 0.021519972
0.118658505 -0.13294722 0.07266567
0.18360287 0.20064935 0.073846586
0.24269065 -0.0125290025 -0.039880548
-0.22192626 0.048717443 0.031406015
-0.10546643 -0.24518539 -0.020829804
0.26186725 -0.009385486 -0.040462088
-0.06030158 0.2164615 -0.20128502
0.06730219 0.017115636 0.2514116
0.14724874 -0.100500844 0.022910913
0.045637157 0.059852976 -0.31084156
0.14035578 0.11759528 -0.024597403
-0.19979726 -0.22352938 0.04713017
-0.23445992 -0.086833656 0.11778008
0.02614386 0.060955554 -0.15390502
0.24915057 0.044106167 0.01567381
-0.05384801 -0.11724526 0.0085864
0.29208955 -0.020037873 -0.034065805
0.06449068 -0.0055543683 -0.29472986
0.2097366 0.04586391 0.0655419
-0.15394954 0.17148116 -0.074875824
0.22763371 0.1276136 0.029593198
-0.16089019 0.08063962 0.021334639
0.027344463 0.06688023 -0.28869814
-0.0787843 -0.28530872 -0.05958025
-0.02427331 -0.1551633 -0.1283965
0.19048958 0.111112855 -0.026081774
0.07502913 -0.11595818 0.11729591
-0.04153413 0.079906374 0.11408893
0.005856603 -0.24485675 -0.19916846
-0.1731273 -0.034891468 0.046068
-0.042384572 -0.20110767 -0.15677899
-0.029566525 0.18030418 -0.23456518
-0.2727257 -0.060530033 0.113652326
0.0019840335 -0.111836836 -0.22762352
-0.09283828 -0.03243826 -0.04977178
0.0893106 0.08769066 -0.09095816
-0.22263783 0.15664904 0.014914337
0.05040339 0.0861316 0.06890944
-0.14179122 0.14675856 -0.037783634
0.12848282 0.18505017 0.1464965
-0.121556506 0.15918495 -0.114111416
-0.09711812 0.16459703 -0.097501785
-0.15601958 0.033393055 0.07289846
0.099824935 0.12574609 -0.024131887
0.12178994 0.13631232 0.01713565
-0.010800257 -0.029770797 -0.20515254
-0.0786426 -0.2016357 -0.11055851
-0.16601017 0.069917284 -0.023728523
-0.14671414 -0.032749765 -0.03173324
-0.009666482 -0.22342062 -0.19481358
0.20066702 0.13008055 0.014930382
0.26529416 -0.087278105 0.01630949
0.08884891 -0.11113196 0.098933384
-0.26400065 0.017781302 0.12775476
0.12668769 -0.03199124 0.18376365
0.009668126 -0.0978551 0.00049193756
-0.14153679 -0.24981551 -0.022765307
-0.13365474 -0.048810065 -0.045761663
0.02628276 0.0035376325 0.25721648
-0.1779445 -0.18641853 0.013342753
-0.02049048 0.11282744 -0.078179345
-0.123792954 0.02243768 -0.06979351
0.046959877 0.10044855 0.21528651
-0.06311962 -0.010500032 -0.1416868
-0.026884811 -0.052764338 0.14697953
0.033950716 -0.18325344 -0.23913135
0.11925775 -0.031024072 -0.011225437
0.19898844 0.1471178 0.014320439
0.049745195 0.0913073 -0.28116977
-0.040635835 -0.25491372 -0.15033181
-0.22683851 0.17843722 0.016748302
-0.06556452 0.07642659 0.09619852
-0.11518507 -0.056680996 0.08069011
0.20619951 -0.11068676 0.09527563
-0.10300486 0.21017669 -0.09735883
-0.09844973 -0.05075852 -0.09024294
0.25480157 0.11895336 -0.03080413
-0.14935513 0.003339094 0.06777328
0.109914966 0.17141445 0.17232028
-0.099950604 0.24172808 -0.15490799
0.02855486 0.0016921845 0.2546231
0.10035037 -0.028887011 0.21677536
-0.18957333 -0.097497255 0.06238422
0.21346065 0.14773087 -0.0041933325
0.015171402 -0.17028238 -0.23498265
0.12114813 -0.16770455 0.18425632
0.066311955 -0.07423545 -0.083761014
-0.03361348 -0.112990074 0.0147709055
0.033061124 -0.021262918 -0.28176498
0.11462992 0.013348644 -0.084693775
0.11717334 0.021878118 0.18718739
-0.21423893 0.101957165 0.013043023
0.2818643 0.04278664 -0.04209204
0.23303717 -0.025035556 0.047321126
-0.05562635 0.16852145 -0.097750545
0.020607555 0.09650377 -0.21352182
-0.096063174 0.07107032 0.013385573
-0.040486712 0.13945378 -0.071911305
-0.105073385 0.20146997 -0.0933228
-0.10562754 0.20028421 -0.14100395
0.010473915 0.0076728417 0.17447923
-0.193583 -0.1679342 0.07883936
0.17559308 0.21948591 0.06521502
-0.20493793 0.18637404 -0.012398227
-0.124719866 -0.24370918 -0.04514789
-0.0880403 -0.041479632 -0.06987938
-0.21760781 -0.11268779 0.05192659
0.024761641 -0.12804633 -0.2539929
-0.18269078 0.07904802 -0.0039754855
0.053006265 -0.088010244 -0.08205993
0.16933545 0.18950118 0.09379742
-0.20700908 0.12010868 0.0009184078
-0.08509283 0.07317972 -0.12721482
0.12931989 -0.14829431 0.19916002
0.21491648 0.08871514 0.05204385
-0.1580551 -0.07623529 -0.010293971
-0.08615781 -0.0007213113 -0.11394885
-0.25121817 -0.010674698 0.12682834
-0.17403989 -0.07710022 0.010184872
-0.1296215 -0.21676527 0.0053243726
-0.055245113 0.16981381 -0.15162297
0.074558206 -0.10752525 -0.014285986
0.23010418 0.1103586 0.029230582
-0.011391838 -0.06668623 -0.21788052
0.26123935 0.017227598 0.0046249293
-0.052296903 -0.03230649 0.13315429
-0.11829058 0.19519679 -0.12407179
-0.09980485 -0.2934331 -0.061231516
0.11209911 0.19223039 0.117608584
0.13279867 -0.10963835 0.18850309
-0.18986513 -0.04149416 0.053728733
0.12094889 -0.05876354 -0.024345629
-0.21506888 -0.08720187 0.0445888
0.28751072 -0.060448904 -0.016283944
0.061267864 -0.11460061 -0.26460737
-0.0014104997 0.12814918 0.046985984
0.011654985 0.110415176 -0.028862001
-0.26117572 0.12689029 0.08281701
0.013068394 0.08720616 0.17066695
-0.057530012 -0.0029019641 0.12160542
0.04437088 0.14613873 0.13336675
-0.2625447 0.12909654 0.07013451
-0.079176575 -0.016785577 -0.12024242
0.019719947 0.099289946 -0.22946042
0.015234353 -0.027057547 0.18898252
-0.20313801 0.044969276 0.08446027
0.10747017 0.009615068 0.2015099
0.025809728 -0.08068946 0.16263705
0.034898065 -0.12789497 -0.21833755
-0.055636376 -0.2478596 -0.13238184
0.02616813 -0.035257813 -0.101657555
0.2718976 -0.06182414 -0.033655535
0.038455706 -0.03254934 -0.17637575
-0.2674474 -0.025410494 0.12658732
-0.036951166 0.0058221403 -0.17761473
0.023441732 0.04573483 0.25403014
0.27752447 0.011104746 -0.015110193
-0.13746995 0.25459895 -0.064432144
-0.050014727 -0.17969099 -0.1505222
-0.26508877 -0.062301505 0.10422099
-0.043056656 0.13969637 -0.06805585
-0.223446 0.20074971 0.008834893
-0.15522689 0.2223644 -0.08145256
0.0057565714 -0.08614645 -0.18798617
-0.07211287 -0.062127452 -0.12192247
-0.030580727 0.0068348134 0.13858892
-0.059322927 -0.055717215 0.12195634
-0.12860978 -0.03379355 -0.054601114
0.24031462 -0.15418552 0.044305068
-0.023646258 0.1031218 0.08027087
-0.0041382182 -0.019171702 -0.23476912
-0.07583797 -0.17692114 -0.012225787
-0.16494794 -0.18951915 0.045882937
-0.24386437 -0.061715525 0.12569799
0.18344504 0.108261 0.08893835
-0.06280803 -0.17950869 -0.13427308
0.18654004 0.14923248 0.07839665
0.27162018 -0.07706585 0.0066143028
0.022186121 0.09994029 -0.12244944
-0.11795583 -0.2625809 -0.050712097
0.101858854 -0.035641618 0.2159451
0.0600959 -0.066262186 -0.07973887
-0.2800411 0.04233509 0.10638126
0.15017363 0.15593208 0.12359008
-0.053483546 0.1707836 -0.15402053
0.2189049 0.032384396 0.05604875
-0.0047831745 0.005063142 -0.23785421
0.0033828309 0.046907157 -0.2549896
0.15934308 0.05656186 0.12793939
-0.027494239 -0.15132825 -0.05257077
-0.15847081 -0.25056672 0.022083325
-0.19163728 -0.2317734 0.039973892
-0.19644849 -0.211803 0.040978663
-0.21237093 -0.123908356 0.047071654
0.108584315 0.21841589 0.16643813
0.037059262 -0.025601039 -0.11183702
-0.092472516 -0.27834648 -0.080596626
0.0076576825 0.04494679 0.18950792
0.16512436 -0.05217029 -0.0076242997
-0.05977455 0.023493364 -0.06837211
-0.009848516 0.13115786 0.031036016
0.059671376 0.1239714 0.1953205
-0.121633075 -0.19200248 -0.05740903
-0.08497089 0.2500563 -0.12673312
-0.07671653 0.20582335 -0.12418935
0.1407133 -0.10702116 0.17801107
-0.0836508 -0.038201157 -0.11109721
0.058002546 0.08421002 0.081472956
0.036618557 -0.040373705 -0.23463382
0.1026044 0.16485581 0.07553084
0.053992428 0.07180502 0.25953224
-0.11314017 0.13938014 -0.0730512
0.15622108 -0.16612533 0.16780502
-0.047722727 -0.15389249 -0.0684176
0.062351346 0.16466425 0.17502029
-0.13153665 0.05597353 -0.06534609
0.035298232 -0.19174471 -0.2085557
0.02808745 -0.008999169 0.27509382
-0.039716396 -0.24602589 -0.15293415
-0.21530932 0.09838307 0.0149811655
0.004009955 0.02771847 -0.2526948
-0.056809597 -0.08033551 0.10747657
0.18365186 0.19506378 0.074684486
0.13392536 0.16570161 0.07304706
0.11680011 0.07662063 0.17883848
-0.0541575 0.001785616 0.122063965
-0.09164169 0.17127119 -0.10554613
0.23596027 -0.017377283 -0.039655678
-0.07510825 -0.12146074 0.023001954
-0.043771822 -0.09385964 0.102657504
-0.19862843 0.004060014 0.02838994
0.045286212 0.08488656 0.2685018
-0.15665282 0.018199692 -0.027299456
-0.09232038 -0.11898304 -0.087045774
-0.09152497 -0.042568304 -0.08225026
-0.17566 -0.07782032 0.0123626
0.09527095 0.08513735 0.20486005
0.24264385 0.088501714 0.016797867
-0.062109336 0.20951234 -0.14928734
0.09306445 0.16340575 0.10223181
0.016422244 -0.09710527 -0.10263601
-0.0711202 0.10606239 -0.023992296
-0.09529947 0.2658294 -0.116750225
0.08128006 0.029021211 -0.11782812
-0.08699503 0.1511497 -0.15679322
0.27362373 -0.07591232 -0.016191607
0.066925794 0.0656584 -0.29750597
-0.08934254 -0.032129314 0.10391526
0.033727933 0.111926824 -0.09293676
-0.18845166 0.22072378 0.009665426
-0.13486521 -0.26506025 -0.0047133346
-0.030556856 0.14970998 -0.22837412
-0.16413483 0.045314938 -0.022149496
0.06162324 0.00469363 0.26063964
-0.15839122 0.020509738 0.06950779
0.27037156 0.032389082 -0.009439226
-0.16325998 -0.15962124 -0.009661595
-0.050219093 0.11759674 -0.14216259
-0.061161473 -0.17221983 -0.088965625
-0.06638107 0.058484066 -0.14865549
0.09731046 -0.098879874 -0.009575806
0.13318133 0.2111601 0.087731704
0.104330994 0.16952944 0.17972924
0.033067323 -0.023396939 -0.12018171
0.01932555 -0.022887755 -0.26402587
0.016104672 -0.2491199 -0.18358916
0.1191604 0.18965769 0.15761608
0.059082936 0.07583888 0.25240475
-0.06363672 0.0042795874 0.11144328
-0.0051374272 0.17598535 -0.2515021
0.053749982 0.008640616 0.2700219
-0.1046235 -0.053168274 0.08995142
-0.10587389 0.12334198 0.009542299
0.2823425 -0.02194608 -0.015913455
-0.070554316 0.071405604 -0.14542836
-0.17246827 0.22775543 -0.011805231
0.13867632 0.1325571 0.1419868
-0.28053936 0.03319823 0.108487785
0.019831145 0.11397851 0.24798346
0.16759686 -0.06490311 0.13701487
-0.07620156 -0.277718 -0.06408474
0.13163128 0.020883571 -0.07360919
-0.07701208 -0.014422378 -0.10605659
-0.012831215 0.20736524 -0.21348427
-0.07286735 0.24444024 -0.16343568
0.06566632 -0.056890383 -0.2892901
-0.008192379 0.20783362 -0.23841001
0.256167 -0.054754246 0.022680921
-0.12039118 0.25305167 -0.08214622
0.036998235 -0.060652588 -0.28042576
0.06849625 -0.08296401 -0.0769359
-0.18492687 0.15655243 -0.0330538
0.02561403 0.11985715 0.2393189
-0.03654704 0.2022394 -0.22921865
0.17748842 -0.17720497 0.14253028
0.00017596474 -0.072030716 0.15308976
-0.10232304 0.16001615 -0.13871819
0.043504562 -0.042203795 -0.29167828
-0.04197851 -0.24062185 -0.1509269
-0.071178906 -0.27718297 -0.067619294
0.042016372 0.0025680661 0.28593093
0.23906946 -0.14345123 0.058732457
0.2239013 0.12287617 0.03510594
0.045175076 -0.005202276 -0.25119025
-0.24866265 -0.12979363 0.09419879
-0.12346429 -0.06358829 -0.05634599
0.18193392 -0.15836814 0.13383701
0.20873845 -0.024196891 -0.037100505
-0.11296967 -0.2488663 -0.05926726
-0.009061419 -0.06991389 0.14833437
0.20714627 0.1871869 0.00020572646
0.04146934 0.07031345 0.20630185
-0.26283696 -0.104010716 0.109684296
-0.18830223 0.08177821 0.0027242305
-0.16794279 -0.23791966 0.04316303
-0.21562578 -0.11399096 0.04961477
0.09200272 -0.04924576 0.23067886
0.052927896 -0.103217356 0.14906086
-0.101435885 0.23661652 -0.10361612
-0.1519693 0.23241039 -0.087216325
0.09118145 0.16088511 0.1978546
0.26642263 -0.073349066 -0.03125738
0.08206657 0.06584957 -0.11114827
-0.035655033 -0.016083933 0.14505264
0.009226656 0.017421495 -0.25767276
-0.18712859 -0.19769841 0.026846757
0.020273099 0.013798476 -0.27114502
0.04104327 0.052091427 0.27918625
0.06797269 -0.12501518 0.018602405
0.055659413 -0.06841592 0.2779227
0.037580956 0.06026297 0.1365426
0.069271594 0.11034634 0.23387873
0.05324561 0.060765784 -0.31054887
0.19836454 0.08219981 -0.018809067
-0.061425246 -0.22006202 -0.08091803
-0.15622303 -0.21265833 -0.010066984
-0.19515656 -0.19714163 0.03697179
0.13739295 -0.04469161 0.17218907
-0.19024359 -0.14470623 0.022268841
0.17733547 0.03610079 0.097388856
-0.112910524 0.17000826 -0.078279376
0.1100422 0.088299945 0.18555509
-0.061177585 0.15123236 -0.1896572
0.12789673 0.023952497 0.17320818
0.0053847497 -0.026330132 0.17841221
0.0009955594 -0.09759011 0.12392929
0.06503114 0.18325192 0.17848349
0.24842729 0.041434545 -0.031552702
0.03811035 -0.053842396 -0.1372057
0.14480177 0.066538826 0.14483438
0.17560482 -0.17858712 0.1451494
0.11315473 -0.02095422 0.1992046
0.20152575 -0.13166912 0.104604684
-0.081864625 0.020575583 -0.12284412
-0.13127054 0.2563047 -0.11075851
-0.09698898 0.23084612 -0.108344525
0.20780335 -0.05693107 0.08457063
0.10320714 -0.0777903 0.22102247
0.14755951 -0.079705134 0.1648963
-0.053856317 -0.08231926 -0.14189743
0.05691901 0.00068364065 -0.30068246
0.021790745 0.10683937 -0.2394943
-0.21347961 -0.0749195 0.08916432
-0.09438311 0.012330025 -0.04591436
