# .PCD v0.7 - Point Cloud Data file format
VERSION 0.7
FIELDS x y z
SIZE 4 4 4
TYPE F F F
COUNT 1 1 1
WIDTH 1000
HEIGHT 1
VIEWPOINT 0 0 0 1 0 0 0
POINTS 1000
DATA ascii
-0.06932857 0.17736287 0.17716669
-0.13113186 0.079487115 -0.041533962
-0.12366202 0.103103444 -0.05801212
0.02855948 -0.17445862 -0.2410811
-0.16134925 -0.18380548 -0.09227844
-0.18285856 -0.08413603 0.072517194
0.012611878 -0.27421987 0.09047602
-0.055481747 -0.012404341 0.030316109
-0.14342521 -0.16060218 -0.15524027
-0.07337199 -0.1480962 0.056147072
-0.00061671296 -0.112516195 0.15447009
0.097180754 0.033276636 -0.15422575
-0.010274707 0.17186424 -0.22897981
-0.13643152 -0.039981935 -0.004831295
0.08340284 0.07930065 0.23665997
0.012198881 -0.122446105 -0.19455716
0.01927405 -0.18126608 -0.23835495
0.10911215 0.2218775 0.124738544
0.12366452 -0.028560895 0.00024755174
-0.10950183 -0.1683216 -0.18621205
0.14749032 0.035920966 -0.05990276
0.049756326 -0.269062 -0.17804895
0.036131132 -0.009709931 0.13084869
-0.029543057 0.0034848952 0.22907278
-0.08675663 0.22973004 -0.09232252
0.015089404 0.22932677 0.072026595
0.055787254 -0.17398135 0.05427962
0.10952715 -0.048776213 -0.087518625
0.113776326 0.031717062 0.07226921
-0.14068562 -0.17715698 -0.17893094
-0.105864376 -0.08878516 -0.2265076
0.09993413 0.22521242 0.19024427
0.09932566 0.1842253 -0.0023604468
0.07756033 -0.028425014 0.13128461
-0.04063617 0.063192055 0.22048116
-0.045910418 0.24955167 0.15705682
0.10597082 0.22514014 0.19169831
-0.028185787 -0.06180978 0.14112265
0.122505404 -0.112044714 -0.131606
0.09969015 -0.027754415 0.106747
-0.14560625 -0.16136801 -0.14613895
-0.12338329 0.052889757 0.18624002
0.06611064 0.25457677 0.17461087
-0.039722234 0.024474896 0.13768622
-0.034369707 -0.22510082 0.115899704
0.011881906 0.046112005 -0.25987428
-0.106275074 -0.25767294 -0.18011835
-0.0708407 -0.05944599 -0.2280852
0.051495846 0.1266529 -0.08640871
-0.08474728 0.081784554 -0.24488442
-0.06340742 -0.21370444 0.011894998
-0.09249262 0.06675184 0.210097
0.06684966 0.0021089872 -0.2005851
-0.019461736 -0.013576337 -0.2407656
-0.019442648 0.099030495 -0.3141641
-0.11958806 0.07073203 0.20396574
-0.018717816 -0.31660277 -0.04886505
0.014942726 0.031543978 -0.2554521
0.045847796 -0.09748751 -0.10014634
0.021429552 0.311178 0.14838462
-4.0339528e-05 0.10563555 -0.088306166
0.1289325 -0.12770073 -0.21900362
0.13103479 0.17093599 0.1645763
0.13098714 -0.14769143 -0.21783812
0.018755317 0.0010820476 -0.23387165
-0.09355254 0.10589742 -0.18910114
-0.14445129 -0.23149548 -0.09671538
-0.028134437 0.2783533 0.15041266
-0.10291124 0.21687096 -0.07008278
0.100153446 0.15968266 -0.038146812
-0.018777305 0.22577895 0.16421904
-0.16946238 -0.06654864 0.02563309
0.120211266 -0.028454958 -0.0064070616
-0.1002042 0.22404249 -0.07702542
-0.01624702 -0.09734189 0.15067226
0.03760124 0.20435247 0.13820386
0.1485949 -0.16981518 -0.2102289
0.028038615 0.25593916 0.11178377
-0.13237377 -0.19064908 0.008870102
0.05742269 -0.010473595 0.2627834
0.0071015437 -0.28708315 -0.15544288
-0.08030997 0.138763 0.18814626
0.0064617577 0.11537331 -0.14370126
-0.004249992 -0.043241598 0.1897995
0.15937914 -0.07569323 -0.19054882
-0.20892787 0.15234673 0.1460011
0.06379467 0.25581342 0.11849532
0.06293823 -0.22521786 0.13094772
0.15840583 0.25611684 0.14447095
-0.08026157 -0.13216175 -0.15570094
0.022167316 0.15951703 -0.03399298
-0.083217695 -0.23089652 -0.05580107
-0.030407494 -0.3106091 -0.09023527
0.055658467 0.0013014281 -0.20551734
-0.07424674 -0.21324575 0.0026601495
0.13042389 0.05453338 0.010216779
-0.14869973 -0.254679 -0.19777267
-0.08212936 -0.050176535 -0.24221142
-0.12929599 -0.2079662 -0.013473297
-0.042101882 0.23513795 0.16269954
-0.06737763 0.1578024 -0.25818458
-0.17227913 -0.15463206 -0.02272553
-0.047911588 -0.11416069 -0.19906677
-0.15927456 -0.23419747 -0.11089083
0.06431843 -0.15918459 0.07135275
0.010235795 -0.19012225 0.1468913
0.122892804 0.17189148 0.02600699
0.06067767 -0.31875822 -0.008336067
-0.19158873 0.19945146 0.14112084
0.016782014 -0.18216237 -0.23587978
0.08652607 0.113638714 0.14463371
0.13215072 0.08329848 -0.066750646
0.15008447 -0.16151547 -0.20954022
-0.11842894 0.23085529 0.10871735
0.019408328 -0.12815171 0.15943763
0.11340154 -0.18869545 -0.11894759
-0.10941217 -0.12659717 -0.20846593
-0.029566456 -0.035569802 -0.052815706
-0.06683122 -0.19080427 0.10680948
0.12143223 0.10244277 0.18696849
0.02269236 -0.001846524 -0.23093541
0.111707784 0.16951892 -0.0068665203
-0.06879783 -0.08322672 0.024050947
-0.039043106 0.13390619 -0.33137497
0.09432665 0.24389513 0.12793063
0.14027764 0.19397317 0.20714377
0.08334335 -0.24795379 0.024871709
0.028946292 0.2662126 0.16437095
-0.0059149857 -0.044432588 0.18492942
0.13562582 0.12411758 0.03352606
-0.040863294 0.19982035 0.17373243
-0.1368322 0.13708802 0.13013346
-0.14446382 -0.27407214 -0.13854474
0.1350953 0.11799838 0.031587362
0.04363457 -0.070209734 0.14615099
0.13609885 0.057474773 -0.056646407
0.11469046 -0.02146125 0.044869997
0.15769362 -0.043075297 -0.18791632
-0.02623812 0.13577312 -0.09958051
-0.15308984 -0.010760931 -0.007668764
-0.072293706 -0.12846063 -0.19644263
-0.04408063 0.0337637 0.22951014
-0.11308713 -0.020590613 0.026618944
-0.18595712 -0.16923936 0.026650425
0.14683783 -0.1175823 -0.16444917
-0.03933857 0.108160906 0.20565438
-0.12344674 -0.20956603 -0.014018281
0.06697811 0.038388792 0.24776536
0.022361498 -0.29850432 -0.13813984
0.010326949 -0.08387706 0.15433696
0.1415263 0.22237796 0.19867887
0.004766328 0.033156417 -0.1564218
-0.048025433 -0.106779926 0.14395154
-0.092576884 0.023346841 -0.25118387
-0.009618561 0.14357974 0.0051402412
-0.24253708 0.12872852 0.15264006
-0.08277293 -0.20393163 0.014099927
0.023419006 0.09195644 -0.23913361
0.058742188 0.077222854 0.09177669
0.013288181 0.17167215 -0.2771197
0.09811829 0.2091989 0.046392344
-0.13488021 -0.23048279 -0.21680403
0.01634904 0.15971938 -0.027836654
0.07625374 -0.102091685 -0.09317211
-0.10759038 -0.21671349 -0.020924535
0.11620044 0.09454236 0.058757894
0.14548334 -0.1498547 -0.21461059
-0.10888738 0.08385962 -0.054281466
-0.06996763 0.11918501 0.1965347
0.069967315 0.31327394 0.15547667
-0.1585177 0.0710939 0.17386654
0.156854 0.23282647 0.14900194
0.12739556 0.10572837 0.05020411
-0.014148741 0.09332777 -0.1447521
0.1486204 -0.07382054 -0.20404463
-0.0032654898 0.19820398 -0.2570508
0.07005489 0.30216128 0.110989146
0.1168071 -0.19462426 -0.114536114
-0.15990135 0.115740225 0.18214293
0.0717456 -0.2348459 0.0852913
0.14715907 -0.16114861 -0.19635764
-0.056462456 0.22808759 -0.08098651
0.06891088 -0.28882077 0.060043152
0.08975986 -0.048281748 0.13625902
0.08895717 -0.0505263 0.13823587
-0.13750358 -0.18151703 -0.050995417
-0.20775436 0.14908883 0.13853556
-0.13400798 -0.12298537 0.0073703793
-0.019484937 0.042092223 -0.26647317
-0.02858499 -0.2238159 0.1190612
-0.010176776 -0.284439 0.06595197
0.16340718 -0.016243609 -0.16674064
-0.13849168 0.21042089 0.10561138
-0.09882733 -0.103082806 0.056695394
0.1578566 0.27554733 0.15078616
0.026307283 -0.14536782 0.15535548
0.10301565 0.13601765 0.16794623
0.05195968 0.0897858 0.22733107
0.08722568 -0.07094791 0.11112195
-0.02899299 0.16555187 0.18717144
0.019854499 0.117744304 0.21293724
0.12089715 0.012861826 0.04146469
0.08716361 -0.2527004 0.004669198
-0.12933156 0.23154052 0.12736738
0.010249142 0.023071041 -0.25329146
-0.027303997 -0.019778244 0.1729472
-0.17543818 0.16868211 0.16076863
0.08704312 -0.093038864 -0.090268776
0.04475315 0.0650301 0.14505798
-0.027465926 -0.26950637 0.07928896
0.14484257 -0.14380209 -0.17398207
0.13504642 0.07949656 -0.015863104
0.031229477 0.15265732 0.1547403
-0.085927844 0.07892311 0.20767611
0.11449576 0.21335232 0.13593847
0.03219074 0.047750812 0.18847373
0.027732695 -0.30234343 0.04104244
-0.05784855 -0.16825029 -0.020701652
-0.059979033 0.057221826 -0.3652654
0.13554291 -0.15762001 -0.1425595
0.09305041 -0.10343584 -0.11797691
0.11849503 -0.24556865 -0.12878144
-0.04971369 0.048494894 -0.36010656
-0.1486514 -0.07236893 0.05392824
-0.019106057 -0.0029206674 -0.076186
0.07027093 -0.12834632 -0.2409826
0.094936 -0.3021494 -0.06428072
-0.013577036 -0.13984597 -0.18001817
-0.18583085 -0.090625204 0.08110933
-0.030946892 0.0072636325 0.233171
-0.0868458 0.10525341 -0.21918665
0.15370715 0.21766473 0.16365121
-0.15315837 -0.2792893 -0.1952952
-0.10048327 -0.09654536 0.055432525
0.049021363 -0.31747487 -0.013343184
-0.18074891 -0.08543583 0.06228705
0.062233247 -0.2143742 0.14165127
0.100872315 0.10208243 0.23243938
0.14488482 0.17845567 0.19640957
0.13995034 -0.13051645 -0.14306584
-0.005493585 -0.079793796 0.1502989
0.031188058 -0.312332 0.015613997
-0.06332886 0.14364812 -0.19262487
0.07967888 -0.12778334 0.12516488
0.033981554 0.065102115 -0.2009943
0.12819065 0.270435 0.17985016
0.045756143 -0.3124209 0.011396333
-0.044554327 0.16867557 0.18412888
-0.07366945 0.15761682 -0.03355097
0.14328854 -0.013893686 -0.07619836
-0.19899137 -0.10933684 0.13221806
-0.077678226 0.07281748 -0.19509351
-0.16089465 -0.21598294 -0.11680625
-0.1305622 -0.2833992 -0.1994664
-0.11187903 -0.029118964 -0.005659615
-0.033492103 0.0415914 -0.27932444
-0.1802728 -0.22538345 -0.034620244
-0.0061589414 0.07104374 0.2239632
0.0007809979 -0.28063357 -0.16596799
-0.10448412 0.15322603 0.17863786
-0.09183069 0.2146569 0.16052717
-0.21785973 0.1769536 0.12696919
-0.072909415 0.021125194 -0.22865993
-0.047974627 0.11600511 -0.112070665
-0.22131011 0.17633428 0.1304902
0.0071571637 -0.05546036 -0.03315173
0.051978912 0.10062834 -0.10956198
0.14133464 -0.16107117 -0.21298718
0.05083919 -0.1650983 0.1542359
-0.124987096 0.099828266 -0.054449208
-0.009688156 0.111238174 0.04524907
0.03654951 -0.10856346 -0.24739693
0.027360661 -0.23486264 -0.21082072
-0.05230361 0.03293762 0.22815533
0.058574766 0.13087194 0.21469533
0.08150169 -0.18031694 -0.10769346
0.03452853 0.06330321 -0.2046703
0.087967515 2.894992e-05 -0.19462977
0.15085927 0.25984117 0.18642463
-0.11009047 0.11333537 0.1913815
-0.10487647 -0.094210126 0.054341763
0.057425052 -0.0102402605 0.119270876
0.1116012 0.13209178 -0.060537245
-0.13009442 -0.19583736 0.0033820788
-0.06266548 0.027509034 -0.3300929
0.13540818 0.1317505 0.036375083
0.15728596 0.28512028 0.13049969
0.013422138 0.17308366 -0.007455847
0.10544186 -0.16103071 -0.12961723
-0.16332202 -0.0918057 0.13204458
0.06665667 0.048345797 0.24422312
0.08786794 -0.31443405 -0.08635757
-0.05817043 0.18607172 -0.08212337
-0.09067485 0.12309404 0.1915554
-0.08136493 -0.049411066 -0.24210958
0.08270212 -0.2922911 -0.13346212
-0.027730213 -0.07143949 -0.21555337
0.13909273 0.14310953 0.1878632
-0.07872442 0.2592285 0.11748264
0.061476514 0.05911122 0.23945142
-0.10110561 0.19375111 -0.09424371
0.10503018 0.2894897 0.12038432
-0.09003516 0.12198621 -0.13101505
0.056073 0.22180021 0.13549602
-0.062182866 0.13989615 -0.3039201
-0.19031113 -0.14740834 0.06116812
0.14887315 0.28748834 0.12876214
0.08719446 -0.12867427 0.0913321
-0.05023795 0.14027672 -0.3216524
-0.0067095845 0.2428696 0.16180415
-0.08373453 -0.19294654 -0.15721087
0.04837928 -0.062356703 -0.02259914
0.028890967 0.13961531 -0.30130312
0.11382787 0.07490238 0.20908454
0.101918235 0.22581762 0.19075063
-0.016346335 -0.26741633 0.08632278
0.0111812195 0.03115299 -0.25688842
-0.12222488 0.21119373 0.15595336
-0.11421209 0.20021416 -0.03180567
0.1567662 0.29905787 0.15116559
-0.04422285 -0.16033329 -0.17722972
-0.010341198 0.106024384 0.008028886
-0.19017623 0.18254174 0.15375933
-0.070064634 0.16954644 -0.1447371
0.053978838 -0.29171038 -0.14989622
0.13673618 0.1060577 -0.02546192
0.03408673 0.20364313 0.015475777
0.111354515 0.31403202 0.16119432
0.14670263 0.20126681 0.1992122
-0.065827936 -0.26986396 0.04823586
0.07787047 0.19349241 -0.004595584
0.08749053 -0.19135651 -0.10732145
-0.006872104 0.2594287 0.16088665
-0.15149888 -0.25340772 -0.18451451
0.046300706 -0.1719168 -0.079756014
0.1208179 0.29559776 0.13044065
-0.08691873 0.06440736 -0.04220184
0.14713678 0.24974568 0.14159808
-0.0770091 -0.09148169 -0.21439503
0.032263447 -0.27518007 -0.17217347
-0.041197296 -0.045317266 0.13163385
0.018930998 -0.105045535 0.15859987
0.12108603 0.1497943 0.21949667
0.07838036 -0.31493142 -7.247866e-05
0.15300618 0.2327116 0.17005163
0.07815729 -0.24225397 0.05177639
-0.022205327 0.2573528 0.109777935
0.12831543 -0.19342044 -0.13567996
-0.17198333 0.12275478 0.12919216
0.05135205 -0.30823585 0.033577476
-0.17462654 0.20625855 0.148885
-0.15937473 -0.23839277 -0.12163524
-0.17578992 -0.14829056 -0.003614804
0.102439 -0.28930613 -0.08844606
0.07021782 -0.19655746 0.11883963
-0.04068637 -0.26840687 -0.06302696
0.021951906 0.1119151 -0.3070356
-0.07710789 0.08901828 0.20536944
-0.011431823 0.009393319 -0.25014704
0.14002742 0.25888008 0.13733645
-0.094865896 -0.03047038 -0.25380903
0.04759924 -0.17112309 -0.23874529
0.05533965 -0.26743576 -0.17909257
-0.044546124 -0.068059884 0.094242156
-0.15874124 -0.04924571 -0.004341457
0.0042975293 0.15836062 -0.008189086
-0.08882173 0.054286133 0.21464172
-0.06631682 -0.26359186 0.05359642
0.07121324 0.24818501 0.1614913
0.06893748 0.24888374 0.1593234
0.109721005 0.068526916 0.037219543
-0.16537832 -0.15613286 0.05169873
-0.05831365 -0.1721579 0.0553611
0.04027541 0.122712724 0.21470691
0.10942456 -0.1978011 -0.20872803
-0.03973384 -0.17270847 -0.06063807
-0.1809525 -0.16448198 0.007865045
-0.09600756 0.108274914 0.19557202
-0.010888081 0.11231196 0.04218051
-0.049836773 -0.12969314 0.1434518
0.05659057 0.08197227 0.23094873
-0.06796749 0.25953358 0.1014942
0.05805223 -0.022598315 0.2659818
0.11186302 0.13612925 0.12957248
-0.11657889 -0.25336075 -0.2145182
-0.108984776 0.17671862 -0.022809744
-0.106655575 0.06876822 -0.04720283
0.14075916 -0.0068166116 -0.16811267
-0.099898756 0.20192328 -0.0938558
0.028705178 0.1511643 -0.2464244
0.15154204 0.24314333 0.17984411
-0.10887724 -0.10816951 -0.1715791
-0.048740566 0.2353586 0.16139725
-0.06035316 -0.24339324 0.041381028
0.074373074 -0.19635881 0.10061661
0.05346746 -0.12477353 0.15725204
0.14980112 0.1937491 0.18096647
0.08965462 -0.18737537 -0.22596075
-0.034851186 0.15520848 -0.31024745
-0.1970081 0.19473703 0.13803825
-0.112277165 0.122953005 -0.094426654
-0.013381972 0.04598972 0.23110855
-0.048976604 0.014412641 0.21355812
-0.013472455 -0.10995135 0.01108041
-0.033106524 -0.2858735 0.05322456
-0.046528473 0.18437329 0.1787887
-0.17298123 0.2091375 0.13722268
0.063467234 -0.3095626 0.037964333
-0.023632014 0.13522008 0.1993784
-0.08001945 -0.13280189 0.05813732
0.012394764 0.09574961 -0.19151656
0.105451494 -0.29119945 -0.13428403
-0.026592428 -0.015710458 0.19983579
0.002440968 -0.2742361 -0.1741199
-0.1361506 -0.0055233818 0.0218534
-0.062064894 -0.16130808 0.106391415
-0.10559355 -0.27980033 -0.19861564
0.13146427 -0.021997768 -0.02962382
0.040865738 -0.11391567 0.15454006
0.021511255 -0.09225122 -0.21457367
-0.10146771 0.25109234 0.13265336
0.077800125 -0.32197875 -0.037024464
0.15454955 0.30383793 0.15884039
-0.05943218 -0.22821863 -0.016330289
-0.07256729 0.14275336 -0.2403962
0.08543809 -0.08081038 0.13259138
-0.1682883 0.10974511 0.18279694
-0.08078994 0.11551942 0.19584374
-0.082750544 0.17800742 -0.14155772
0.07863314 0.15137574 0.16279337
-0.13297032 -0.2637026 -0.1287306
-0.16417718 -0.03227382 0.026266739
0.12889326 0.13058278 0.2127646
-0.05534106 0.021387046 -0.28120038
-0.007432011 -0.12258019 0.012950718
0.110067904 -0.26819015 -0.16272333
0.1311168 0.15474387 0.05390859
-0.17368191 -0.11737066 0.008710813
-0.12240498 0.11723595 -0.05367625
0.10986415 0.06253628 -0.12330838
0.101421416 0.051234163 0.22998367
0.06564914 -0.25068355 -0.19394049
-0.24646918 0.14858203 0.15610352
0.0360189 -0.15024558 -0.24554168
0.01796987 0.09221076 -0.27690622
-0.009988621 0.19475286 -0.26361102
0.11114753 -0.15727776 -0.22101457
0.004809907 0.1404815 -0.031332698
-0.10718352 0.2441683 0.12432726
-0.032642033 0.08282266 -0.044287317
0.1539733 0.22653617 0.16370441
0.11774855 -0.06728811 -0.22051227
0.13837747 0.033540815 -0.11680042
-0.034565646 0.024303278 -0.016584586
-0.111588575 0.22192529 0.15424535
-0.10928136 -0.058662515 -0.19555874
-0.0799998 0.111310974 0.14963245
0.122245274 -0.005856358 -0.18664214
0.081838526 -0.11381023 0.12540093
-0.08396903 0.1408198 0.18680915
-0.053492926 -0.23130055 -0.010244172
0.07808427 0.19972686 0.005745642
-0.010772372 0.12365043 0.20553161
0.10673611 -0.29601145 -0.11212586
-0.09650653 -0.13806123 0.013188843
0.06619114 -0.032105412 0.22300209
0.019206628 0.11306332 -0.11876859
0.06880423 -0.27704617 0.06875467
0.13601644 -0.045560196 -0.08215834
0.12432312 0.17699212 0.12047185
-0.19648261 0.10277584 0.17992122
0.08210785 -0.11416262 -0.23778927
0.055795338 -0.097168855 0.1559507
0.051488217 -0.3130356 -0.10987706
0.11476036 0.24836327 0.18523456
0.021271136 -0.1313606 0.15985154
-0.16669063 -0.066902265 0.0131388055
-0.10066744 0.18038778 -0.10553001
-0.08247698 0.2258829 -0.013541509
-0.05522723 -0.23412788 0.10305224
0.09212121 0.29943785 0.16355845
-0.09024758 -0.20045632 -0.14984721
-0.18009491 -0.08166286 0.062036928
-0.022277903 0.032185674 0.06600202
0.08396257 0.035386678 0.25230685
0.060419746 0.081873156 0.23148169
-0.19077884 0.15232956 0.11713827
-0.10625487 0.24035868 0.11340471
-0.15787655 -0.020946736 0.0063535236
0.1352173 0.07494693 -0.061244193
0.084302135 -0.0066374065 -0.20005843
-0.18120874 -0.10056644 0.053728845
0.021255504 -0.14332679 0.15926744
0.010799379 0.044537272 -0.18938491
0.03703513 -0.05758484 -0.051483188
-0.036277518 -0.17373993 -0.05570941
0.11313936 0.32956788 0.15654093
-0.10400911 -0.043022837 -0.20232525
-0.06920064 0.15481214 -0.26247045
0.14230496 -0.04964959 -0.09687658
0.042485192 -0.07245272 -0.003090897
-0.13383424 -0.16814 0.028622502
-0.17440116 -0.18593487 0.022369448
-0.028043069 0.1319294 -0.07668684
-0.06905121 0.19570844 -0.027299948
0.074184164 0.29660317 0.16188547
0.09518752 -0.14520375 -0.12481863
-0.1112177 -0.09597206 -0.22351003
-0.21095917 0.18851626 0.14328125
-0.117656924 -0.08356261 -0.21518427
0.13306084 -0.14101365 -0.2176037
0.11261001 0.20693956 0.08856419
-0.23169467 0.10906599 0.12270575
-0.086804494 -0.061828334 0.052026935
0.12921987 0.047862872 0.029185971
-0.020425495 0.084545575 0.09446122
-0.033217505 0.16419174 0.13179237
0.017882507 -0.27985737 0.08458417
0.107678585 0.057948653 0.21391715
0.05315286 0.31700134 0.15179357
0.016855516 0.1341686 -0.056263357
0.1252355 0.076796606 -0.09320541
-0.078228965 -0.22294922 -0.016617654
-0.12089012 0.22106932 0.105026215
-0.17583442 -0.17442298 -0.02170716
-0.09409863 0.05502591 0.16601872
0.03282081 0.29948938 0.10558441
-0.07208657 -0.23068812 -0.044626612
-0.006416234 0.14721443 0.19824606
-0.06246117 0.23256178 0.15981975
-0.07638093 0.1124922 -0.14428294
0.11170012 -0.19338809 -0.115980744
-0.09485545 0.1630539 -0.14334345
-0.019415462 0.19846158 0.08683824
0.069472246 0.29369202 0.16206487
0.15892425 -0.0051745446 -0.13918616
0.03600643 0.016707484 0.20135279
0.021087205 -0.12717108 0.15977007
0.022505803 0.12235254 -0.22213058
0.121189326 0.16730282 0.16085035
0.05342526 -0.049151972 0.1412108
-0.11447216 0.18657063 -0.040204994
0.009089473 -0.06351627 -0.20059447
-0.051486608 0.04033272 -0.35406214
0.13361622 -0.19268155 -0.15858433
-0.15282418 -0.28948525 -0.16982265
0.09184052 -0.041745603 0.13164021
0.015132951 0.12831429 -0.0814169
0.12675747 0.06666788 -0.09181978
0.08818316 0.23720798 0.17535819
-0.09673049 -0.117610864 -0.2106789
-0.07666455 0.06633123 -0.29141337
0.12939647 0.28353557 0.175466
0.02741306 -0.16428906 0.14942601
0.08159727 -0.2811679 -0.14724009
-0.0001682848 -0.27064502 0.08930492
-0.14318985 -0.079587124 0.10762808
0.05597117 -0.11674071 0.030439636
-0.1751521 -0.21479116 -0.0529726
-0.057217974 0.2563081 0.10380511
0.13534291 -0.19556077 -0.16823012
0.029758716 0.1093889 -0.27967522
-0.021855982 -0.23122342 -0.124319665
0.043559648 0.04654013 0.1373912
-0.07313048 0.20414203 0.16723306
0.064012 -0.17861465 0.06395969
0.1309322 -0.012471633 -0.020606367
-0.07455076 0.008523229 -0.27189267
0.1267441 0.03851819 0.033585753
0.07374115 -0.15431088 -0.23726654
0.07836581 -0.3135758 0.0009405434
-0.12360314 -0.18869023 0.014793887
0.09079335 -0.036437217 0.014693467
-0.1434968 -0.24405107 -0.121570535
0.13659675 0.09167727 -0.03616407
0.07658621 0.099086314 0.22842039
-0.13701308 -0.17709601 0.019037
-0.035255924 -0.037982464 0.13213521
0.11115693 -0.00500786 -0.19065042
-0.13620508 -0.14646514 -0.1772492
-0.08858099 0.19860974 0.16619714
-0.06595491 0.1282013 -0.17111093
-0.03974804 0.0037121316 0.123270676
0.059219744 0.16756698 -0.043863215
-0.009421558 -0.07050879 -0.21205078
0.03519344 -0.18205348 0.14670742
0.06495135 -0.2452986 0.107997596
0.09346367 0.012849292 0.21883412
0.122353375 -0.236599 -0.13955367
-0.015702328 -0.032383334 -0.111845724
-0.06858705 0.19587158 -0.029236022
-0.10891468 -0.09534693 0.053532455
0.08348082 -0.26132697 0.014905521
0.110858425 -0.0035524655 0.074335776
0.14692481 0.16193557 0.17043412
-0.0063005146 -0.3101902 0.011030643
0.05189357 0.18246345 0.14816092
0.13290069 0.20998608 0.2004768
-0.033435084 0.123059556 -0.15362176
0.083582036 0.03297104 -0.16093011
-0.13630018 -0.0701887 0.044833235
0.12726948 0.13947494 -0.022554616
0.12257291 -0.12411256 -0.22022325
-0.14342357 0.059229612 0.16210225
0.01943697 -0.045710374 0.17942022
-0.01597253 0.024385493 0.23782757
-0.11423803 -0.2800925 -0.16062318
0.11991514 0.06782521 -0.10807807
-0.08903296 -0.14646448 0.052530702
-0.059419036 0.25710636 0.15188186
0.08116375 0.23471306 0.08104705
0.075970605 -0.10968686 0.15421534
-0.12705526 0.23919898 0.14606823
0.0722527 0.05954017 0.24139866
0.10496934 0.078409925 -0.1160372
-0.12180409 -0.29425004 -0.16478069
0.040013038 -0.1291403 0.15572827
-0.1683018 0.19175428 0.1542759
0.06234056 -0.29514027 0.06706269
-0.11176206 -0.09846628 -0.17669928
0.104678415 0.12513053 0.22525485
0.13655311 0.14573371 0.17416917
0.096797705 0.2378014 0.18477315
-0.066719025 -0.17469239 0.12148445
-0.026667513 0.15118256 0.10651618
-0.23207217 0.1573634 0.11309924
0.12121749 0.19701865 0.12494092
0.08050528 0.23805122 0.08981437
0.03869407 0.17336465 -0.031001255
0.08940385 -0.050225284 -0.222226
-0.06339315 -0.19011338 0.09210086
0.103728585 0.15684815 -0.038695857
0.12682165 0.10631894 0.1942093
0.007159151 0.013545407 -0.24935666
-0.027059717 0.10542812 -0.34012234
0.06271745 -0.24144675 0.12056451
0.11430666 0.2686988 0.1782994
-0.18522713 -0.12712663 0.05289729
-0.08526355 -0.020387532 -0.21045369
-0.03321861 -0.20004807 0.13057269
-0.03075272 -0.032315847 -0.04529627
0.007390271 -0.053278036 -0.04692591
-0.17062281 -0.0644285 0.05660294
-0.08657159 0.042691067 -0.23340018
-0.06317621 0.16438857 -0.28238893
0.14635465 -0.0059624277 -0.08419661
-0.11105899 -0.02388095 -0.00779719
0.056298885 0.1710985 0.15270682
0.065342315 -0.007478044 -0.20714499
-0.17404051 0.17158204 0.1132059
0.12607168 0.12678643 0.07760997
0.12535453 0.11723754 0.067433834
-0.056671962 -0.1538849 -0.18221162
0.03823985 -0.0204427 -0.21751596
0.082929246 -0.19382256 -0.10172621
-0.093181655 -0.07664537 0.055477973
-0.057048623 0.041827876 -0.22249143
0.084854186 -0.16046949 -0.1167748
-0.20074174 -0.12404444 0.12360774
-0.07956354 0.021904899 -0.28493404
-0.0507542 0.17921767 -0.25982314
0.040514883 0.038936518 -0.20673215
-0.1450062 0.16345926 0.119573556
-0.095446914 -0.048926134 0.005505691
-0.0027030716 -0.11232596 0.15400839
0.089746214 -0.18240812 -0.22792907
-0.051183764 -0.13461685 0.14276162
0.05800981 -0.22028527 -0.01364866
-0.14495727 -0.2485088 -0.20999096
0.029032208 0.022601428 -0.2406503
-0.014923015 0.19462903 0.07011701
0.074364714 -0.2480141 0.06450253
-0.032833233 0.11213107 0.15297817
0.050664313 -0.156301 0.050480273
-0.03607435 0.022807105 -0.31685552
0.04964409 -0.3182885 -0.097116046
0.084437266 -0.2368038 0.02784109
0.073999524 0.062021244 0.24087098
-0.11995625 -0.29499003 -0.17384501
0.13062033 0.08642284 -0.074886
0.011456711 -0.031259663 0.23945847
0.053060725 0.01316119 -0.19421148
-0.24220757 0.14089409 0.13534957
-0.068014994 0.24515994 -0.048623767
0.08439206 0.093216926 0.101142205
0.049067087 0.202952 0.1407017
0.067203626 0.03640442 -0.16339949
0.042794127 0.031693816 0.24538316
-0.035475478 -0.21139878 -0.135115
-0.045634996 -0.071541 -0.0069884597
-0.040164698 0.20726418 0.122519016
-0.041307792 0.15161441 -0.20913263
0.019143006 0.29265484 0.1053228
-0.15609594 -0.24057417 -0.15522009
-0.20002593 0.092772454 0.16064183
-0.02465153 -0.024028618 0.16377512
0.072809055 -0.17670156 -0.08592474
-0.036801208 -0.30523163 0.0062923124
0.026882222 0.0937628 0.22221261
-0.0028692575 -0.04620259 -0.221826
0.098622456 -0.30862248 -0.085100405
-0.0093578175 -0.31535012 -0.008126563
-0.08090328 0.044697408 -0.28782445
-0.117052965 -0.22414137 -0.056802545
0.16033874 0.28397855 0.13145304
0.09240028 0.117902406 0.2257736
0.13336362 0.10354666 0.016343825
0.086217485 -0.11037562 0.10845612
-0.083119616 0.09960314 -0.23960508
0.08473819 -0.015490928 0.22283906
0.07732296 0.015111373 0.2579111
0.057198856 -0.11858372 0.15906511
-0.083262496 -0.057871543 0.051024396
0.037396632 0.13422816 -0.2571727
0.09858778 0.23601003 0.12465591
-0.049706697 -0.05719251 0.05622518
0.0036326714 0.1979127 0.037757963
0.05562713 -0.09591489 -0.09655601
0.0011228214 -0.24886353 -0.20056218
0.118520714 -0.19653419 -0.113041766
0.00014042042 0.047912378 -0.12565462
0.09202705 0.065692544 0.24333893
0.12725772 0.036747392 0.03007719
-0.10773278 -0.025366837 -0.21141365
-0.07007886 0.05182188 -0.33066827
0.116888136 0.20549533 0.12046819
-0.05261108 0.12019377 -0.17421722
-0.061312627 0.20730084 0.16850191
0.13258299 0.26793998 0.18139999
-0.15900497 -0.1444277 0.13124008
-0.15461852 -0.18320812 -0.07885786
0.052197732 0.07967002 0.23066889
0.11104875 0.01800692 -0.1672903
0.022428824 0.23499128 0.12552184
-0.10988213 0.17144285 0.17168716
0.091777235 -0.16578 -0.23126473
-0.05519817 -0.29190707 0.028466938
-0.1877455 -0.09619626 0.085672505
0.061693847 0.05926775 -0.14266977
-0.13217515 0.052677624 0.16001178
-0.050076928 -0.097517535 0.09806517
0.12443931 0.16183975 0.21595564
-0.07737085 0.090326026 -0.028447848
0.08807682 -0.1135391 -0.10918355
0.12601423 0.10060301 0.19115043
-0.09070434 0.12147608 -0.105401166
0.061627198 -0.31384796 0.021268208
-0.027952889 0.073938295 -0.19051583
-0.054460436 0.024608994 -0.30124798
-0.106626324 0.12527247 0.14013419
0.025402907 0.14809747 -0.294571
0.104722925 0.09320448 -0.10453476
-0.047100876 0.010263848 0.160345
-0.06161896 0.060154177 -0.3622175
0.10962685 0.21151122 0.0874027
0.12207995 0.25949153 0.1826151
-0.083679065 0.123612 -0.22033074
-0.038726516 -0.1733164 -0.10874211
-0.080328465 0.031201754 -0.23463972
-0.11337787 0.14122194 -0.076777674
0.11707808 0.1204139 0.09474162
-0.038745638 -0.039512187 0.12971558
-0.104287095 -0.1882014 -0.05133374
0.055232108 -0.22567621 0.13393319
0.022312053 0.27691948 0.15989715
0.070937105 0.28867868 0.1639394
-0.043326452 0.23583168 0.1622355
-0.025216423 -0.17983809 0.14013374
0.03790443 0.19377363 0.14189348
0.09785031 -0.075492755 0.081465945
0.12733003 -0.020691773 -0.0104422625
-0.0891188 0.24658911 -0.07162939
-0.09038038 0.1780663 0.17283817
-0.074405394 0.10661359 -0.2732052
-0.06640382 -0.23365267 -0.07098335
-0.012626305 0.12702127 -0.32875916
0.08269834 -0.09711252 0.13328722
0.047628555 0.1320198 0.21274716
-0.020537863 -0.027739951 0.20286387
-0.02383342 -0.11826067 -0.19281241
0.05977529 -0.23026897 -0.20988388
-0.017851125 -0.10717871 0.15057798
0.0134778125 -0.29486513 0.06222149
0.061568104 -0.07672878 0.038359508
-0.027295088 -0.008449625 -0.24413171
-0.24169609 0.14136177 0.12239467
-0.23592296 0.11442122 0.13052215
-0.01988687 -0.2896681 0.053730853
0.05728836 -0.18998675 -0.02664027
0.11997476 -0.13692436 -0.2209559
-0.074329145 0.08484153 -0.17878783
-0.19459462 0.18921328 0.12242695
0.06436936 -0.18881863 0.15009712
-0.053659845 -0.18904935 0.12935226
0.108208396 -0.14610107 -0.23061283
-0.022333756 -0.31379935 -0.016343495
0.1446815 0.033857416 -0.04893589
-0.028625142 0.23220041 0.116393745
-0.037476268 0.27202177 0.15084702
-0.119582914 -0.009382488 0.019990262
0.05336613 0.26106626 0.11815102
-0.01375991 -0.035072636 0.16022581
-0.017446047 -0.04933738 -0.0527472
-0.0075205406 -0.031384327 -0.2308139
0.07734918 0.015864834 0.09309775
-0.0002708974 -0.14682499 0.15335424
0.0825672 -0.02422616 0.2263192
0.018233212 -0.30100664 0.05209983
0.0476386 0.07783148 0.1412667
0.020248242 0.24157172 0.12302134
-0.014236348 0.19434696 0.068465516
-0.019275807 -0.23017398 0.1171712
0.13061106 0.15478915 0.21930142
0.001948761 -0.037171822 0.21298154
0.11179651 -0.04321942 -0.08225192
-0.08264493 -0.19091214 -0.041162156
-0.18374582 -0.18685877 0.018019082
0.14630473 -0.10338517 -0.15215664
0.1549317 0.25893638 0.163973
-0.04695399 0.022456763 -0.2912957
-0.0812031 0.00882055 -0.017241023
-0.18549748 -0.07985 0.08717723
-0.14204031 0.09147842 0.19332936
-0.060530208 0.10663155 -0.33450156
-0.054609414 -0.053706966 0.052438315
-0.10316832 -0.05939278 -0.24052987
0.005335457 -0.31752405 -0.002396486
0.09403928 -0.2996739 -0.058586054
-0.07039598 -0.023204593 0.034086354
0.08163502 0.051375974 0.24607551
0.02311518 -0.27128837 0.08692897
0.068112224 -0.06080072 0.14825751
-0.035529133 -0.2300704 -0.106726065
0.016797023 0.17937389 -0.268147
0.09386772 0.074179836 -0.12683876
-0.0016136923 0.106738135 -0.18034017
-0.022760743 -0.014832159 0.20952299
-0.13904054 -0.095285214 0.07830745
0.13429637 0.05853532 -0.042269755
0.109578684 -0.27894658 -0.112743564
-0.05857609 -0.22565949 -0.00492865
0.07703769 -0.14447966 0.1251506
0.1397035 -0.1394667 -0.14824004
-0.16295107 -0.09868758 0.13555416
-0.013047633 -0.27258304 0.08171632
-0.0821121 0.076835126 -0.2599912
0.015861774 0.17414103 -0.00865382
-0.02873678 -0.033333402 -0.054916468
-0.089650996 0.06783806 -0.23297592
0.1400985 -0.1773774 -0.20971055
0.13707943 0.32365707 0.16304547
0.059337918 -0.20344485 0.03956624
-0.055608615 -0.16189559 0.06608996
0.028115233 -0.24318917 -0.20321648
-0.10041936 0.22010405 -0.07883176
0.15952721 -0.087454185 -0.20441808
-0.084094696 -0.22700442 -0.03688921
0.11526054 0.08677549 0.21641359
0.13042673 0.3265739 0.1279299
0.05208445 -0.11572358 -0.24426498
0.1201926 0.1952813 0.09484273
-0.036200594 -0.30527043 0.006645485
0.13981597 -0.060435735 -0.20122436
0.12709126 0.15150245 0.21985991
0.13790683 0.0031581162 -0.040485743
0.15740539 -0.035225388 -0.18280946
0.045888297 -0.28389657 0.0776853
-0.045202002 -0.26868126 -0.04326586
-0.008336145 -0.0107096145 -0.12922652
0.076933324 0.1967813 0.0003488029
0.13694969 -0.023625286 -0.05500141
-0.019921917 0.13879354 0.09898539
0.08160335 0.15782522 0.20984685
0.09598833 0.0994829 -0.1064872
0.12380176 -0.24363703 -0.15087816
-0.05150278 -0.111088246 -0.20109189
0.12388928 0.089051664 -0.08572274
-0.19629209 -0.105537765 0.13253692
-0.03009062 0.16652746 0.120312035
0.09129653 -0.29677713 -0.044439305
-0.11730517 -0.21246727 -0.017982747
-0.036097523 -0.05613572 0.13747156
-0.012484665 0.13309515 -0.09409398
-0.1266131 0.0955758 -0.050240614
0.09546696 0.19284707 0.15101673
0.026280262 0.06414437 0.23202299
0.04190593 -0.31647632 -0.020321136
-0.05658088 -0.22523096 0.10854334
-0.040826533 -0.05077764 -0.013704181
0.08614674 -0.03438837 0.13717508
-0.099199444 0.19695489 -0.10042288
0.072203584 -0.06640368 -0.23287445
-0.11435758 -0.10890842 0.052782454
-0.0051772906 0.014689399 -0.25172812
0.030353133 0.07657284 0.22858328
-0.12178459 -0.097087644 0.053032886
0.12707412 -0.02715611 -0.027856175
-0.029270593 0.288566 0.12644191
-0.034187946 0.16302082 -0.3033359
-0.12054265 -0.22452559 -0.070710614
0.09911275 0.20704451 0.19259353
0.15228917 0.027808513 -0.08678516
0.027379401 0.045412336 -0.25075233
-0.03346098 0.04193166 0.12223725
0.021256717 0.03660001 0.24035504
0.15685348 -0.047728453 -0.19132663
0.113108546 0.07028005 0.031678922
-0.1431933 0.21724617 0.15031439
-0.06598819 0.061860383 -0.2026974
0.06633755 0.17562841 -0.034201756
-0.12552053 0.18398559 0.16433655
-0.055631567 -0.15968531 0.07910073
-0.11458452 0.118043944 -0.08766606
0.005233953 -0.2125963 -0.21898836
-0.0023870391 0.2952769 0.11364967
-0.052943327 0.16142951 -0.3118228
0.13724276 -0.11740562 -0.21644796
-0.017700877 0.00052872824 -0.07998233
0.113824785 0.12677416 -0.063915476
0.07480522 0.1407248 0.2142983
0.09972335 0.06274183 0.19675888
0.015759269 0.23579587 0.08383175
-0.13725407 -0.07935841 0.08155969
0.090840295 0.14766203 0.21421485
0.0021491712 0.30085102 0.12242885
-0.008468714 -0.045182824 0.1807849
0.1158876 -0.25169882 -0.12155113
0.1480173 0.2085712 0.19325572
0.06181506 0.28370297 0.1640709
0.13117066 -0.1997129 -0.2044185
-0.04795159 0.12908007 0.1971238
0.10372597 0.32416698 0.15685703
-0.15910563 -0.18203376 0.021898817
-0.039904885 0.22883686 0.115587085
-0.15383066 -0.1491723 0.10594734
-0.086637184 0.2624191 0.13770321
0.002955816 -0.16486438 -0.18340139
0.091830246 0.08586898 0.23649748
0.10051925 -0.15178503 -0.12747054
-0.1517743 0.015459266 0.0048681474
-0.008626433 0.072440155 0.2230582
-0.020949226 0.08364856 -0.3182713
0.031143667 -0.32423925 -0.023260163
0.030545278 0.27502164 0.16176179
0.045582723 0.15565036 -0.27896997
0.011517759 -0.32097474 -0.029022763
-0.027872998 -0.03445 -0.2323879
0.11881609 0.2523016 0.18448421
-0.12978029 0.13766843 0.1797445
-0.09712312 -0.23353288 -0.2036628
-0.008109273 0.035450645 0.23596382
0.007984836 0.16555597 -0.23097639
-0.0022775442 -0.17905422 -0.037038263
-0.014455215 -0.02236988 -0.1103474
-0.050945543 0.18294682 -0.29106587
0.14592093 0.24064001 0.14458816
0.07162041 -0.23834148 0.08339923
-0.1565032 -0.022057593 -0.0004924493
-0.06181562 0.11055526 -0.32607597
-0.11166511 -0.0969725 -0.22306564
0.055070944 -0.06642755 0.14751138
-0.017518431 0.13921814 0.036994755
0.109493814 -0.28082585 -0.14739946
0.15256585 0.020727964 -0.09296271
-0.12305001 0.17603587 0.16743547
0.0705037 -0.29440996 0.049093973
0.01325242 -0.029039603 0.24810098
0.11990381 0.008349009 0.042696804
-0.028596612 -0.22507346 0.11801548
-0.014645743 0.12404967 0.055127148
0.15206495 -0.11570251 -0.2132366
-0.009865651 -0.31117627 -0.10176142
-0.08709594 -0.087315954 -0.2203879
0.0027532727 0.21422607 0.06042122
0.006494172 0.0089357495 0.24737857
0.15605594 -0.0026652794 -0.12475574
0.08566448 -0.04900027 0.14605132
0.060105383 -0.09068062 0.049240027
-0.05502649 -0.11650227 0.10664878
0.08125149 -0.23071614 0.046178702
0.07270674 -0.2328763 -0.20631817
0.10890629 -0.052732408 -0.0920477
-0.052543495 0.18157369 -0.27291542
0.10665059 0.33418941 0.14309284
0.14428107 0.16397646 0.18894397
-0.1410141 0.17307517 0.1656813
-0.0805054 0.18943952 -0.11414273
-0.18396902 -0.19117858 0.0025112738
-0.11722306 0.1926104 -0.023822663
0.0134857 -0.112448685 0.15756172
-0.08971549 0.13074802 0.18916275
0.112609856 -0.03279431 0.014000882
-0.1861319 -0.06957701 0.097169876
0.067904286 0.16009006 -0.05299342
0.07449798 -0.26908246 -0.17595114
0.080265194 -0.2782536 -0.15097623
0.097691715 0.18027015 -0.012004473
-0.063425265 0.051678367 -0.36016816
-0.07000382 0.23711655 -0.024510935
0.06941167 -0.16730049 -0.23535386
