# .PCD v0.7 - Point Cloud Data file format
VERSION 0.7
FIELDS x y z
SIZE 4 4 4
TYPE F F F
COUNT 1 1 1
WIDTH 1000
HEIGHT 1
VIEWPOINT 0 0 0 1 0 0 0
POINTS 1000
DATA ascii
-0.23632874 -0.18230404 0.07535158
0.11192963 0.32268077 -0.09520601
0.08428114 -0.2879257 -0.09201873
0.06056692 -0.097286046 -0.06659302
0.109597206 0.28571603 -0.10464337
0.043275695 0.13532588 -0.065345354
0.023348967 0.121184066 -0.055569377
-0.1630929 -0.11667419 0.12652431
0.16062911 0.20664498 0.0052289176
0.114193656 0.0076623834 -0.09487906
0.2042624 0.34252492 -0.09880372
-0.11693883 0.2297553 0.002241779
0.10513122 0.24093036 -0.108197324
0.19134982 -0.1793751 -0.115193844
0.20487012 0.2083852 -0.015484025
-0.30139956 -0.052664492 0.06388067
-0.12360988 0.033309642 0.016043924
0.07562265 0.1210978 -0.010183641
-0.27741262 0.013922989 0.12287551
0.01801102 0.21974379 -0.07128531
0.19526091 -0.16265191 -0.12637846
-0.18916333 -0.08643858 0.13308959
-0.055183865 0.2645666 -0.01910626
0.07475044 -0.28001952 -0.10605522
-0.101441294 -0.004804296 0.030696716
0.13548064 0.17456044 -0.029373044
-0.19111909 0.07709966 0.046454906
0.21930076 0.24815488 -0.014354777
-0.18887502 0.18593717 0.06315262
0.12898012 -0.2617263 -0.055978835
-0.057334512 -0.06306225 0.13471778
-0.11936758 -0.10069052 0.018011153
-0.051463965 -0.34733227 0.010203032
0.012953601 0.23628865 -0.016904626
0.18476038 0.17420828 -0.045212734
0.20953663 0.048602894 -0.06975967
0.14584656 0.19662218 0.0038178046
0.13269082 0.23989734 0.011496531
0.10500224 0.020675527 0.10383378
0.15600467 0.27764478 -0.12840822
0.0200964 0.050321005 -0.051948186
0.21174407 0.35484183 -0.060929865
0.10947188 0.24316898 -0.0027796298
-0.20898825 0.16908044 0.06956416
-0.10089426 0.1895694 0.038959596
-0.019241497 0.069726884 -0.03404687
-0.14704666 -0.033298124 0.029018933
0.23380485 -0.066072 -0.11067393
-0.1283091 0.040709373 0.018032346
0.14450869 0.11738943 -0.01454597
0.09405651 0.22214086 -0.09184887
-0.1952521 -0.12375519 0.054330826
0.1270405 0.28431815 0.0025068256
0.20913407 0.08110402 -0.06943484
-0.022371028 0.22975692 -0.07550619
-0.20231062 0.19163619 0.012235025
-0.038561095 0.038394205 0.06375358
0.15072335 0.19497995 -0.12673393
-0.18814746 0.14301303 0.08131226
-0.010894479 0.20101562 -0.0036459735
0.1932048 0.06329438 -0.032503393
0.15431292 0.04471192 -0.11481521
0.101238936 0.31511107 -0.07114616
0.088124186 -0.24760632 -0.00079293596
0.19539058 0.13804756 -0.1164945
0.0016661435 -0.11938724 0.12429386
0.105299145 0.0351167 -0.09151279
-0.08808353 0.05714536 -0.001344692
-0.22892326 -0.017044172 0.11423474
-0.08336904 -0.31424347 -0.030785605
0.10590044 0.36248285 -0.08631403
-0.19715494 -0.010222038 0.12938713
-0.12117714 -0.21942212 0.102126166
0.06615568 -0.11944879 0.08325489
-0.1582233 -0.030939639 0.10682447
-0.08752646 -0.2222203 0.09633012
-0.01191578 0.23123083 -0.0804594
0.21763924 0.33697942 -0.050511476
-0.21199957 -0.11739548 0.062007997
-0.18399431 -0.28087 0.0154856555
-0.21291532 0.18318982 0.016057873
0.11588882 -0.025541224 0.10722177
0.046866085 0.19140688 -0.06868876
-0.07255565 -0.19566682 0.088094
0.013607366 0.021111697 -0.048037544
0.10626241 -0.22006477 0.008053835
-0.08116215 -0.15697013 0.0017313721
0.17595486 0.17409816 -0.064580314
-0.12993829 -0.24385059 0.07404945
-0.08596807 -0.29412383 0.008040789
0.14760402 0.17570737 0.0049102115
0.10167403 -0.18148327 0.015668755
0.17915396 0.35255444 -0.005385654
-0.19850363 -0.26235878 0.058574352
0.2264395 0.28336146 -0.072279036
0.008589088 0.10654845 -0.010004669
0.1878106 -0.13996014 -0.058163438
-0.2350839 -0.19711183 0.11038477
-0.0029392296 0.08025104 -0.0038139084
-0.31245336 -0.024913222 0.068251856
0.13145404 -0.25921258 -0.08470634
0.055864513 0.20179744 -0.10198576
-0.19651812 0.17767 0.018386167
0.1562533 -0.03749061 -0.010064446
0.11784555 -0.08481801 -0.09386184
0.028550508 -0.30818734 -0.0071251853
-0.10104789 -0.12440076 0.010108156
-0.20450561 -0.16720842 0.09816052
-0.07885776 -0.15746085 0.03886418
0.050151117 0.14462963 -0.068849504
0.10293317 -0.2631057 -0.119790636
-0.18133761 -0.23210666 0.050997593
-0.27573338 -0.10088324 0.124603696
-0.16500936 -0.18316674 0.04188338
0.11843499 0.18404073 -0.022523027
-0.07140001 0.12299917 0.0611281
-0.21143606 -0.07546881 0.12869829
0.023220828 -0.3032189 -0.0047689653
0.21463904 0.28535014 -0.018812787
-0.034898497 -0.12473095 0.026450524
-0.28601956 0.03841598 0.06382059
0.12383596 -0.2548441 -0.05345092
0.051075354 -0.26379907 0.015532891
0.09038132 0.13401754 -0.029209992
-0.17470631 -0.058721177 0.12787952
-0.09474136 0.08201867 0.039247602
0.1161512 0.1506065 -0.13776033
0.083220094 -0.28752175 -0.096022084
0.19733267 -0.15856493 -0.12662923
0.1961511 -0.1700074 -0.11574899
0.12457029 -0.2706168 -0.058146816
0.213657 0.0065672803 -0.14121096
-0.072551735 -0.20608072 0.091368385
-0.27484822 0.094713666 0.061550364
0.093628734 0.10709123 -0.08815901
-0.22099493 -0.20644559 0.10706374
0.23223221 0.2398258 -0.06850217
-0.160325 0.20969453 0.0323202
-0.06322911 -0.08412886 0.12747668
0.20480861 0.048541825 -0.050509296
0.11980127 -0.21607251 -0.090902075
0.08468404 0.08670193 -0.024439855
0.18487367 -0.13553256 -0.084777765
0.010739959 -0.11962281 0.010923335
-0.032941412 -0.28292137 -0.017193113
0.2007025 -0.10095993 -0.06481086
0.016698264 -0.22202937 0.053554982
-0.17117885 0.17982611 0.072255485
0.10736378 -0.040031616 -0.024162583
-0.08345527 0.076613046 0.034106866
-0.16796613 -0.14183958 0.042050526
-0.12158927 -0.19411983 0.02181507
-0.02077912 0.115083195 -0.03466487
0.080537744 -0.08611564 -0.07630221
-0.100981206 -0.054581985 0.046724845
0.20140328 0.2681498 -0.11821693
-0.07831034 0.22967216 -0.049232345
0.08583585 0.26501706 -0.052055657
-0.022415824 -0.237575 0.07005343
0.18041655 0.27862448 0.009145995
0.08156509 0.20556496 -0.092305325
-0.019139428 0.04157053 0.15105762
-0.08557069 -0.007572621 0.07035925
-0.18850443 0.038480796 0.122044735
-0.28038484 -0.13271657 0.09673621
-0.29249892 -0.027956298 0.07587885
0.10948624 -0.070274256 0.085460156
0.15703848 -0.16253965 -0.013240486
-0.30142948 0.0138101615 0.07722738
-0.14439358 -0.0005856723 0.02680667
-0.0019403055 -0.177007 0.012525585
0.23045027 -0.06613422 -0.16555414
-0.1816367 0.13438204 0.07850943
-0.010315712 0.077290095 -0.00026199283
-0.08126842 -0.31323096 -0.031802315
-0.16278824 -0.20117383 0.104498975
-0.11660064 -0.22464965 0.020374494
0.11563865 0.35754287 -0.021284105
0.063571855 0.04685193 0.09061428
0.010637229 0.21917237 -0.014294531
0.05710785 0.22369757 -0.039670233
-0.110800356 0.09777188 0.008123577
0.090647586 -0.1808928 0.019098084
0.1027218 -0.07011172 0.09388728
0.14007077 0.11631478 -0.014793393
-0.15812954 -0.28220966 0.0202541
0.028188208 -0.18471774 0.030122455
0.15025754 0.22631732 -0.13055074
0.081794135 -0.20852673 0.025577055
0.13539855 0.17295216 -0.092768915
-0.32503283 -0.036631014 0.07450587
-0.062934004 0.1341809 0.059674118
-0.088083155 0.23853223 -0.01680713
-0.08492322 -0.18687646 0.0043813377
-0.19526352 -0.007133986 0.12902328
0.06814317 -0.048537806 -0.032629196
-0.016112456 0.15494938 -0.03803481
-0.051140547 -0.04346739 0.15520507
-0.19961447 0.05664185 0.11115922
-0.12517664 -0.035430767 0.01881096
-0.12663709 -0.049237683 0.05810541
0.20970257 -0.007847291 -0.1640582
-0.20230806 0.006121525 0.05380695
0.18984942 0.022049101 -0.1532186
0.081862114 0.0870469 -0.082040474
-0.15120386 -0.28464165 0.07215041
-0.27007428 -0.10165202 0.1259362
0.034675945 -0.09499367 -0.054501627
0.018027255 -0.12917656 0.011064764
-0.094687894 0.12610428 -0.00028051948
0.15246244 0.19251184 0.0051135016
-0.09884672 -0.07067517 0.042997573
0.026378857 -0.31690967 -0.03304542
-0.13309458 -0.22968222 0.09232382
0.08875246 -0.01652444 0.031462606
0.10316099 -0.22425891 -0.082845144
0.112495475 0.11734908 -0.09732258
-0.27412993 -0.12312912 0.11736539
0.08242109 -0.116814405 0.11254692
-0.24742612 -0.22207932 0.051304188
-0.2892332 -0.056003496 0.13466603
0.20167083 0.2180785 0.0038499252
-0.3023412 0.014719405 0.07449479
-0.0675283 -0.2653469 -0.0014693667
0.09696924 0.17431897 -0.11555631
-0.079195224 -0.2951855 0.043091707
-0.2619224 -0.07090366 0.12228033
0.2184243 0.35714 -0.056486618
-0.13916953 -0.20868516 0.10696834
0.1933288 -0.09224698 -0.15349263
0.19694643 0.3010776 -0.10902123
-0.06720384 0.2364468 0.019727053
0.07250423 -0.21394278 -0.06875244
0.1648339 0.10778061 -0.15187103
0.038254622 -0.084885344 -0.03190813
-0.25803462 0.00937652 0.07988197
-0.12246719 0.08822721 0.013885128
0.10010314 0.07820489 -0.027545352
-0.21311335 -0.17832506 0.064331256
0.14236917 -0.17155963 -0.0041537387
-0.1565696 -0.22404768 0.08161115
-0.27123109 0.06891199 0.0980427
0.11092049 0.27732405 -0.006252437
-0.030618582 -0.2243987 0.074174695
0.038841337 -0.30417717 -0.012076487
0.23068595 -0.08472326 -0.115844265
0.22902559 0.23372509 -0.08128665
-0.010523367 -0.34406123 -0.0011976241
-0.17152087 0.033698406 0.1197091
0.045687955 -0.030865574 -0.06156799
0.24920446 -0.03883973 -0.14179035
-0.22943625 0.047374878 0.065328375
-0.08832938 0.24050719 -0.033592023
-0.07040889 0.011718602 0.10451553
0.04330766 -0.027592776 -0.046023782
-0.10156792 -0.01881267 0.042855226
0.12863146 -0.21811756 -0.016494336
-0.00077315496 0.07153193 -0.042773686
-0.11936742 0.18688282 0.047714565
0.07753132 -0.29159367 -0.030618511
0.13242674 0.0068773855 -0.10341881
0.030674562 -0.09386419 -0.030364018
-0.07074119 0.088384345 0.027787937
0.04139532 -0.17792638 -0.05520663
-0.20183489 -0.24786156 0.08875127
-0.084261954 0.1958337 0.0309632
0.09841805 0.16446514 -0.038457975
0.08427404 -0.22774515 0.02022438
0.20184924 0.12057818 -0.046326604
-0.05053338 0.15950443 -0.02200391
0.1654046 0.1744961 -0.054017726
-0.2009005 -0.2656997 0.02297712
-0.23257543 -0.22380501 0.07833385
-0.13214141 -0.16532043 0.11583079
0.17322095 0.06991408 -0.14911404
0.21287984 0.16564555 -0.08238924
0.14778861 0.03415541 -0.111439236
-0.2431182 -0.06723234 0.11334079
0.16699563 0.3022464 0.0033624992
-0.02479784 0.25174224 -0.019895382
0.1574131 -0.18893047 -0.067024216
-0.27960843 0.07510147 0.073012434
0.21468864 0.16034977 -0.06316527
0.1320803 0.06331205 -0.014645124
0.10714868 -0.11147275 -0.08805025
0.24884614 -0.033816103 -0.1381214
0.027199196 -0.22884183 -0.047035385
0.17267686 0.21560015 0.0064864494
-0.06682802 0.24604297 -0.005545189
-0.06194491 -0.22222668 -0.005365586
0.12900373 0.0037450846 -0.10171871
0.115324706 0.3372099 -0.021054348
-0.019257866 -0.31074718 -0.04899134
-0.16684869 0.19921608 0.057819247
0.02024801 0.16698307 0.007859883
-0.26757503 -0.005036546 0.12298856
-0.049449768 -0.049209982 0.1800551
-0.037158944 -0.08067692 0.1807277
-0.103875436 -0.2791245 0.016007686
0.19961375 -0.0817514 -0.042506512
0.20277148 0.32155362 -0.10000324
0.0802315 0.18769489 -0.04604831
0.077366285 0.06944977 -0.0794092
0.2186978 0.23421685 -0.013240274
0.12223208 -0.21814394 -0.006702662
-0.23206587 -0.17322111 0.11128174
-0.0052454444 0.0625967 -0.0404093
0.1517933 0.12571728 -0.116025455
0.084863104 -0.27460456 -0.0910145
-0.31550682 -0.008918885 0.08305532
-0.021045996 -0.12341046 0.059584647
-0.16553764 -0.18983196 0.042328365
0.22691594 0.27959254 -0.039853442
0.1289059 -0.19480018 -0.09580627
-0.12048829 0.22881696 0.0015923528
0.21530057 -0.12211522 -0.12116189
-0.1849371 0.14598814 0.041516326
0.2311306 0.25733355 -0.07614193
0.16964608 -0.048906602 -0.013516526
0.016310029 -0.15662177 -0.044055182
-0.20167455 0.017418044 0.053175803
-0.018059356 0.15995187 -0.037267905
-0.16325499 -0.07660434 0.12193955
-0.2915445 0.04678378 0.074987784
-0.13410039 0.21734236 0.046152137
0.2059501 -0.0543163 -0.054349046
0.042178933 -0.077015415 -0.058556497
-0.043757755 -0.015186088 0.18189178
-0.16337234 -0.22704959 0.04241085
-0.25450596 -0.20034844 0.07446206
0.039330814 0.17274207 -0.06459819
0.010048349 -0.13534549 0.061729524
-0.098778866 0.09670729 0.06988875
-0.25056714 0.09647761 0.10726031
0.204739 0.098520294 -0.097119346
-0.14069048 -0.078657866 0.065574296
-0.123816244 0.0015416208 0.05528008
-0.1185514 -0.14427495 0.09663651
0.14820032 0.27483797 0.013137632
-0.081725694 -0.12407558 0.0010241441
0.10436278 -0.08949736 0.114524566
-0.031901762 -0.20729506 -0.01991604
0.12503351 0.047200643 -0.101137966
-0.2854889 -0.08871014 0.08256947
0.12137565 0.2266009 0.006814533
-0.12310062 0.05524857 0.053357106
-0.28554505 -0.072870426 0.12787896
0.20995761 0.1532312 -0.04091633
0.082120456 -0.27464378 -0.1096752
0.21837747 0.33509442 -0.06232128
-0.16163534 0.21179324 0.021849882
0.1467565 0.12526484 -0.014889237
0.16536644 0.28852996 0.008808757
-0.045836765 -0.07226539 0.1743899
0.06585177 -0.071400195 -0.03151385
0.062637664 0.0938741 -0.024252318
-0.24482751 -0.2229634 0.055029053
-0.08693938 0.23513335 0.024269287
0.17539982 -0.15831159 -0.036429457
0.05153059 0.027359534 0.04235682
0.106931925 0.16049369 -0.13315825
-0.27005342 -0.08686239 0.12657046
0.18184482 0.16929604 0.0018202823
-0.012814833 -0.1797198 0.024259133
0.04427415 -0.31203002 -0.0502003
-0.12582588 -0.08043356 0.058645844
0.06641649 -0.04299324 -0.07094435
0.11783816 -0.05600664 0.09368447
0.20724083 0.022231493 -0.14631829
0.003164868 -0.19539206 -0.036736317
-0.23133004 0.14908166 0.025012588
0.16436805 0.08447221 -0.015135215
0.11162599 0.16942751 -0.10247019
-0.27921152 -0.17054884 0.06336401
-0.22111624 -0.047794394 0.06423307
0.059891626 -0.09948135 0.01427401
-0.046904292 0.0836639 -0.021467343
-0.12939332 0.09279565 0.09590132
-0.17628385 -0.035344366 0.12694979
-0.04890414 -0.16177185 -0.013276276
-0.3077254 -0.010413468 0.10620348
0.15211517 0.24839531 -0.13159382
0.019030925 -0.31771547 -0.005407271
-0.04884132 -0.03305563 0.18325487
0.1863677 0.15453836 -0.0061126277
-0.02477561 -0.25943467 0.061853006
-0.32535157 -0.026640302 0.07436018
-0.17719774 -0.2656619 0.04607296
-0.17727663 -0.17727059 0.047469933
-0.042099904 0.14646752 -0.025579447
-0.042139854 0.20048738 0.011043927
-0.22976555 0.15068455 0.024230069
-0.11023624 -0.25403476 0.069848925
-0.13371545 -0.012681883 0.060349293
-0.047666956 0.24681768 0.011865099
-0.12031225 -0.17834763 0.020749299
-0.21340442 -0.029016193 0.12813233
0.13459554 0.03144295 -0.1051631
-0.046878714 -0.15620522 0.023808539
0.11441918 0.016718369 -0.09525248
0.072698474 0.099044725 -0.016909845
0.21038932 0.16182412 -0.08785138
0.046977058 -0.295022 -0.092568986
-0.040179826 0.25715292 -0.06795174
0.10564955 0.3304531 -0.034362897
-0.047100168 0.14162543 -0.023087837
-0.13646173 0.029022021 0.022206837
-0.18654415 0.09590451 0.04375069
0.11397491 -0.17688228 -0.08932357
-0.054635916 -0.114956856 0.085980184
-0.20021817 0.10212765 0.08818891
0.092097685 0.15485519 -0.050459743
0.05184297 0.22140606 -0.07487983
-0.18242526 0.19031027 0.0637319
0.06030753 0.042571317 0.114600465
0.18768951 0.3684211 -0.009585992
-0.11643895 -0.24701534 0.020959396
0.06862464 -0.29807186 -0.02681085
-0.0029711574 -0.120585285 -0.017362226
-0.15537639 -0.11705851 0.035405695
0.10952385 0.29408556 -0.100529954
0.037829548 0.10025594 -0.02355163
-0.19649623 -0.11196536 0.1294902
0.036250766 -0.31187233 -0.0118372
-0.12585007 -0.08846427 0.020694438
0.05305987 -0.111986615 -0.024432762
-0.19527508 0.07482564 0.048473917
-0.18377273 -0.037267793 0.1303962
-0.33082503 -0.018164666 0.07789918
-0.2749301 0.10382548 0.051687524
0.20541783 0.07366517 -0.052630994
-0.12103714 -0.004543017 0.015954303
0.13888304 0.33684674 -0.11586356
0.014194418 -0.24726526 0.052194238
-0.12548465 -0.29847762 0.0016735058
0.11367482 -0.07441413 -0.09221033
0.058501415 -0.1717186 -0.063423745
-0.10348744 -0.062154405 0.038150012
-0.067840114 -0.18077478 0.07364991
-0.20509292 -0.1263524 0.1227119
0.19195949 -0.16316539 -0.133048
0.031368226 -0.1561914 -0.05113986
0.19588381 -0.0076181325 -0.033906873
0.049294256 0.15617648 -0.0059729023
0.09571136 -0.023075843 0.042485
0.19470887 -0.17678565 -0.08908113
0.011276344 -0.124859095 0.05978725
-0.12063322 -0.3080637 0.031008802
-0.10119085 0.06437554 0.004597544
0.15627821 0.06628577 -0.116375685
-0.043569766 -0.057749655 0.16601752
0.22012264 -0.06689251 -0.10422354
-0.11223206 0.20945102 0.0054961913
0.18669328 0.3552463 -0.113754295
0.007102042 0.09632873 -0.009004536
0.129911 0.14098516 -0.14440005
0.089958556 0.2691559 -0.08252354
-0.1883059 -0.034227997 0.13132408
0.18833223 0.13921659 -0.025179325
-0.12560569 -0.30773556 0.02477321
-0.118989535 0.22997805 -0.004997078
0.005194343 0.15688258 -0.048097663
-0.078361765 -0.3269388 -0.0010068913
-0.012432888 -0.13071051 0.10324929
0.16731776 0.22112781 0.017037379
0.21660107 0.3518679 -0.07406333
0.019464312 -0.22763173 0.052733175
-0.14659636 0.055720303 0.10474475
-0.16982044 0.009115359 0.12059178
-0.30514038 -0.07491853 0.08831404
0.24431953 -0.03892141 -0.15209143
-0.08124627 -0.03286188 0.09243579
-0.07129964 0.16915658 0.04837881
-0.11745969 0.13274674 0.08284575
-0.2842986 -0.020403692 0.091618195
-0.2839767 0.019241972 0.11084127
-0.050218686 0.18089207 0.019657498
0.12508115 -0.07582233 -0.09752541
0.017960783 0.058111776 0.13074985
0.067935005 -0.26397398 -0.0054456284
-0.043805 -0.021280747 0.18209389
-0.18772946 -0.25399753 0.08970411
0.11759284 0.3704498 -0.10333505
0.041481975 -0.31135848 -0.0153252585
0.18598685 0.03959594 -0.16773957
0.1338447 -0.03730405 -0.010629624
0.103497915 0.13010812 -0.0934738
-0.14478096 0.16043988 0.060430817
0.039468057 0.14729857 0.007002175
-0.09666431 -0.29362667 0.013049374
-0.07983201 0.051349387 -0.0050486624
0.083037235 -0.084846504 0.06824613
0.1090955 0.25994423 -0.0040363376
0.0046445127 -0.12063164 0.0036458354
0.15192273 -0.24365038 -0.07063056
0.08167132 -0.053758834 0.03795665
0.018369777 -0.3203198 -0.011849485
-0.07968629 0.08646071 0.032045748
-0.046508845 -0.03168456 0.16671923
0.12096619 0.3595336 -0.025629453
0.12784074 0.2150449 -0.12372712
0.034551382 -0.21953313 -0.05076331
0.13889639 0.18383685 -0.13702245
-0.1435085 0.1314736 0.0827967
0.07656525 -0.1175438 0.10127462
-0.028227711 0.043763537 -0.023590961
-0.044036776 -0.0025133346 0.17971666
0.04636938 0.21063371 -0.07789915
0.23960355 -0.07113369 -0.13566354
0.08025168 -0.2901695 -0.031938426
0.060823943 -0.1201184 -0.06603932
-0.021106929 0.031041285 0.16988821
-0.178496 -0.10161708 0.04580724
0.04759255 -0.13166724 0.13609831
0.21007045 0.34970424 -0.072014436
-0.05870289 0.04175923 0.06097778
-0.21698439 0.042540498 0.05962347
-0.021331515 0.034730777 0.123959385
0.10186451 0.24974418 -0.1044244
0.20113353 -0.08325359 -0.17122334
-0.23376426 0.15074101 0.054053634
0.13761169 0.31034645 -0.0038183774
0.048493244 0.11095112 -0.007723297
-0.06256417 0.0059328955 0.100474015
0.20816149 0.21763836 -0.0013312512
0.072315 0.17340961 -0.08010855
-0.117447935 -0.22801718 0.020871721
-0.04893009 -0.014107371 0.17728655
-0.3341129 -0.027422026 0.08137404
-0.042583235 -0.056709144 0.1825671
0.24373376 -0.03643527 -0.15129113
0.15184364 0.11097625 -0.11561359
0.10793751 0.36773112 -0.04901083
0.13325234 0.1145343 -0.10698763
-0.13955495 -0.12561792 0.028228233
0.01096581 -0.28037554 0.012062651
0.07287613 -0.030047854 -0.07436069
-0.25570604 -0.09378323 0.12003686
0.18583925 0.26338515 0.010725383
0.20929201 0.042692978 -0.08089545
0.044912446 -0.018523704 -0.03710239
-0.16345593 -0.28616 0.052376483
0.07767122 0.15356638 -0.043837503
-0.124377 -0.2735327 0.025470782
-0.13690616 -0.30888233 -0.0044314014
-0.121573076 -0.10936044 0.057503466
-0.21648712 -0.20807452 0.104995325
0.062969185 -0.26421884 0.00054674165
0.13501877 -0.097615525 -0.005240422
0.19571078 0.16244982 -0.116965935
-0.15032111 0.17865819 0.062494352
0.16495316 -0.1447987 -0.11421262
0.03547368 0.14920557 0.008660899
0.1424324 -0.17485267 -0.10274823
0.20769347 -0.038688704 -0.059297036
-0.20248772 0.0769938 0.051797252
0.0055872644 -0.321112 -0.042208184
0.07784481 -0.26221114 -0.03163387
0.06427499 -0.121826746 0.1343067
-0.059176374 -0.28420028 0.03336569
-0.04414168 0.2622991 -0.06624326
0.013035853 -0.2623014 0.043037184
0.07277649 -0.30217406 -0.038048428
0.20607044 0.36598358 -0.025036292
-0.04494875 -0.34877482 0.017832033
0.22756188 0.2558164 -0.08607762
-0.16657549 0.1936934 0.022986151
0.1559589 0.14434652 -0.13796932
-0.2814669 -0.096430525 0.08824086
0.13698548 0.12800267 -0.10913864
-0.055067968 -0.15099858 0.02750059
-0.050890833 -0.13139763 0.032825842
0.21883157 -0.12115677 -0.1062246
-0.16618125 0.107012875 0.09542912
0.19562389 0.05359269 -0.03516216
0.15409215 0.27447677 -0.12936096
0.0245624 0.04957008 0.030639755
0.041244846 0.14443712 0.00628237
0.023996482 -0.10540229 -0.018933838
0.12840271 -0.0011649615 -0.10129115
0.14253458 0.05254858 -0.012489411
-0.306866 -0.06459061 0.106606215
0.13772069 -0.1668577 -0.10077179
-0.030009018 -0.17992891 -0.021613555
0.18094763 0.119095765 -0.12809579
-0.31043568 -0.009021301 0.09525163
0.1074115 -0.08011585 0.11281569
-0.14971176 0.010855942 0.07681292
0.1997499 0.03752836 -0.15384771
0.20993312 0.1885967 -0.021832325
0.05192419 0.018707758 -0.0045528277
-0.06191656 0.24515916 0.008867734
-0.27184218 -0.12881413 0.0878384
-0.1561477 0.0264278 0.109504
0.22414134 -0.08637566 -0.12946853
-0.13081934 0.025992867 0.019646112
-0.023028849 -0.096048065 0.17454576
0.06630298 -0.30060947 -0.066830084
0.055329144 -0.074715205 -0.0052902102
-0.077993475 0.24828914 -0.039096214
0.02406748 -0.3183773 -0.025378339
-0.29579833 -0.05923273 0.069165275
-0.013122582 0.046773233 0.14112115
-0.11532607 0.22322722 -0.031658284
0.046683136 0.062833644 -0.026603494
-0.22152027 -0.08607726 0.0655539
0.1662318 -0.2201193 -0.10143174
0.08501724 0.1376797 -0.08501858
0.0056509525 -0.20778216 -0.03753781
-0.07954675 -0.07560277 0.077986576
-0.10462531 0.12956654 0.0042841663
-0.06030036 -0.1238553 0.0477943
-0.0649629 -0.20645083 -0.004414322
0.098737955 0.24953018 -0.014799953
0.10247282 0.10388286 -0.09221769
0.05056323 -0.12640227 0.081481144
-0.08681788 -0.120532095 0.0033108692
-0.09852544 0.16160299 0.00047309915
-0.09448801 0.19850427 -0.0025135558
0.20257755 0.14922364 -0.10433188
-0.1402274 -0.1065209 0.06618023
0.093041144 0.13642514 -0.049014512
-0.1269248 -0.06161237 0.058606166
0.16170844 0.33770272 -0.11940059
0.090883344 0.2500088 -0.08622087
0.015212046 -0.15619707 -0.0053520473
0.19846828 0.2861507 -0.0030265497
0.15565042 0.10854761 -0.014574022
0.06078783 0.13034561 -0.07342285
0.10735614 0.36759323 -0.05880238
0.0048887813 -0.11637366 0.14837305
0.11412934 -0.02383355 0.0812792
-0.08699596 -0.14428197 0.042296447
-0.037901014 0.06560634 0.013038308
0.13045636 -0.055846103 -0.0114277415
0.032339044 -0.2165888 0.04641574
0.20381463 0.3628017 -0.088504195
0.08442847 -0.21236846 -0.07439901
0.07292354 -0.030441627 -0.006557001
0.19848451 -0.067919955 -0.15190808
-0.011910769 0.036422048 0.16541018
-0.16897021 -0.09716284 0.041202422
-0.020852713 0.20319754 0.0009663273
-0.039007362 -0.35506463 -0.008330189
-0.12861308 -0.12943628 0.099107146
-0.037302345 0.25984228 -0.06938269
-0.008432051 -0.13655207 0.040627483
0.068080634 0.02771326 0.04411026
0.06786398 0.15684551 -0.077528894
0.09028426 0.27299958 -0.037440047
0.18310732 0.06600902 -0.1640513
0.22218151 -0.05499114 -0.18194321
-0.117734924 -0.31051078 0.019900667
0.012226275 0.038727023 -0.047909558
0.19407398 0.10480956 -0.116817705
-0.062336843 0.14633556 -0.016071467
0.12123196 -0.04948838 0.105420195
0.2151292 0.22788878 -0.008638506
-0.28104386 -0.13345101 0.094781436
0.029465705 -0.26713017 0.02855975
0.12503958 0.09164072 -0.018068232
-0.24019536 -0.13557415 0.11398722
0.21912566 -0.0624024 -0.10388838
0.052069712 -0.2661585 0.0098010395
0.20565028 -0.07728715 -0.17352071
0.19163404 0.078925274 -0.031060196
0.13135308 0.09542387 -0.10553092
0.024277693 -0.29092315 -0.0056289546
0.1573516 0.12659998 -0.015522008
0.03754288 -0.16949724 0.010946651
-0.031296115 0.23362438 -0.07142865
0.030128045 0.1358444 -0.059186123
-0.025163222 0.05543896 0.039700486
-0.09902442 -0.31992698 -0.0110385
-0.21425031 0.13308512 0.093864374
0.03954376 0.032213166 -0.060546145
0.10057206 -0.26533464 -0.08502565
0.15930174 0.0016253662 -0.011804102
-0.28379795 -0.14016959 0.08371235
-0.06277171 -0.146527 -0.0072141453
0.08413399 0.17869371 -0.08581531
-0.04988867 0.23256601 0.01373489
-0.10616117 -0.210618 0.015056821
0.17334166 0.29222274 -0.122417055
-0.19562615 0.013690813 0.050445415
-0.064888656 0.14870848 -0.014943132
-0.041123845 -0.27355346 0.049189154
0.10110144 0.36988637 -0.05227525
0.22597834 0.28588212 -0.046223782
-0.091993034 -0.13203113 0.0060807834
-0.080507174 0.12644632 0.06863516
-0.14579265 0.22223045 -0.009543335
-0.26737788 0.08668701 0.08802077
-0.069140986 -0.04808434 0.1387572
-0.06931201 -0.26272792 -0.0007093882
-0.2978793 0.038292304 0.05953981
-0.1146674 0.12813857 0.009042236
0.048019 -0.19514446 -0.057808734
-0.10353853 -0.14221887 0.011804082
0.08224116 0.17486875 -0.046613064
-0.22666691 -0.037282858 0.06652914
-0.097853296 -0.19881207 0.01080627
-0.17614359 0.006500171 0.041508004
-0.17327468 0.019687036 0.03977099
-0.07918864 -0.103136286 0.06377968
-0.12723416 0.14570488 0.01442532
0.028624628 -0.13234068 0.0879074
0.022315893 0.13884382 0.015476673
0.03021793 0.22841856 -0.07655446
0.17287128 -0.169985 -0.057370692
-0.07655207 -0.22828771 0.09130308
-0.19433331 -0.058479976 0.051970668
0.0062644854 0.21506958 -0.012119663
0.15262023 0.10828481 -0.115898676
-0.15058817 -0.14161998 0.03388283
0.19213775 -0.030480353 -0.16855761
-0.089812696 -0.17191944 0.0062357914
0.045347493 -0.018609503 -0.0617703
-0.058865387 0.2624868 -0.022427954
0.08518729 0.26148993 -0.05937853
0.13604361 -0.22736773 -0.10962515
0.085492834 -0.100777656 0.1102556
-0.13027385 -0.16549133 0.025047826
0.19875394 -0.046632502 -0.15447709
0.11132965 -0.022757601 0.07544368
-0.03394348 -0.2937412 0.021797571
-0.02408812 0.2705349 -0.020920316
-0.21512718 -0.24172178 0.0771539
-0.047298025 -0.1329885 -0.014881015
0.018420879 0.058131855 0.13167508
0.22134517 -0.079987876 -0.14899342
0.017942907 0.22583562 -0.09432286
0.018358113 -0.24842572 0.04987132
0.19259208 -0.05223369 -0.029440384
0.21243206 0.2984469 -0.093311295
0.16041861 -0.18963595 -0.14895892
0.05583571 0.15667026 -0.014122059
0.19865309 0.0665208 -0.1313914
0.20582423 -0.010647169 -0.17541754
-0.039383523 -0.09021892 0.1665143
-0.27767605 -0.16021381 0.07802896
0.1139488 0.28884017 -0.008734813
-0.19213806 -0.17299685 0.054323286
0.08983681 1.1718971e-05 -0.045013823
-0.073899984 -0.027669398 0.12988904
0.15689394 0.009753626 -0.11499453
-0.058328874 -0.2908203 -0.0050370684
-0.045497242 0.0051522073 0.16764338
-0.22074412 -0.13945545 0.10496705
0.1248505 0.3648243 -0.0129347425
0.17545363 -0.14739077 -0.029616432
-0.2476685 0.08328104 0.111030295
-0.19212034 0.014948629 0.04876186
0.18657199 0.21497272 0.005907615
-0.12807372 -0.0737261 0.059503105
0.21578296 0.16325869 -0.061274927
0.050097577 -0.17663303 -0.059331615
0.06453188 0.0865934 -0.07388831
0.17755607 -0.15212777 -0.036015753
-0.076461636 0.24341571 -0.019356053
-0.28497067 0.039321404 0.065418474
-0.11382512 0.16369286 0.045796704
0.15389681 0.030468643 -0.011815355
-0.12226399 0.22833131 -0.028550478
-0.27560905 -0.15630801 0.055429023
-0.27425262 0.08458798 0.07366814
-0.09385425 -0.11193479 0.0063613453
-0.014850657 -0.33459273 0.012229253
-0.065159075 -0.20248239 -0.0044394555
0.06501935 0.020544067 -0.07216555
-0.0032051208 0.2262935 -0.049697332
-0.010963963 -0.19352652 -0.030156145
-0.0034171406 -0.12241318 0.15972023
-0.14733368 -0.28323838 0.03644557
-0.113357455 -0.21916766 0.01868907
-0.07681778 0.22208491 -0.011508688
-0.07944349 0.10301812 -0.0067575206
0.10806288 0.15006164 -0.096207425
0.052099083 -0.1842345 0.026487075
0.20418115 -0.006087308 -0.17325707
0.021009767 -0.12956917 0.021554442
0.21066888 0.35633138 -0.09003781
-0.107778534 0.23238344 0.0002471449
0.2077656 0.04851679 -0.060278494
0.20279478 0.15767604 -0.104254186
0.076790124 0.09458506 -0.07988135
-0.20527092 -0.08966663 0.13055196
-0.19531408 -0.13452037 0.054677878
-0.21369408 0.16347903 0.07075254
-0.027777132 0.25789946 -0.0009345869
-0.051185545 -0.08623014 0.14955154
0.08588998 0.22332935 -0.06822351
0.20181689 0.325584 -0.01921123
0.094198175 -0.22761925 -0.07853653
-0.08153416 -0.07735217 0.097292624
0.058153305 -0.2720993 -0.060294393
0.16445485 -0.22066846 -0.10447005
-0.26590633 -0.066320606 0.12401595
0.15456195 0.026926296 -0.011868359
-0.028076002 0.15562902 -0.032436144
0.15946916 0.2865777 -0.12567766
-0.32221198 -0.059476964 0.08959545
-0.009656466 0.044389036 0.16007422
0.028080052 -0.124611914 -0.050528746
-0.28220195 0.07688119 0.066517174
0.16875857 0.36946937 -0.0032142557
0.15057798 -0.20147404 -0.03872127
0.22723752 0.28362086 -0.049406935
0.124625586 -0.2252776 -0.022968067
-0.181935 0.1954419 0.04088636
0.14836569 0.3559144 -0.0032456652
0.07224979 -0.27857095 -0.066723324
-0.3186761 -0.04511496 0.07262744
-0.18577279 -0.26472253 0.032210942
-0.2863316 0.028815914 0.098568015
-0.2365463 0.08539676 0.10574459
-0.058082685 0.121036805 -0.017321737
-0.11944781 -0.10622795 0.056412917
-0.12795284 -0.087897435 0.059865214
0.089046285 0.008638554 0.053357683
-0.2097834 -0.17260951 0.10079893
-0.12712865 0.12206338 0.01507437
-0.047204975 0.054462966 -0.020463243
0.0038452344 -0.18852063 0.03801169
0.20095466 0.01277085 -0.04202135
-0.2591838 -0.16033858 0.11574701
-0.1623023 0.10822774 0.095333226
-0.05641498 -0.022096507 0.1424228
0.020740315 0.057346772 -0.052458268
-0.09384449 0.19903955 -0.0028313189
-0.25817555 -0.029199021 0.11928816
0.14839661 -0.23467094 -0.111068696
0.20087737 0.10387528 -0.04413685
0.009691025 0.05568749 0.1415908
0.15816101 -0.22702864 -0.106159106
-0.09914727 -0.2197598 0.012033246
0.03851176 -0.27080345 0.015265715
0.050218817 -0.2972417 -0.094025485
0.16714755 0.17400941 -0.06986285
-0.078354076 -0.052095577 0.095218875
-0.31088254 -0.058747493 0.11376522
0.11555254 -0.27096272 -0.08292321
0.06839256 -0.21030493 -0.06692873
-0.15195802 0.21707486 0.014728675
0.21673474 0.18157555 -0.03531525
0.059298303 0.05918294 -0.0706204
0.10905362 0.21476172 -0.019967958
0.18051913 -0.04267493 -0.12454043
-0.12131984 -0.15602122 0.107080825
-0.28288418 -0.051308934 0.093345344
-0.25982577 -0.031565156 0.12013319
-0.074754976 0.13868997 -0.010013533
0.12222473 0.35435015 -0.014747598
0.10206622 -0.044675335 0.078937076
0.20645711 0.1824014 -0.01662846
0.09797584 0.04817476 -0.08845968
0.1492512 -0.07903472 -0.10878192
0.097328484 -0.2753511 -0.040396124
0.1548413 0.13635011 -0.13798416
0.050790403 -0.29096723 -0.07673169
0.14988178 0.16779388 0.005609519
-0.28245255 0.028779654 0.107032366
-0.06648259 0.18942383 0.022802781
-0.011339538 0.03515976 0.14622448
-0.06878283 0.115573235 0.053869113
-0.08105926 -0.32413417 0.004147947
0.17308126 0.240683 0.015218618
0.18822862 0.096599326 -0.12147671
0.16816269 -0.012119151 -0.11964055
0.22804828 0.2721048 -0.079935886
-0.16699944 0.19049485 0.031777143
0.0038338576 -0.20540163 -0.036754876
0.059702296 -0.02110374 -0.06843805
-0.0071086334 -0.2607152 0.053756144
0.13828152 0.29932764 0.001022238
0.11712527 -0.04222717 0.08757385
0.05856065 -0.021366056 -0.010312636
-0.2236449 0.045505762 0.0626638
-0.07940235 0.13146384 -0.007617386
-0.17605864 -0.016546952 0.042149078
0.18305862 -0.1309367 -0.16132571
0.16422643 -0.22521284 -0.094900094
-0.10720832 -0.16380689 0.0141655365
-0.0073850374 0.14151916 -0.041736357
-0.039894782 -0.14407946 -0.018030023
0.20950152 0.13507456 -0.07262351
0.044419885 -0.066843525 -0.059909627
0.1459006 0.12794854 -0.014930681
0.015388559 -0.1601633 -0.043517992
-0.19138333 -0.25893646 0.08170429
0.092022225 0.024709763 0.08462865
0.1443566 -0.10681268 -0.10566242
0.023460798 0.22930098 -0.081688024
0.051028755 0.1091737 -0.0091578495
-0.23126398 -0.23822276 0.051353987
0.2012428 -0.16419503 -0.11137894
0.16364203 -0.20928402 -0.12975359
0.11881405 -0.05969661 0.09850028
0.21477973 0.1828962 -0.08034679
-0.03932752 0.24413599 -0.06796738
-0.05320594 0.19134611 0.016510755
-0.09767299 -0.08276963 0.033398952
-0.00012744726 0.14834437 0.02755803
0.20281093 0.24589637 -0.11709137
-0.10920967 -0.22976984 0.017054744
0.12427769 -0.21577995 -0.006785207
-0.21383312 0.012628206 0.05902726
-0.08075683 0.09746613 -0.0059766993
0.10976385 -0.054371074 0.098982185
-0.16248158 0.11686295 0.08925567
0.08481428 0.0025279983 0.038413297
-0.27204132 0.09134235 0.045837816
0.0013411763 0.053710904 0.14280446
0.030430667 0.08141651 -0.019519782
0.17599586 0.120063804 -0.020809647
0.025495868 -0.15170535 -0.010314311
-0.117762655 -0.11868909 0.055989355
0.09298484 0.22636251 -0.089994624
-0.1700811 -0.17830569 0.115667686
0.08569078 0.01515215 0.05680847
0.22347759 -0.073111586 -0.16680738
-0.19574049 0.19311313 0.020575136
-0.09634937 -0.18029313 0.097746365
-0.20423767 0.17910269 0.011401828
0.091380306 -0.15770036 -0.07927929
-0.24816813 -0.14753743 0.118085
-0.24318811 -0.0049243 0.11153234
0.02575743 0.1689475 -0.001036133
0.10138457 0.16944768 -0.12220674
0.21184571 0.33880383 -0.033661805
0.21980514 0.18680249 -0.05881736
-0.277247 -0.010022713 0.12767847
0.10118639 -0.022025965 0.07839995
0.0550318 0.1356911 -0.07087743
0.067209885 0.10318034 -0.075635836
-0.062404063 0.2284492 -0.03731268
-0.122809745 -0.06815198 0.01866619
0.10009983 0.32859385 -0.05571398
0.1379011 0.28722814 -0.122191496
0.15163754 -0.063624255 -0.0093176225
0.12296337 -0.078425765 -0.09645401
0.19551195 -0.028632876 -0.03293167
0.10473448 0.06485003 -0.09212669
0.08405651 -0.22658226 -0.07380438
0.050996166 0.17804341 -0.032033443
0.14526868 -0.21172951 -0.064790174
-0.2431089 -0.22725828 0.05108722
0.21307307 0.03546673 -0.1263126
0.16415684 -0.20026049 -0.07399979
0.13674863 0.23481178 0.013117511
0.17809139 -0.15844664 -0.11997968
0.0394489 0.04892942 0.053091377
-0.090569764 -0.052609168 0.092933275
0.09624344 0.14513719 -0.09051095
-0.12712204 0.045552697 0.055532146
-0.21555986 -0.08709442 0.062784724
0.014023461 0.11383869 -0.0060370443
-0.22269517 -0.20224875 0.10773872
0.19121453 -0.123810336 -0.08256174
-0.14256656 0.07341137 0.103479825
-0.035458047 -0.18574004 0.05151272
0.21682796 0.31736547 -0.07224523
0.05245157 -0.015277859 -0.019348048
0.18503208 -0.19152579 -0.11058677
0.19103019 0.27577162 -0.121736236
0.18534802 0.02457723 -0.12879537
-0.06732134 0.011002334 0.08145189
-0.15841445 0.030413775 0.11246156
0.003327011 -0.13583632 0.06445382
0.21042596 -0.13837028 -0.097775556
0.060322713 0.036437366 -0.07042912
0.09967299 -0.04405455 -0.08653166
0.12680781 -0.22455636 -0.050162617
0.11073717 -0.2744796 -0.08252029
-0.08474111 0.13345811 0.071518004
0.13008642 0.35951936 -0.009798659
0.21205428 -0.11304246 -0.09907105
0.23289472 0.2191528 -0.053055573
0.20316975 -0.06957885 -0.14159486
-0.12366876 -0.13677293 0.09758484
-0.123072065 0.11010797 0.0915457
-0.22484733 -0.068423085 0.06659476
-0.017133027 -0.35057902 0.0080196895
-0.27530894 -0.16566958 0.054966275
-0.037619676 0.066777505 -0.025328815
0.05976405 -0.20659848 0.03368763
-0.13183227 -0.29901332 -0.008475375
-0.024034932 -0.20309465 0.064121805
-0.11889238 -0.017016783 0.015315706
-0.030421479 0.017515726 0.15307985
0.0014668338 0.1055137 -0.04482956
0.10192796 0.2109371 -0.03190425
-0.04909877 0.043485366 0.07399169
-0.25458005 0.10557465 0.094494164
-0.008619209 -0.34272954 -0.0011608966
0.16960745 -0.2064165 -0.07637747
-0.12845694 -0.031433865 0.05843369
-0.2919533 0.01986321 0.06344791
-0.048044015 -0.08605283 0.12816305
0.20894103 0.3668941 -0.048065003
