# .PCD v0.7 - Point Cloud Data file format
VERSION 0.7
FIELDS x y z
SIZE 4 4 4
TYPE F F F
COUNT 1 1 1
WIDTH 1000
HEIGHT 1
VIEWPOINT 0 0 0 1 0 0 0
POINTS 1000
DATA ascii
0.090001196 -0.09735622 0.20417605
-0.079654 -0.19686337 0.20879795
-0.03199913 -0.07951676 -0.430609
-0.02266965 -0.2006076 -0.07914862
-0.06375215 0.03870131 0.025218435
0.14031908 -0.022030503 -0.12044158
0.082883015 -0.114080675 0.20474492
0.03430584 0.3170286 -0.1824216
-0.03692111 -0.20306912 -0.105885275
-0.124488115 -0.06248632 0.12703972
0.004962681 0.22708754 -0.016844472
0.026413335 -0.11468614 -0.0039440184
-0.0055383644 0.005168542 -0.10748792
-0.17763631 -0.12969674 0.20774184
0.05523233 -0.047738276 0.20303062
-0.020148119 0.08563276 0.053053252
0.053748198 -0.045897946 0.014212667
-0.12015024 -0.109564185 0.06926849
0.14263508 0.11827833 -0.16593733
-0.018792512 0.23484711 -0.29726326
0.030873796 0.14134699 -0.31750584
-0.068404384 -0.0073214252 0.026424455
-0.070809536 -0.20651138 0.20900013
-0.049011018 -0.20489788 -0.24306849
-0.06576258 -0.15324384 0.207359
-0.038221948 -0.12086514 0.20612378
0.021876689 -0.24345279 0.20920405
0.06350875 -0.13308603 0.20550132
0.13789752 -0.040527474 -0.13009532
0.13624908 -0.06810628 -0.24372405
-0.12231552 -0.1610189 -0.11128714
-0.02815294 0.0036388235 0.20230502
-0.16703837 -0.11837566 0.2073004
-0.009564618 -0.05280692 0.046454247
-0.12704426 0.039260596 0.20220082
-0.121985056 -0.017320601 -0.09071566
0.09105459 -0.06366948 0.20315878
-0.11413848 -0.16727765 0.07076397
-0.16315587 -0.05294617 0.20530711
-0.08414622 0.06648808 -0.3818904
-0.18292446 -0.17051789 0.20901309
0.027488846 0.23531584 -0.0045996225
0.03296942 0.09929371 0.057461184
0.093481585 0.16867502 0.027963776
0.12297031 0.058389332 -0.11596776
0.11264347 0.21922754 -0.007381098
-0.1313423 -0.13923128 -0.21025756
0.07801677 0.074110456 -0.4612685
-0.032733947 -0.008345708 0.04636833
0.056155223 -0.1383772 0.20001975
0.1006463 -0.090225816 0.20385931
0.10565426 0.1878224 -0.42749694
0.035974074 -0.074334756 -0.17340101
-0.017646411 0.027826717 0.05527096
0.1045473 0.109494336 0.02685298
0.053192817 0.098571725 -0.29918426
0.17788185 0.07197889 -0.13192065
0.042639147 -0.237998 0.20792957
-0.030237291 -0.19854787 0.023823593
0.101615556 -0.13995454 0.20533656
0.029905733 0.0037505382 -0.4718461
0.14583097 -0.027909422 -0.12212498
0.04777221 -0.21605127 0.20813385
0.091016084 0.015324455 -0.03846167
0.0371638 0.05691306 -0.31021246
-0.03289084 0.16458988 -0.017174324
0.051230498 0.2648052 -0.03026173
-0.10377691 -0.032856736 -0.31882846
-0.077193975 -0.19358942 0.20867603
-0.13866809 -0.002218423 0.20355316
0.11703307 -0.1173012 0.19598806
0.043119665 -0.007632437 0.04515871
0.041356042 0.14051652 -0.29324955
0.06718891 -0.050861564 -0.038494468
0.046571855 -0.25616625 0.19037814
0.094208315 0.1958825 0.0154159535
0.094668284 0.1308217 0.036745377
-0.080260165 -0.0016721049 0.20296985
0.07243331 0.28262144 -0.05312114
0.072946735 0.15573685 0.03977491
-0.14934324 -0.118205614 0.17925662
-0.08972851 0.006640292 -0.040822018
-0.040572714 -0.10713551 0.20573631
-0.09735408 -0.17811187 0.20840907
0.12818493 0.05893099 -0.116582215
0.07674298 0.0009869718 0.01909693
-0.12958755 -0.12933952 0.023043666
0.031758476 -0.15005499 -0.30520064
-0.020395942 -0.009414185 -0.30322474
0.14310624 0.19109794 -0.033639908
0.09803253 -0.09969554 0.20416774
-0.16280945 -0.047413845 0.20513862
0.04550233 0.1021008 -0.47602594
0.072955534 -0.058806095 -0.25743514
0.041471113 -0.06726072 0.16389804
0.04910528 -0.04678727 0.20306179
0.022599334 0.1165053 0.055330526
0.04922022 0.06700301 0.05849045
-0.13360272 -0.1452524 0.19814098
-0.118353315 -0.001992743 0.20334932
0.048037328 0.20686114 0.019096127
0.057659626 -0.14581376 0.17282312
-0.12206186 -0.017560799 -0.099772364
0.041750554 -0.05377803 0.03846416
0.08288313 0.09322216 0.045992024
-0.1336266 -0.12495517 -0.19584715
-0.037527397 -0.039847635 0.13306351
0.113086715 0.07601358 -0.120709606
-0.06283329 -0.03429494 0.026477665
0.029694417 0.073710166 0.060312726
0.10675162 0.024084946 -0.112285234
0.05177876 -0.21791916 0.19819082
-0.055139076 -0.03453127 0.10237689
-0.19544455 -0.15111049 0.19855715
-0.010524526 0.013958894 0.05401773
-0.18374212 -0.13368991 0.18118696
0.093469195 0.02222445 -0.008858937
0.044041384 -0.11594983 -0.30992618
-0.058721367 -0.007980672 0.20294915
-0.12594819 -0.09761915 0.09499629
0.20968159 0.09776968 -0.20469792
0.071919814 -0.16343218 0.20632662
0.17454234 0.018508118 -0.11267113
-0.0592281 -0.17475004 0.11667387
-0.018344842 -0.016427208 -0.28722227
0.14751615 0.17215195 -0.0779238
0.06256459 -0.15803222 0.20625585
0.12521823 0.18912648 -0.0028114286
-0.10120358 -0.17649588 0.056143828
0.013596429 0.2533492 -0.04105183
0.10537835 -0.14965957 0.20116605
0.018045286 0.28695673 -0.3279766
0.0040121027 -0.17056595 0.067339115
0.027083745 -0.16284786 -0.2392539
-0.06686278 0.008079536 0.027384693
0.13545984 -0.056411393 -0.14291312
0.04091556 0.28332222 -0.05877009
0.08049021 0.11302089 0.046717834
-0.042130895 -0.20578043 -0.24104844
0.04238159 0.26707527 -0.0341136
-0.074877344 -0.19407968 -0.09878829
0.11275183 0.18065497 -0.42273262
0.08004473 0.02882808 -0.1127068
-0.09130451 0.068025894 -0.0481699
-0.17965229 -0.08448932 0.20641008
0.052319776 -0.08887766 -0.120770946
-0.0014833882 -0.032430623 0.20312385
0.002861303 0.24128221 -0.04055664
-0.14396523 -0.08411134 0.20605232
0.029900758 0.30896205 -0.2857913
0.10923349 0.16459294 -0.43098333
-0.036579877 -0.067085974 0.18692061
-0.08967401 0.031465366 -0.039368875
0.005043946 -0.005988074 -0.2818677
0.04721587 0.1465319 0.046642948
-0.091680475 0.010493892 -0.044033363
-0.17553969 -0.06759461 0.20586494
0.0102640055 0.055732355 0.05964555
-0.12403066 -0.075168036 -0.1420795
0.01687719 0.09817992 0.05846695
0.01976677 -0.17598194 -0.13861656
0.030192144 -0.071539596 -0.2210921
0.19091436 0.115028344 -0.21651031
-0.1362927 -0.05637019 0.20514873
-0.024906596 -0.058842666 -0.44465372
0.041254185 -0.067989714 0.13972586
0.037179973 0.24571617 -0.011638854
0.027703753 0.19061546 0.02866812
-0.13120759 -0.13201949 0.047545232
0.09193616 0.044923328 0.02406161
0.09170257 0.18502374 0.021993868
-0.10621158 -0.18112414 -0.17689727
-0.0053872033 0.23441197 -0.047666114
-0.009034171 -0.012696478 0.20260754
-0.0051027527 -0.01709608 -0.46512395
-0.11162688 -0.054314394 -0.08434323
0.058016915 0.02551432 0.049403034
-0.042798545 -0.09569946 0.20541629
-0.011265914 0.032639116 0.05721763
0.0818826 -0.18862407 0.20698252
0.046302523 -0.15360406 0.14769681
0.1736915 0.25027442 -0.21508059
-0.07462895 0.018028509 0.20232646
0.022320634 0.08856739 0.05960634
0.13461521 0.26561517 -0.0683571
0.030230822 0.13879773 -0.31860355
-0.1280938 -0.19248351 0.20913723
0.08479822 -0.10015991 0.20431013
0.043623324 0.03516122 0.05699242
-0.17159115 -0.13620505 0.20787764
-0.06987736 -0.027503904 0.15392691
0.16647612 0.035108216 -0.11421454
-0.042623546 -0.19898187 0.014890921
-0.16052902 -0.107356295 0.2069079
0.124933876 0.12607053 -0.16885144
0.09583939 0.16507834 0.028448204
0.15441146 0.19114204 -0.1341292
0.022697324 -0.16843234 -0.2866733
0.004463591 0.02473074 -0.4760889
0.10449183 0.028091952 -0.11213648
0.058879003 -0.21487455 0.20799066
-0.19764034 -0.08683576 0.19883469
0.1033285 0.20654716 0.0057410705
-0.07750091 -0.003173697 0.20298792
0.07828946 0.31858784 -0.12267883
0.123762615 -0.06264268 -0.15374099
0.0860445 0.17293833 0.029868716
0.02691364 -0.09178892 -0.4043852
-0.10461081 -0.03448779 0.03166833
0.043424882 0.04180087 0.057789654
-0.096877806 0.019033803 -0.04790225
-0.039452117 -0.18372919 -0.015057523
0.048884332 -0.054032326 0.20328027
0.16151996 0.29613158 -0.22679226
-0.07820612 0.02529069 0.0048006927
-0.06331306 -0.1600718 0.20753951
-0.07404701 -0.15513463 0.18292706
0.10422462 0.05208262 -0.015006739
0.019784385 -0.050478928 -0.44908416
-0.018927831 0.020925153 0.054337595
-0.030304201 -0.18296929 0.0632673
0.002169963 0.26104817 -0.3370636
0.13815337 0.29370654 -0.115792856
-0.0021259792 0.23276295 -0.03661035
-0.056750648 -0.17572542 0.114173435
-0.06645694 -0.19673795 -0.08760278
0.07960982 0.3304635 -0.16761658
0.16198896 0.03067997 -0.30534753
0.1667737 0.03846833 -0.11507108
-0.11575962 -0.16621406 -0.016339073
0.048396908 -0.11016712 0.106041014
0.16405222 0.054603446 -0.11909991
0.037441544 0.024769956 -0.47587502
0.03826543 0.002841378 0.051427394
-0.06416136 -0.034566894 0.0040061167
0.051130176 -0.05784478 0.017800573
-0.016511772 0.15373096 0.029444514
-0.0109458715 -0.052768495 0.032702718
-0.11590001 -0.00031379113 -0.054885495
-0.039117236 -0.0988162 0.20547351
-0.058458637 -0.19380881 0.086402856
-0.11448624 -0.062149286 -0.047384754
0.07402816 0.07508672 -0.30233195
0.14432174 0.11671637 -0.16439222
-0.13209431 -0.111508355 -0.20139022
-0.07482158 -0.02503587 0.17453119
0.1072689 0.27612406 -0.060093287
0.116646856 0.08650737 -0.042899128
0.10751076 0.15426424 0.023439141
-0.11361271 -0.17385153 -0.14872877
0.1468528 0.059807535 -0.11867814
-0.092946954 0.06248922 -0.38264087
-0.0150514785 -0.032451104 0.06469527
0.057786435 -0.13383253 0.20457837
0.024114009 -0.18304136 0.1567684
-0.14105594 -0.07060895 -0.19870846
0.041813076 0.15292759 0.045181427
-0.028773569 0.22518948 -0.07749254
-0.12481636 -0.0907679 -0.021318857
0.030678293 0.00036021284 0.052574094
-0.13230179 -0.18739884 0.20902576
0.07107738 -0.04005493 -0.03658558
0.014765863 -0.22550642 0.20873675
-0.017005613 -0.22568247 0.2090507
-0.042574286 -0.02171476 0.08947209
-0.13717969 -0.08505868 0.14134715
0.0021838786 0.22878069 -0.02311361
0.035804234 0.08252183 -0.4784524
-0.041955207 -0.19857539 0.20848276
-0.046385214 0.1533327 -0.3735937
-0.10068667 -0.07481955 -0.40541577
-0.06722016 0.05147094 0.014133434
0.012734337 0.04184963 0.060036536
0.15454939 0.056653075 -0.11855455
-0.039933752 0.16289197 -0.36836302
-0.20109698 -0.15361275 0.20868464
-0.061233785 -0.13553257 0.19925906
-0.03320847 -0.050831687 -0.44721538
0.06349493 -0.12787715 0.17037721
0.17353621 0.25564024 -0.20895904
-0.13132633 -0.13889329 -0.20524313
-0.005253451 -0.053140864 0.08294229
-0.009129218 -0.01518879 0.20268303
-0.008640495 0.18464218 0.0127193695
-0.07217032 0.1080356 -0.38473976
-0.016623106 0.15105249 0.031279165
0.11497379 0.31255555 -0.13523577
-0.06277695 0.06240004 0.016522076
-0.02436962 -0.20377982 0.20846754
-0.17724952 -0.063999526 0.20577417
0.033627443 0.2122406 0.016003955
-0.11513109 0.034221824 0.20223543
0.028754486 -0.15826218 -0.2582548
-0.10652886 0.02474132 -0.38985503
-0.034276385 0.16068754 -0.03553876
0.004533275 0.26764852 -0.32446462
0.081004195 -0.21385066 0.2077452
0.030320903 -0.06879874 -0.0024191572
-0.02300459 -0.18563627 0.110676855
0.007157774 -0.16172019 0.010891635
0.099287406 0.09373245 0.03100901
0.045401648 -0.024206515 -0.44816914
0.20754166 0.091759324 -0.22754014
-0.088745765 0.0039317305 -0.010166307
0.03651035 -0.06886635 0.06230556
0.19019252 0.044543147 -0.11874291
0.019867795 0.04750348 -0.4793931
-0.15809526 -0.04680633 0.2050742
-0.17949755 -0.065393135 0.20583788
-0.11782251 -0.10600487 0.062647924
-0.05266564 0.014882041 0.18967074
-0.0067264936 -0.050598174 0.14321983
0.050630763 0.007813625 0.04794956
-0.051496126 -0.20229952 -0.12935668
-0.002713526 0.04252978 0.059468806
0.05007313 -0.15528391 0.16074103
-0.0075189136 -0.040571608 0.20342581
-0.15257767 -0.008589059 0.20387857
0.059423566 0.16865924 0.036715157
0.13134426 0.20303321 -0.016730942
0.027603537 0.19444399 0.026246905
-0.07206107 -0.17033972 0.110379376
0.08803594 0.12162778 -0.4574149
-0.13805158 -0.013453122 0.20388296
0.047848947 0.016734319 0.05161219
0.057728224 0.2804558 -0.049518086
-0.02613335 -0.107569814 -0.4098849
0.13595319 0.27479184 -0.08153739
0.041885626 -0.06605407 0.20370805
-0.069941215 -0.2088077 0.20906018
0.11946395 -0.053731408 0.20258574
0.103653856 0.18692736 0.015748216
-0.07403579 -0.21126503 0.20917344
0.001925961 0.13711758 0.047799636
0.031780493 0.11972953 0.05436885
0.014614835 -0.24430318 0.20930019
-0.13611336 -0.096055575 0.1269079
0.08124222 0.23108016 -0.0033029648
0.09444263 -0.07805429 0.17178017
0.0252174 -0.021600872 0.04591595
0.053113695 -0.21399081 0.20802034
0.06336138 0.085782714 -0.4730088
0.04701769 -0.1708881 0.20679122
0.015658706 0.024619289 -0.47647908
0.0010991918 -0.014387646 -0.46654508
-0.08665403 0.004660138 0.20284256
-0.103036314 -0.17658758 0.12149212
-0.15717977 -0.11297164 0.20704333
0.028878862 0.26128414 -0.03498022
0.00022145631 0.17128246 0.030840496
0.05556796 -0.05168866 0.20314565
0.116978295 -0.031046472 -0.12898998
0.012274285 0.05619484 -0.32578796
-0.048014704 0.05773634 0.04044532
0.08118677 -0.10527487 0.20449835
-0.13314936 -0.1195392 -0.2444596
-0.1374896 -0.12237153 0.13735677
-0.1173376 -0.17143656 -0.18733706
0.045922223 0.14817496 -0.46418244
-0.1594658 -0.1436987 0.20798373
-0.17165765 -0.08968567 0.2064876
0.0064102653 -0.042176098 0.20333882
0.11530393 0.08287367 -0.009679016
0.008824838 0.1889447 0.024090545
-0.063209124 0.14191458 -0.3791889
-0.019000987 -0.050403178 0.20383127
0.033517025 -0.08071861 -0.21919502
0.0898299 0.27319288 -0.04839976
-0.012316195 -0.10957523 -0.4103292
-0.14473774 -0.06985302 0.20563349
0.048905797 -0.21407856 0.20806363
0.0021745309 -0.04464445 0.2034536
-0.014440976 0.28104997 -0.21414709
0.11655688 0.15672217 0.012650382
-0.016746547 0.19147088 -0.0073558353
-0.0893734 -0.008645863 0.018917765
0.014109412 -0.17808995 0.010932869
-0.04568816 0.09549442 0.027352042
0.03631514 -0.022329358 0.20245491
0.12453342 0.1912718 -0.0018069489
-0.10293551 -0.030062988 -0.046925392
0.06318484 0.20482725 0.018849932
0.1551899 0.19323431 -0.15804222
0.18228091 0.06869475 -0.1308681
0.10269595 0.050107915 0.004414794
-0.040680014 -0.18229334 0.023220675
-0.007273302 -0.2025482 0.20826468
0.14259635 0.16779202 -0.033777695
-0.07013939 -0.19834703 -0.23484473
-0.14352974 -0.0776278 -0.24902849
-0.12528801 -0.15643466 -0.12175078
0.043215036 -0.0526037 0.08943501
-0.028557353 -0.025528347 -0.29013452
-0.040859286 -0.08202097 0.20498854
0.0137167275 -0.05676247 0.17905544
-0.03714842 0.15962832 -0.036845386
-0.096489705 -0.060334966 0.032943465
0.20832865 0.09390599 -0.24102138
0.051829696 0.23307088 0.0012963574
-0.10269765 -0.01278382 0.20351984
0.06625672 -0.0838491 0.180449
-0.06538589 -0.20548707 0.20891678
-0.16056801 -0.08686882 0.20629594
0.0046049696 -0.012935427 0.20248216
-0.20140304 -0.09728476 0.19981165
-0.045420732 0.18603435 -0.046675276
0.17035195 0.2675345 -0.18356487
0.001542647 0.2599448 -0.117441036
-0.074268535 -0.029699516 0.040799845
0.025813134 0.03024736 0.058854874
0.097766474 0.09290575 0.032428548
0.0323839 -0.19154182 0.18937072
0.1603461 0.23634756 -0.3408891
0.033695035 -0.049554434 0.07810092
-0.077442765 -0.18667197 0.09544047
-0.009800219 0.11208114 0.05148059
0.12259487 -0.058921378 -0.15010124
-0.001187406 0.053716883 0.059816997
-0.1558808 -0.032860424 0.2046361
0.105261154 0.070592 0.014073817
0.04273826 -0.17563923 0.20217738
0.15856744 0.20277895 -0.102215655
0.14670631 0.043941975 -0.114577696
0.047405597 0.14822851 -0.27582708
-0.04470335 -0.20025 -0.032986283
-0.06868923 -0.028972536 0.12275189
0.008376431 0.26530716 -0.076745205
0.00080939865 0.2511264 -0.0649321
-0.011505728 0.16985922 0.022097852
0.05799247 -0.012366269 0.03239922
-0.14197768 -0.073355176 -0.26241994
0.107030064 -0.11871413 0.20464893
-0.1063652 -0.03940075 0.017941985
0.023176692 0.23797487 -0.009718602
0.021127122 -0.015942622 0.048751466
-9.442997e-05 -0.1922492 -0.11907755
0.054275908 0.04426248 0.05487793
-0.054931484 0.12231953 -0.38253978
0.07195318 -0.19799279 0.20735925
0.057085354 -0.07741449 0.09573413
-0.049692914 0.1835831 -0.058189936
-0.11829059 0.038277887 0.18273325
0.01708925 0.095855206 0.058800116
-0.05495765 -0.16263822 0.20753522
-0.08410964 -0.0012898494 0.0010540823
-0.046435475 -0.21447991 0.20900182
-0.024486504 0.2532466 -0.17950268
-0.13570663 -0.09014328 0.1317075
-0.16282256 -0.04232599 0.20498653
-0.044710573 -0.1717792 0.18334788
-0.18984295 -0.13237765 0.19153081
0.06300702 0.24052805 -0.0061491113
-0.021011025 -0.21439427 0.20875205
0.069506265 -0.19178998 0.20719743
0.12320004 0.13769881 0.004283264
0.055357642 -0.14059328 0.19953665
-0.06549477 -0.19232965 0.054816216
0.078859486 0.32711968 -0.15056933
0.13297497 0.0027854873 -0.11365863
-0.09178059 -0.18168692 0.090135895
-0.01180968 -0.03332479 0.20325078
0.048285384 0.07412072 0.05891812
0.01993652 0.21177045 0.012425486
-0.09734901 -0.0295739 0.08054223
-0.016083423 -0.19900692 0.0733235
-0.07301195 0.05704636 -0.38050357
0.0069016614 -0.055124868 0.18858293
0.047213834 -0.106257714 -0.0077652754
-0.08321016 0.06293524 -0.38107547
-0.06338926 -0.19860299 -0.110384054
-0.17614323 -0.030196426 0.20475309
0.025414031 -0.16704741 -0.08853216
-0.03405549 -0.2025877 0.20852599
-0.09474778 0.027269216 -0.3684834
0.13918553 0.30452365 -0.14610702
0.1401149 0.106953025 -0.15023977
-0.04168221 0.08773552 0.03715999
0.14471065 -0.039028388 -0.12789476
-0.1837424 -0.08930802 0.20659399
0.0800214 -0.033387557 0.1747874
-0.047632158 0.15896414 -0.37188613
-0.15062627 -0.028391218 0.20445143
0.023672085 0.1626153 0.041982733
0.08325284 0.2587709 -0.029392086
-0.062020976 0.019872978 0.03192565
0.16230457 0.2411473 -0.106090635
0.041016243 0.03778022 0.057871576
-0.07001105 -0.03114504 0.043409515
-0.0025608162 -0.21411443 0.20856453
0.110276625 0.079552464 -0.12203731
-0.12661071 0.035913724 0.20229654
0.025551159 0.097654186 -0.47737452
-0.06784538 -0.17612536 0.20806363
0.11048625 0.14228845 -0.43025577
0.035292484 0.1294384 0.0527539
0.06609364 -0.08369406 0.1766511
0.03760218 -0.05889577 0.20353526
0.054470032 0.2130951 0.014738796
0.064034805 0.22860654 0.0031958753
-0.03351533 -0.10317002 -0.4113494
0.18374243 0.037954696 -0.11650681
-0.011670969 -0.043229707 0.20354569
-0.21311715 -0.15618736 0.18419911
-0.12804973 -0.047217816 0.15342945
-0.17620859 -0.16389665 0.2087501
-0.0089391405 0.1792527 0.017432885
-0.044132 0.11895709 0.013703705
0.07610637 0.022747906 0.033421434
0.008397043 0.07008273 0.060627937
0.06196906 0.15525131 0.042068694
-0.044300243 -0.0026834034 0.042995468
-0.11784903 -0.07167739 -0.11154581
0.069922 0.17457432 -0.4502279
-0.1417179 0.010949302 0.20173486
0.11506208 0.30866545 -0.124832764
0.08403562 0.08319489 -0.45709583
-0.015279371 0.10720637 0.05072646
0.0036926232 -0.19197702 -0.22053571
-0.051108122 -0.1073969 0.20243599
-0.044184122 -0.19535254 -0.2956483
-0.15087084 -0.16502473 0.20853762
0.04815259 0.12944502 0.05161339
0.16199769 0.27127457 -0.13869192
0.16006961 0.2119756 -0.08900272
0.022418832 -0.05430143 0.2035455
0.031028055 -0.11075101 0.053821214
0.07617336 0.12617935 0.04712379
-0.11675916 -0.17348102 -0.21668956
0.008297739 -0.0479058 0.20349154
0.031987026 0.07523981 -0.4790404
0.14106132 0.30046582 -0.13567981
0.08465998 -0.18584208 0.20687258
0.06154208 0.31576318 -0.11477054
0.08114595 0.19588459 0.019888029
-0.025570204 0.15391609 0.015842954
0.010987054 0.11901005 0.054889724
0.0512561 0.00726016 -0.4622901
0.043141805 0.17388773 -0.2735493
-0.13088627 -0.10836055 0.03562492
0.14947183 0.17758435 -0.077851035
-0.039005168 -0.18393463 -0.018972907
0.09653987 -0.07524622 -0.20692238
-0.008415249 -0.053630635 0.20382482
-0.005182558 0.23817441 -0.37760958
0.18498862 0.07961011 -0.13891448
-0.14741346 -0.15295736 0.20814337
-0.07088495 0.10425546 -0.3848126
-0.06737414 0.032675687 0.021245569
0.11636893 0.18170199 0.008341665
0.07125008 -0.029518887 0.20233056
0.039742127 -0.12753235 -0.18644288
0.010905598 0.28563118 -0.22784784
-0.11788182 -0.0070829713 0.20349672
-0.013110498 0.14083102 0.03981182
0.09257351 -0.070155546 0.18384464
0.06649102 0.080838844 -0.47096792
-0.11569407 -0.16778128 -0.050716523
0.031432264 -0.0082620485 0.049724746
-0.10025895 -0.022559822 -0.02347895
0.047215763 -0.06829855 0.19477187
0.03794463 0.104349494 -0.30779272
0.0996494 -0.05915193 0.19139886
-0.11803664 -0.07223829 -0.12520199
0.03603306 -0.22714163 0.20749642
0.016708972 -0.18350257 0.14102079
0.035726823 -0.034675974 0.20282969
0.048067268 -0.11527843 0.11069594
0.03601402 0.07682904 0.060157917
0.055867363 -0.05997413 0.018589517
-0.12339773 -0.14640348 0.14924082
0.16661029 0.09914756 -0.15238747
0.056043528 -0.12433443 0.14435312
0.039456498 0.17590728 0.036089245
-0.015869252 -0.04590584 0.20366646
0.04421568 0.16730782 -0.2706548
0.005019145 0.13848032 0.04799189
-0.17556693 -0.09165589 0.20658469
-0.1405873 -0.06498525 0.20544806
-0.105602756 0.027331749 -0.38363227
0.10953326 -0.047773197 0.20250429
0.14158942 0.17245512 -0.03069625
-0.17615812 -0.10746611 0.20706265
0.08493951 0.14199583 -0.45707634
-0.11797705 0.007939439 0.20304872
0.06340204 0.089887984 0.055090178
-0.11115174 -0.15413597 0.17416702
0.06718653 0.1518426 -0.46028543
0.14026734 0.16456082 -0.29626918
0.15527523 0.23517981 -0.0776587
0.008868145 0.26251072 -0.3669824
0.04322596 -0.11310256 -0.2549578
0.00811677 -0.18377964 0.12526987
0.11907781 -0.026621541 -0.12609951
-0.0022316829 0.03282696 0.058380056
-0.13340634 0.025078429 0.19711502
0.07200963 0.19838382 0.020203209
-0.07836549 0.10403588 -0.024704786
0.049694702 0.21148142 0.0162016
0.12845418 0.11828535 -0.39305562
0.06434744 0.3296462 -0.16487028
0.1344562 0.31768325 -0.23987532
-0.03639589 0.044576343 0.050694298
-0.17611423 -0.055634476 0.2055134
0.06956884 -0.15561374 0.20611544
0.00068863155 0.17341906 0.029761296
-0.13673578 -0.058421634 -0.13448313
-0.2032671 -0.10577453 0.2072756
-0.14892972 -0.081895545 0.20603417
0.051862784 0.27634197 -0.04386236
0.10304983 -0.055759534 0.20280631
-0.122008 -0.15462138 0.20794648
0.09872297 -0.04379488 0.20249029
-0.049117792 -0.101937845 0.1785003
-0.07665464 0.043177698 -0.030348964
-0.03318884 -0.18178438 0.1867891
0.13203812 0.015873607 -0.11234095
-0.11316651 -0.018288203 0.2037858
-0.12353983 -0.087604 -0.15243582
-0.05285688 -0.17851703 0.072545946
0.086645484 -0.13651769 0.20537908
-0.12607688 -0.15299502 -0.07667705
0.051859535 -0.0710595 0.1621469
-0.0070899753 -0.17545976 0.057406187
-0.026900426 -0.18464477 0.09825505
0.009342539 -0.18582442 0.14137201
0.07850296 0.24695359 -0.016690036
-0.070089094 0.06126321 -0.01676957
0.05110884 -0.116746604 0.121341765
0.01219332 0.013876178 -0.30028242
-0.20383991 -0.15559052 0.20877007
0.13797887 -0.02616498 -0.12260275
0.052392624 0.042178985 0.055328164
-0.05490765 -0.19581945 0.05230311
-0.043314908 -0.020903377 0.10579166
-0.04159074 -0.1870755 0.20813577
0.048936803 0.087216586 0.058344822
0.1639038 0.119423054 -0.18489131
-0.064190455 0.13737804 -0.027269108
0.10735061 0.19406958 0.00989916
-0.12083328 -0.06372833 0.11490137
0.0027869674 0.16244464 0.037744507
0.08784973 -0.10062069 0.20429428
-0.05190095 0.07492971 0.028476141
0.16248101 0.032609537 -0.113598794
0.10753744 0.32866028 -0.21713883
0.05889934 0.33274356 -0.20609789
0.12487984 -0.059745092 -0.2554326
-0.061821852 -0.17490883 0.083942324
-0.13309856 -0.11515591 -0.22187556
0.00626126 0.11631829 0.054823514
-0.08232035 -0.18835315 -0.0075232238
0.0680129 0.055091936 0.05015147
-0.016434273 0.27555034 -0.20134981
-0.008759 0.03611664 0.05806538
-0.120998085 -0.08037974 -0.096245915
0.074068174 0.10379508 0.050289664
0.04774597 0.053721637 -0.47717172
-0.012563769 0.23588087 -0.094464
0.050083097 -0.19577886 0.20750536
0.11812585 0.2673441 -0.05468149
-0.10188464 0.038675383 -0.034932863
0.0005332648 0.032739505 -0.32328135
0.06876738 0.023918489 0.041072786
0.038731813 0.065967575 0.060033284
-0.08289539 -0.16487607 0.15719336
-0.08843901 -0.004228107 0.11863526
-0.13178469 -0.114675164 -0.025779873
0.13178477 0.04528104 -0.11381634
0.044716958 -0.06984381 0.12152756
0.13693723 0.0822787 -0.12894116
0.13112469 -0.045824703 -0.13494542
0.10492998 0.04725397 -0.11272363
0.018458994 0.16239905 0.042093173
0.059546392 -0.0752936 0.118216775
0.06809176 -0.039072394 0.20264678
0.018905507 -0.17479327 -0.025863184
-0.15557878 -0.1307887 0.20756008
-0.029604599 0.23916802 -0.13199389
-0.1070334 0.021830788 0.20252745
-0.06645643 0.015766785 0.20231442
-0.108752675 -0.052537445 0.090620644
0.11123283 -0.08525272 0.20360816
0.05291651 0.22638744 0.006461913
0.13360357 0.2987688 -0.119067065
-0.20102985 -0.16416837 0.20899923
-0.038591508 -0.18055207 0.16544169
-0.003934717 0.2243109 -0.027071912
-0.07988766 -0.010734055 0.01597959
0.045656595 0.12625653 -0.29103523
-0.028366448 0.19348642 -0.057327624
-0.047202807 0.1126813 0.013077726
0.069230855 0.3318754 -0.1772492
0.10608526 0.057204545 -0.031009933
-0.17958131 -0.097577624 0.20680077
-0.0025155435 -0.17724663 0.07416088
-0.070746064 -0.19156279 -0.28052187
-0.0500269 0.059014264 0.038568944
-0.08548659 -0.025321975 0.050939675
-0.1278493 -0.09973419 -0.20733654
0.14256747 0.30647224 -0.15967982
0.08978563 -0.18484603 0.20679288
-0.027826855 -0.18331122 0.07337149
-0.029533599 0.2122943 -0.07408957
0.14038144 -0.01778089 -0.11858849
0.09737936 0.18332663 0.02052813
0.0471596 -0.055812385 0.035861418
-0.11523715 -0.021769676 0.201495
-0.040690586 -0.12785657 0.18249983
0.054600295 0.21301056 0.0147979455
-0.04310623 -0.18140791 0.08330517
0.06291473 -0.06867237 0.20358178
-0.19750477 -0.11776976 0.2075781
-0.0309585 -0.19276713 0.20820257
0.12671582 0.2272157 -0.025406344
0.019458443 0.30425397 -0.23450485
0.14733586 0.014902335 -0.11219921
-0.12677789 -0.14383227 -0.2777931
0.00040984608 0.07281071 0.059731208
-0.062029358 -0.19471434 0.020762468
0.037801273 -0.00086915045 -0.2883241
0.04968845 -0.2410653 0.20886263
-0.06317975 -0.20918673 0.20900603
0.18343334 0.11033961 -0.17966022
-0.100530215 -0.016453622 0.20360808
-0.018116163 0.27098557 -0.16433938
0.02618147 0.08910534 0.059324924
-0.0668687 -0.002740748 0.027826415
-0.05166937 0.11002088 0.004260218
-0.16295654 -0.0011839393 0.20375815
0.02497459 -0.16843015 -0.14429896
0.015893288 -0.15084237 0.051313642
0.012765425 -0.01457159 -0.11476369
0.122386664 -0.051137168 0.17789727
-0.18371327 -0.1320817 0.20787188
-0.15523769 -0.110632196 0.20695463
-0.023124667 -0.2004566 0.085753486
-0.06711221 -0.023236841 0.20348676
0.07732503 -0.08766774 0.2040097
-0.05231476 0.007480664 0.20242488
0.096338876 -0.11491438 0.20463899
-0.12015781 -0.07787894 -0.03896365
0.12235929 0.2897695 -0.091120705
0.096494146 0.06865676 -0.11607103
-0.0012539424 -0.004370784 0.20228305
0.1438044 -0.085250765 -0.2153597
-0.010685052 0.00059794233 0.051132143
-0.028875332 -0.18622297 0.20798662
0.0036766636 -0.19694765 0.09279008
0.02894438 0.24604109 -0.01565792
-0.11677383 -0.15191151 0.18016502
-0.10197013 0.029247226 0.20225643
-0.18865076 -0.16943018 0.20903608
0.0726844 0.18104082 0.029983617
0.06123033 -0.13778754 0.20566386
0.033975843 0.008130536 0.05396987
-0.116436094 -0.1652675 -0.015588793
0.0028098354 0.24941786 -0.055787895
-0.041683275 -0.18134731 0.05628435
-0.07517122 -0.17317206 -0.008004242
-0.073736906 -0.020509128 0.20346932
0.05308843 0.069367826 0.057672434
0.07616783 0.06255205 0.047276307
0.104413606 0.25183737 -0.0301249
0.11207156 0.14161618 0.018702507
-0.041707397 -0.10028634 0.20554286
-0.07637767 -0.1964909 -0.18719263
0.07571489 0.1458908 0.041920025
0.035608858 0.11197696 0.05531875
0.08960705 -0.13200095 0.20521511
-0.13100795 0.0030279465 0.20332226
-0.13340281 0.03486978 0.20239373
0.07389071 -0.05644059 0.20310967
-0.08829594 0.065872006 -0.38136056
-0.12961794 -0.13016759 0.011312712
0.043542467 -0.17340375 0.20271651
-0.13696471 -0.059489913 -0.28288147
-0.03258019 -0.21667041 0.20893267
0.15385288 0.2494867 -0.08593684
-0.15129188 -0.12954472 0.20748156
-0.071039446 -0.026068026 0.18440272
-0.14043571 -0.047911707 0.20493588
0.034388594 -0.1424682 -0.20875253
-0.010515123 0.18678814 -0.3618117
0.17573991 0.101656266 -0.15965278
-0.00932197 -0.19477083 -0.03962476
0.017417697 0.18550918 0.02975119
-0.08241198 0.09279868 -0.023678534
0.109457046 0.13003263 0.021946535
-0.055923223 0.10482905 -0.023730537
-0.11473983 -0.020539332 -0.32791936
0.13051431 0.11415566 -0.15495275
-0.035296094 -0.1905394 0.20817813
0.06111033 -0.12931497 0.16488239
0.051162176 -0.09541876 -0.05195513
0.07835882 0.21549328 0.00793456
0.028785788 0.03292346 -0.4778502
0.1538753 0.1924129 -0.22436275
-0.08603089 -0.0059196656 0.20315285
0.11847026 0.22011667 -0.012602661
0.18993726 0.042624477 -0.30795825
0.20468016 0.10643743 -0.1931237
0.02978116 -0.014437727 0.20059027
0.0530318 0.047509298 -0.47397715
-0.017201478 0.22388074 -0.07960745
0.008975436 0.042988673 -0.32179937
-0.030852249 0.07339951 0.04985661
0.052864473 0.26383448 -0.02891221
-0.17154305 -0.12259704 0.2074702
0.11921599 0.10809357 0.0043571093
0.006364557 0.14843611 0.045295987
-0.11140548 -0.17132626 0.20834278
0.0114434725 0.07960518 0.060313556
-0.123697504 -0.18441188 0.20885362
-0.13772044 -0.07607892 -0.157347
0.018183842 -0.17809802 -0.15033278
-0.09897104 -0.17940871 -0.27907678
-0.00249189 0.24883397 -0.08451103
0.109621786 0.08691667 -0.12607636
-0.033921152 -0.039897744 0.20366198
-0.011184213 0.27379292 -0.16503672
-0.09015856 -0.0077436836 0.036998212
0.057322934 0.035640955 0.05177597
-0.042026058 0.010630392 0.17706156
-0.0047937464 0.24640562 -0.11029469
0.027897853 -0.06371868 0.12362133
0.052826833 -0.14879014 0.16175787
0.15085936 0.3059515 -0.20146275
-0.1287854 -0.09878463 0.102507606
0.026610754 -0.114079565 0.016172772
0.030261056 -0.024971955 -0.45886615
-0.01580549 -0.2191564 0.20884398
-0.12999268 -0.105463274 -0.13036105
-0.13035755 -0.11805478 0.10625435
-0.07494769 -0.1791199 0.20822147
-0.16684143 -0.0013058317 0.19141826
-0.16947202 -0.105970055 0.20695339
-0.11606712 -0.17675535 0.20855024
-0.0433321 0.16047779 -0.040969115
0.078822084 -0.16525856 0.206314
0.0013924444 -0.19408576 0.19126156
-0.07735434 -0.1726122 -0.014778669
0.15275179 0.12764046 -0.2029464
-0.19873285 -0.14741553 0.20463058
0.08473648 -0.15007928 0.20580277
-0.102682635 -0.018839378 -0.33396056
-0.0648065 -0.19880602 -0.13174929
-0.008308933 -0.010582432 0.20253746
-0.060192343 -0.19689764 -0.024823185
0.015501555 0.030569602 0.058870602
0.015741793 0.10297887 0.057815686
-0.13109313 -0.10815585 -0.0051265485
0.022055045 -0.1268371 -0.019197535
-0.048365448 -0.14543162 0.2069566
0.05577152 -0.13977978 0.16056903
-0.10332685 -0.013527519 0.20354812
-0.027759243 0.17197055 -0.0056286016
-0.13729475 -0.06048093 -0.308323
-0.03124688 -0.0007727384 0.20246698
-0.12993354 -0.10543247 -0.17616677
0.056915604 -0.079197474 0.030251471
-0.1337905 -0.0034992318 0.20354408
0.08247588 0.08528812 0.046058398
0.0483641 -0.2170035 0.19202796
0.0015270658 0.15199263 0.042537667
-0.0031766456 0.14582407 0.04323603
0.023522098 -0.19117644 0.17975841
-0.0794459 -0.20804404 0.20913
0.034196828 0.06547018 0.060515083
0.050861947 -0.022274725 0.20231214
-0.08082009 0.025068112 0.19115245
-0.110263735 -0.1725602 0.20836838
-0.075245336 -0.17113003 0.20798582
0.06171272 -0.01297143 0.028603334
-0.1425005 -0.04796798 0.20495787
0.08960038 0.13401544 0.039597128
-0.012467664 0.27025688 -0.15500805
-0.028444503 -0.22203122 0.20905249
-0.19926873 -0.09137364 0.19387907
-0.15041275 -0.17586449 0.20885728
0.038426466 -0.18896392 0.20741504
0.09487669 0.20915884 0.008221985
-0.10291581 -0.17668134 0.11718733
-0.0713813 0.09082791 -0.028643778
0.16856404 0.23011583 -0.25033844
0.16083425 -0.021287583 -0.11689445
0.013609792 0.038434796 -0.47787264
0.02287098 -0.22830075 0.20874184
0.1231336 0.12756763 -0.17058483
0.078086115 -0.066483036 0.10755771
-0.04802714 -0.011302829 0.2029445
-0.11616413 -0.17072095 -0.13382934
-0.039779156 -0.18269889 0.015603597
-0.02374035 0.21463165 -0.35933024
0.073108666 -0.2243972 0.20813698
-0.0090800235 0.2252467 -0.041157786
0.13530655 0.31810367 -0.21943147
0.1394701 -0.0768076 -0.1663861
0.17684317 0.11621781 -0.19144455
0.1761672 0.071955405 -0.13149858
-0.052124802 -0.2016774 -0.11437158
0.01202967 0.19414149 0.022334706
-0.053175222 -0.21415038 0.209057
0.09347814 -0.048629966 -0.15034226
0.08408909 0.18192387 -0.44346178
0.16765296 0.10954348 -0.1664652
0.017200496 0.023073176 -0.30473956
-0.026684033 0.1981508 -0.0603622
-0.053383056 0.04621093 0.03811042
0.030054847 -0.1226264 0.06532627
0.069579676 0.060106494 -0.46604595
-0.016459433 -0.101055875 -0.41823003
-0.12956129 -0.17839101 0.20873034
-0.09369718 0.020631516 -0.36529222
0.08833494 -0.05638734 0.20296782
0.14473148 0.16434768 -0.10166249
0.041447565 0.03936631 -0.30555898
0.06593558 -0.035660807 0.20256591
-0.101307794 -0.009131366 -0.059176072
-0.19542217 -0.080680646 0.19664945
0.06964481 0.17310481 0.03347037
0.114715844 0.13010529 0.016484965
0.076954335 0.13665387 0.04442969
-0.024682032 0.18806534 -0.34974003
0.0070207077 -0.24335322 0.19569804
-0.030132672 -0.20230944 -0.107521415
0.045995004 0.09111819 0.05799086
0.011272686 0.12260159 0.053862114
0.06390539 0.06580997 -0.30557734
0.14772771 -0.039912183 -0.2881974
0.043420445 -0.07064833 0.08345008
0.0675136 -0.109181255 0.20474795
0.06066445 -0.11349805 0.14612705
0.023318965 0.16994213 0.03912698
-0.062215377 -0.15282989 0.20731226
-0.18873973 -0.0621366 0.19036111
0.034016922 0.24866551 -0.015735688
-0.19203374 -0.08720242 0.20661132
-0.05573679 -0.12025287 0.20296498
0.120628715 0.20394628 -0.005618274
0.097908095 0.2656391 -0.0427967
-0.016113387 -0.19643055 0.039103482
-0.13930632 -0.17241517 0.20864627
0.037353657 -0.1338813 -0.088421986
0.1313385 -0.05304216 -0.14125189
-0.048197173 0.12206229 -0.020885784
0.10747949 0.29394114 -0.088462375
-0.03234917 -0.071596734 0.20459437
0.05586598 -0.12685505 0.14660446
0.17210914 -0.0069210534 -0.31603518
-0.0850106 -0.1868228 0.009303702
-0.042350773 -0.034440916 0.20358108
-0.041168436 -0.18133467 0.11420544
0.1272336 0.3212575 -0.19700904
0.08353069 0.18027335 0.027229583
0.16566864 0.078573346 -0.13323107
0.073718086 -0.06266644 0.20329729
0.10130181 0.120206766 0.032374654
-0.13178812 -0.11113439 -0.05727263
-0.13771316 -0.09062023 0.13717167
-0.06532708 0.012827484 0.20239139
-0.056281243 0.09960016 -0.023022491
-0.21326852 -0.15565109 0.18844199
0.007384223 0.16471553 0.038459804
0.13684283 0.25777122 -0.061430108
-0.11595173 -0.066002876 0.027158381
-0.07230631 0.021763872 0.20219226
0.05707129 -0.17738652 0.20688781
-0.13672253 -0.10178843 0.125914
-0.12741224 -0.097861946 0.018512981
0.1844709 0.049321584 -0.1202324
-0.1624687 -0.13162099 0.20765172
0.03113533 -0.25232518 0.18702336
-0.020964935 0.08373892 0.053070232
-0.16394776 -0.030325651 0.20463869
0.13475241 0.07842395 -0.12638551
-0.027254757 -0.20204827 0.121628374
-0.1857078 -0.17381278 0.20021157
-0.13134708 -0.12294791 -0.019788107
-0.052849304 -0.19627437 0.053313464
0.046414193 0.16009492 -0.46004274
0.04818568 -0.10443103 -0.3074991
-0.10922658 -0.014353553 0.13157447
-0.06832983 0.09020295 -0.027115744
0.04289698 -0.17977501 0.20709683
-0.031358298 -0.20439026 -0.17486592
-0.048248135 -0.18888631 0.20825471
0.05664447 0.252832 -0.016466875
0.07691474 -0.07580491 0.20365869
0.06772249 -0.08671359 0.18543848
-0.041411787 -0.19847398 0.07696925
-0.04743038 0.124205925 -0.01601664
0.089172386 0.29357642 -0.07578339
0.05019273 -0.022099588 0.19121535
-0.12051445 -0.023577763 0.15553857
-0.035892658 -0.2022281 -0.08087446
-0.05437779 -0.19944714 -0.06062599
-0.13821715 -0.15498672 0.20811471
0.09369826 0.09583607 0.037821434
0.033615883 -0.1446539 -0.22223322
0.00051792315 0.18451978 0.021620449
