# .PCD v0.7 - Point Cloud Data file format
VERSION 0.7
FIELDS x y z
SIZE 4 4 4
TYPE F F F
COUNT 1 1 1
WIDTH 1000
HEIGHT 1
VIEWPOINT 0 0 0 1 0 0 0
POINTS 1000
DATA ascii
0.13758425 0.008422277 0.1436593
0.19724184 0.04974201 -0.116569586
0.018500676 -0.08936727 -0.32933623
-0.101688944 -0.055523902 -0.0105857635
-0.3331323 0.05374737 0.10795852
0.055915266 0.025762197 0.14280316
-0.015494376 0.10392017 0.120000735
-0.3481546 0.10595531 0.14496692
0.20045434 0.0033426029 0.12648427
0.27205765 -0.10117496 0.04789948
-0.249552 0.19924793 0.06134538
0.1444028 0.027840994 0.14345497
0.19849801 0.040178053 -0.11966201
0.17919056 -0.07199331 0.08711954
-0.11016365 0.10200479 0.11531738
-0.07623209 -0.13716489 -0.16820355
-0.28612342 0.17917939 -0.09471595
-0.26591069 0.098747194 0.103232786
0.1724804 -0.10419175 -0.11354268
-0.049195245 -0.02058924 0.06078397
0.20648956 -0.07335723 0.09075319
-0.0079871 0.02591449 0.12402447
-0.051543765 0.0820699 0.12591185
0.20704854 -0.073391296 -0.19574085
-0.24560747 0.1707432 0.07789481
0.022008782 0.121599644 0.108844
-0.30039325 0.22015256 0.07961892
0.16776073 -0.11610919 0.048473172
0.0015693939 0.037515167 0.1328793
0.15898204 -0.083709635 -0.11935094
0.0994452 0.13407376 -0.09050595
0.060936514 -0.21109824 -0.19306666
0.008400504 -0.018901477 0.09006848
-0.25885195 0.21311451 0.053062472
0.25713062 -0.17357196 -0.04658244
-0.08746112 -9.13563e-06 0.049656417
-0.00102909 0.04357051 0.13401571
-0.19720292 0.097858995 0.10448888
0.24748437 -0.05422759 0.09254555
-0.29214823 0.09393162 0.10268231
0.010949619 -0.026931778 -0.1705054
0.33375776 -0.08488614 -0.06771077
-0.052035313 0.028188094 0.11175717
-0.08282689 0.039349418 0.108546495
-0.32873124 0.026039058 0.037536755
-0.016394895 0.056685 0.13272357
-0.26970652 0.10054406 0.10327216
-0.1354105 0.050816216 0.098807976
0.08633494 0.01012826 0.14228229
0.103915334 0.122633524 0.09033311
-0.16356581 0.17164734 0.07643995
0.22376382 -0.009149611 0.11411051
0.27344307 0.01187046 0.06278575
-0.24470982 0.12338006 0.1015504
0.13256292 -0.22722897 -0.16688676
0.09055437 -0.09212059 -0.3079488
-0.14142399 -0.007722628 0.0032070212
0.31264272 -0.113049805 -0.009701535
-0.14320035 -0.088908866 -0.1395022
0.30627078 -0.05777414 0.026089547
-0.067164965 0.04652304 -0.15957731
0.3060272 -0.14108123 -0.028407466
0.1590132 -0.09624226 -0.12707554
-0.29111668 0.1701426 0.07756001
-0.05965275 -0.0032151581 -0.24469872
-0.32791206 0.16648673 0.0808256
0.16555719 0.104233935 0.0648752
0.059112716 -0.022655433 0.09976875
-0.025387658 -0.19044112 -0.19928628
-0.025341924 -0.019300705 0.074965715
0.3169609 -0.11609169 -0.021132126
-0.17712978 0.049611155 0.08138986
0.22245641 -0.14180477 -0.0033203694
-0.124724075 -0.09005707 -0.08491014
-0.1717642 0.19923547 0.04307514
0.029028721 -0.046357688 0.08532643
0.15532269 -0.08981934 -0.26433438
-0.0379984 0.07944292 0.12797235
0.010502315 0.042012054 0.13611384
-0.099271774 0.11036907 0.11362654
0.23044537 0.027970718 0.10015571
0.00018136104 -0.1917784 -0.19918083
0.1834462 -0.062174067 0.10191943
-0.20887595 0.03783423 0.052971143
-0.2603507 0.163529 0.08184742
0.12638463 -0.23464243 -0.23874249
-0.087629594 0.04688494 -0.17440821
-0.19391502 0.04848132 0.07480924
0.022908652 -0.2098518 -0.24891682
0.23100367 -0.06000992 0.09758475
-0.27631584 0.070356086 0.092745826
0.075304046 -0.20664535 -0.19284077
0.20481357 0.044178765 -0.13701245
0.10130749 0.028971009 0.1482902
0.15238783 -0.19256215 -0.29320046
0.14805457 0.064929314 0.12977274
0.18826301 0.079162806 0.09920351
-0.20830862 0.12308435 0.10195167
0.062608734 -0.049336758 0.100661084
0.036558505 -0.2142426 -0.20293145
-0.2607446 0.011298874 0.0072738538
-0.27764612 0.18472663 -0.094387695
-0.111251466 0.16177799 0.081471935
-0.33735767 0.13564588 0.090163834
0.009508379 -0.038458604 0.087170646
-0.21577334 0.041768 0.059793636
0.19905798 0.06009871 0.10775634
-0.20984693 0.057477165 0.08398695
-0.008272641 0.12618434 0.10628441
0.09867799 0.105908655 0.11716929
0.22933635 -0.10372063 0.058089513
-0.12317766 0.008095567 0.041956183
0.0046288604 0.117108926 0.11267264
-0.14109163 -0.04548394 -0.062461328
-0.0901364 0.051662035 -0.16760755
0.045502283 -0.1935101 -0.20492911
0.103659876 -0.06742404 -0.1860448
-0.0943397 -0.14613354 -0.20945215
0.22329515 0.040711507 0.100530975
-0.33959782 0.07791644 0.15340534
-0.054470804 0.026464283 -0.17540373
0.08077752 -0.201906 -0.19473056
-0.057107918 -0.054211564 -0.30667943
-0.13182096 -0.024594313 -0.020353068
-0.304881 0.15302584 -0.08083908
0.040242855 0.0057823327 0.12756789
0.13032928 0.02348045 0.14616138
-0.15811458 0.16343337 0.082700096
0.21590166 -0.18325986 -0.039231364
-0.19545707 0.0500961 0.07669273
-0.059499938 0.16167612 0.0721396
-0.18477528 0.10264702 0.105635226
-0.2619087 0.16818371 0.07913122
-0.32962304 0.16242151 0.084906586
-0.11678601 0.11382103 0.11121085
-0.1221052 -0.0836354 -0.07210643
0.15963122 0.09438799 -0.08329618
-0.3045368 0.08413818 0.100435175
-0.03750244 -0.1693277 -0.19152334
0.20505978 -0.04371931 0.11443818
0.21700752 -0.22295243 -0.16009787
-0.29633904 0.04298437 0.062157907
0.040437683 0.12165368 0.10739321
-0.28831303 0.03832302 0.054074768
0.20394386 -0.20797986 -0.2436271
-0.2072342 0.012393905 0.009059121
0.2275856 0.026287038 0.10290847
-0.18706961 0.014008045 -0.067417644
-0.1438619 -0.0140190255 -0.013252342
-0.13821994 -0.010230339 0.00079091097
0.10316115 0.09836703 0.12196718
0.15471582 0.0071608885 0.14146009
0.15793175 0.012642647 0.14121091
-0.18636076 -0.03937395 -0.12001669
0.09659554 0.064206645 0.14094035
-0.21850565 0.16860373 0.079538845
0.30183694 -0.13244294 -0.01030372
-0.24965224 0.0713312 0.09334067
-0.23435375 0.011324873 0.007233234
-0.22430472 0.15787418 0.08565892
0.25003886 -0.15171228 -0.0094262175
-0.08878418 0.16264482 0.07690765
0.05570078 -0.02835132 0.10002765
-0.32583857 0.17085682 0.10775538
-0.2525629 0.07987046 0.09808517
-0.35871738 0.031074353 0.079586424
0.08779919 0.11779809 0.10506505
0.12457941 -0.020993216 0.12990491
0.29106602 -0.07372381 0.04658603
-0.04737667 0.01842682 0.10539618
0.0634718 0.14113764 -0.11018788
-0.33156508 0.05776636 0.1046844
-0.087055534 -0.16267692 -0.1885584
-0.1313599 0.11654038 0.10914292
0.23231854 0.041183792 0.09305627
0.23421223 -0.1646047 -0.256
-0.11760516 0.067227274 0.112973854
0.21294086 -0.18867677 -0.255522
0.26679757 -0.025992274 0.079485156
-0.24078202 0.02743017 0.035091788
0.08156969 -0.17010728 -0.32391506
0.012212113 -0.022132728 0.09063034
0.1269084 0.1057315 0.107634366
-0.2816542 0.10341016 0.103276856
-0.11189138 -0.13950329 -0.21122731
0.047113568 0.022977356 0.13898624
0.32103434 -0.09824055 -0.019352369
0.1808116 0.096551895 -0.10026177
0.2008094 0.010754749 0.12518765
0.2604924 -0.051137637 0.08419878
0.22033702 -0.15861766 -0.004488123
-0.118913464 -0.037711266 -0.02401811
-0.27532604 0.24932617 0.061540782
-0.2715216 0.26166046 0.056038707
0.028902927 -0.09208412 -0.32977217
0.24110661 -0.15170108 -0.014067921
-0.21845794 0.036510583 0.050714597
0.060555015 -0.22465742 -0.26389062
0.0012717332 0.09743931 0.12400122
-0.07271627 -0.04032896 -0.29424807
-0.14385034 0.11028058 0.109919764
0.06654803 0.09893705 0.12411318
0.013294161 -0.08915663 -0.3296457
-0.05476528 -0.019867564 0.056242328
-0.2684505 0.063062586 0.08838649
-0.20847085 0.20183624 0.055875737
0.26284277 -0.0015630067 0.07865652
0.12906992 -0.032862216 0.12123069
0.02040559 0.007720226 -0.013418442
-0.0007021396 0.032903362 0.13005929
-0.28806856 0.248073 0.063651174
0.007289869 0.13992326 0.08977845
-0.023941943 -0.008373289 0.0746306
-0.103526264 0.052527297 0.109568916
-0.104689606 0.14976089 0.09140254
-0.15766656 -0.08737413 -0.15157041
-0.19692433 0.15663394 0.08678636
0.05706322 -0.014758877 0.11229033
-0.049290046 -0.04696115 -0.30363598
0.1657196 -0.011633843 0.13495329
-0.2862682 0.16881776 -0.08969592
-0.27594995 0.28241578 0.04396487
-0.258349 0.011314679 0.0072929175
0.10611399 0.10661888 0.11480094
-0.1599875 -0.065541446 -0.11143251
-0.15024707 0.15142572 0.09049902
0.015151318 -0.0398783 0.088145055
-0.24287489 0.16175957 0.083132885
-0.16059798 0.15198466 0.090020604
-0.0072533153 0.0090039335 0.11279278
-0.33561975 0.010174693 0.054754127
-0.05194178 0.051521458 -0.12531522
0.16631608 -0.21329308 -0.12193978
-0.12620598 -0.049326062 -0.022990393
-0.23728627 0.17120141 0.07775431
0.23011313 -0.17548233 -0.062273555
0.19938526 -0.1516749 0.0057670143
0.13647087 -0.057000827 0.09025255
-0.19771132 0.042954218 0.06298631
0.033562504 0.10286387 -0.1950388
0.1243496 -0.011433925 0.13580066
-0.2527151 0.07861562 0.09737208
0.10882953 -0.22994584 -0.23160821
-0.19452082 0.15026137 0.09050921
0.095906675 -0.12414977 -0.3304813
-0.052028377 0.08418194 0.12547192
0.27978167 -0.033182744 0.06556081
-0.28625357 0.2592713 -0.02824567
0.14349836 -0.21790263 -0.1439315
0.17967245 -0.022929978 0.12898543
0.25535458 -0.03046942 0.09107366
-0.00798895 0.021323811 0.121450916
-0.2594923 0.29176697 0.031351577
-0.18350187 -0.056497205 -0.14891222
-0.2578589 0.017980728 0.018814305
0.16344815 0.0914458 -0.08459697
0.11132783 -0.11186261 -0.32044148
0.118203 -0.22502819 -0.17182785
-0.072300985 0.12182385 0.10879224
0.21353333 -0.04948866 0.109085545
0.25970295 -0.21217892 -0.14432248
-0.19140017 0.21479468 -0.007017738
-0.25832856 0.14280623 0.09386584
-0.11580409 0.040360995 0.098353975
-0.31982437 0.0388595 0.0551043
-0.33663094 0.02154293 0.07646411
0.13447736 -0.026051603 0.12754387
-0.035325445 -0.16420144 -0.19468386
-0.13194273 0.08156948 0.11327203
-0.18155488 0.12442615 0.10257542
-0.09792815 0.04590245 -0.18241876
-0.02169956 0.030767292 0.12252875
-0.29237375 0.221026 0.079233706
0.20128043 0.036809828 -0.12962691
0.17410342 -0.09036333 -0.093869604
0.09601093 -0.114167176 -0.3271586
-0.3247091 0.1872528 0.093845196
0.14626592 0.115330406 -0.085843414
-0.21201305 0.010135352 0.0051043
-0.029902687 0.013583803 -0.06227678
0.23922999 -0.076410815 0.08308171
-0.27213886 0.25220862 0.0465767
-0.11689642 0.0021902614 0.03549549
0.31026754 -0.06813761 0.016550228
0.1146267 -0.23403339 -0.25085717
0.07719518 -0.13152114 -0.33604226
-0.3304219 0.0841495 0.13851145
0.016120058 -0.02609258 -0.176834
-0.109776236 -0.0721948 -0.047654174
0.070004076 0.09521023 0.12623826
0.13550092 -0.030970318 0.124136694
0.03982514 0.088266976 0.1298857
0.27533904 0.005153727 0.06305791
0.22531007 0.04676761 0.09601428
-0.16350073 0.103800334 0.10887727
0.1828043 -0.20993988 -0.10600921
0.036778137 -0.20144916 -0.20017433
0.045760237 -0.020384885 0.097887814
0.20009384 0.028348716 -0.1306235
0.1111502 0.12118348 0.08650319
0.19964659 -0.09305223 -0.24287325
0.0001960738 -0.061471142 -0.30972952
0.15864412 0.0058554923 0.1404785
-0.13778883 -0.0913445 -0.09514375
0.13454776 0.09157343 0.11849974
-0.028223496 -0.015746405 0.07369873
-0.27002814 0.2134522 -0.06897569
0.2847194 -0.1950276 -0.16602537
0.2455056 -0.07454095 0.08201325
0.09919527 0.09371657 0.124802455
0.22512215 -0.15160522 -0.018881641
0.062545866 0.08264308 0.13347939
-0.04877288 -0.16574138 -0.18552005
0.028185653 -0.0945626 -0.19418462
-0.10741272 -0.065670244 -0.0506441
-0.3293316 0.06698423 0.10549983
0.20592761 -0.10157415 0.051865865
-0.009378095 -0.20087285 -0.25544107
-0.054492716 -0.0115159005 -0.25602373
0.04054727 0.04888881 0.1423385
0.12650883 -0.1102732 -0.3125154
0.008806441 0.023810573 -0.16161397
0.09799356 -0.23169726 -0.26657078
0.022067156 0.045684498 0.13896284
0.17497878 -0.029402118 0.12595516
0.09343625 0.04629306 0.14726566
0.19712162 -0.2129993 -0.14789082
0.27613547 -0.008458784 0.06575618
-0.1824861 0.038988158 0.05958408
-0.26812112 0.11886316 0.10225197
-0.11419558 0.14531332 0.094575465
0.0583768 -0.017646288 0.10805698
0.12517448 -0.06597056 0.09539452
0.2595339 -0.06199923 0.08157633
0.29971522 -0.019424193 0.03647138
-0.35368174 0.035261158 0.089968875
0.16576794 -0.025686562 0.12863359
-0.046426576 -0.012109934 0.06410777
0.27510217 -0.092063226 0.053676143
0.11137581 0.024163099 0.14810272
0.1542696 -0.017990591 0.13355175
0.20557375 0.0251326 0.11809529
0.021024115 0.0013102817 0.11700491
0.20104058 0.05723169 -0.12312097
-0.28242764 0.23636937 -0.036579654
0.18980466 -0.18635319 -0.08338551
-0.12175015 -0.030738248 -0.024913387
0.21349321 -0.21576683 -0.14270864
0.12499901 0.020422844 0.14655076
0.24145232 -0.19787915 -0.09538446
0.20211414 -0.09349759 -0.24214092
-0.028170096 0.13540265 0.09984227
0.005652487 0.06255606 0.13614063
0.26039895 -0.13544515 0.013385953
0.09846052 0.02588723 -0.24295096
-0.02730393 -0.18902755 -0.19799213
0.219898 -0.19914545 -0.2390621
-0.12738575 -0.11261888 -0.17119287
-0.19118848 -0.031672977 -0.13390067
-0.16550753 0.10004361 0.10856601
0.11364405 0.115229435 -0.07835117
0.16263905 -0.0010048442 0.13820794
-0.12891753 -0.115623005 -0.17737024
-0.12112679 0.09146206 0.115948536
0.11401761 0.07678287 0.13198209
-0.13558586 0.14044812 0.09706922
-0.2929162 0.058586914 0.08497352
0.21589728 -0.22705303 -0.17840695
-0.0056516207 0.0079071745 0.112403035
0.08982526 -0.0045802267 -0.007804204
-0.12421203 -0.031611476 -0.027942078
-0.11831999 0.11628637 0.110070944
-0.084630996 0.157588 0.08331565
-0.02179029 -0.03163548 0.079936795
0.08232919 0.024244642 0.146581
0.00839831 0.11976961 0.11061136
0.12701546 -0.21140929 -0.1667783
-0.23873216 0.021675784 0.025138695
-0.28886062 0.10621069 0.103467524
-0.11292445 -0.042123497 0.0059209364
-0.26145053 0.033830393 0.046222016
-0.085069574 0.04643543 -0.17362712
0.09887598 0.04203919 0.14773461
0.21099739 -0.033760615 0.116357595
0.19508961 0.058163643 0.11132738
0.25983402 -0.1073549 0.047462367
0.29200938 -0.01849856 0.047719456
-0.3450885 0.05792266 0.13475409
-0.08250595 0.018507626 0.08498669
-0.099777885 -0.12055647 -0.13442218
0.21080783 -0.1528465 0.0107077975
-0.08310806 -0.13242593 -0.15997645
-0.33410254 0.02931579 0.075530484
-0.25021923 0.21354303 0.052047905
0.070925035 0.063275784 -0.24901041
-0.006734253 -0.2033813 -0.2670556
0.08579352 0.013485651 0.14388075
0.2537509 -0.14193195 0.006110505
0.20094799 -0.049444027 0.11072705
0.06619253 0.0019818505 -0.22334516
-0.075027384 0.020046366 -0.2135212
0.094709694 0.08378916 0.13063313
0.044844437 0.027551096 0.1404964
0.1279513 0.08026966 0.12806545
0.20094424 -0.14182775 0.023897765
-0.0029651814 0.07996997 0.13121161
-0.10944642 -0.14250705 -0.21612993
-0.34383032 0.0893238 0.15280315
-0.08730446 0.12680058 0.10568817
0.20351137 -0.20702817 -0.13356729
0.15383208 -0.23242171 -0.1629408
0.02292507 -0.028839082 0.10201145
-0.25251204 0.23415036 -0.10180311
-0.34292564 0.03158421 -0.03917947
0.19248725 -0.19656245 -0.076752886
0.17592658 0.010752244 0.13637881
-0.31937107 0.15822494 0.031007558
-0.14943932 0.16646293 0.080084294
-0.057106916 -0.063658305 -0.31118894
-0.10455363 -0.02051524 0.0034344418
0.09322231 0.016215626 0.14593257
-0.14229503 0.16254039 0.08291057
0.10719347 -0.15436757 -0.3282761
-0.0797901 -0.16601543 -0.27330178
0.23412585 -0.17075117 -0.051567543
-0.053627357 0.111664414 0.11494934
-0.110821776 -0.12885728 -0.14409415
-0.030915473 0.0692657 0.13064723
-0.26973706 0.04952038 0.07336848
0.05656809 -0.015802851 0.11016694
-0.321367 0.16370684 0.036435883
-0.23309118 0.16389567 0.082043655
0.2754207 -0.018613832 0.06833233
0.19662033 -0.1909055 -0.06435788
0.21560974 -0.008107222 0.11930642
0.26093656 -0.18368085 -0.06708943
-0.040721036 0.15884566 0.07230491
0.28511733 -0.034302704 0.058798704
0.26079133 -0.2073365 -0.12792717
0.3233227 -0.046171788 -0.013240998
-0.25168446 0.2897388 -0.019580904
-0.35164106 0.09601868 0.1506631
0.21144441 -0.15962099 -0.0007210639
0.10329804 0.10605412 0.11595916
-0.1341172 -0.059176482 -0.074807875
-0.08400591 0.16688961 0.069705844
-0.26805127 0.25025854 0.01851775
0.30488735 -0.11940567 0.0004996345
-0.12998371 -0.08481344 -0.10729026
-0.2707594 0.28389093 0.043189377
-0.31763536 0.09030972 0.10220459
0.23308043 -0.048843633 0.101759724
0.29715863 -0.16649622 -0.059093814
-0.075559855 -0.0345075 0.04205187
-0.11137237 -0.0007332854 0.033773392
0.2922185 -0.10611879 0.027723636
0.10896909 0.08190978 0.13003656
-0.028805217 0.022526493 0.11572537
-0.121755496 -0.0022296666 0.024814507
0.17470758 0.04721777 0.12612714
0.10352674 0.045680657 0.14684112
0.033697527 0.098181814 0.12405792
0.18881701 -0.2244311 -0.17291029
-0.22331268 0.22670092 0.029235816
0.22553748 -0.17469746 -0.06370263
0.2805311 -0.0035117308 0.05908231
0.1945861 -0.17833214 -0.070027485
0.2615183 -0.095992886 0.058029648
-0.1035029 0.018180382 -0.23018259
0.12955907 0.015137199 0.14533827
-0.17882979 0.09286278 0.105492175
-0.29974997 0.15951969 0.083576344
0.120187014 0.11996861 0.08119421
0.03282915 -0.20655386 -0.19701971
-0.2568927 0.10469314 0.103579536
-0.27088806 0.090420716 0.10250926
-0.06373036 0.013607048 0.08791765
0.20706064 -0.1844226 -0.046666026
-0.14519142 -0.06307356 -0.0956523
-0.0031731364 -0.041593727 0.07394801
0.25529346 -0.08589104 0.069820255
0.17613818 -0.07161737 0.08590917
0.07772149 0.082485214 0.13288155
0.25338674 -0.105162494 0.051750857
0.08345364 -0.10359682 -0.18855146
-0.2514142 0.09097395 0.10260222
-0.12919949 -0.074128784 -0.059860777
0.00937976 0.11158427 0.11594011
0.007887475 0.085952245 0.1298202
0.024787886 -0.027919017 0.09625987
-0.3600798 -0.019210048 -0.014031096
-0.28500092 0.27105206 0.050403494
-0.106361076 0.13756564 0.09917517
0.03989266 -0.04918668 0.087033585
0.14153348 -0.091833025 0.07478473
-0.31315267 0.015252826 0.0142785385
0.12799056 0.07893573 0.12867811
0.1031483 0.040811863 0.14766872
-0.08581294 0.059808653 0.11852327
0.14969751 -0.015904026 0.134608
-0.25346065 0.25364628 -0.065389544
0.18824448 -0.06927713 0.09458087
-0.27989742 0.012594652 0.009575618
-0.017187174 -0.016070131 -0.121392936
-0.16475175 -0.056843046 -0.10212628
0.23275276 -0.2236994 -0.17429902
0.059631836 0.10767036 -0.0866998
0.14096496 0.011966681 0.1440549
0.04183023 -0.084666066 -0.32161212
-0.099263385 0.14678669 0.09347568
0.1440206 -0.066501066 0.086521804
-0.046712343 -0.004526062 0.066690676
0.11093734 0.029303635 0.148612
0.25013623 -0.012925472 0.093746334
-0.10946932 0.0699939 0.11606858
0.111769505 -0.01529007 0.13184705
-0.3217242 0.0058471835 -0.037017394
-0.21771798 0.008672315 0.0025941462
-0.32454127 -0.0014592672 -0.031263076
0.17066033 0.07757818 -0.08631077
-0.07794965 -0.027266407 0.04893861
0.19376297 0.027624665 0.12448886
0.16105302 -0.10123212 -0.28073898
0.05484786 0.09901257 0.1238945
-0.17616901 0.109311715 0.10639563
0.04154443 -0.19049595 -0.2192045
0.2723762 -0.17750199 -0.18254927
-0.10615501 0.020450756 0.07391737
-0.2664895 0.25411785 0.015027446
-0.042651046 -0.0020061461 0.073570035
0.28390333 -0.17028148 -0.05233818
0.19730425 -0.23083931 -0.19221593
0.18838866 -0.1615627 -0.29406682
0.0034447159 0.068321 0.13483608
0.026254823 -0.0770614 -0.31919378
-0.23237932 0.20642108 0.055866104
-0.29375377 0.01793215 0.018847072
0.025561696 -0.02722889 0.09518872
0.10697672 -0.008354769 0.13522202
-0.32353923 0.082662955 0.09979546
-0.31272528 0.14224702 0.122120544
-0.29650462 0.065824196 0.09000554
-0.31075743 0.015261642 0.014285983
0.22759931 -0.08335219 0.079081155
0.06806505 -0.054918952 0.094259284
0.00244086 0.11339362 0.114789225
0.26620156 -0.1690272 -0.04031593
0.21603289 -0.18464358 -0.04156555
-0.32731846 0.07880407 -0.060480896
-0.0732005 0.0038155194 0.06504681
0.22054298 -0.09011312 0.07392001
-0.04773386 0.06118275 0.12722887
0.17545608 -0.08674617 0.07024012
0.17991649 0.070187226 -0.09326381
0.07728026 0.045212485 0.14738992
0.16622627 -0.21312256 -0.26421076
-0.122705586 0.026217703 0.073857754
-0.1173488 -0.07950866 -0.06199971
-0.21773748 0.18842101 0.068075866
-0.02370863 0.06298974 0.13172449
-0.05948785 0.10296109 0.118927464
0.29489532 -0.04921738 0.045352153
0.17048953 -0.20944479 -0.26734465
0.0034935304 0.06142541 0.13609344
0.13329905 -0.008255589 0.13834392
-0.24967146 0.0402443 0.057269797
-0.32524896 0.08492949 0.10870991
-0.21714379 0.038434822 0.054036513
0.11602926 0.052167475 0.14309503
0.03600983 -0.21791051 -0.2771303
-0.111462094 -0.043653887 0.004144928
-0.0033680024 0.03490444 0.13024375
0.03927221 -0.08845364 -0.3255348
0.24887651 -0.17088442 -0.23208524
-0.25651002 0.2786782 -0.0074382997
-0.11658817 0.14536132 0.09451184
-0.07070285 0.0275445 0.10455477
-0.049135115 0.1660956 0.036220197
0.25029844 -0.15093234 -0.008186175
0.17392936 -0.08182851 -0.23183464
0.08095826 0.10536095 -0.07585697
0.32407618 -0.03369827 -0.036350273
0.12907973 0.019482594 -0.23728918
0.29868823 -0.010215618 0.034397487
7.39008e-06 0.10697047 0.118468866
-0.25013235 0.09800593 0.103366844
-0.20872879 0.040455222 0.05750179
-0.09802069 0.047433935 0.10840689
0.14529109 -0.103884734 -0.14812323
0.090222575 -0.0030948871 0.13525122
0.16421957 -0.050323445 0.11106398
0.05354225 -0.21707605 -0.19748992
0.088157855 0.021857183 0.14677952
0.30194867 -0.07710613 0.030156108
0.0892476 -0.19788083 -0.20897532
0.1643099 -0.06170789 0.09596388
0.040295493 -0.043360658 0.09744307
0.0663285 0.005992802 -0.22501819
0.31652123 -0.08507091 -0.0017684726
0.1346918 -0.089275055 0.07506373
0.007436743 -0.18213728 -0.20561875
-0.26742867 0.2705103 0.046508122
0.2012286 -0.07914524 0.08483385
0.0006647391 -0.037507366 -0.16282474
0.31361732 -0.106726505 -0.0067112832
0.19242746 -0.21221282 -0.14938885
0.03356802 0.04424814 0.14091092
0.05749064 0.06076352 0.14219472
0.21893618 -0.20806938 -0.22524405
-0.17468603 0.050604396 0.08409439
-0.041533154 -0.025679477 -0.272807
0.11346207 -0.031741306 0.11714878
0.09973717 0.13691166 -0.092269115
-0.2588202 0.10682038 0.1037207
-0.2935251 0.1184196 0.10214502
-0.1260941 -0.110683836 -0.12172931
0.020032287 -0.012646144 0.09333472
-0.2841578 0.22554936 -0.09401068
-0.3115122 0.13533986 0.10385749
-0.10420903 0.08163202 0.11847054
-0.06475317 0.015268512 -0.21557371
-0.34152928 0.12165187 0.13598563
0.075746626 -0.20519863 -0.19368416
0.05944883 0.0790385 0.13551848
-0.24119951 0.09750797 0.103438295
-0.23760654 0.1808047 0.07219426
0.021530446 -0.012033956 -0.1854608
-0.2774869 0.2589488 0.057517987
0.2457492 -0.085338466 0.07319549
0.03861241 0.058001846 -0.21606664
0.08288356 0.079632334 0.13418736
0.3202033 -0.11721435 -0.032543607
-0.14624545 0.18402623 0.057840936
-0.24154967 0.060027055 0.08629947
0.10086859 -0.21077283 -0.18220468
0.26273498 -0.008910512 0.08041385
0.2914414 0.0150535 -0.00025890357
0.28359675 -0.05316484 0.06192525
-0.03450916 0.05385227 -0.0923297
-0.010023487 -0.19917503 -0.20512775
-0.06811349 -0.14649573 -0.17411608
-0.18226102 0.16801828 0.080378085
0.31675673 -0.052105665 0.005010302
0.2656171 -0.17270172 -0.20314257
-0.14685448 0.021750398 0.05129972
-0.06821231 0.118867144 0.11056411
-0.12613796 -0.012489737 0.0042371256
-0.097093314 -0.044999752 0.010582952
0.06098602 0.09236358 0.12783274
0.18633227 -0.08771354 0.06406432
-0.28998765 0.18126275 -0.095673144
-0.25262868 0.20864426 0.055863533
-0.1485553 -0.038507678 -0.054855406
0.24416737 0.008376745 0.09544697
0.28702876 -0.15631685 -0.029437996
0.15122373 -0.16735378 -0.3114628
0.20707475 0.010000628 0.12152706
-0.29729447 0.0065731434 -0.0007759291
-0.07429746 0.046650793 0.1152614
0.0058102566 -0.02754127 -0.16473861
0.23594654 0.014253684 0.10062203
0.18495187 -0.1362983 0.023765896
-0.1117472 0.14840548 0.09262405
0.1754143 -0.23025906 -0.19339408
0.14575839 -0.19551124 -0.18037498
-0.0021943245 0.152972 0.061472747
-0.1334183 -0.11464057 -0.17888524
-0.07225229 0.07422979 0.12373206
0.20817867 -0.20781305 -0.13208298
0.088003196 -0.20332377 -0.19203348
-0.353729 0.024813268 0.07171493
0.21136034 -0.070726335 0.09272633
0.21492988 -0.1967024 -0.06327566
0.17782304 -0.23046127 -0.19299793
-0.26163718 0.19658399 0.06270535
-0.33735037 0.046297655 -0.050171588
0.08091584 0.12182765 0.10063865
-0.101172194 0.037922785 0.10199986
-0.27065632 0.00727908 0.0003573889
-0.09647858 0.03539606 0.1015117
-0.31041497 0.13515694 -0.06769963
0.16815202 -0.040968932 0.11857212
-0.016694445 0.115758225 0.11313466
-0.25566626 0.14818068 0.09079655
0.22302581 -0.0512958 0.10497827
-0.3109367 0.14603983 0.1171384
0.20602463 -0.08246036 -0.22049713
-0.19800456 0.18823932 0.06614499
0.09763214 -0.20986791 -0.18399973
0.08065459 -0.22012049 -0.18622394
0.042984925 0.05492621 0.14189047
-0.019449113 -0.07314194 -0.17631452
-0.08149418 -0.15389875 -0.16984577
-0.06143333 -0.1567179 -0.1780628
0.1748733 -0.10660514 -0.11423423
-0.14841945 0.05549369 0.097430155
0.2304737 -0.110900775 0.048785735
-0.32104975 0.15686284 0.115923025
-0.062250298 -0.0071767997 -0.2531979
-0.1255531 0.16934049 0.07490073
-0.0792544 0.15518148 0.08516832
-0.28829446 0.055204056 0.0816567
-0.17207348 -0.08028287 -0.18388528
0.2329466 -0.13690843 0.006747256
0.24281138 -0.061896197 0.09045958
-0.15379551 0.053558897 0.09469276
0.16360275 -0.22388718 -0.1420793
0.20933469 -0.18481396 -0.04595833
0.0935317 -0.07268172 -0.18698137
-0.1340026 -0.11567846 -0.1823727
-0.108074695 -0.11527308 -0.118717395
0.09049922 0.02030545 0.14665781
0.29480794 -0.099467754 0.029816154
0.2582948 0.0006539624 0.082682095
0.19708145 -0.17318077 -0.03315643
0.0654803 -0.051939316 0.09787669
-0.078068525 -0.012753752 0.0347998
0.016679987 -0.15146865 -0.3278571
0.26791796 0.013492619 0.06935921
0.22076719 0.07440669 0.0558896
-0.24632494 0.10234194 0.10360373
0.08093062 0.06369453 0.14309098
-0.232089 0.06818216 0.09158103
-0.21501845 0.06954544 0.09244814
-0.12470436 -0.13311183 -0.22281025
0.17917782 -0.16837072 -0.29667428
0.28369394 -0.11938797 0.022843046
-0.16777487 0.042661544 0.074986726
-0.042546075 -0.010409685 0.06518217
0.20394592 -0.08647765 -0.22877523
-0.28707945 0.1439755 0.09275848
0.324039 -0.12096605 -0.05174359
0.27455145 0.0272174 0.04553855
-0.2799636 0.27709964 0.04698024
-0.041836087 -0.16513386 -0.19053364
0.21580292 -0.0050051915 0.118883826
0.040579036 -0.012734902 0.105742246
-0.12800302 0.17507035 0.06705783
0.074985415 0.13301142 0.074585415
-0.054393865 0.14073803 0.09670949
-0.11839585 -0.06376817 -0.03518225
-0.08960952 0.16336599 0.076029904
0.25118998 0.037774783 0.074581794
0.056033522 -0.20133428 -0.19937074
0.029837066 0.08578833 0.13106109
0.119237676 0.11912259 0.084955625
-0.17173618 0.086653 0.10598792
-0.09718118 -0.118976824 -0.13895914
-0.34723246 0.03773429 0.09822634
-0.28787988 0.114759475 0.10273509
0.024450231 0.0747095 0.13516495
-0.060010016 0.10016168 0.12010085
0.27086583 -0.07781094 0.06521978
0.27201772 -0.17463091 -0.054336928
-0.06231347 -0.03710323 -0.29465127
0.10916394 -0.23213492 -0.18975167
0.015052148 0.032091063 0.13415924
-0.049440265 -0.14958984 -0.20414855
0.11131475 -0.11870844 -0.3241189
0.042913463 -0.014465075 0.1041516
-0.184627 -0.024132287 -0.08983011
0.2349404 -0.22271556 -0.17091182
0.16152576 0.06443524 -0.07486817
-0.1304607 -0.07990893 -0.07071473
-0.03939564 -0.18912993 -0.2563332
0.17534974 -0.058775123 0.10396051
0.11445597 0.010360822 0.1454853
-0.108297125 -0.12649895 -0.13843653
-0.010203219 -0.09692939 -0.3317223
0.22101274 -0.1657034 -0.26826394
0.23017399 -0.10638096 0.05468572
0.21741486 -0.080776215 0.08305154
0.11748941 -0.214611 -0.1702929
-0.27012476 0.20919102 0.05528533
0.2455065 -0.07253544 0.083137035
-0.26963365 0.050824117 0.07562133
0.12650259 -0.077965 0.089786865
-0.27697375 0.23171721 0.04396931
0.2841271 -0.12941048 0.011967171
0.2145397 -0.056001857 0.10392761
-0.27644458 0.24550912 -0.109839186
-0.10928796 -0.05475836 -0.013896708
0.11846266 0.07005919 0.13481043
-0.23437023 0.09087666 0.102599084
0.08535563 -0.09900791 -0.18649073
0.049333718 0.046388093 0.14376448
0.12664084 -0.23492627 -0.24357992
-0.053529743 0.12158018 0.109214425
0.16030025 0.0020410055 0.13930978
-0.005237633 0.10877104 0.11734854
-0.10191476 0.14787273 0.092738256
-0.14524522 0.07267814 0.107678205
0.25765225 -0.13127175 0.019969158
-0.22544765 0.18481237 0.070057556
0.07926926 -0.1446339 -0.33498454
0.102700286 0.04864687 0.14621449
0.122690134 -0.22148554 -0.16290458
0.18009652 -0.0926198 -0.254072
-0.15106021 -0.094930984 -0.15864901
0.041205507 0.066688515 0.13901256
-0.069232754 -0.16744381 -0.1859771
0.21360014 -0.1201555 0.024143197
0.040423647 0.007683837 0.12868924
-0.29792956 0.1577059 0.08465314
0.26504332 0.0362876 0.052967004
0.21831438 -0.09992456 0.06177797
0.17250541 -0.058558125 0.10366827
0.11886445 -0.12728308 -0.32460937
-0.3133525 0.0854142 -0.04179337
0.1627811 -0.07041449 0.07984108
0.21846616 0.054893196 0.09687529
0.33241168 -0.10068932 -0.11420438
-0.14937456 0.16381627 0.082159415
-0.29987773 0.029846717 0.039460693
0.043940775 0.05605477 -0.2227048
-0.2936555 0.25365895 0.060335726
-0.33213633 0.017487783 0.044934172
-0.11640832 0.062317286 0.111000136
-0.2943523 0.07003037 0.09251942
-0.15709639 0.10110002 0.11008489
-0.04094734 0.031407636 0.11697029
0.11922427 -0.12514912 -0.18074119
0.053046677 0.024709487 0.14149123
0.077344656 -0.079305716 -0.29367092
-0.25749245 0.2508946 -0.045055564
0.16142358 -0.113499865 -0.13634282
-0.06870045 0.14322218 0.09526153
-0.080127224 0.0206108 0.090109624
-0.03196403 -0.06764478 -0.17080833
0.117505185 -0.050547294 0.097842954
0.26552826 -0.20558082 -0.12613612
-0.2827491 0.07537399 0.09554301
-0.16324249 0.00061565015 -0.02456978
-0.110867955 0.022652293 0.07487611
0.3227123 -0.043983024 -0.011817547
-0.047037695 -0.019075606 -0.097859204
-0.23260507 0.19433457 0.06444204
0.28758028 -0.17731917 -0.068699054
0.11816613 -0.074612714 0.090537004
0.18679327 -0.18833984 -0.13168718
0.17164361 -0.046833098 0.11415236
-0.31592056 0.011244914 0.0073597236
-0.3183127 0.16145141 0.11330937
-0.01932371 -0.005166221 0.08231955
0.20681599 0.040408764 -0.14931194
0.16360258 -0.044650022 0.115820326
-0.24334884 0.089523785 0.10239663
0.20098218 0.07264681 -0.12212475
-0.31823385 0.13458538 -0.028451074
0.3053748 -0.012118237 -0.05567535
-0.26458153 0.26138023 0.014761861
0.18157803 0.02570852 0.13116816
0.17879686 0.0029315737 0.13501127
-0.3300459 -0.00067745516 0.0036277936
0.2569252 0.0057654562 0.0828962
0.114694685 0.1370026 -0.0905027
-0.12624094 0.08897631 0.11494325
0.102910385 -0.23239107 -0.2651904
0.27864242 0.022260917 0.042608157
0.21453317 -0.042085305 0.11202665
0.06250724 -0.11581406 -0.33508563
-0.20862131 0.05130443 0.076281026
0.03687948 0.13309479 0.09349496
-0.24652769 0.030685792 0.040737808
0.055243894 -0.22191106 -0.2526854
-0.13366584 0.059305046 0.104101926
0.18489622 -0.070476666 0.09255587
-0.22676945 0.18505871 0.0698954
0.009522152 -0.16238396 -0.3209804
0.12239938 -0.15391788 -0.32464534
-0.16459657 -0.09071398 -0.19079873
0.2775714 -0.019810423 0.06608546
-0.26915607 0.13453972 0.09760243
-0.33533975 0.053778168 0.121506795
0.111580946 0.0805465 0.13039126
-0.27800202 0.172133 -0.09149009
-0.11531241 0.06480602 0.112484775
-0.098219715 0.08812038 0.11935598
0.2763994 -0.0771045 0.061223578
0.21092567 -0.08332741 -0.219013
-0.0597843 -0.016976692 0.052865807
-0.08855619 -0.12766396 -0.1535068
0.2565147 -0.20085296 -0.104765385
-0.14599231 -0.09667881 -0.15566052
-0.33140573 0.0816754 0.11710377
-0.19980428 0.15452982 0.08796054
0.12219148 0.12792103 -0.0859959
0.14621261 -0.101658575 -0.2905566
0.13624053 0.059559952 0.1355015
0.2390409 0.055147387 0.07033506
0.15159665 -0.22831774 -0.20244713
-0.3612497 0.0738222 0.13920009
0.2296124 -0.09525023 0.06726772
0.19723739 0.05489404 -0.11623152
-0.12749039 -0.10238805 -0.108111754
-0.028839758 0.09140884 0.12551974
0.29323423 -0.090126015 0.037400052
-0.13922031 -0.08016647 -0.076519705
0.020650763 -0.16271092 -0.3228837
0.08368272 0.023237526 0.14654323
0.22969565 -0.025565213 0.110257596
0.07291427 -0.11151668 -0.1947758
-0.054377522 0.10350857 0.11896475
0.1168793 -0.20562123 -0.29297048
0.1411766 0.044811174 0.1403251
-0.12390328 0.015608624 0.05461884
0.21165012 0.033919312 0.11112793
0.038614836 -0.057572685 -0.1879813
-0.174843 0.0027729687 -0.010242117
0.3240838 -0.06338539 -0.015758213
0.07672654 0.0066488087 0.13825478
0.04162295 -0.15654854 -0.32928628
0.04546773 0.07886302 0.13486691
-0.25946164 0.02857092 0.03712445
0.23244402 -0.22304125 -0.17038825
-0.044435088 0.057218105 -0.10654636
0.021947645 0.014166655 -0.18928128
-0.24673167 0.11872477 0.10241925
-0.08794207 0.060947347 0.11845428
-0.28853065 0.19714558 0.061977457
0.14800167 0.09806543 0.10593574
-0.2938307 0.14688577 -0.077121384
-0.09462547 -0.15606456 -0.2384332
0.24851768 -0.18009633 -0.05906974
-0.121791996 -0.13050649 -0.20173152
0.18352665 -0.18918371 -0.13720791
0.19191206 -0.19135329 -0.06801788
-0.01469535 -0.0149775045 0.08018909
-0.03957051 -0.030237678 -0.12206794
0.0026118692 -0.03719916 0.08515128
-0.3269338 0.100196525 0.14298494
0.020598872 0.077831484 0.13390005
-0.27661502 0.27695265 0.047115628
-0.038931414 -0.15202081 -0.2102079
-0.13195555 0.037042372 0.08708437
0.06530545 -0.1458065 -0.33563885
-0.1021455 0.12265053 0.107866764
0.2290439 -0.0018166864 0.109979585
-0.03180507 0.09485905 0.12388092
-0.047380622 0.029467734 0.113905296
0.16710384 0.07291061 -0.08198319
-0.19041482 0.005918985 0.0019511413
0.1845825 -0.21221368 -0.10888897
0.2513703 -0.18406063 -0.066450275
-0.015372909 0.0018700445 -0.053135637
-0.21159256 0.060712807 0.0869427
0.02589443 0.11125719 0.11637689
0.3061166 -0.0037132984 -0.003361307
0.087773725 0.02016481 -0.2384505
0.026826937 -0.033667937 0.10538849
0.12995455 -0.040253993 -0.19244175
-0.10028952 0.12508543 0.10648584
0.10992514 -0.09386115 -0.17542593
0.07647467 -0.003891081 0.13207062
0.26622376 0.010075534 0.07258379
0.09724673 -0.01309265 0.13052262
0.20449753 -0.020766048 0.122924834
-0.014783613 0.0016706376 0.09702252
0.25643277 -0.18854591 -0.19826034
-0.30709085 0.15824623 0.11278584
-0.19203267 0.1177428 0.103814505
-0.10908974 -0.006424797 0.025240162
-0.23807132 0.14912492 0.09051409
0.2339814 -0.15234444 -0.26059136
-0.022253353 -0.18083297 -0.19544779
0.2845987 0.020910213 0.020393956
-0.12022121 0.14527327 0.09450837
-0.0033772886 0.014533629 0.11906293
-0.2618488 0.02856317 0.03711907
-0.109983094 0.14741129 0.09331834
-0.0019355925 -0.202677 -0.2519517
-0.0006212232 -0.15666276 -0.32083791
0.20337808 0.07051673 0.095249645
0.14686647 0.07891992 0.122743085
0.18225788 -0.08020688 -0.16905892
-0.031000666 -0.018307755 0.07130734
-0.095778055 -0.018453324 0.014688172
0.022186538 0.032344725 -0.18963265
-0.1342036 0.059419394 0.10400074
0.04156652 0.07676081 0.13556091
-0.21640621 0.1739761 0.07646211
-0.26980698 0.10336244 0.103382945
-0.32468945 0.18519144 0.09947999
0.25036806 -0.053342454 0.091649495
-0.023237763 0.010409642 0.10709804
0.17065926 0.09654673 0.090381294
-0.3580862 0.02878412 0.049136687
0.30386752 -0.06407227 0.030081
0.16176605 0.05097916 0.13033147
-0.011174345 0.15134105 0.076773375
0.005990971 -0.19697325 -0.19799663
0.09253869 0.13513923 -0.09250797
-0.26090184 0.20165394 0.059783425
-0.1601996 0.18335395 0.06256603
-0.3025229 0.09234335 0.10248183
0.09932343 0.12216293 0.09626324
-0.20441876 0.037943788 0.053573746
0.19264431 -0.07342628 -0.17087479
-0.056727 -0.041977867 0.040534507
-0.0025708962 -0.0504432 -0.29218358
