# .PCD v0.7 - Point Cloud Data file format
VERSION 0.7
FIELDS x y z
SIZE 4 4 4
TYPE F F F
COUNT 1 1 1
WIDTH 1000
HEIGHT 1
VIEWPOINT 0 0 0 1 0 0 0
POINTS 1000
DATA ascii
-0.16831031 -0.08054261 -0.16226178
-0.042285476 0.36509043 -0.23581517
-0.026691573 0.35915318 -0.21278058
-0.029034754 0.07880456 0.15925889
-0.014763818 -0.018342447 0.20449598
-0.0039528394 -0.20796424 0.16444333
-0.123047054 -0.21154602 0.14627533
-0.069462106 -0.033247974 0.20166004
-0.09403718 -0.2255226 0.15856174
-0.03209106 -0.031225601 0.2071008
-0.1600947 -0.060247615 0.025307095
-0.13947295 -0.27821508 0.045032233
-0.049166072 -0.3493547 -0.10678645
0.03793301 0.13202657 0.09756298
-0.08278005 -0.29878324 0.09092391
-0.004644184 0.0021251075 0.19850871
-0.027732963 -0.026789187 -0.2981299
-0.13907783 0.01654001 -0.0028653247
0.095924385 -0.120434396 -0.20967907
-0.008524466 -0.024870193 0.20530999
-0.045892432 -0.09980654 0.21011816
-0.0065547177 -0.15361726 -0.30680862
-0.10358452 -0.27438006 0.111380935
0.13236919 0.12272628 -0.22875981
-0.0030086015 -0.27691507 0.09587954
0.24136764 0.31329504 -0.25381157
0.0037533543 0.07210511 0.16336657
-0.07842893 -0.16184908 0.19278379
-0.09870675 -0.3280522 0.022770895
0.070805706 -0.22030671 -0.16017827
0.11205839 0.10905658 -0.10003196
0.03870852 -0.062818 0.17269875
-0.08978338 -0.26978868 0.12348601
0.030396786 0.13627477 0.09574532
-0.16281438 -0.098502524 0.015553622
0.045648407 -0.20692731 0.09055687
0.1532996 0.19789141 -0.16365477
0.21645649 0.31527978 -0.23229353
-0.07760047 -0.2119209 0.17147811
-0.012786499 -0.17251451 -0.3005874
0.02714164 -0.30531806 -0.09961124
-0.10429299 -0.19574055 -0.13166979
0.16079438 0.2514884 -0.111836396
0.15298875 0.2166756 -0.11787243
0.19909936 0.29721978 -0.07509059
-0.037271302 0.30153123 -0.18987255
-0.033961706 0.05131692 0.176045
-0.041464858 -0.06266742 0.21053977
-0.028705705 -0.15868397 -0.11896829
0.09902028 0.13395196 -0.021483233
0.16259037 0.20660642 -0.21185838
-0.0028215824 -0.10271034 -0.31546018
-0.03689069 -0.10774446 0.21066166
0.0022204097 0.14695357 0.08678972
0.022249736 -0.0034839804 0.19076931
0.03335205 -0.10015519 0.16957225
-0.07226492 -0.026125036 0.19931984
-0.14274295 0.047463577 -0.058491338
-0.022170117 -0.051604956 0.21062015
0.051120296 0.19937925 -0.13337328
-0.055275198 0.3639107 -0.20737588
0.10720486 0.05900585 -0.053104885
0.14894149 0.28320944 -0.08271227
0.026147066 0.17736267 0.009206818
-0.012066398 0.362491 -0.26042804
0.0815239 0.08345511 0.08133725
0.15127169 0.21693388 -0.11738035
0.03671057 0.33538142 -0.12198334
0.112188004 -0.021106374 -0.1866105
-0.10655948 -0.057863805 0.031861387
-0.13245589 -0.25874284 -0.09312725
0.007303442 -0.19611287 0.15863387
-0.05587942 0.054473374 -0.1617332
-0.021785552 0.0678943 0.16657385
0.0060269684 -0.18251142 0.16887811
-0.10371717 -0.03852333 0.1757422
-0.053836595 -0.2453744 0.15544188
0.0021200574 0.1321534 0.10715007
-0.03952595 0.26677942 -0.15494917
0.020249257 0.12849589 0.10932615
0.044243652 -0.2390155 0.049578015
0.12988716 0.21585871 -0.12000484
-0.03865844 -0.33647108 0.030346239
-0.053918183 -0.20024501 0.18265904
0.042905822 0.32821053 -0.0939744
-0.031597633 0.1392405 0.09205457
-0.07360625 -0.24178986 0.15254387
-0.14296524 -0.24621956 0.009268705
-0.14186169 0.03031387 -0.019492364
-0.04885723 -0.35265183 -0.049792863
-0.12485492 -0.3051609 0.038198236
0.020948319 0.26501787 -0.13128209
-0.11449623 -0.054521598 0.16456021
-0.19081238 -0.14594665 -0.11250217
-0.0987643 -0.2250628 0.1575418
-0.008475299 0.036209807 0.1850492
0.08954556 -0.052956846 -0.2162144
0.1859917 0.30437842 -0.2407098
0.024141591 0.21579021 -0.13574162
0.028392596 0.11421647 0.123749524
-0.057679366 -0.303811 -0.18200251
-0.037504967 -0.01870046 0.20363753
-0.18303601 -0.036197696 0.020981042
0.1111503 0.23368107 -0.12100577
-0.088127665 -0.13439603 0.19688728
-0.00012490977 -0.21750012 0.15259463
0.024438346 -0.055163857 0.19197196
0.102332905 0.24205366 -0.12147816
0.046764795 -0.20926043 0.0780561
-0.019733386 -0.109782815 0.20985243
-0.0302458 0.32020652 -0.12227659
0.106818706 0.3225044 -0.12584613
-0.019968197 -0.18887977 -0.2936508
0.07112383 -0.020458648 -0.29269752
0.060620528 0.10857436 -0.29068398
0.017063629 0.33139327 -0.27443835
0.13406506 0.30948505 -0.08229151
0.08219954 0.14474174 0.026994472
0.09560866 0.32484624 -0.20645134
0.09267888 0.10541296 0.036157276
-0.07178585 0.06025402 0.1542738
0.12244945 0.33780998 -0.268041
0.0610519 0.29122937 -0.122689575
0.20664592 0.28039023 -0.16405582
-0.08155713 -0.09952497 0.20383154
-0.14116228 -0.23653893 0.010855203
0.11513936 0.031712916 -0.2414958
-0.1420193 -0.22132505 0.042184185
0.0063755126 -0.13099861 -0.31040788
0.06153227 0.31888607 -0.09213847
-0.021875856 -0.3159489 0.0625326
-0.024031626 0.06785452 0.16661751
-0.13736957 -0.15388718 0.11504361
0.016845983 0.19072992 -0.13933843
-0.08044631 -0.051409874 0.2007509
0.008210704 0.34589547 -0.26973966
-0.007931603 -0.18865508 0.17957826
-0.056775052 0.3472369 -0.10896686
-0.025441194 0.17329076 -0.08635801
0.037462745 -0.21890607 0.09669543
0.009281202 0.28302634 -0.13121296
0.035568513 -0.008424219 0.1804845
-0.18686432 -0.10494409 0.006166869
0.06495107 0.07195931 0.1214158
0.01773227 -0.025510972 -0.15160955
0.037199486 -0.018663466 -0.3069216
0.22458303 0.27646282 -0.15204537
-0.022210022 -0.26251927 0.13411908
0.015238343 -0.22277741 0.12202796
-0.052942336 -0.14108086 0.20375568
-0.065540984 -0.15493442 0.19787654
-0.02126897 0.25854018 -0.13821124
-0.10285088 -0.19395886 -0.13245279
0.076013185 0.27818763 -0.12177145
-0.12061145 -0.3242452 -0.016156327
-0.033142768 -0.051104084 0.20970787
0.069858454 -0.07014259 0.122859314
0.06548906 0.24000953 -0.12716383
-0.06741624 -0.1690358 0.19243143
-0.12367207 -0.09104513 0.15806535
-0.049875025 -0.30186933 0.09705466
-0.0036186734 0.08686363 0.15292327
-0.123952955 -0.18337871 0.15617898
0.004043846 -0.18165043 0.171701
-0.011777135 -0.053342793 -0.14885363
0.17879817 0.24899226 -0.13811222
-0.06725728 0.052775275 0.16368869
0.11682753 -0.054451056 -0.21873489
-0.123461396 -0.23603603 0.12838075
-0.10553654 -0.29967284 0.07826823
-0.107796244 -0.20973487 -0.2064603
0.038154606 -0.060137503 -0.3103755
-0.14482307 -0.078798644 -0.1609619
-0.0892365 -0.077680096 0.19914223
0.10239218 0.3407813 -0.26139486
-0.030360868 -0.35028973 -0.09915955
-0.06799864 0.3328981 -0.11787545
-0.045651086 -0.14474075 0.20383093
0.07915933 0.3337411 -0.17219165
0.053840008 0.15456526 0.054257743
0.11874796 0.3210199 -0.2582035
0.19491927 0.3075968 -0.1406091
-0.03879498 -0.29431418 0.105842605
-0.08254207 -0.29601362 0.09494874
-0.005506855 -0.20078926 0.17126586
0.085372955 -0.18330844 -0.18989275
-0.041000832 -0.030960152 0.20630874
0.09716529 0.12910101 -0.005218558
-0.13376708 -0.20269452 0.13131385
0.061154246 0.08008786 -0.29346016
0.04834323 0.14048466 0.08094138
-0.10598565 -0.28847444 0.09316163
-0.1222601 -0.025613213 0.023523968
-0.045605164 -0.2508503 0.15137999
0.06797057 0.037607227 0.12378691
-0.19606832 -0.13016084 -0.0458734
-0.0643116 0.060752567 0.16043386
0.09701373 0.1318395 -0.007683296
-0.07692172 -0.32508475 0.046772316
-0.17580521 -0.12933937 -0.011296352
0.06111907 0.1149018 0.09949639
0.1354775 0.1789074 -0.12547532
-0.10461948 -0.21047704 0.16242328
-0.10194311 -0.28455275 0.10079116
0.07494595 -0.16895305 -0.19779046
0.18751419 0.30882457 -0.23878214
0.19244473 0.27600667 -0.07697271
0.013003864 0.3318187 -0.09806076
0.025287632 -0.30809546 -0.09350012
0.05906237 0.1107388 0.1060438
-0.15428236 0.0031509122 -0.15652527
0.0066229133 -0.2154341 0.14475769
0.04445527 -0.27659243 -0.0129192425
0.10945791 0.12393794 -0.100525126
-0.050921217 0.10245492 -0.14538224
-0.076988086 0.060763564 0.14516056
-0.08172834 -0.057884686 0.20120585
-0.13484772 -0.23009114 0.111654274
0.011974793 -0.15891886 0.17517097
-0.039410405 -0.17111166 0.19629048
-0.099096484 -0.048088256 0.18575084
-0.008537137 0.17110312 -0.14508156
-0.09299184 -0.04184509 0.1905507
0.13276415 0.17592302 -0.12565377
-0.055088703 -0.31261247 0.08024623
0.020128863 -0.29592898 -0.029613854
0.13393633 0.31917432 -0.25866964
0.027079208 -0.28641385 -0.049200986
0.016161712 -0.172288 0.1621896
-0.03523574 0.14142172 0.086172946
-0.0629553 -0.33691996 0.026203616
-0.025349896 0.18282954 -0.21504942
-0.060711116 -0.30130985 0.09594485
0.16566935 0.2886616 -0.07967759
0.059699185 0.26118276 -0.12590276
-0.034841917 0.1573897 0.0534143
-0.032341313 -0.093288615 0.21196906
0.023481263 -0.18158245 0.12933782
0.052384894 -0.0010309016 -0.30182856
0.10726919 -0.040868517 -0.19692285
0.0602754 -0.0051262425 -0.29958
0.013505031 0.33784425 -0.10671382
-0.11620787 -0.23724236 0.1351037
-0.019436464 -0.118963964 0.20846792
-0.11660152 -0.21424094 -0.14495368
-0.04572075 -0.17113969 0.19606745
-0.12258436 -0.21375039 -0.054181267
-0.060546737 0.34604838 -0.111550234
0.02799367 0.059480127 0.16520071
-0.084734894 -0.0699254 0.20103714
0.0027381803 -0.048267845 0.20613039
0.12028199 0.29270306 -0.086023815
-0.03996825 -0.16059893 -0.2988582
-0.089655705 -0.039799735 0.19230208
-0.038982227 -0.20614456 0.18022682
-0.011482644 -0.27678263 0.10917404
0.109703206 0.2068326 -0.12391213
0.056547277 0.14014727 0.07485894
0.061647914 0.020561935 0.13935797
-0.08915855 -0.1688959 0.18800513
-0.07702275 -0.28748378 0.107563816
0.016041387 0.16564949 0.048455697
-0.12551764 -0.2417407 -0.11981251
0.003928008 0.23453413 -0.13686961
-0.005863139 -0.23546404 -0.26661038
-0.07423777 -0.26674426 0.13146229
-0.025654722 0.15689738 -0.14446959
0.09957314 0.16970652 -0.12913978
-0.1507241 -0.08489431 0.023122247
-0.030393595 0.267751 -0.13864557
-0.062899575 -0.17950444 0.1892316
-0.0034591833 -0.021948593 -0.30995852
-0.004320818 -0.10586305 0.20606281
-0.15779187 0.046631437 -0.04569788
-0.11046878 -0.099718824 0.025727512
-0.010933167 0.02180026 0.1911249
0.04523348 -0.2650737 -0.17581342
-0.036714308 0.15580688 -0.17000607
-0.1534187 -0.11002956 0.011626329
0.036579605 0.13789833 0.09144811
0.052790046 0.10634134 -0.29207277
-0.11788585 -0.31278542 0.036268085
0.022180924 0.20640054 -0.13697426
-0.023307651 0.23621714 -0.14075214
0.03556256 0.037824776 0.17080641
0.10489471 -0.10769095 -0.21169908
-0.113656275 -0.19803974 0.16155729
-0.022827754 -0.10189898 -0.3129242
0.105527185 0.24448599 -0.120759234
0.09703078 0.15338781 -0.078776576
-0.017302508 0.06800116 0.16646902
0.11282685 0.03651892 -0.12851307
0.08614678 -0.008064923 0.09610186
-0.06708058 -0.12303972 0.20463762
-0.039720386 -0.19185908 0.1872057
-0.023294916 -0.13568084 -0.31077397
-0.076646686 0.08390438 0.025594007
0.026958058 -0.03911762 0.19057998
0.017220452 0.29916593 -0.12841414
-0.09969532 -0.21186318 0.16434301
0.01838219 0.34834433 -0.2720766
0.17851971 0.29481968 -0.07714889
0.09227924 0.03822698 -0.15572202
0.020684712 0.011345221 0.18872371
-0.10326736 -0.11114671 0.1905321
0.05827976 -0.11930975 0.13372442
-0.023879023 0.31737936 -0.10499433
0.02811147 -0.11551798 0.17316449
0.12566818 0.34079754 -0.29604667
0.07262097 0.17079665 -0.027205639
0.016052306 -0.063363366 0.19881164
-0.06783747 0.33766672 -0.1806835
-0.053985287 0.08839837 0.1421364
0.026221048 -0.30625024 -0.14944986
0.08153578 -0.02153423 0.11032266
0.024029568 -0.13352503 0.17120709
0.07400899 0.3134228 -0.09082995
-0.0019615567 -0.20452407 0.1643352
0.010787611 -0.024369529 0.20066795
0.22740029 0.2785938 -0.17060792
0.12581435 0.13839886 -0.15216579
-0.10679154 -0.011048405 0.15290941
0.04105353 0.05769741 0.15763614
0.073302455 -0.0006614012 -0.29172048
-0.06599656 0.07032087 0.15120147
-0.032646094 -0.20598507 0.17994988
-0.14156477 -0.07810552 -0.16091123
0.109828696 0.007006103 -0.16601837
-0.109434426 -0.15778454 0.17898491
-0.056452543 0.13674659 0.060271382
0.0350509 -0.03776992 -0.30915624
-0.16780856 -0.071556784 0.023025915
-0.052952077 -0.22850284 0.16730057
0.008033944 0.0018754646 0.19566254
0.03046206 -0.0909485 0.17779075
-0.053405862 -0.12762365 0.2062123
0.061086237 0.1432537 0.06635568
0.12595981 0.14611273 -0.14081207
0.102464095 0.3351536 -0.23901527
-0.046841577 0.3409578 -0.106046624
-0.00928104 -0.026450025 0.20576285
-0.024050722 0.22826098 -0.22987245
-0.104358904 -0.19547671 0.16999954
-0.06899061 -0.21396105 0.17241707
-0.021310937 -0.12791172 0.20679006
-0.09277012 -0.2828232 0.1070682
-0.09922755 -0.1351169 0.19081394
0.1954818 0.32705364 -0.29273212
-0.052088883 -0.13794726 0.2046183
-0.08342168 0.04815905 0.14863606
0.009054605 -0.24513505 0.11357326
0.19277743 0.2911918 -0.07539135
-0.049780454 -0.24750057 0.15417433
0.12400538 0.14484933 -0.13318524
-0.033272296 -0.15661797 0.2007132
0.094323605 -0.020245934 -0.20350558
-0.0004572266 -0.23587646 0.13715707
0.0040911203 0.006774543 0.19510157
-0.052592233 0.092414655 0.13902295
-0.0350575 0.3733339 -0.3106355
0.01999705 -0.04504354 0.19644818
0.054820884 0.2894184 -0.1237981
-0.15981525 -0.06531361 0.02484052
0.00801703 -0.18153578 0.16716024
0.11523143 0.059311762 -0.022064194
-0.012218891 -0.3346658 -0.15735906
0.06823918 0.32760438 -0.10827877
0.08318212 -0.14073697 -0.20683375
-0.04045466 -0.007320435 0.20038
0.0119965775 -0.16834867 0.17006259
0.216602 0.2894893 -0.08777799
0.039003946 -0.08714739 0.160952
0.112129286 0.29116422 -0.10763666
-0.043532815 -0.11038436 0.20940898
-0.0031736663 -0.26225373 0.11367823
-0.15577938 -0.06137626 -0.16527028
0.042541143 0.026283458 0.16820101
-0.116227984 -0.12038 0.014719561
-0.13035873 -0.2922616 0.05365642
-0.06831914 -0.19133945 0.18407273
-0.095957235 0.037890654 -0.051824316
-0.037954174 0.025547598 -0.13274635
0.043265343 -0.27209792 -0.17180866
-0.09218253 -0.1400818 0.19407111
-0.014489248 -0.17662449 -0.12768045
0.059765518 0.10221137 0.11175602
-0.15015207 0.050887942 -0.09031802
0.09747272 0.32715878 -0.21727212
-0.0031353373 -0.09619902 0.20689029
0.10752229 0.021515915 -0.15156212
0.120440364 0.21752968 -0.12124271
-0.045197096 -0.13668355 0.20586435
-0.15609698 -0.06659818 -0.1648979
0.0828378 -0.1739856 -0.19511199
-0.03364826 -0.033560324 0.20748694
0.0037852086 0.14787398 0.08539874
0.05064127 -0.03996175 -0.30501667
0.10847592 0.12098657 -0.065842286
0.20662221 0.29107347 -0.07853695
-0.031753417 0.32106408 -0.105796136
-0.06946373 -0.25419816 0.14415689
0.122860506 0.22868258 -0.11976474
0.031470317 -0.10999357 0.16903655
-0.048461497 -0.058241148 0.20921941
0.032170177 0.043613017 0.17079712
0.04109402 -0.074524984 -0.31025198
0.16550231 0.21136473 -0.2151967
-0.046944346 0.14922385 -0.08808984
0.0475702 -0.15472199 0.13187997
0.04809626 -0.18093371 0.113516465
-0.003396969 -0.32312912 0.0124340085
0.057218015 0.14906237 -0.28713232
-0.012596589 -0.13570127 -0.31093273
0.06179076 -0.2568638 -0.11643022
0.01599355 -0.16973881 0.1637332
0.0317539 0.30683187 -0.12548395
-0.09582299 -0.3143056 0.059245497
0.09206823 0.2458936 -0.12261997
-0.19458483 -0.14246789 -0.040204078
0.06899877 -0.18862286 -0.1871437
0.0021593408 -0.11509829 -0.31348675
-0.05695591 0.35879055 -0.16507034
0.034271903 -0.040550906 0.18141437
-0.1589922 0.03295064 -0.020485183
-0.07589248 -0.027705066 0.1980507
-0.098621614 -0.26741445 -0.18414423
-0.103411525 -0.16894418 0.18100603
-0.0180158 -0.28924724 0.10058665
0.13573903 0.274786 -0.1132282
0.0046376414 0.34329072 -0.13590991
-0.106778264 0.029606815 -0.024019925
-0.038581938 0.29098484 -0.1389202
0.17611681 0.27190682 -0.10751069
0.10820102 0.2034264 -0.124477156
-0.08037994 -0.29311055 -0.18445823
0.09476868 -0.05265225 -0.20436814
0.014746979 0.11106589 0.13002281
0.12620933 0.106818445 -0.20638587
-0.10720952 -0.20162788 -0.100431435
0.09073913 0.24200134 -0.1232079
-0.072220206 0.113802336 0.03941471
0.0024736577 -0.32629767 -0.017501036
-0.13708265 -0.039325297 0.026170878
-0.009887993 0.067773126 0.1665605
0.006692224 0.27161428 -0.13274167
0.083581805 -0.19608268 -0.1882835
0.085472144 0.16232492 -0.035982545
0.10999998 0.00042432154 -0.25199902
-0.06551092 -0.0700994 0.20787373
-0.1524958 -0.012498748 0.017112132
0.015396982 -0.017042067 0.1973412
0.114855684 0.05775048 -0.03755297
-0.04325169 -0.2053803 0.18074992
-0.12831262 -0.3137371 0.0020790459
-0.08218562 0.030171871 -0.03304345
0.22255798 0.2840055 -0.21576895
0.07235466 -0.058263835 0.122589804
0.10174486 0.26456988 -0.11930883
0.076130874 0.13138269 0.05806266
0.08775491 0.06297358 0.04744082
-0.005095431 0.24209453 -0.13745391
-0.021666704 -0.06258574 0.21159516
0.06475524 0.12760855 0.0811037
-0.115069255 -0.20500593 -0.053367816
-0.08745637 -0.06724503 0.19885893
-0.07768665 0.08204592 0.030711185
0.17270383 0.3063167 -0.097703315
0.0682201 -0.068757415 0.13790599
-0.045016322 -0.12121967 0.20810217
0.058000036 0.09918775 0.11656167
0.00847558 -0.07496123 0.20296973
-0.030566363 -0.2223087 0.1700164
0.11233674 0.25833443 -0.11835855
-0.0834154 -0.12783825 0.20008668
0.029749136 0.19442087 -0.1370493
0.008837548 -0.28799993 0.054160606
-0.001433319 0.092050284 0.14852369
0.07012932 -0.13070646 -0.22238553
0.003838243 -0.3346298 -0.12330241
0.051720828 -0.012175813 0.158486
0.14006737 0.23128441 -0.11694436
-0.13391994 -0.26019132 0.08618291
-0.041693926 0.024876697 -0.14310554
-0.09897148 -0.069690295 0.19167988
-0.05261612 -0.24546227 0.15571679
-0.016498089 0.32830995 -0.2305484
0.1552082 0.20887585 -0.123744674
0.064251445 -0.08670088 0.13986142
-0.033558458 -0.24549127 -0.2581334
-0.029002419 0.16629809 0.035711884
-0.008676544 -0.1304864 0.2027796
0.036141664 0.02858482 -0.30234322
-0.05159889 0.11130963 0.11843068
-0.045026723 0.15999335 -0.046411913
-0.050243706 0.086116076 -0.17713022
-0.02973415 0.053613354 0.17508128
-0.03964979 -0.34140843 0.015302823
0.0154810855 0.011057216 0.1908555
-0.11466633 -0.20602946 -0.06023657
0.029449632 -0.28762144 -0.08899163
0.01419827 -0.25892866 0.07663608
-0.046054397 -0.16676402 0.19740023
0.09778837 0.28975517 -0.11737294
0.09446375 0.014437117 -0.17892334
-0.1129016 -0.13090548 0.008105454
-0.11989385 -0.26873615 0.10290297
0.14041032 0.28456834 -0.098297276
-0.04780804 -0.35135356 -0.09120023
-0.023228649 0.059820794 0.17187577
-0.005754218 0.17970644 -0.1438054
-0.06883783 0.09180334 -0.022633974
0.17508386 0.30529657 -0.09330161
0.1324362 0.31320888 -0.09156529
-0.09186962 -0.047291506 0.19245203
0.027630748 0.32772043 -0.27111295
-0.11093095 -0.024884112 0.023831785
0.06781711 -0.2051294 -0.1743966
-0.112716876 -0.059039127 0.16970634
0.097059086 0.17064966 -0.12941991
0.12844571 0.033310536 -0.16741438
-0.02200478 0.3405936 -0.10238856
0.004883357 -0.034724306 0.20452674
0.03701839 -0.071817026 0.17346998
-0.01883977 0.04643877 0.1790029
0.0680997 -0.19335414 -0.18370125
0.14902145 0.22130036 -0.11661336
0.009765264 -0.14701729 0.18338205
0.019086292 0.3336057 -0.09697676
-0.003508874 -0.15154253 0.19325082
0.102152415 0.1087859 -0.015225553
0.09514491 0.32649451 -0.20015773
0.09658825 0.101079844 0.015772715
-0.16572195 -0.116606005 0.0035255577
0.030914763 -0.00028687186 0.18404777
0.081372805 0.34019536 -0.25437847
0.02290631 -0.036357105 -0.16762108
-0.15825778 -0.109618135 0.01064522
-0.016740397 -0.076849066 0.21119967
-0.114462644 -0.23220703 0.14034696
-0.08586199 0.06732386 0.07075259
0.08581611 0.11365608 0.05093427
-0.019700864 0.3489874 -0.14410378
-0.12594678 -0.23852506 0.12397089
-0.10888413 -0.040625192 0.1686822
-0.0015754529 -0.113658376 -0.16397092
0.14522013 0.23634316 -0.11567107
-0.036821067 -0.22106314 0.17206685
0.057542518 -0.091563344 0.13660282
0.006735173 0.2510483 -0.13479665
0.027347317 -0.066985466 0.18684644
-0.12863855 -0.14534594 0.15489492
-0.1979711 -0.120528854 -0.0154110575
0.11282231 0.21456467 -0.12267298
-0.0931359 -0.24018855 0.14828825
0.0807216 0.04187723 0.07699401
-0.020645538 0.13529043 0.102434985
0.12795235 0.32024154 -0.25945297
0.11468307 0.055243827 -0.19982935
-0.091583714 -0.10804903 0.19895935
-0.19569632 -0.11504833 -0.024310699
0.100471005 -0.023911562 -0.19070123
0.058066227 0.3453614 -0.26733044
-0.092669986 -0.19396983 0.17623606
0.091007136 0.27025726 -0.120335884
-0.061594535 -0.34717858 -0.013867652
0.01595293 0.18585688 -0.021085352
-0.19483294 -0.14848436 -0.08519431
0.032606162 0.009949364 0.1806488
-0.01381232 0.053545993 0.17563602
0.044199433 -0.26269126 0.011588017
0.13075058 0.2119759 -0.12026596
-0.11701866 -0.0748293 0.16725452
-0.16798155 -0.09887565 0.014083496
0.09197366 0.14498521 -0.008614006
-0.14107448 -0.21997942 0.036980025
0.13208354 0.120634295 -0.22991529
0.050610594 0.011037329 0.15832156
-0.0750493 0.10545234 0.07642825
0.10351623 0.08839261 -0.058903035
0.13320124 0.23164353 -0.11792985
0.02063236 -0.20415683 0.11504658
0.055088915 0.32429492 -0.09255477
0.04424097 0.13851698 -0.28995678
0.19223058 0.27871364 -0.07672338
0.22366251 0.27999413 -0.1391339
-0.14416614 -0.05531997 0.027191162
0.033250336 0.045337252 0.16923158
0.117994964 0.20924497 -0.12243678
-0.0024622437 -0.13106354 0.19964656
-0.04753877 0.08181624 -0.20522852
-0.1258014 -0.08782592 0.15097812
-0.019698013 0.013958144 0.19440715
0.010006937 0.1253098 0.11401114
0.19703741 0.3034624 -0.11231893
-0.07504472 -0.21093394 0.17270781
0.07540936 0.04357673 0.08815286
-0.07081937 -0.09108542 0.20667836
-0.031791978 0.17262107 -0.03630519
0.045597173 -0.2532516 0.015949506
-0.076817945 -0.24806029 0.14704922
0.098535724 0.33712527 -0.2272476
0.11198642 0.064896606 0.012334933
0.058009338 0.1563425 0.046443786
-0.034848742 -0.25527593 -0.24803774
0.034299176 -0.24391408 0.0645327
0.1275861 0.06361466 -0.11163297
-0.08718471 -0.17595762 0.18542439
-0.021730457 0.10617984 0.13667765
0.19135015 0.3198696 -0.23388587
0.045492925 0.07851747 -0.295947
0.071898535 -0.0471436 0.13422197
0.17816103 0.23884621 -0.19024934
-0.00037012328 0.18227728 -0.1427468
-0.16974652 -0.080304295 -0.17082036
-0.09442101 -0.27391282 0.117541604
-0.0053122267 0.04849279 0.17823412
0.055257995 0.019534854 0.15012044
-0.05117981 -0.3523517 -0.07777868
0.016506094 0.065595634 0.16601144
0.046563346 0.09190638 0.13288273
-0.15490867 -0.0043240306 -0.15236013
-0.022297809 0.14383113 0.089844376
-0.12208532 -0.1159795 0.1676852
-0.016882634 -0.032409314 -0.3075968
-0.012143362 0.00551877 0.19747707
-0.010667788 0.07791233 0.15948488
-0.16640957 -0.06317426 -0.1691573
-0.004793916 -0.07655666 -0.31704253
0.14097238 0.28498262 -0.08371981
-0.047792852 -0.31273648 0.07964411
-0.1166057 -0.051196214 0.15763769
-0.058550525 -0.32377875 0.058999594
0.10611587 0.05974906 0.0486908
-0.07993279 -0.22176988 0.16461073
0.08854248 -0.18780944 -0.21365145
0.10140356 0.10568766 -0.0143907005
0.012915475 0.21039301 -0.1379523
-0.09173338 0.033214632 0.14777371
0.08194072 -0.04249506 -0.21466658
0.10298096 -0.12280073 -0.22121012
0.114399076 0.10120205 -0.12809883
-0.13046812 -0.1924592 0.016595813
0.018990118 -0.22535901 0.093548045
-0.008238966 -0.15152915 -0.30751383
0.039713714 0.1320699 0.09649979
0.035605352 0.12367896 0.1095602
0.011875897 -0.1452116 0.18151604
-0.08405938 -0.011165239 0.18728876
-0.03484533 0.34454685 -0.10390256
0.10221739 0.1140898 -0.015259434
-0.0127260955 0.15328984 0.07576968
-0.006032409 -0.06973614 0.20906824
0.0062296526 0.31284156 -0.100970566
-0.010904366 0.3583669 -0.23008433
-0.103694215 -0.109304994 0.023914697
-0.08061718 -0.30415872 0.08463501
-0.06513551 -0.25636664 0.1436544
0.067978404 0.010107551 0.106828615
0.034558494 -0.28133616 -0.11873382
0.08726093 0.29017177 -0.11889717
-0.035166323 -0.3228189 0.059662838
-0.024553765 -0.07866469 -0.3114572
-0.009970116 0.059144553 0.17221531
0.11839535 0.3200851 -0.12420577
-0.01081968 0.35008848 -0.2112982
-0.016337067 0.16089037 0.062259547
0.016743965 -0.29467976 -0.0011414643
0.021002274 0.14360252 0.08850185
-0.021745438 -0.0697944 0.21195655
-0.06426738 -0.17835918 0.1894123
-0.07037871 0.068972 0.14653431
-0.023825798 0.05420022 0.1750066
-0.113721184 -0.19406174 0.1631984
-0.04310974 -0.0063629127 0.19993111
-0.05810131 -0.32008824 0.066150576
0.033776324 0.18543185 -0.050567213
0.16547766 0.2185246 -0.17335965
-0.104165755 0.020709032 -0.012268773
-0.029610556 0.19601081 -0.14873688
-0.0012560578 0.18669474 -0.036080215
-0.18199323 -0.09698391 0.0116674295
-0.07886389 0.097814046 0.07529356
0.02247231 0.07216293 0.15954682
0.06823181 -0.018035922 0.117397726
-0.007044479 -0.1384675 0.19981156
0.038424 -0.10699915 0.13881576
-0.016062321 -0.19456474 0.18131967
-0.0737751 -0.22300367 -0.25082108
0.08120545 0.0939271 0.076391436
0.15901968 0.31339663 -0.25551754
-0.08546487 0.0725224 0.11009644
0.06540125 0.12710497 0.08079451
0.119802594 0.08157987 -0.021726474
-0.15124242 -0.13705572 -0.010762322
-8.350449e-05 -0.11859978 -0.16581726
-0.05199257 -0.015456971 0.20143381
-0.024394564 0.35181007 -0.15909062
0.0120095005 0.18023318 -0.14110994
0.21125272 0.31019044 -0.18500233
0.092799984 0.1337849 0.00602925
0.01153578 0.27156034 -0.13202679
-0.08005989 -0.12215353 0.20195068
-0.046854936 -0.19761406 0.18447542
-0.14580023 0.015554901 -0.0015913376
-0.075940415 0.060158893 0.14734979
0.13009308 0.27278492 -0.11426877
-0.10837548 -0.022502465 0.101224944
0.017909303 -0.2675447 0.03368881
0.030732282 -0.062637456 0.18347885
-0.049406502 0.15047207 0.036333136
-0.016543161 -0.13989457 -0.14378639
0.019985229 -0.30218184 -0.03861525
0.053850275 0.19950616 -0.13295454
0.014424049 0.22881803 -0.13588132
-0.11100315 -0.018469948 0.14806272
-0.010925902 -0.32401955 0.029531881
-0.14681654 -0.09536545 0.020123623
0.091683045 0.23248708 -0.12402087
0.099655144 0.14937705 -0.07830136
0.06869766 0.12862185 0.07388716
0.072362006 0.07962624 0.1039644
0.21677162 0.2737144 -0.12716626
-0.10981351 -0.06639902 0.17695674
0.12501137 0.13569354 -0.15027353
-0.06937855 -0.25088122 0.14693835
-0.03873383 0.08199618 0.15595168
-0.15942258 -0.14359848 -0.023460956
-0.15079586 0.025761906 -0.012470037
-0.025772078 -0.061290406 -0.308887
0.08626178 0.34356347 -0.25910228
-0.027200354 0.31879696 -0.11583247
0.056975834 0.14480034 0.068138815
-0.08572798 -0.32274356 0.04683253
0.022247782 -0.25701573 -0.11301638
-0.08769305 -0.035314947 0.1924955
-0.017314425 -0.16369863 -0.13069203
0.14871465 0.31021887 -0.09246206
0.053409364 0.17880192 -0.023000894
0.20644088 0.29449922 -0.077474676
-0.009475151 -0.007039895 0.20212962
0.0978992 0.11269799 0.009283452
0.16078918 0.25372484 -0.11161296
-0.0619555 -0.28484598 0.11542662
0.01928837 -0.08197818 0.19357316
0.030783042 0.24580051 -0.13174582
0.14277685 0.32996508 -0.256273
0.03294356 -0.18562838 0.112984546
-0.14546184 -0.22400904 0.06473683
0.010524627 -0.2558015 0.096800916
-0.0067733405 0.31542972 -0.11994993
0.0065827137 0.10458878 0.13754508
-0.06319799 -0.16606285 0.19435263
-0.10816424 -0.23868488 0.14223447
-0.006527211 0.13564867 0.10412994
0.022171795 0.15662189 0.066149786
0.054014765 0.15024348 0.06207435
-0.033072896 0.04271713 0.18109289
0.16004607 0.20227951 -0.20992394
0.08413324 -0.19585234 -0.19222
0.15773596 0.22715734 -0.115558915
0.09887901 -0.05323383 -0.20373231
-0.039704908 -0.074451834 -0.1521082
-0.06314104 -0.028162306 0.2024159
-0.18070541 -0.117679924 -0.14570703
-0.11914072 -0.05912247 0.12604764
-0.009839492 0.14161003 0.09443891
0.017036766 -0.27563488 0.027407898
0.083031096 -0.20860888 -0.20426428
0.09949332 0.017870547 -0.17495345
-0.012406095 -0.33085558 0.015786296
-0.15473796 -0.026102625 0.02204703
-0.050031804 0.1538989 0.010067749
-0.024973262 -0.08490938 0.21203798
-0.027819334 -0.19860955 -0.04523857
-0.1162891 -0.18310943 0.16564548
0.0141819995 -0.2946261 0.018965438
0.050759807 -0.08228393 0.13625675
0.18313065 0.30711278 -0.11935939
-0.004883883 -0.25545245 0.12382411
-0.16724671 -0.0012606209 0.010701333
-0.18825217 -0.09293709 0.012319199
0.17249836 0.22714196 -0.19798863
0.019880218 0.36161605 -0.3010091
-0.015654499 -0.3230923 0.041809738
-0.13965692 -0.052216936 -0.16383287
-0.119077615 -0.054866355 0.15360072
-0.13660353 -0.29063362 0.028386472
0.10726239 -0.0022147894 -0.17478673
0.1411473 0.16737269 -0.20312761
0.036520798 -0.04864783 0.17780548
-0.030735752 -0.320025 0.06259537
0.01775666 -0.22873507 0.09772047
-0.110252984 -0.22606067 -0.21369834
-0.002605856 -0.12812763 0.20062284
-0.0040355083 -0.027636418 0.20556374
-0.06103411 -0.29990387 -0.18797243
0.11327768 -0.07088793 -0.21761382
0.0054888087 -0.015966589 0.20080516
-0.092877924 0.03683599 0.07620971
-0.047921296 0.012107692 0.19341514
-0.077777 -0.19425842 0.18078169
0.11469103 0.09119902 -0.1416763
0.0017092773 -0.045207378 0.20619282
-0.014412095 0.3187349 -0.10345008
0.11087512 0.062380068 -0.15852065
-0.0783754 -0.2599099 0.13673653
0.18250895 0.27628937 -0.07841274
-0.004727207 -0.21967532 -0.27718443
-0.09461932 -0.010146402 0.1744535
0.03261601 -0.13208644 0.13810249
-0.042214338 0.31377855 -0.14475395
-0.052869804 -0.1432921 0.20326525
-0.12828967 -0.16584675 0.15284862
0.05057978 -0.0371644 -0.30484742
0.049063176 -0.105756305 0.13497745
0.04503788 -0.11483509 0.13477331
0.089584105 0.009394704 0.09751473
-0.031093346 -0.17078687 -0.29968852
0.1357804 0.16951948 -0.1400488
-0.07635005 0.017707735 0.17979848
0.0791406 0.31291682 -0.09011754
-0.015133963 -0.093516536 0.2105194
0.042875543 0.32365102 -0.09443588
0.007559144 -0.2767703 0.07648767
-0.015423264 -0.034843277 0.2078573
-0.17860204 -0.026728675 0.020076822
-0.021762833 -0.05035862 -0.14619996
-0.095928356 -0.122872755 0.19489668
0.14262193 0.18046309 -0.15129553
0.036788844 0.11869791 -0.29244938
-0.0109870965 0.18372628 -0.031750713
-0.012066147 -0.17831881 0.1871951
0.0037791925 -0.3235543 -0.012484966
0.011746811 0.26120123 -0.13303377
-0.1026181 -0.32708323 -0.12904575
0.08959728 0.004527459 0.08952934
0.101669766 0.13417728 -0.040787436
0.17095266 0.23752871 -0.11926471
0.21916838 0.27949527 -0.104828045
-0.093551345 -0.15254237 -0.0075430074
0.13614987 0.23837334 -0.11681676
-0.07992515 -0.21996352 0.16576125
0.09655602 0.02488555 0.06811891
-0.030297339 -0.19035074 0.18708192
0.015604163 0.06283659 0.16770603
-0.039081663 -0.08570106 -0.15062173
-0.037878588 -0.27470106 0.12827969
-0.052217327 -0.13482903 0.20530587
0.09199312 -0.15748659 -0.20117615
-0.07390065 0.1048266 0.038013514
-0.13441302 -0.22173296 0.118905134
-0.120729044 -0.31237477 0.030431727
-0.06183555 0.35696825 -0.14366396
-0.12590794 -0.22258626 0.13613659
-7.4242715e-05 0.28547266 -0.13235933
-0.07205579 -0.3234936 0.05337229
-0.010752475 0.33081248 -0.10169522
0.12961102 0.058261335 -0.13612264
0.0420378 0.22173668 -0.13248317
0.036423028 -0.010254303 0.1795308
0.13517192 0.3074544 -0.08233043
-0.056428444 0.32980865 -0.15810233
-0.04692814 -0.13245575 0.20669143
-0.03317831 0.30731696 -0.1350943
-0.08032998 0.0812219 0.050030407
0.12930904 0.1584466 -0.13231535
0.017685166 -0.28749502 0.0031366267
0.17564088 0.23583084 -0.18095613
0.13275546 0.26815134 -0.11433731
-0.019573443 -0.11442806 0.20931149
-0.06046832 -0.11970744 0.20595531
0.09608323 0.01960412 0.06326178
-0.028717209 0.14416862 0.08533271
-0.11927493 -0.16495484 0.16846906
-0.051834386 -0.2989648 0.10085076
0.14228784 0.25862497 -0.11387392
-0.020910831 0.23196921 -0.1408216
-0.07583237 -0.28465086 -0.20021525
-0.112137966 -0.33431244 -0.04728467
-0.16801202 -0.14635527 -0.032936614
-0.013305578 -0.12998469 -0.31225112
-0.12130974 -0.27554408 0.09292258
-0.073519334 0.06834522 0.14201878
-0.017655376 -0.11421826 0.20890857
-0.023297459 -0.19775723 0.18320775
0.060839433 0.071840346 0.12826803
-0.087940514 -0.13897684 0.19613834
0.06816994 -0.07384958 0.13005213
0.0076284274 -0.112000585 -0.31323484
-0.03273278 0.10277785 0.13839273
-0.028463798 0.102727205 0.14027448
0.047731243 -0.26246676 -0.03964111
0.07559719 -0.06898249 -0.2220338
0.05803592 0.060897477 0.13687643
0.0415407 -0.035492603 0.1722483
-0.031259414 -0.15230696 0.20173344
0.11472775 0.06311269 -0.1874373
-0.087977886 0.07133485 0.0937814
-0.05349415 0.14000167 0.05823789
0.015018788 0.11971288 0.119772844
0.003989617 -0.19800352 0.1614411
0.011251721 -0.14615852 0.18185994
0.09782228 -0.089745365 -0.21020229
0.0033837503 -0.1092078 0.20152728
-0.027260238 0.19879672 -0.18582623
0.030833218 0.1854557 -0.046049416
0.096694864 0.22064453 -0.12446277
0.07823365 0.1703552 -0.049397577
-0.123015575 -0.31014448 0.030797694
0.18118022 0.2796481 -0.07827372
-0.03271913 0.21149921 -0.16510148
-0.12954767 -0.13081698 0.09127937
0.07572789 -0.11614328 -0.22341502
-0.051430017 0.1136512 0.1157207
0.08276371 0.3310026 -0.24990575
-0.010421451 -0.24414699 -0.26001787
0.037687693 0.14773418 0.075365655
0.067482315 -0.07179172 0.13875794
0.012647456 0.09605922 0.14447199
-0.0036949713 -0.12946603 -0.1604841
0.038108967 0.008436121 0.1761992
-0.06287454 -0.2532702 0.1469055
0.029345617 -0.08378246 0.18141653
-0.08427563 -0.2177033 0.16606821
-0.05615148 0.12143091 0.09340068
-0.032692555 -0.023798505 -0.29256266
0.14753464 0.21239176 -0.11775548
0.0008200154 -0.096585646 0.20493384
-0.10409386 -0.19956848 -0.08806029
-0.1746189 0.0055712694 0.006297638
-0.11418402 0.026518896 -0.018535677
-0.055423994 0.08200373 0.14762141
-0.16023543 -0.022813361 0.020545624
-0.044587813 0.046378 0.17824613
0.014014375 0.0831676 0.15520996
-0.08099831 -0.27080008 0.12538329
-0.004118052 0.1586846 0.0660726
-0.1217472 -0.25864717 0.111441374
-0.02231092 0.26615742 -0.13760272
0.039302394 0.19180499 -0.13589038
-0.036072966 -0.14765562 0.20334624
-0.18661413 -0.049957316 0.021481462
-0.030056037 -0.28596768 0.1129926
-0.08159338 0.07760665 0.11324953
-0.13229847 -0.14636064 0.14626227
0.04076874 0.2661748 -0.12821785
-0.11898084 -0.073979095 0.16226156
-0.03859128 -0.15364999 0.20190713
0.07290646 0.2472503 -0.1253346
0.0031156878 -0.23945639 0.12838338
0.092449635 0.15219434 -0.12637825
-0.0008920557 -0.008929131 0.2009599
0.03339368 -0.26029262 0.03882223
0.1270106 0.29846463 -0.08444529
0.03615754 -0.28610736 -0.1806789
0.10282812 0.034885034 -0.13544002
0.19085462 0.2999154 -0.29245168
0.070629366 0.1024273 0.09417026
0.16786814 0.21941866 -0.19359171
-0.034073897 0.2577245 -0.18403102
0.024064368 0.2157758 -0.1357547
-0.04229295 0.32092652 -0.110003576
0.077615015 0.021907914 0.09286155
0.042111754 -0.26038978 0.031627234
-0.11869896 -0.08133611 0.029350685
0.02944928 0.026490854 0.17848292
-0.05909832 0.110830195 0.10724283
-0.013313238 -0.048183348 0.20970286
0.003985897 -0.31217173 0.019379178
-0.115383044 -0.31391308 0.038604546
0.052696567 0.22155046 -0.13091655
-0.0326328 -0.1348295 0.20650955
-0.014898049 0.068240166 0.16629371
-0.065613516 -0.30801183 0.08539154
-0.081154786 0.09176621 0.07804193
0.11542757 0.08680806 -0.15453942
0.1989883 0.27939177 -0.07776462
0.12025007 0.15067798 -0.12881295
0.11057565 0.043721475 -0.11661663
-0.0033785326 0.05192903 0.1766539
0.09831779 0.34294128 -0.27214605
-0.02528712 -0.1391342 -0.13629515
0.010988382 0.013564387 0.19107097
0.015673488 0.32709128 -0.098137654
0.09248996 0.10291395 0.037085596
-0.018827727 0.07566697 0.1612789
-0.124772854 0.04446129 -0.059189048
0.03748533 0.12972152 0.10077755
-0.027388182 -0.2115374 -0.28213474
-0.039424445 0.13366176 -0.18468526
-0.1430287 -0.26528996 0.044278756
-0.016224474 -0.26458195 0.1280292
0.05244445 -0.0038552776 -0.3020002
-0.009816561 0.14870702 0.08463281
0.0445502 0.00012772098 -0.30394456
-0.08240853 -0.24609123 0.14700708
-0.09242743 -0.13492034 0.19489984
0.1138479 0.29224914 -0.08702617
0.06659875 -0.22306271 -0.15709612
-0.06671017 0.057361726 0.16113505
