# .PCD v0.7 - Point Cloud Data file format
VERSION 0.7
FIELDS x y z
SIZE 4 4 4
TYPE F F F
COUNT 1 1 1
WIDTH 1000
HEIGHT 1
VIEWPOINT 0 0 0 1 0 0 0
POINTS 1000
DATA ascii
-0.007077453 -0.0058933306 0.20573413
-0.16963048 0.12506838 -0.060723975
-0.12720536 0.04090313 0.13268372
0.0038846754 -0.11301011 0.12662819
0.038123894 0.047533825 0.12740158
0.1302481 -0.1402842 0.16617213
0.049132437 0.06733712 0.04624157
0.13778546 -0.17110175 -0.13688399
-0.23161268 0.24320517 -0.33625242
0.20431492 -0.048821587 0.14340739
-0.024490297 -0.07777863 -0.21072374
0.27864408 -0.15648988 -0.013911134
-0.053646494 -0.08515549 0.11275047
0.24916743 -0.18234448 0.003809088
0.18604814 0.044999827 -0.013590231
-0.061230157 0.11271108 -0.15110219
-0.06280701 0.19691256 -0.37722412
-0.21366444 0.26447606 -0.34163806
0.29423836 -0.10281712 0.0055076396
-0.07757945 -0.06532425 0.15322167
0.2223491 -0.18567023 0.029857963
-0.045984775 0.00039114896 0.19280711
0.07469825 0.018625047 0.0519574
-0.2974019 0.0845089 -0.3492097
-0.28285283 0.12959881 -0.3447082
-0.28380343 0.13178113 -0.34416315
0.14085409 -0.096784644 0.18641207
-0.09771149 0.04923565 -0.23873429
0.00022926615 -0.047672544 0.20741528
0.2466839 -0.09506295 0.10908112
-0.082348175 0.071047164 0.14378661
0.22214597 -0.057040777 0.12872036
-0.22732356 0.027063351 -0.20296982
0.13297781 0.0069955657 0.09864716
0.014051593 0.04501954 0.17354836
0.013088079 -0.0205197 0.21004605
-0.17187715 0.08766714 0.037333023
-0.011565539 -0.09999807 0.16694409
-0.24980868 0.034529787 -0.27266663
-0.12510566 -0.002444583 0.1450848
0.08808573 0.012930847 0.17871001
-0.15487242 0.02526512 0.10764211
-0.27183342 0.164397 -0.34119305
-0.111608654 0.031431194 0.14935938
-0.12827583 0.04857507 0.12881926
-0.121107936 0.0879523 0.10300698
0.1106307 -0.09614506 0.19638684
0.20173231 -0.17801791 -0.1342211
0.21770263 -0.07048592 0.14057814
0.27998623 -0.06251073 -0.14882535
-0.12738788 0.034001872 0.13500585
-0.1555475 0.14303257 -0.12829919
0.04196326 -0.07876908 0.20703535
0.028491376 -0.0288754 0.21153067
0.004394668 0.018966679 0.19876933
0.0005933692 0.10941117 -0.047541987
-0.2098939 0.017843999 -0.07117707
0.11729908 -0.1109428 0.18954147
0.02782287 -0.06563728 0.20846665
0.1822612 -0.17214207 -0.116946705
-0.015414063 -0.06953877 0.19807637
0.10804767 -0.14993379 0.14694741
0.11278495 0.037185714 0.049255934
0.24996011 -0.1844944 -0.026325276
0.049968977 -0.06083946 0.2105678
0.13729912 0.10529501 -0.12237709
-0.21888077 0.049579307 -0.09011441
0.006921617 0.083239585 0.0077399984
0.113429874 -0.14169565 0.16598876
-0.05716543 0.098081835 0.014415265
0.16702779 -0.017888524 0.15140447
-0.012222483 -0.020644898 0.20520356
0.21180058 -0.16998868 -0.16635305
-0.017753968 0.04341465 0.18048555
-0.15523213 -0.031660523 0.00082462333
0.27016175 -0.14829615 0.031886734
-0.13425077 0.14699131 -0.17670356
-7.165139e-05 0.09365024 -0.011701013
-0.13484392 0.022189464 0.13190217
0.025568193 -0.08294622 0.20400445
-0.1469447 -0.06013095 0.02166423
-0.1409591 0.110111296 0.038963504
-0.19814844 0.06806229 -0.020346621
0.03222354 0.10833321 -0.09110371
-0.24201721 0.16964689 -0.34541604
-0.14872703 0.04494326 0.10748182
0.17658365 -0.03783922 0.16283058
0.1314227 -0.030367302 0.19143587
0.0857486 0.050358694 0.05449767
0.10872635 -0.009942302 -0.29371533
-0.20517397 0.23745015 -0.35913053
-0.14789532 0.15707749 -0.22987764
0.18349111 -0.01213121 0.06391811
-0.30806857 -0.0015607125 -0.36118615
-0.057019338 -0.00040570044 0.18810791
0.22879891 -0.17843084 -0.12886941
0.009111889 0.1260434 -0.059435718
-0.2615115 0.18014331 -0.3406583
-0.1768907 0.25209188 -0.35467666
0.042323112 -0.10580398 -0.21525234
-0.015185159 -0.10345528 0.12405013
0.058707375 -0.13276073 -0.22121796
-0.05156491 -0.08435132 0.15224998
-0.23542531 0.03707014 -0.21416132
0.08707268 0.11535181 -0.12433959
0.03800946 -0.10045351 0.1963006
-0.015905427 -0.05337022 0.2024665
-0.03562232 -0.055523433 0.19478291
0.070993535 0.09795276 0.051336072
0.11268641 0.009136644 0.16519566
-0.06944434 0.078842625 0.13526866
0.017261203 -0.08755723 0.19970557
0.14062859 0.00055001705 0.14837524
0.19519374 -0.17149335 0.09939625
0.14001617 -0.02465045 -0.28398722
-0.029179446 0.032787643 0.18781067
-0.13867049 0.16879226 -0.27145797
0.2616173 -0.15116121 0.048397515
-0.05064269 0.037760887 -0.2713391
0.009359974 -0.037658904 0.2092972
-0.27630678 0.023129404 -0.3557117
-0.036796447 0.00046534007 -0.116617694
0.009257661 0.047078915 0.17213929
0.24124432 -0.1609815 0.071490735
-0.0056813126 -0.019315297 0.20702584
0.107995175 0.104647964 -0.12742525
0.008083381 0.11844265 -0.073941685
0.06420885 0.1418674 -0.11798149
-0.09517773 -0.005929164 0.16876918
-0.02919543 0.018568333 0.19539426
-0.08320964 0.12442445 -0.1771481
0.18551648 -0.048427057 0.16323431
-0.08445618 -0.0071185664 0.17515843
-0.07952152 -0.05619814 -0.17740391
0.111349255 -0.15836631 0.12182548
0.033313688 0.047714222 0.15303335
0.15501985 0.08567192 0.044806696
0.08822088 -0.13203119 0.1752261
-0.21729624 0.117968924 -0.17441313
-0.11806855 0.2100435 -0.36414298
0.024179148 -0.028534394 0.21110278
0.058926716 0.14250039 -0.1015899
-0.03907848 -0.024086926 0.19776438
0.21874033 -0.14865127 0.11105896
0.115337 -0.032208767 0.19866575
0.18086758 -0.1756647 0.09015089
0.19326572 -0.1811987 -0.061942454
0.116335504 -0.058121737 0.20183907
-0.030085431 -0.096225336 0.121128045
-0.21691065 -0.007887496 -0.33568782
-0.2108572 0.089833796 -0.10240024
0.069089055 -0.09507495 0.20187208
-0.0435765 0.036437664 0.18355817
0.26561868 -0.1131368 0.07346173
0.0022800507 -0.119783364 0.12119875
0.26715183 -0.043400295 -0.010353225
-0.08948305 0.07920328 0.12936157
0.15471244 -0.19307064 0.029358866
0.0011040565 -0.02634653 0.20825109
-0.0034442402 0.05186475 0.16914697
0.16914664 -0.0849152 0.17691368
0.19304861 0.051739562 -0.027509723
-0.0017763133 -0.107318796 0.16263595
0.099387415 -0.17225432 0.06118893
-0.23334402 0.073956035 -0.16993077
0.24911872 -0.15099955 0.07019355
0.12230264 0.070781134 0.052871015
0.15513088 -0.19183657 -0.0058710156
0.11152063 0.069788635 -0.1278823
-0.031766977 -0.0052995575 0.19883193
0.053020682 -0.057027373 0.21082567
0.12600417 -0.15237592 0.1471473
-0.18369995 0.24067397 -0.34614563
-0.3041685 0.0964239 -0.35129124
-0.06843263 0.15399964 -0.38313457
-0.27127394 0.15718849 -0.34248415
0.19424514 -0.1865164 0.0022674045
0.17540796 -0.13278541 0.15528302
-0.046991743 0.028595362 0.18646002
-0.13926709 0.03269987 0.12370816
-0.043133374 -0.033008724 0.19625802
-0.21379468 0.03576777 -0.064357154
0.1614858 -0.018237313 -0.029082017
0.041774306 0.035017114 0.17500915
0.19954582 -0.13385464 0.13868418
-0.0464079 0.091442026 -0.08396517
-0.23345771 0.022319864 -0.25699264
0.084576376 -0.1641403 0.103641585
-0.29739055 0.034940876 -0.3573247
-0.13462813 -0.023304725 -0.2718848
-0.054167397 0.06247241 0.15872696
-0.10380308 0.12222339 -0.028327834
0.18077873 -0.08200179 0.17072709
-0.1240605 0.12430017 -0.009234652
-0.08395338 -0.07823726 0.09214557
-0.22910284 0.1492202 -0.2715807
0.2574689 -0.073111534 0.087714106
0.107842654 -0.14799555 0.15152115
-0.057764027 -0.06111568 0.17906128
0.14306042 -0.007457874 0.16157441
-0.15342948 0.14139058 -0.118196554
0.16442718 -0.01634091 -0.041228738
0.012642248 -0.038693927 0.20961447
0.20691553 -0.12907013 0.13505433
-0.13196598 0.22906268 -0.35828045
0.10476401 -0.15458538 -0.20240477
0.1055818 -0.10338554 0.1948645
0.13296954 -0.073882885 0.19512036
0.039395947 0.019643389 0.19353688
-0.0130426 -0.013315722 0.20458563
0.10240727 -0.06058416 -0.14812309
0.021411197 -0.08443798 0.20251909
0.25127786 -0.04487321 0.05977265
0.14979246 -0.0071138353 0.15456897
0.23277552 -0.025399655 -0.04689068
0.12063731 -0.023131799 -0.29123306
-0.1183155 0.17407289 -0.35367694
-0.0044491636 -0.0005734101 0.20519666
-0.16231173 0.04413338 0.09006041
0.13973753 0.0453243 0.04049461
-0.186258 0.16181542 -0.23553719
0.08152426 -0.13669679 -0.20025457
0.06944319 0.020650454 -0.29096973
0.2922447 -0.07172297 -0.11256083
0.17413758 -0.014105184 0.13472658
0.15224536 -0.19304907 0.033486582
0.12246355 0.09040611 0.056051146
-0.004857887 0.010576004 0.20231722
-0.1950499 0.060130805 0.0038105408
-0.16912705 0.07300267 0.058799412
-0.2760361 0.07478097 -0.3290394
0.051446147 -0.031769473 0.21188827
-0.14952835 0.089297764 0.07273107
-0.10383612 0.13721627 -0.22524789
-0.048718136 -0.062023826 0.18455206
0.22396968 -0.020779548 -0.06903919
0.12618965 -0.08861206 0.19411786
-0.00049940136 -0.13260324 0.12137749
0.11531697 -0.18059924 0.07816706
-0.28233966 0.010727611 -0.36426494
-0.22331582 0.0020023664 -0.30356243
-0.07287902 -0.07143326 0.14877594
0.16525455 0.025635077 0.009468098
-0.08893613 0.04590369 0.16004352
-0.25901246 0.19909702 -0.34463122
-0.20522113 0.090303175 -0.08203299
0.25343654 -0.1829263 -0.0590712
-0.060800496 0.07618808 0.14028753
0.09726798 -0.12659758 0.18160683
0.03422008 0.024497058 0.1906541
0.0045271544 0.036695994 -0.28831318
0.11815034 0.0053963033 0.16639283
0.29144102 -0.12630098 -0.0064869323
0.09432499 -0.09315363 0.20032978
0.012245235 0.054168776 0.15880705
-0.12063942 0.13635215 -0.11606711
0.19291484 -0.13774133 0.1411207
0.17508166 -0.1794103 -0.0009454358
-0.27384722 0.06264698 -0.3183979
0.07785268 -0.043162983 0.21070546
0.12745866 -0.16533914 -0.19313882
-0.10170909 -0.06159712 0.08282391
0.07959588 -0.05004799 -0.16038565
0.22570671 -0.10886201 0.12812401
-0.17797816 -0.017556705 -0.052184723
-0.11907491 0.03173535 0.14279401
-0.01797187 -0.048405692 0.20281297
0.10817799 0.10481937 0.058698207
-0.10705277 0.049706113 0.14634536
-0.066099696 0.1002099 0.041597497
0.046318874 -0.13058256 0.12223106
0.044300348 0.06352627 0.04456803
-0.086486764 0.08094953 0.12713546
-0.19409005 0.12994432 -0.1367621
0.079903185 -0.05291327 -0.16919352
0.24763648 -0.17850916 -0.11068536
0.16385883 -0.17534223 0.08971057
-0.0013830228 -0.06732949 0.20379248
0.046192583 0.040445946 0.16243109
-0.13833797 0.10430716 0.058807548
-0.21632184 0.07828264 -0.10459027
0.19471475 -0.13666813 0.14086865
0.052733358 -0.07352098 0.20865737
0.042556938 0.08809251 0.039728254
-0.24152894 0.11106415 -0.25088298
0.03195248 0.13189693 0.016595703
0.3001149 -0.095463075 -0.08166557
0.035533894 -0.017260678 0.21083531
0.006426274 -0.06501128 0.20585226
-0.17337282 0.0490655 0.069361635
-0.22206497 0.10522185 -0.16873151
0.10071392 -0.088336706 0.20075813
-0.19108385 0.00090846076 -0.2501738
-0.07420163 0.10539299 0.020618537
-0.23096256 0.035515048 -0.17589721
0.011880898 -0.063864745 0.20685339
-0.028742844 -0.02008427 0.2004281
-0.15274638 0.11543518 0.004406823
0.028300142 0.14020382 0.0060398076
0.17267084 -0.05362708 0.17470571
0.24326436 -0.16961955 0.054810107
0.07092822 -0.04308605 -0.30128995
-0.09450344 0.15469807 -0.3387104
-0.23054966 0.04203817 -0.15880804
-0.048865944 -0.021433415 0.19396472
0.08649386 0.08351521 -0.12908196
-0.13453305 -0.06371218 -0.0040686023
-0.15768065 0.19262162 -0.3092834
0.05254421 -0.005587348 0.20724903
0.14687347 0.067537904 0.04365318
-0.13402623 0.088872045 0.08907639
0.15789668 -0.12272164 0.17017299
-0.24251157 0.08690414 -0.2205949
-0.20930563 0.12241494 -0.15814598
0.18799566 -0.17966153 -0.051475387
0.020173391 0.15428115 -0.037662912
-0.07485803 0.14722294 -0.30122706
-0.19786467 0.014225016 0.004773122
-0.07631596 0.16932026 -0.3870778
-0.09042623 0.1203761 -0.08191289
0.24012184 -0.1815249 -0.105611525
0.15407996 -0.10427015 0.17910676
-0.12517259 0.10873814 0.05698115
0.05919127 -0.12541543 0.17400745
0.084900014 -0.14302267 0.15166631
-0.21576403 0.14712517 -0.23809586
-0.15293378 -0.019928455 -0.39488313
0.048847135 -0.06371906 0.21034507
-0.034599144 0.015529021 0.19451743
-0.08117931 0.118831255 -0.1154331
0.011139808 0.017018482 0.20021525
0.21239592 -0.046133578 0.13183655
0.17510758 -0.16489913 -0.17052704
-0.04511619 0.013500942 0.19101712
0.13386272 -0.037930537 0.19240211
0.04629089 0.0072159003 0.2025685
-0.19098592 0.25670856 -0.34207982
-0.122673064 -0.048059583 0.10937512
0.007428358 0.030877946 0.029009137
0.26187143 -0.15383591 0.04447492
-0.25926045 0.19253013 -0.33907664
0.0526422 -0.08012249 0.20712805
-0.20780584 0.045522824 -0.035897434
0.24711715 -0.029246207 -0.07980727
0.033769958 -0.00397097 0.20883225
-0.037679136 0.04479153 0.17887089
-0.12632972 0.18055116 -0.35861653
0.071073264 -0.10164246 0.19884528
0.20264216 -0.0408783 0.13930455
-0.23466858 0.1809855 -0.3409521
-0.14034486 -0.04141539 0.042408094
0.030190287 -0.004453159 0.20943062
-0.12256316 0.16070743 -0.2727356
0.10283931 -0.02320862 0.20065702
-0.12530883 0.009616627 0.14332902
0.2962114 -0.09726495 -0.0043632565
-0.07985696 0.057336025 0.15634452
0.23278648 -0.17334616 0.06284893
0.070816875 0.026238985 0.17180426
0.09843654 -0.07609144 0.2033096
-0.06217131 -0.0512526 0.1820604
-0.110699326 0.041350737 0.14682673
-0.18658608 0.03161778 0.052446973
-0.33535647 0.027121173 -0.35844016
0.12801683 0.013909487 0.037027784
0.019438338 0.056771263 0.11473161
-0.022104323 -0.09702189 -0.22064081
0.26545566 -0.17566447 -0.06250605
-0.2699739 0.13512175 -0.34635243
0.051647007 -0.107326664 0.19362645
0.22108328 -0.16071397 -0.18706135
-0.010486486 0.04438457 0.17878166
0.21506886 -0.0878595 0.14486092
0.16982956 -0.17848103 0.038760096
-0.18748008 0.21696089 -0.34927866
-0.22791186 0.090933114 -0.1680216
0.27721885 -0.13083376 0.034911025
0.12547441 -0.056171604 0.19897288
-0.26096022 0.17917594 -0.34092605
0.037467618 0.07394739 0.03938637
0.2701974 -0.14708865 0.033232257
0.0491101 -0.032505937 -0.16139047
-0.23953074 0.089845456 -0.21195012
-0.072956905 -0.07737019 0.13142426
0.08014976 0.029860698 0.11509969
0.15261164 -0.020180678 0.16933893
-0.1358674 0.12340836 -0.010497624
-0.20921938 0.0073975124 -0.16154252
0.19834638 -0.15894024 0.11882952
0.21453033 -0.06325094 0.14224498
-0.048156317 0.02562154 -0.27542585
0.23729862 -0.029964989 -0.013200185
-0.10549775 0.16479507 -0.3774354
0.11365934 0.0026059307 -0.28552502
-0.16440673 0.01953231 0.096335225
0.18457285 -0.07597455 0.16892108
0.07496938 -0.04019094 0.21090654
0.2550739 -0.106529415 0.09447034
0.06101755 0.0014216674 0.20310329
0.16075939 -0.058266502 0.18405852
0.076339304 -0.07969966 0.20621419
0.18773206 -0.18175916 -0.022362469
0.025411185 0.1539833 -0.05141153
-0.27221295 -0.0055505442 -0.3689324
-0.06303754 0.054637287 0.16501634
0.06637452 0.11604857 -0.11612901
-0.23055312 0.02500118 -0.23764756
0.013779125 -0.08309376 0.2014847
0.121390074 -0.15884306 0.13008523
0.013562705 -0.044956677 0.20951374
0.03228394 0.010199942 -0.13118681
0.15439942 -0.10025698 0.18015388
0.07596814 0.0033113933 0.19545045
-0.042757645 0.08237139 0.12285404
0.20322599 -0.11079383 0.14553256
-0.1962439 0.2308069 -0.345279
0.16893736 -0.11558262 0.16724904
-0.013793623 0.07214714 0.10604046
-0.062457513 0.06797214 0.15120567
-0.23101762 -0.009232659 -0.36285266
-0.17444585 0.17627208 -0.26523224
0.12937437 0.0395037 0.043955963
0.0082719615 0.0144597 0.20123708
-0.16118634 0.17788261 -0.27306864
0.06442847 0.02707826 0.17472516
-0.083500214 -0.042577434 0.17031698
0.18691272 -0.017966459 0.12237462
-0.08833011 0.055056717 0.15504837
-0.124151744 0.074616715 0.115548216
0.12731323 0.087902024 -0.124583274
-0.14822908 -0.017548325 -0.22547586
0.042776827 0.040674172 0.16545905
0.18234544 -0.06599298 0.17056938
0.16343343 -0.07215493 0.18209773
-0.31732225 0.03273724 -0.3537418
0.08837293 -0.0359127 -0.29885763
-0.16392393 0.12966838 -0.07497104
-0.20457433 0.015051367 -0.039119694
-0.057942666 -0.011643579 0.18899684
-0.062992364 -0.077865794 0.14990152
0.124044195 0.06760725 0.052007254
0.21381104 -0.022229964 0.004823965
0.14654952 0.09222256 0.050228607
-0.0054317857 -0.050614297 0.20575899
0.14897308 -0.018698461 0.0005515514
-0.12704414 0.20549649 -0.36311144
0.009457487 0.032617826 0.18761219
-0.05563193 0.07332896 -0.24832752
0.123396076 0.04992658 0.04863475
0.25423273 -0.17954974 -0.08670583
-0.06571507 0.09909315 0.05403992
-0.13103227 0.052631103 0.124259025
-0.16921449 -0.017243376 0.058115665
0.13426606 -0.052216023 -0.28613698
-0.080560505 -0.012040085 0.1776656
0.089184776 -0.07658863 0.2050584
-0.03726232 0.052533034 -0.031560443
-0.055300143 0.038073204 0.17902526
-0.042947277 -0.113068424 0.11166081
0.22726735 -0.09687829 0.13083608
0.028840085 0.07659262 0.033318475
0.11488188 -0.051392235 -0.29228017
0.12871872 -0.07249515 0.1967552
0.014563357 -0.1384979 0.111187354
0.15977015 -0.16542564 0.1209752
-0.27348447 0.044309344 -0.3236511
0.22455205 -0.05305379 0.12173611
-0.15431339 0.23605284 -0.3527155
0.21499991 -0.1085876 0.13746008
0.087323025 0.0740131 0.055620655
-0.18786697 0.25643414 -0.3478665
0.023560941 -0.028290588 0.21104749
-0.09857828 0.09342955 0.10381712
0.054022614 0.021950942 0.18719584
0.017576106 -0.11125517 0.1717724
-0.18545118 0.05276814 0.039669976
-0.21244635 0.056833945 -0.064410456
0.08300601 -0.075710416 0.20613088
-0.1767452 -0.016045716 -0.07922702
-0.24165633 0.03338192 -0.25524196
0.2092565 -0.12609711 0.13439927
-0.23809846 0.057478014 -0.18590781
-0.15598366 0.22253889 -0.3545967
0.061497673 0.08458685 -0.12311472
0.22336094 -0.10995709 0.12964159
-0.0038837728 0.09788563 -0.055558566
0.21380329 -0.13186258 0.12785308
0.122274555 -0.010744088 0.18268245
0.2482301 -0.030948011 -0.06391129
0.053755652 -0.023507887 0.2114337
0.092459895 -0.057494737 0.2073735
-0.12587856 0.0006315117 0.14409433
0.15234095 -0.018051555 0.16675621
0.007006358 -0.061596885 0.20653953
-0.21518607 0.1309499 -0.19655165
-0.22546484 -0.020783981 -0.38067397
-0.20945928 0.008934899 -0.21720283
0.054858588 -0.15600772 0.10681595
-0.13440025 0.05481319 0.11899801
-0.018764827 0.022202173 0.19532697
-0.10212576 -0.072319806 0.07456107
-0.029705768 0.032073725 0.18823238
0.14793462 -0.04549015 0.18760705
0.029421825 0.0077024396 -0.29846236
-0.24469623 -0.034613013 -0.39511314
-0.18143289 -0.015587384 -0.02254529
-0.08816795 0.08531248 0.12027575
-0.075664155 0.06212594 0.15427394
0.17795773 0.033240046 -0.007200081
-0.08997336 -0.029589891 0.1705822
0.29370743 -0.11276353 0.0032691439
0.13652103 0.09756902 -0.12203972
-0.050029047 -0.10741119 0.116184674
-0.128808 0.11752954 0.025378114
0.22552282 -0.12086346 0.123041034
0.12638192 0.005876992 0.15521783
-0.007747544 0.058545116 0.1595026
0.07423123 -0.05845743 0.20961525
0.038178407 0.048101295 0.11962247
0.080814995 -0.1629928 0.10541523
-0.07120743 0.090169266 0.11300074
-0.27071413 0.18357767 -0.3639017
0.1364425 0.029733818 0.037226204
0.20596324 -0.18534371 -0.0813658
0.038200103 0.009134682 0.20244524
-0.23851453 0.20872109 -0.3405309
-0.0836457 -0.006675955 0.17548367
-0.07180374 0.075096175 0.13963282
0.1022382 0.045184776 0.052651405
0.19979204 -0.021708174 0.0965907
-0.0816936 0.10193551 0.08277351
-0.094451874 -0.060310677 0.13689852
-0.08590422 0.0363387 0.16589051
0.033901762 -0.03611169 0.21181147
-0.1043621 0.2039195 -0.36785674
-0.060102243 -0.08289975 0.120677024
0.10872079 -0.034693114 0.20199788
-0.29476556 -0.011728372 -0.365482
-0.17200321 -0.017540338 0.043232255
0.092747286 0.08017714 0.05651017
-0.20495035 0.2582118 -0.3390715
-0.051619828 0.052757114 0.17038544
-0.24182965 0.1313636 -0.28413093
0.13711685 -0.0815078 0.19142655
-0.03431817 -0.003991284 -0.1355201
0.15582238 -0.03192128 0.1759383
-0.10811989 0.0062021166 0.15846592
0.060996845 0.07947796 -0.124308005
-0.1559754 -0.010806346 0.10188038
0.02453753 0.010660804 0.2029166
0.12023976 -0.1682553 0.07481044
-0.07299217 0.09250016 0.10754062
0.29874486 -0.093968235 -0.020754969
-0.058774598 -0.019609282 0.18925291
-0.13109438 0.08964685 0.09076865
0.10141529 -0.006253493 -0.29493427
-0.115581796 0.13004081 -0.06253567
0.16097234 -0.11223491 0.17273909
-0.004732297 0.081455596 -0.010930174
0.18087013 0.08146656 -0.003024002
0.15819062 -0.035042066 0.17694958
-0.17326383 0.15920183 -0.2253335
-0.034639243 -0.030004444 0.19932048
-0.30679643 0.0741597 -0.3490451
-0.09366433 -0.0624826 -0.16731293
0.07617453 0.1070672 -0.122970715
-0.1343414 0.23389767 -0.36317307
-0.2998531 0.08147305 -0.34922192
-0.048272718 0.090544246 0.06489291
0.021619229 0.0048724734 0.20570193
-0.055955928 -0.059906613 0.18131398
-0.049150035 0.08314026 0.12496143
0.24007522 -0.039751045 0.07264065
-0.026714431 0.04097299 0.18336068
0.28817406 -0.10324578 0.027595967
-0.12426219 -0.023584891 -0.24809097
0.036307555 0.08321955 0.036728926
0.2162858 -0.15271857 0.109856635
-0.15086511 -0.033152234 -0.0049856864
-0.11613745 -0.07390981 0.0690578
-0.08142972 -0.0630164 0.1516455
0.05632453 -0.039863657 -0.16760574
-0.0680748 0.04050998 -0.26172033
0.17249323 -0.019755363 0.14797615
0.03908682 0.073027045 0.040496185
0.13014702 -0.18060029 0.066549316
-0.07012597 0.07413422 0.14130114
-0.22222896 0.01844619 -0.22291142
0.03167119 -0.10120175 0.19416869
0.123563446 -0.009977408 0.18138604
0.16301422 -0.18213311 0.0117821535
-0.083506905 -0.05325296 0.16344322
-0.011227265 0.00072889146 0.20403595
0.05484364 0.11257726 0.04240868
0.08766482 0.08042574 0.055657156
-0.040792536 0.025412414 0.1895315
0.16208844 -0.18543148 -0.13058127
-0.18186589 0.17154646 -0.255704
0.1285006 0.059608698 0.049071573
0.15696883 -0.0022962592 0.09067151
0.15271537 0.013713815 0.01703336
0.016509825 0.117511734 0.0015095337
0.19982556 -0.07393662 0.15834779
-0.16401026 0.05484583 0.08132793
-0.09264035 0.032380756 0.16319737
0.027853452 -0.123188175 0.15345217
-0.15853243 0.104437225 0.031054113
0.04697838 0.034315642 0.04778365
-0.26110232 0.014147665 -0.33808166
0.09546154 -0.17300302 0.09388584
0.13533707 -0.01392317 -0.28249756
-0.25687745 -0.0147392815 -0.37347013
0.025244279 0.12396612 0.011265006
0.058593106 0.036175217 0.15757127
0.18752182 0.08389078 -0.073617615
0.20222183 -0.13702002 0.1354597
-0.12396792 0.14328778 -0.1878728
0.16246668 -0.010685597 -0.019432066
0.05932346 0.009148621 0.1964412
0.13089752 0.015054444 0.035648044
-0.11053489 0.050532572 0.14331447
-0.11229666 -0.059282456 0.06758934
0.16101106 -0.18607794 -0.11580824
-0.12401313 -0.073027596 0.05716013
0.2715761 -0.1704288 -0.053820867
0.14693178 0.0034669412 -0.15438116
-0.055820744 -0.04938991 0.18661185
0.11120332 -0.00787552 -0.2922873
-0.089123584 0.117066056 -0.045979325
-0.19729376 0.2458628 -0.34260726
0.1459601 -0.00045782194 0.130589
-0.21376514 -0.04815869 -0.39709154
-0.1119682 -0.051245864 0.12433961
-0.1780527 0.0473969 0.062232494
-0.077700496 -0.07171521 0.14045574
0.28635395 -0.10884048 0.03258436
0.07080066 0.12292035 0.048735786
-0.17313705 -0.028894734 -0.3580168
-0.09641966 0.03633652 0.15896021
-0.2609632 0.10202114 -0.3093643
0.19890521 -0.08127108 0.15821859
0.22109202 -0.14939228 0.10833322
-0.13210002 -0.06527451 0.0023044206
-0.20300569 0.006945529 -0.08005429
0.15865688 -0.043400757 -0.27684572
0.08934601 -0.15750226 0.09746776
0.21801224 -0.024653101 0.029238407
0.17467794 -0.10441997 0.16771029
-0.20774801 0.22514439 -0.34392965
0.076658726 -0.075015016 0.20686886
-0.11795332 0.14847903 -0.250989
-0.2924418 0.06644341 -0.35314792
-0.0129274195 -0.0054452717 -0.1376694
0.017705712 0.11142831 0.0073730783
-0.0028636418 -0.0074629495 0.20658502
-0.15709262 -0.015261187 -0.2755431
-0.22984163 0.13227423 -0.2439692
0.2717716 -0.09056906 0.0676679
-0.19366853 0.15769003 -0.23101176
0.2285732 -0.1766114 0.060039323
0.12280761 -0.16272713 0.105376095
-0.1377514 0.15957274 -0.2511932
-0.13592534 -0.05250896 -0.14325388
-0.20137212 0.010501935 -0.030248635
0.22751948 -0.018544957 -0.106409565
0.18705298 0.043374088 -0.018327251
0.10643735 -0.11530758 0.18913502
-0.13322832 -0.025104964 -0.2134535
0.16031614 -0.107935786 0.17449802
-0.11563924 0.13920878 -0.1827295
-0.097743325 0.20543563 -0.36891788
0.06668816 0.10188634 -0.120613724
0.090318255 -0.11848045 0.18855964
0.020252764 -0.057031024 0.20916563
0.092143185 0.010678019 0.17897516
0.15678823 -0.18393064 -0.119457304
0.13166916 -0.17633852 0.059574068
0.23034216 -0.14032714 0.106286615
-0.072979994 0.10199282 0.05820922
0.046559907 -0.11748151 0.18081476
-0.28202844 -0.014713626 -0.3684903
0.17301533 0.011235334 -0.18064058
0.011293722 -0.050414264 0.20891003
-0.30233464 0.003195922 -0.36154184
-0.11746204 -0.07561876 0.053088777
0.23756291 -0.11609612 0.11235229
-0.049455542 -0.023146044 0.1936935
-0.1730148 0.17863984 -0.27116773
-0.043346416 0.07579271 -0.05637142
-0.17469835 -0.029587667 -0.3633273
-0.05030465 -0.024438271 0.19332425
0.1443692 -0.030929275 0.18424827
-0.009082303 0.015184034 0.20006436
0.06274323 -0.009671043 0.20727895
0.137832 -0.15387361 0.1465201
-0.030529585 -0.041351475 0.20034653
0.163606 0.061170973 0.029761752
-0.19454388 -0.00017348977 -0.03851682
0.13120966 -0.1680734 -0.17902526
-0.1555143 0.0024823123 0.108974785
-0.0066732722 0.047364864 0.17628092
0.11187249 0.015913306 0.044750024
-0.11898155 -0.04222769 -0.11575845
-0.17150803 0.19831748 -0.31299698
-0.112832695 0.09114747 0.10138206
0.007617395 -0.105891325 0.17376977
-0.12591879 0.16307637 -0.27408707
0.14359525 0.025764035 -0.20038415
-0.008047906 0.05701936 -0.2735899
-0.040741928 -0.11319664 0.10050932
0.12701021 0.05191998 0.047784463
0.15540129 -0.13518125 0.16371974
-0.038878784 -0.08973854 -0.21874091
0.06406611 -0.014351964 -0.30085894
0.027273465 -0.012817346 0.21020557
0.1957247 -0.026598053 0.12893766
-0.1651327 -0.025701161 -0.019886341
-0.17937209 -0.014372139 -0.08593582
-0.3095644 0.007248313 -0.35944837
0.060927898 0.035245463 0.15620612
-0.23089464 0.027518105 -0.22829439
-0.22059382 0.112284884 -0.17439848
0.02890089 -0.07476733 0.20686528
0.18382914 -0.06536033 0.1692751
0.07482034 -0.12845677 -0.20497943
-0.0045440807 -0.016466921 0.2072067
-0.17042683 0.16595043 -0.24395475
-0.11614491 0.20577967 -0.36522126
0.1666601 -0.027812269 0.16434889
0.04883906 -0.099087894 0.19946377
0.1502157 -0.07608897 0.18751259
0.1517987 0.016931418 -0.177999
0.07517638 0.1139023 0.0517332
0.13724267 0.011769963 0.0296043
-0.11764052 0.041251943 -0.3918523
-0.33298975 0.0121727 -0.35400814
-0.14265159 -0.003050518 0.12558542
0.12110018 0.10178015 -0.1262911
-0.24615417 0.12655589 -0.29272166
-0.17946015 0.031593822 0.06712588
0.13486078 -0.032859255 0.19054505
0.079229444 -0.16486691 0.08141427
-0.034363143 0.075927295 0.021479586
-0.15574445 0.054226175 0.093212396
-0.14572293 0.09186745 0.07332476
0.14022312 -0.056666736 0.19348003
0.10058942 0.04890001 0.05352433
0.010430988 0.021536715 0.19794114
-0.1625469 0.02069881 0.0987324
0.06443328 0.0054167765 -0.29954657
0.15555474 -0.16536412 0.1208652
-0.14708814 -0.038393773 0.04193946
-0.12346181 0.028507996 0.13998443
-0.0037637744 0.029708467 0.19294374
-0.1264502 -0.048981663 0.0609951
0.007027578 -0.05928511 0.20688748
-0.020612104 0.06377324 -0.26561764
-0.04242691 0.016118346 0.19152425
0.07980868 0.028840013 0.13050531
0.2186403 -0.11595894 0.13095987
0.10458528 -0.107478015 0.19322771
-0.08823946 0.029116295 0.16738135
0.02236723 -0.017741775 0.21045011
0.24445501 -0.02594768 -0.107674785
-0.11809477 0.12715048 -0.028397596
-0.21242996 0.16248548 -0.2612064
0.23511586 -0.03119131 0.01562907
-0.22240128 -0.007270699 -0.34143242
0.0048596305 -0.06825208 0.20501241
-0.13719077 0.12246403 -0.006011734
-0.18454796 -0.005914838 0.026523668
-0.04737232 -0.04368289 0.19299763
-0.2805296 0.02332829 -0.3625606
0.253248 -0.1749894 0.02083092
-0.27548757 0.027702224 -0.34567776
-0.22180669 0.018719414 -0.21431664
-0.025029564 0.0044127246 -0.10979265
0.12435004 -0.14831322 0.15568298
-0.06217554 -0.06476825 0.17201503
0.25266728 -0.13919383 0.07479767
0.0595386 -0.10921057 0.19329244
-0.017587094 -0.057196084 0.20119232
0.10218523 -0.1192367 0.18731388
-0.09692808 0.024918832 0.16232291
-0.11773776 0.18927106 -0.34630677
-0.15038824 0.041199155 0.10719288
-0.15083185 0.15863824 -0.23330255
-0.081585735 0.11406094 -0.050353404
-0.24219647 0.23623456 -0.34041414
-0.12912315 -0.024388056 -0.24677889
0.17443983 0.012774424 -0.20916788
-0.24360637 0.041801993 -0.24095722
0.04191624 0.08592734 0.039780162
-0.15850598 -0.032348778 0.03721951
0.16258442 -0.14867455 0.1488152
-0.009476489 0.005363706 0.20312232
-0.0017173708 0.046183597 0.17685965
0.05083394 -0.061930556 0.21045285
0.23068973 -0.056335077 0.11585054
0.13789247 0.00054760906 0.024023447
0.099453494 -0.021788437 0.20131685
-0.09428263 -0.02986352 0.16743389
0.28252113 -0.05553621 -0.12416772
-0.15869217 0.19374013 -0.31123498
0.10479967 -0.1200143 0.18660167
-0.0033690252 -0.017312778 -0.2959521
-0.20207056 0.10688173 -0.100450344
0.23843332 -0.11138354 0.11370899
0.06639429 -0.011380472 0.20738952
0.11345187 -0.14083773 0.16695678
-0.1460314 -0.027564295 -0.33209243
-0.18285812 -0.014369388 -0.056906953
-0.20934781 0.12851152 -0.17269821
0.25432187 -0.16019869 0.050407544
0.012046719 0.032380857 -0.29078874
-0.21576436 0.017702533 -0.14244886
-0.22779165 0.09913311 -0.1805466
0.18579105 -0.017938454 -0.09836918
0.009439135 -0.07654788 -0.22669001
-0.12190242 -0.044221353 0.11973107
-0.19768809 0.02771962 0.01773709
-0.10075269 -0.07311951 0.07594459
-0.27109897 0.07927584 -0.3157892
-0.22597241 0.047826372 -0.1246783
0.16502912 0.050732594 0.024065278
-0.13187753 0.13702686 -0.086755686
0.06964273 -0.0639088 0.20963085
-0.2168501 0.120463915 -0.17785114
-0.07480396 0.096929885 0.09708002
-0.046298083 -0.03600221 0.19451721
0.26395366 -0.16575375 0.018569842
0.074055985 -0.054070044 0.21036771
0.070449725 -0.060587097 0.21001479
0.2286289 -0.15864275 0.09142361
-0.08891105 0.15993656 -0.31348118
0.112250865 0.01529497 0.119721904
-0.16092113 0.0314235 0.0974245
-0.017665943 0.063702546 0.15405229
0.042090796 0.025388945 -0.29376176
0.07497199 -0.06027195 0.20917189
0.034630995 -0.0067616818 -0.13997993
-0.005758445 -0.07648564 0.19846132
0.03942366 0.12863946 -0.08689315
0.14628807 0.06946461 0.044666238
0.07739852 0.075778306 0.053889614
-0.1709542 -0.02139661 -0.32294798
-0.2096863 0.013312899 -0.10509968
-0.26431543 0.17344722 -0.34119943
-0.057935823 -0.06165018 0.17845385
-0.21166383 -0.04832127 -0.40718594
0.073697135 0.12007503 -0.118648216
-0.16364932 0.02843368 0.09482018
0.26001203 -0.17969488 -0.055843607
-0.18829836 0.0014412125 -0.24187003
0.06331998 -0.12603812 0.17488588
0.03203667 0.08693417 0.03311755
0.08842108 -0.07156015 0.2060327
-0.16915506 0.15978852 -0.22721663
0.06685955 -0.11222171 0.19198431
0.044450365 0.07965801 0.042414304
0.12751411 -0.16594711 -0.15490513
0.0403722 0.0674112 0.042265516
-0.07888311 0.12498079 -0.20965092
0.027019756 0.004930747 0.20548436
0.20061098 -0.032869034 0.13112487
0.26750988 -0.04324183 -0.014521014
0.13766707 0.0051196194 0.095968336
0.29029277 -0.1218661 0.0064052097
0.06561762 -0.1309488 0.1673142
-0.21555376 0.047861706 -0.07347176
0.14733697 -0.12960693 0.1710386
0.1567267 0.03673454 0.024627421
0.14410584 -0.15850805 0.13715859
0.04296341 -0.08690367 0.20474917
-0.20866829 0.09063032 -0.09546171
0.021657197 0.034858346 0.18415877
-0.10014928 0.043604694 -0.23920478
0.081821725 0.02099751 0.17208111
0.2723463 -0.16869842 -0.039411273
0.06597866 -0.016125737 0.2092323
-0.15059298 0.15929364 -0.23737934
0.14302151 -0.10425741 0.18371509
-0.28198445 0.034235217 -0.35443714
0.12995572 -0.1690652 -0.15868905
0.12632436 0.053831253 0.048492063
-0.047227826 0.0837537 -0.032204464
-0.030504221 -0.08743186 0.17107435
-0.22834237 0.05969784 -0.13832682
0.25312263 -0.121975034 0.0885636
-0.23552279 0.07584613 -0.18100317
0.14116186 -0.1890945 0.03940023
-0.015539776 0.00636588 -0.11274927
0.21608117 -0.14800134 0.11405693
-0.22966519 0.25230473 -0.33514842
0.13909432 0.094879 0.05349309
0.16294497 -0.13608299 -0.24886534
0.10044675 -0.17415655 0.08002761
-0.14336021 -0.019607946 -0.2267398
-0.045789618 0.08054884 -0.042047758
0.2176489 -0.18109174 0.05906944
0.14706689 0.10637299 -0.1336851
0.25692037 -0.16798271 -0.12858178
-0.23614496 0.1120278 -0.23224059
0.04889037 0.13572204 0.03295452
0.119184025 -0.040898018 0.19973378
-0.0037836481 0.09742134 -0.029075446
-0.22988454 0.1439948 -0.2645277
0.16409399 -0.047358207 0.17907192
0.13999568 -0.019235643 0.012345073
-0.21737891 0.016631141 -0.17559311
-0.05696646 0.15729517 -0.410066
-0.10057626 0.07980629 0.12619765
-0.22968385 0.060777526 -0.14510241
0.14221057 0.08809512 0.0508361
-0.31163725 -0.0022370568 -0.36059064
-0.22604398 0.0018953546 -0.3081665
-0.0036413176 0.01093168 -0.11529518
-0.058588624 0.0965736 0.04567806
-0.17114025 0.17104457 -0.2551959
0.15774055 0.021921542 -0.2322117
0.27842784 -0.055583935 -0.0020851619
0.13567755 0.010841746 0.030552024
-0.038632497 -0.09786401 0.11598269
0.05285618 0.070179254 0.047371853
0.09258695 -0.012592821 0.2006544
0.28873768 -0.12000594 0.015230222
-0.054066412 0.10331074 -0.09480093
0.18223801 -0.17258517 0.101052806
-0.1816071 0.096513785 -0.011071318
-0.103435084 0.019695368 0.15851124
-0.020497607 -0.0044864994 0.20197113
-0.29914266 0.056843415 -0.35339317
0.06302169 -0.116873294 0.18714674
-0.2587956 -0.010375323 -0.37237614
-0.055390023 0.09307259 0.0730847
0.03263431 -0.14126928 0.11887072
-0.14613792 0.1702287 -0.2654057
-0.19828089 0.16090919 -0.24054024
-0.1949443 0.24849497 -0.34264106
-0.0755096 0.035868958 -0.25910908
0.15230134 0.08188374 0.045190003
-0.11202291 0.020093305 0.15228584
0.08909366 -0.14659646 -0.2162107
0.063514955 -0.04272833 -0.3020187
-0.13351138 0.17635472 -0.29584667
0.0333225 0.124859825 0.022501208
0.1661878 -0.0062699243 0.08924502
-0.06438571 0.04951737 0.16840324
-0.2289137 -0.02523383 -0.38072
0.035493735 0.04355646 0.16488226
-0.09793388 0.030648 0.15987438
0.117451824 0.030562188 0.04619717
-0.104423925 0.03873067 0.15294942
-0.2712182 0.17811845 -0.3571513
0.035244767 0.028525032 0.18727843
-0.0407638 0.029421221 -0.040415823
0.065679885 0.07961429 -0.12574837
0.031752225 0.043652523 0.16729273
-0.055813286 -0.009503026 0.18967558
-0.110663235 -0.060216725 -0.1889792
0.010339167 -0.09843607 0.1879509
-0.0076457984 -0.07217315 0.19979979
-0.08300365 -0.0885124 0.09841342
0.020072553 0.14988975 -0.059517935
-0.02977809 0.0047366293 -0.106089175
0.0035130621 0.062566005 0.131256
0.19328515 -0.12138771 0.14983757
0.15684198 0.06638896 0.037144847
0.14648922 -0.06647787 0.19037353
-0.09751006 -0.07991375 0.081863984
-0.31761146 0.072862454 -0.364357
0.12214969 -0.013085533 0.18445401
0.25399718 -0.0501654 0.0638715
-0.1583409 0.11374512 0.0031562713
0.0639621 -0.02213177 0.21104956
-0.09285287 -0.06599936 0.089143924
-0.09048606 0.034854423 0.16352263
-0.13979705 -0.053197492 -0.11166271
-0.13856134 0.11524856 0.02576258
0.2683227 -0.17227487 -0.025117502
0.14393488 0.07528954 0.047149435
-0.11505606 0.03816844 0.14429763
-0.17269224 0.029530253 0.08031399
-0.10099389 -0.056939926 0.13223682
0.061143715 -0.12344482 0.17842269
-0.2054539 -0.0022866854 -0.2945388
-0.08494555 0.13524449 -0.26189247
-0.32962066 0.0019589274 -0.3815431
0.044477362 0.013807149 0.19752388
0.049335882 0.016865969 0.19315018
0.20079789 -0.17732383 0.08100328
0.20418419 -0.18592021 0.038361255
0.26691258 -0.13380623 0.055169404
0.08759431 -0.10723496 -0.2128607
-0.028472112 -0.080439955 0.18280995
0.25789738 -0.07968134 0.09078746
0.01033294 -0.1324827 0.12492482
0.13293052 -0.015484397 -0.2846606
0.1827648 -0.14603345 0.1422944
0.088154905 -0.044581566 -0.298823
