# .PCD v0.7 - Point Cloud Data file format
VERSION 0.7
FIELDS x y z
SIZE 4 4 4
TYPE F F F
COUNT 1 1 1
WIDTH 1000
HEIGHT 1
VIEWPOINT 0 0 0 1 0 0 0
POINTS 1000
DATA ascii
0.03460137 -0.16383979 0.1531035
0.07594486 -0.20958622 0.022073993
-0.113328815 0.07377883 -0.21481435
0.09102308 -0.22276962 0.016375273
0.16578119 -0.0802985 0.12367557
-0.1413781 0.20307301 0.089735284
0.070990905 -0.2823774 0.07858073
0.049323685 -0.22830482 0.12666066
0.00064198795 0.17585385 -0.06375062
-0.043379694 0.014173715 0.0931963
0.04293813 -0.18035726 -0.0076236986
-0.055332515 0.1694624 0.11226386
-0.22195618 0.26261407 -0.014199915
-0.15393151 0.1436882 -0.16934893
-0.14331435 0.1836332 0.0936932
0.2648691 -0.14891751 0.032992996
-0.107348494 0.08396897 -0.21037655
-0.013459669 0.06113852 0.11846493
-0.10683778 0.07299072 -0.35565028
0.05576924 -0.23675203 0.12773293
-0.07315739 -0.08908905 -0.14152358
-0.035850666 0.066397674 0.12213693
0.025502777 -0.14247727 0.020277254
0.09898968 -0.13027315 0.14938132
-0.09106834 0.19648135 0.10240352
-0.16636345 -0.0158535 -0.24294062
0.15256011 -0.16860768 -0.057312265
-0.0122544505 -0.07265134 0.022308681
0.12124126 -0.26438987 0.07151875
0.24320488 -0.08483537 0.07381605
0.058110587 -0.043106046 0.043913856
0.010765869 0.12029682 0.10728001
0.16411877 -0.25501043 0.054881986
0.035130233 -0.17391112 0.16042763
-0.09453698 0.065742835 -0.21050107
0.05030484 -0.22250068 0.14109531
-0.19934492 0.17895676 -0.31026715
0.035559658 -0.16692463 0.15706268
-0.058587506 0.24953184 0.014170971
0.17057881 -0.050224476 0.03836468
0.026945798 -0.1774489 -0.10266235
0.03139984 -0.07497303 0.032711033
-0.25198942 0.17799279 -0.110443905
-0.24589801 0.1037589 -0.19802096
-0.11086634 0.25455374 0.060373884
0.25444454 -0.07019677 0.072538935
0.24666123 -0.09614681 0.06685079
-0.09974202 0.19603801 0.1025445
0.21473856 -0.24659191 0.025228696
-0.009405361 -0.14500949 -0.09858564
-0.19184022 0.19908565 -0.29996756
-0.21398535 0.19065651 0.0033640391
0.023482753 0.15382954 0.054835174
0.01749527 0.051458813 0.106803976
-0.064647086 -0.051547486 0.0076561067
-0.03595138 0.014972497 0.098705284
0.076647036 -0.027119093 0.038245883
0.090162605 -0.3061323 0.0820702
0.11135002 -0.10940936 0.08270384
-0.13507217 -0.058131568 -0.27611807
-0.07465032 0.07160769 0.1106653
-0.18465987 0.17630681 0.049157646
-0.13295318 0.14987388 0.0986422
-0.14648314 0.1487172 0.084769145
-0.26965013 0.23953621 -0.11941881
-0.06386248 0.018715613 0.07825778
0.0013253413 -0.055895723 0.052753564
-0.105634354 0.0254421 0.047686283
0.20411848 -0.22502522 0.041147824
-0.2112668 0.083212495 -0.24529476
0.23323846 -0.074867494 0.08448618
-0.16973399 0.26046714 -0.21192023
-0.105983116 0.057122253 -0.21786472
-0.17237638 0.21987183 0.06515677
0.093362786 -0.31468788 0.07628129
0.058130555 0.09992239 0.04231365
0.06874796 -0.022521237 0.04982013
-0.123722784 0.07995745 -0.21728776
0.1600598 -0.14024581 0.105240054
0.1613242 -0.09302157 0.12403947
0.086304806 -0.08227834 0.028812429
0.0032679 -0.10059338 0.0009225723
0.15511039 -0.07517502 0.10967852
0.07335676 -0.20071842 0.09251955
-0.10412421 0.035746157 -0.22518808
0.243641 -0.15782721 0.010127665
0.23473531 -0.08753756 0.07823996
0.058558173 -0.17250736 0.14584413
0.00988095 0.23033918 -0.097884804
-0.17029454 0.19264963 0.071506634
-0.17285718 0.2977252 -0.02165312
-0.24095166 0.26115996 -0.044250913
0.047387503 -0.18370584 0.16096883
-0.20107047 0.26083687 0.013098162
-0.09012543 0.12522428 0.11982387
-0.13848518 0.19204238 0.09524416
-0.20575559 0.1894606 0.02104256
-0.012775421 -0.10396719 -0.025424412
-0.048513528 0.22264299 -0.12848349
-0.00065768615 -0.096870854 -0.0045444597
-0.20851511 0.24778678 0.017513158
0.29144415 -0.16092983 0.001002689
0.16247591 -0.25606468 0.055519767
-0.020322453 -0.12251965 -0.08393216
0.016362414 0.126928 -0.05734163
-0.06057059 0.1311546 0.124291286
0.084349126 -0.21900766 0.12208927
-0.22658235 0.26877493 -0.028354477
0.04667603 -0.04696821 0.050297283
-0.10129959 0.14561173 0.11707162
0.064747706 0.11139027 -0.08868273
-0.11609916 0.07248872 -0.356526
-0.26552305 0.15335873 -0.2529409
-0.03992276 0.038671166 0.11158862
-0.17904894 -0.016777389 -0.24317192
-0.07008422 0.21714857 0.09012985
-0.13102928 0.016420232 -0.34855378
0.017333005 -0.016814392 0.08385444
-0.040046893 0.1584235 0.11406044
0.019929055 -0.005834942 0.08895743
0.14775242 -0.13536866 0.11532745
0.15727328 -0.29043448 0.044641845
0.045586947 -0.15448858 0.103195645
0.03995364 -0.2173607 0.12241288
0.115050405 -0.031687137 -0.069191866
0.07162798 0.12980326 -0.0848158
-0.049859054 -0.064081594 0.007622128
-0.25851485 0.22550344 -0.079123594
-0.1962942 0.14149454 0.027048012
-0.103858404 0.10568809 0.10636498
0.1947832 -0.047523618 0.050167505
0.16355276 -0.073401526 0.11263789
-0.24320094 0.28035414 -0.10428526
-0.2571384 0.23389506 -0.07282368
0.18921241 -0.1547188 -0.037533425
-0.16273962 0.25335008 0.047873586
0.19783531 -0.056193445 0.11071744
0.020776631 -0.11893117 0.036672942
0.014218847 -0.064392455 0.0462245
0.08045614 -0.3049313 0.05972615
-0.16586894 0.19996499 0.075366646
-0.1372227 0.17880481 0.09776695
0.22009185 -0.21830805 0.033478316
0.17499879 -0.22114633 0.043438293
-0.15249054 -0.056280658 -0.24820954
-0.12202247 0.2597397 0.05434787
-0.15928091 0.18088754 -0.31340742
-0.1793956 0.22959906 -0.26879433
0.16275227 -0.15848935 0.095893726
-0.17740229 0.23279712 0.05467305
0.14885557 -0.06937578 0.05106748
0.033183116 -0.0009974933 0.08535213
-0.027590312 -0.0070422925 -0.103221886
0.06930174 -0.22049147 0.13132752
0.21836536 -0.20040847 0.027085207
0.06825468 -0.062900685 0.01660511
-0.20023307 0.17566268 0.011748546
-0.072643764 0.0758879 -0.20957604
-0.25364485 0.10334717 -0.21056575
0.059333496 -0.2110756 0.022113683
0.16753764 -0.12682085 -0.05799479
-0.25852165 0.18103164 -0.14090258
0.02911802 0.12188261 0.09199163
-0.046510685 0.10798612 0.12562369
-0.0041870605 0.17899211 0.020500964
0.12907442 -0.10384549 0.13286527
-0.019489551 -0.0854917 -0.0071117603
-0.014935517 -0.097035296 -0.017528264
-0.10889108 0.08737546 -0.2096822
-0.2360417 0.19700073 -0.04571885
0.039784614 -0.010865773 0.07705256
0.18198524 -0.21948646 0.053689074
0.112303026 -0.12045637 0.14474231
0.14365025 -0.18520921 -0.04212868
-0.05175422 0.21353328 0.087210916
-0.19454952 0.1506446 0.0194146
-0.09907771 0.06593811 -0.3542599
-0.05504286 0.20899306 0.09210278
-0.06451791 0.2473546 0.047495518
0.03078745 0.14173964 0.06025987
-0.06305264 -0.023423653 0.036314886
0.27385145 -0.15104814 0.026224663
-0.05389229 0.037580512 0.10403727
0.29820645 -0.19065641 -0.0061884797
0.013479877 -0.15535235 -0.055228274
0.109618776 -0.2565594 0.08993141
0.098844066 -0.13786404 0.14632156
0.092469685 -0.038716868 0.009774112
-0.09122294 0.011937625 0.06091681
0.010177297 0.0044709244 -0.29050556
0.05682543 0.060042236 0.082009844
0.17911036 -0.18151888 0.055332508
-0.09437231 0.08901911 0.105961055
0.06251058 -0.01469356 0.05897007
0.0017423265 -0.07644641 0.026506627
-0.06839269 0.07721619 0.117554165
-0.2695124 0.23831686 -0.19487183
-0.20287 0.14776346 0.021225862
0.05037257 -0.20667876 0.14946574
-0.17437193 0.21738404 -0.28209347
0.10905116 -0.21685342 -0.011675821
-0.07183956 0.12209169 0.12413356
-0.06150189 0.21496515 0.0895758
0.04460072 0.0040705814 0.08010627
-0.17895874 0.23621885 0.05158101
0.04065519 -0.079702824 -0.24057144
-0.086535044 0.048492454 0.074613705
0.0051073064 0.09035017 0.11349065
-0.07527134 -0.11203953 -0.14389944
-0.09721754 0.0650588 0.07800308
0.086162835 -0.028261015 -0.1433049
0.19181624 -0.09887771 0.1016352
0.076477975 -0.1612897 0.15123339
0.008788674 0.16107248 -0.05940243
-0.22632068 0.16001236 -0.019881444
0.19425984 -0.09285883 0.005801261
0.2518113 -0.21116565 0.015672758
-0.105229355 -0.0064516934 -0.34478983
-0.12426059 0.06223904 -0.22812906
-0.14191356 0.15764563 0.092773214
0.08038633 -0.17867818 0.14144668
-0.08937692 0.004781414 0.051689234
-0.17334113 0.00434456 -0.24762632
0.08771562 -0.1525745 0.14749578
-0.0961449 0.1533673 -0.18472476
-0.16679536 0.1459325 0.045674663
-0.26146445 0.11746204 -0.20408316
0.16039598 -0.042711325 0.021353321
-0.25938007 0.17595196 -0.094345294
0.057981137 -0.03821119 0.04816687
0.013224166 -0.13166708 -0.008269365
-0.036229976 0.0831119 0.12387791
0.08841985 0.103183106 -0.11996262
0.20276044 -0.090289 0.09803752
0.10403161 -0.13732272 0.14314929
0.23981886 -0.11727692 0.04451345
-0.0015143292 -0.045880374 -0.29935652
0.17990947 -0.09163192 0.11244524
-0.07359945 -0.0915947 -0.13394502
0.09817248 -0.23332591 0.08922443
0.0055626417 0.04422175 0.1105155
-0.020834494 0.098153 0.12102891
0.21573254 -0.06509644 0.10001222
-0.13449308 0.081790455 -0.35671088
-0.18650195 0.16885334 0.036548708
0.19883387 -0.17548256 -0.017027972
0.13884279 -0.20072167 -0.02361597
-0.115658656 0.1903724 -0.18266197
0.09189938 -0.002334969 0.028476972
-0.0008976376 -0.11352435 -0.011352962
-0.24679473 0.08708247 -0.22409445
0.21076483 -0.16726956 -0.014828474
0.18056782 -0.20172898 0.066254415
0.124673754 -0.23687382 0.023252983
0.01818025 0.007410156 0.09578233
0.021482576 -0.10841688 -0.22763738
0.05573205 0.09850642 0.060204852
0.15256706 -0.13244827 0.11338825
0.15612474 -0.10970928 -0.06211097
0.24002403 -0.08255051 0.076848716
-0.026240425 -0.027401885 0.06734665
-0.07103658 0.0024619068 -0.20069043
0.04739107 -0.13875525 0.08244449
-0.24214274 0.12417407 -0.18359572
0.034691717 -0.1557045 0.085526094
0.06163365 -0.13902386 0.13848981
0.2268448 -0.057659026 0.09582602
-0.07900819 0.07583081 0.10973586
-0.013081419 -0.064181216 0.033122238
0.112328775 -0.15682828 0.12960805
0.16259785 -0.096696116 -0.03591597
-0.048752222 0.10373022 0.12560067
0.27021703 -0.18152049 0.015939942
-0.26481923 0.16944309 -0.10885947
-0.20516871 0.078250706 -0.24933748
-0.25808123 0.24817674 -0.07870135
0.08431913 -0.220888 0.121327266
0.12557991 -0.2156981 -0.009819116
-0.055168036 0.21046261 -0.10776099
0.18565996 -0.24957712 0.04303232
-0.1023251 0.18852966 0.105859086
0.26118177 -0.115908146 0.04912761
0.24430268 -0.09686241 0.06809816
0.06387674 -0.26804072 0.08748786
-0.16349113 0.09507564 -0.34879687
-0.0821887 0.037574284 0.06482537
0.16000518 -0.17265525 -0.047762007
0.19810142 -0.0936571 0.09968893
-0.033044644 0.16135822 0.112076305
-0.11483338 0.26220432 0.05196641
-0.24186422 0.15540361 -0.0727468
-0.005564405 0.030853944 0.11038818
-0.13099118 -0.030317957 -0.2486804
-0.10517625 0.12641625 0.113508105
-0.1463382 0.099982366 -0.21569084
0.039097276 -0.11131608 0.038896162
-0.17164214 0.12138306 0.054128923
-0.12697661 0.06945162 0.073047295
-0.10238072 0.01958235 0.045014985
0.13050872 -0.096329436 -0.10069426
0.15430151 -0.051628273 0.029852537
-0.14837855 0.1572139 0.085794784
-0.19508298 0.14337808 0.03281584
-0.27455214 0.18861188 -0.202504
0.08902818 -0.24154845 0.10965627
0.0651346 -0.04385357 0.03681586
-0.06502394 0.15947983 0.116825275
-0.24900943 0.10289083 -0.19848545
0.013589857 -0.15662357 -0.0574785
-0.04903595 -0.08868684 -0.02332273
-0.25802264 0.20668712 -0.089743584
0.070646495 -0.13903394 0.14429985
0.019766273 0.21585461 -0.083911285
-0.09182304 -0.045335557 -0.3249568
0.07417732 -0.021191286 0.044984806
0.11020717 -0.07587261 0.035262607
-0.009105118 -0.05073858 0.052478854
0.050949164 -0.19054632 0.06495693
-0.16216733 0.26835588 0.03153776
-0.11557766 0.06895921 0.06488078
-0.050685298 0.103536084 0.12565003
-0.21587843 0.25815427 -0.0011261291
-0.07673085 0.06305151 0.10423915
0.26055932 -0.09394946 0.058662243
-0.0037069388 -0.0113875605 0.089897566
0.16726269 -0.1314851 -0.058530606
-0.24203698 0.12784356 -0.1798667
0.20561303 -0.18812238 0.0017738225
-0.16754071 0.2762548 0.01742814
0.1310558 -0.10446369 0.13500048
0.21977237 -0.22991748 0.028862089
-0.07669519 0.054177336 0.09826487
-0.17476091 0.11939965 0.042959202
0.17418124 -0.08051885 0.12081552
-0.13008419 0.13842188 -0.1743535
0.2503897 -0.15552582 0.0088220015
-0.27004418 0.2431115 -0.130284
0.24958466 -0.07564079 0.0734591
0.08144667 -0.013589296 0.040890396
0.014153949 -0.06291547 0.047918882
0.04719169 -0.006307226 0.07409618
0.008017728 0.22931327 -0.09749058
-0.029825464 -0.06422238 0.006764029
0.03326075 0.087730505 0.100357324
-0.14447646 0.2544694 0.052644305
0.14834063 -0.21980315 0.009066515
-0.031127673 -0.07919612 -0.027027527
0.00044344488 0.15153165 -0.05561574
0.007649909 -0.10800757 0.010466631
0.07987057 -0.111774765 0.06575444
0.095613375 -0.31340516 0.07547765
-0.0688397 -0.10392937 -0.18256825
0.09778493 -0.30804577 0.07628262
0.04210506 0.1320336 -0.06799325
0.11885266 -0.06456883 0.025079349
0.055624034 0.0007371345 -0.16512157
-0.14212729 0.14508879 -0.16264564
-0.122721925 0.09102003 -0.21118024
0.035117846 -0.09642436 -0.23242944
0.10132184 -0.046545498 -0.011295186
-0.20885675 0.17447007 -0.0069235205
0.025812065 -0.040753998 0.06594198
-0.061672755 -0.08810256 -0.10357899
-0.09605837 0.14011648 -0.19522227
0.1867062 -0.09137501 -0.0011374949
0.03136544 -0.19349293 0.14637253
0.060464762 -0.23885983 0.12948084
0.06811895 -0.07072197 0.008305955
-0.085967414 0.11653586 0.120327495
-0.01092681 -0.097831145 -0.26190495
0.2648019 -0.12872006 0.041431807
-0.032312967 0.19190213 0.0951422
0.052078877 0.03694074 0.08559316
-0.12313839 0.29452 -0.072942816
-0.064787686 0.14526929 0.12175364
-0.059208006 0.0022473205 -0.18500526
0.094369754 -0.14315225 0.14705405
0.004192292 0.19733347 -0.07370544
0.08402357 -0.079283625 0.023175653
-0.017655205 0.067532934 0.12016604
-0.24001923 0.26043686 -0.041815445
-0.15465094 0.061813828 -0.35149795
0.064800166 0.08211857 -0.11756017
-0.011818572 0.19103989 -0.22956876
0.0752897 -0.20788339 0.040515702
0.052454237 0.082777545 0.082554914
0.11423989 -0.11693103 0.14155005
-0.06533532 -0.03959232 0.029790314
0.016777733 0.10222098 0.1075915
0.06745488 -0.025756136 0.048825987
0.029009573 -0.057683058 0.051591046
0.1413678 -0.2593338 0.05963667
-0.15183054 0.23469333 0.06778156
0.058834556 0.09566657 0.053380065
0.027057149 0.118554756 0.09541808
-0.110426486 0.15324187 0.11323815
0.11940046 -0.07328917 0.03757646
-0.13599525 0.29332367 -0.0002447564
-0.023005035 0.20273791 0.072803035
-0.043275964 -0.07321342 -0.29964024
-0.1461197 0.11531969 0.057847586
0.13037303 -0.080099255 0.054116882
0.22139983 -0.08587305 0.08766553
-0.14052801 -0.07018292 -0.24264637
-0.10494857 0.056509804 -0.35728583
-0.17315103 0.22770996 0.060579065
0.29254314 -0.14714703 0.015604336
0.12973084 -0.11450734 0.13580087
-0.07040874 0.068721086 0.112038046
0.0964302 -0.25765902 0.09811252
0.14365722 -0.27296942 0.06081866
0.1287909 -0.081690796 -0.07653793
0.12359134 -0.059553202 0.021141328
0.14927396 -0.24458326 0.0441779
0.083511904 -0.0068511926 0.041450612
0.04094776 -0.08845833 -0.23411492
0.1053001 -0.14346035 0.13976741
0.21654116 -0.029064182 0.08496371
0.045525134 -0.18940666 -0.06938216
-0.06751842 0.016019706 0.0625786
0.20564094 -0.24526258 0.031739384
-0.030836787 -0.008924211 0.0817876
-0.06764287 0.119010516 0.12484496
0.28386247 -0.117050655 0.033798423
-0.007525979 -0.14513345 -0.09356542
0.15063645 -0.0732832 0.05765464
-0.047144756 0.079352595 0.12391122
0.15917714 -0.04434078 0.022838615
0.0036827517 -0.049598612 0.06018444
0.03620902 -0.17163676 -0.024267277
-0.27613837 0.20033616 -0.21359365
0.07581227 -0.20782578 0.05927061
-0.118189655 0.21209678 0.09146525
-0.019754894 0.015601151 0.10515734
0.17842346 -0.17592917 0.064657465
0.12427198 -0.2797148 0.07071086
0.07155327 -0.1997715 0.046648085
0.13642709 -0.12814818 0.12574586
-0.24623553 0.14855307 -0.13272198
-0.07363895 0.027280554 0.06808131
-0.11402865 0.046826616 0.067190126
0.21988146 -0.18748885 0.010453645
-0.048068773 0.124883704 0.12389421
-0.17639078 0.17348672 0.059435137
-0.19870129 0.22911687 0.037322976
-0.25009835 0.16612837 -0.074250095
0.0998501 0.0033243718 -0.008859312
-0.008794816 0.1835928 0.01684027
-0.060598686 -0.10605917 -0.16374527
0.16476278 -0.28110462 0.04361453
-0.0810534 0.035822727 -0.20609026
0.13013591 -0.03775429 -0.0050094225
0.0028357608 0.16681765 0.01568958
-0.09774061 0.04822147 0.065614484
0.021854779 -0.09920248 0.010938168
-0.13140646 0.06821345 0.06150628
-0.116063535 -0.08252889 -0.19889179
0.030333221 0.13487077 -0.062221896
-0.073880345 0.0936657 0.120740205
-0.21729703 0.18534704 -0.016610421
0.20527261 -0.22041875 0.04230651
-0.22889435 0.29110584 -0.114224076
0.2218016 -0.06767554 0.09496575
0.19808924 -0.094337136 0.008407001
0.27901715 -0.19605441 0.0041356715
0.03806802 -0.1962975 0.15952301
0.14176437 -0.14042431 -0.088373505
-0.03061257 -0.059897553 0.013261757
-0.07109209 0.22497892 0.08385509
-0.06797139 0.106020264 0.12469191
-0.10937651 0.14567892 0.113557726
-0.019088889 -0.123236544 -0.08191567
0.05596864 -0.052377824 0.03854141
0.21830705 -0.061151378 0.09996582
0.0918132 -0.23726068 0.10961419
-0.07125113 0.20469882 0.098049566
-0.026728183 -0.08830931 -0.033034123
0.15102322 -0.13001668 0.115409635
-0.18246928 0.018968405 -0.24873553
0.26138365 -0.12326904 0.04593624
0.071270645 -0.050904516 0.024937924
0.05152405 -0.1908959 0.07532377
-0.014329779 0.0086534 0.101786315
0.018447878 0.122492276 0.10066422
0.12194087 -0.29419407 0.06621929
-0.06466842 -0.10566106 -0.17435588
-0.034751832 0.20467837 0.08572887
-0.13224205 0.104278475 -0.20543657
-0.05086306 -0.005891046 -0.3385284
-0.21851163 0.23977646 0.008350307
-0.22660019 0.23718427 -0.0030163103
-0.265576 0.20312375 -0.11995969
0.100896485 -0.14475408 0.14211372
-0.007684561 0.17334221 -0.2366932
0.18064007 -0.24829312 0.046853703
-0.13474649 0.038118996 -0.35310185
-0.17689332 0.26319242 0.029340452
0.24535123 -0.085972145 0.0719381
0.032106325 -0.1230352 0.05072219
0.060479883 -0.2057258 0.14324218
0.08952625 -0.12603322 0.13833462
0.006100301 0.18864363 -0.06944578
0.18473987 -0.047887787 0.04421654
-0.14178644 0.18275651 0.094750874
-0.13921487 0.26150256 -0.19207336
0.028345868 0.06389308 0.10296921
0.11716811 -0.31406307 0.06108707
0.22215037 -0.16441643 -0.005967007
0.04265673 -0.17106064 0.16752873
-0.08438565 -0.038134847 -0.33020607
-0.013465246 -0.13175705 -0.083295524
0.21673107 -0.23196991 0.030001037
0.23343979 -0.06412286 0.08797366
0.05067855 0.18476713 -0.07321468
0.18643172 -0.09241518 0.10784796
-0.030260447 0.1688937 0.10869462
-0.060855336 -0.026753481 0.03349196
-0.06805197 0.12349913 0.12453526
-0.18934838 0.21821868 -0.28343952
-0.11227438 0.10759045 0.099880554
0.2057416 -0.048050035 0.104460746
0.08730439 -0.17519611 0.13836314
0.1254779 -0.082581766 0.054426
-0.05503936 0.085860014 0.12407731
0.08689758 -0.19610953 0.12993725
0.08592379 0.08908047 -0.18164183
0.1983258 -0.24699718 0.03580954
0.11615878 -0.3193927 0.059533108
-0.07699363 0.15887842 0.118218146
-0.22761397 0.15287334 -0.037877604
-0.010103771 0.008533852 0.101980664
-0.10589306 -0.067009374 -0.20399775
-0.16596125 -0.010343079 -0.24477278
0.056619138 -0.23074184 0.13537325
0.07229582 -0.23390314 0.12379228
-0.12181519 0.19770242 0.098419055
-0.12703684 0.05914889 0.055514447
-0.13408381 0.17115341 0.09994368
-0.063741766 -0.06731079 -0.021534499
0.22451514 -0.22476837 0.02789587
-0.15977722 0.10357726 0.053128503
-0.24362609 0.15499647 -0.11242695
-0.06167829 -0.011062347 -0.34151703
-0.22310285 0.061681516 -0.23207015
0.28615832 -0.10561535 0.037047975
0.10039305 -0.08085767 0.035893917
0.06493061 -0.22647397 0.13170373
0.2042809 -0.076813266 0.10264249
-0.027695695 0.08899774 0.123001516
-0.09053965 0.14235352 0.11988747
0.00988539 0.1403981 0.0993387
0.09910136 -0.14762539 0.14209606
0.025732866 -0.12886111 0.05207852
0.062734045 0.070313364 0.07118731
0.23518786 -0.123116344 0.015946578
0.06444089 -0.07785282 0.008589974
-0.016209628 -0.031206742 0.069526725
0.018376445 0.03781513 0.10410736
-0.16399983 0.113425404 0.058943875
-0.24731371 0.26702392 -0.070782624
0.30239433 -0.16516076 0.0016654169
-0.19303538 0.28295472 -0.011115892
-0.22385833 0.16321729 -0.006525101
0.06777303 -0.13264406 0.08703996
0.007255211 0.022213366 0.10423653
-0.10686818 0.26442024 -0.09549104
-0.11282419 0.12005359 0.105335236
0.09359413 -0.30174807 0.08164462
0.19257915 -0.045535542 0.03900463
0.07803774 -0.059731282 0.009052676
0.07617271 -0.21121265 -0.04044329
0.10123479 -0.07973393 0.034869935
0.20626314 -0.08176484 0.033724032
0.07451297 -0.070412785 0.004705522
0.070762105 -0.006900232 0.05574722
-0.05500694 -0.0026953302 0.059994195
0.028816035 -0.101269424 -0.23209144
0.05708264 -0.13000873 0.07649539
0.07658919 -0.01805883 0.04406773
0.011639658 -0.09498101 0.005208022
-0.084941395 -0.09026269 -0.15722573
0.04793535 0.108952604 -0.077794656
-0.19119294 0.23631972 0.041911602
0.15878932 -0.096674055 -0.04038842
-0.13675843 0.13064152 -0.34156054
-0.2622834 0.23796307 -0.089064196
0.092403956 -0.25021335 0.103844024
0.15938775 -0.08283153 0.12309236
0.22026809 -0.20182636 0.030283334
-0.05384714 -0.0723606 -0.0039514997
-0.17444673 0.27018183 0.021444874
-0.12728651 0.10408448 0.07223418
-0.23893607 0.2493557 -0.031098535
-0.18329427 0.20176348 0.057685982
-0.16295668 0.23900717 0.05967234
-0.17218532 0.14878888 0.036309525
0.08300932 0.049007192 0.028949186
0.11755198 -0.074894026 0.03862295
0.28723654 -0.18136674 0.004857354
0.12213586 -0.27051127 0.07593484
-0.16066687 0.13061434 0.04839044
0.046534907 0.07412322 0.09026397
-0.11669452 0.14283197 0.10965367
-0.047607224 0.056877706 0.11723095
-0.1226599 -0.07908391 -0.21045557
0.016935807 0.13683781 0.095781535
0.1111736 -0.2877911 0.075932495
0.077951595 -0.167798 0.14756323
0.21640363 -0.07432055 0.095738955
0.11994441 -0.14237602 0.13062698
0.04941669 -0.1385676 0.08348545
-0.052823056 0.22756808 0.0723893
0.06733329 0.05504228 0.06970064
0.09237175 -0.13148291 0.14775369
-0.050302137 -0.09799112 -0.0456016
-0.2585058 0.15264422 -0.12496871
-0.01664915 0.07497898 0.12041172
0.21877071 -0.24484342 0.02331465
0.106364466 -0.3113139 0.06930516
-0.029848019 -0.089627616 -0.2800493
-0.053456787 0.004745324 0.0763387
-0.012554749 -0.128306 -0.07379641
-0.10647351 0.20391583 0.097382054
0.10374307 -0.021241058 -0.018571038
-0.04718085 -0.0038830887 0.0739883
-0.07400281 0.14073904 0.122546
-0.026615648 0.23699474 -0.13242418
0.08268848 -0.19155164 0.13458826
-0.20301637 0.2982877 -0.059183948
-0.16860814 0.24999873 0.04776025
-0.20232865 0.28774086 -0.03262832
0.24354851 -0.04020126 0.09214256
-0.011569121 0.12340627 0.11573704
-0.13832426 -0.0691598 -0.23440705
0.028599858 0.13087879 0.082073756
-0.1481809 0.18636766 0.09031353
0.0049131066 -0.028869966 0.077802435
0.08355721 -0.11936464 0.07869589
0.070979 -0.09823382 0.041178666
0.1919645 -0.24707766 0.039941937
0.0006581886 0.050589275 0.11287534
0.20277649 -0.24295466 0.034574702
-0.061053805 0.25117365 0.006523302
-0.25776964 0.20985751 -0.08508594
0.16557704 -0.07283884 0.113155596
0.036109686 -0.1892479 0.16325806
0.10577929 -0.10767538 0.12321925
-0.17011708 0.16256775 0.063038565
-0.043640476 -0.13297625 -0.20094313
0.14025162 -0.26314127 0.06422167
0.14999512 -0.13199373 0.11526136
0.27503762 -0.17855911 0.014013353
0.2870456 -0.11508475 0.032531165
-0.0337795 -0.12397493 -0.12459878
-0.04778535 0.15347469 0.116671465
0.007837189 0.06850232 0.11216244
-0.09435991 0.26318988 -0.06289061
-0.16594574 0.15878431 -0.14879844
-0.095455125 0.14263676 0.119112745
0.10081638 -0.20467815 -0.032748032
0.06574824 -0.027811138 -0.19964772
-0.018012736 -0.10530359 -0.042800885
-0.057987526 0.07807783 0.12201281
-0.18444377 0.252865 -0.23623917
0.08329398 0.044600714 0.034387723
-0.029923135 0.18863265 0.096009955
0.21494281 -0.084014125 0.07520307
-0.08066294 0.037111156 -0.35269657
0.24614371 -0.13903995 0.018444046
-0.017024584 -0.056794614 -0.3052245
0.076911025 -0.27489582 0.1037318
-0.03442186 0.04875524 0.11735242
-0.26775908 0.15587722 -0.22965606
0.0044300184 0.061956722 0.112990394
-0.06437175 -0.0066847196 -0.34345877
-0.0067921034 0.21105556 -0.085084245
-0.11473342 0.06766692 -0.35700285
0.07522603 -0.14521842 0.15585749
-0.21918505 0.22637823 -0.2590822
0.27185738 -0.14713211 0.029158458
0.092815705 -0.2277664 0.11290374
0.01828106 -0.14006647 -0.010995478
-0.13701479 0.11068294 -0.20216647
0.024947133 -0.10632535 0.022846913
-0.09660008 0.2095915 0.094700955
0.07032092 0.0024133453 0.060017135
0.09389043 -0.030532004 0.011518107
0.1397269 -0.26494098 0.06639041
0.1934161 -0.14176603 -0.035066094
-0.09418288 -0.10067063 -0.17404865
-0.17917609 0.20039026 0.062437657
-0.17191245 0.098397106 -0.34556934
0.0329627 0.023057548 0.092369005
-0.12027271 0.12567867 0.1012715
0.014950808 0.05655601 0.108015634
-0.08764545 0.06836188 -0.34799394
-0.0265804 0.16217689 0.11015468
-0.048232526 -0.11240205 -0.14183427
-0.07444587 0.25773415 0.036647417
-0.018845113 -0.032860782 -0.31624904
-0.12147444 0.05051593 -0.35818964
-0.018613456 0.123952 0.11729913
0.09195724 -0.05002098 0.0007104469
0.20523009 -0.08367751 0.09916791
0.03608817 -0.13589382 0.07119089
0.24784455 -0.13115858 0.039077993
0.26712966 -0.17050464 0.0225401
0.036322467 0.09864786 0.09441379
-0.13120867 0.1519002 0.10076848
0.22008237 -0.094274834 0.03411451
-0.24704558 0.253077 -0.051418897
0.1565397 -0.056676906 0.038322937
0.20370384 -0.12563385 -0.019251544
0.048976507 -0.12261237 0.060981885
0.072017774 -0.18723539 0.14337067
-0.06781931 -0.028057417 0.04387778
0.026460016 -0.015909918 0.08111062
-0.006430949 -0.10522576 -0.010165899
-0.034417696 0.112704046 0.12286478
0.037566774 -0.078849725 0.025710419
-0.043462936 0.11668667 0.12455918
-0.13221568 0.25459775 -0.18634395
-0.10030413 0.24320158 0.07236277
0.005277319 0.15376808 0.095861614
-0.20705396 0.015452464 -0.2568323
0.026295658 0.03779243 0.10001828
0.08458315 0.005647394 0.042498432
-0.10102305 0.0751967 -0.35261184
0.019914618 -0.027957859 0.076348655
-0.1838973 0.2763581 0.006765974
-0.2630065 0.15921116 -0.19740099
-0.09875085 -0.10108272 -0.18768893
-0.035407733 0.04357429 0.115108185
0.12097648 -0.14666061 0.1281704
0.1366723 -0.11665271 0.13036302
-0.15488528 0.14496091 0.07284124
0.012305957 0.15666367 -0.24383572
-0.13123176 0.07245144 -0.35746735
0.08711672 -0.010881388 -0.105646744
-0.008883633 0.077137314 0.11831355
0.263559 -0.08113504 0.062023375
0.06250277 -0.09045424 0.02489307
0.081402816 -0.082903855 0.026531449
0.16384655 -0.056482498 0.042751003
0.0902098 -0.013881124 -0.10301149
0.005810523 -0.10208756 0.0046384432
-0.010567113 -0.14135481 -0.09448751
-0.24288423 0.23760775 -0.03610047
-0.24831186 0.15091826 -0.11477822
0.001242047 -0.11709471 -0.012538479
-0.022735253 0.011067336 0.10199279
0.14316398 -0.16352819 -0.06950723
0.053586397 0.10418711 0.05754889
0.22555971 -0.08090744 0.08700492
-0.23357034 0.24044561 -0.016297664
0.07887565 -0.11508719 0.06972826
-0.23829746 0.2050369 -0.03706719
0.16533491 -0.1886566 0.0571067
-0.025929697 0.06509295 0.12126078
-0.052990448 0.15852901 0.11603797
-0.06692432 0.14233246 0.12296658
-0.20683146 0.18970153 -0.29903775
-0.18938959 0.24886157 -0.2436416
0.12916888 -0.29255092 0.062168706
-0.20952748 0.19426702 0.017584957
0.009733142 -0.04280653 0.066760525
0.1526834 -0.060543742 0.041228533
-0.032004256 0.21714531 0.019291492
0.010294115 0.1176104 0.10807059
-0.08649419 0.25199056 0.0591316
-0.15010521 0.2755911 0.028530998
-0.076700255 0.0875018 0.11763335
-0.10889753 -0.07092824 -0.20112018
-0.25827682 0.14703299 -0.20865071
0.03348121 -0.0966499 0.014859575
0.0658732 0.081233166 0.051006455
-0.17679404 0.17574257 -0.31947154
0.015101014 -0.1078026 0.018572861
-0.12269359 0.11997962 0.096371196
-0.116658255 0.23194589 -0.17618294
-0.15677966 0.12225174 -0.34708896
0.13326524 -0.27625486 0.06625912
0.028269866 -0.14650616 0.036392607
0.07702143 -0.20061868 0.13453138
0.047330372 0.1900705 -0.07378495
0.06525268 -0.18635634 0.14622273
-0.27193025 0.17266355 -0.21419278
0.050989024 -0.16027252 0.16123763
-0.0660662 -0.09518327 -0.084156215
-0.16370791 0.10969202 0.05441476
0.16943514 -0.18391164 -0.02735483
0.24288727 -0.22929148 0.013983994
0.05308881 -0.09293242 -0.21784279
-0.0074426485 -0.05519165 0.048320524
-0.018505182 0.0017901157 0.09679873
-0.2004071 0.21136977 0.036645915
0.03578907 -0.1795326 0.16269922
-0.054458335 -0.021788955 0.03779471
-0.028007355 0.14363518 0.11632277
-0.1730122 0.23985472 0.053110376
-0.042042665 -0.13434456 -0.18807556
0.26895764 -0.12366689 0.040810328
0.26174936 -0.16250437 0.026186023
-0.111351125 0.18046652 0.10724323
-0.17703058 0.253341 -0.23241325
-0.016833311 -0.13771714 -0.10473789
0.15378721 -0.22937807 0.025903841
-0.08140513 -0.009235432 0.045830294
-0.13118395 0.15624626 0.10219414
-0.22324981 0.07940307 -0.22679809
0.28790727 -0.13870439 0.022149561
0.037506018 -0.18320124 -0.10100279
0.075645864 -0.22525102 0.12519415
0.1723003 -0.07322087 0.118011326
-0.1530487 0.24566033 0.0581086
0.046064127 0.09513778 0.08552825
0.025653757 0.11299021 0.09923545
-0.12963729 0.10557598 0.06864427
-0.091635734 0.13589443 0.12014412
-0.047162104 0.23462598 0.04814371
0.19246054 -0.20344372 0.04259322
0.13551998 -0.2737847 0.065809034
-0.17579934 0.15788451 0.04448288
-0.22641335 0.2473427 -0.22325446
-0.15236236 0.16722399 -0.097012945
0.06583921 -0.1440896 0.14824878
-0.21635294 0.07581712 -0.23220234
0.112790816 -0.32147643 0.060872853
0.06074158 0.01878591 0.07414716
0.2952194 -0.18946265 -0.0037362345
0.050500825 -0.048075832 0.04680906
0.2583251 -0.094790146 0.059775874
-0.019109001 0.2088339 -0.21185794
0.15822476 -0.16935702 -0.052519187
0.11394685 -0.15585195 0.1289541
-0.19769229 0.28355953 -0.016529167
-0.053028855 -0.0033720694 0.064179
0.059587814 -0.1630372 0.16156912
0.12830499 -0.09585973 0.12124869
0.13716106 -0.09499189 -0.0798389
0.10366331 -0.12521116 0.14628015
0.28009382 -0.17721367 0.00029652918
0.21075669 -0.14508834 -0.019459892
-0.06444678 0.24016221 0.0645134
-0.113396965 0.047836293 -0.22715011
-0.1437128 0.29570255 -0.0064140605
0.0019780917 -0.070173554 0.03501872
0.07441982 0.07750245 -0.1635674
0.23722349 -0.1943928 0.030833768
-0.11877505 -0.0101782875 -0.34175587
0.06620623 -0.13280109 0.086251244
0.11610311 -0.059741367 0.016587704
0.045486934 0.1531291 -0.06816411
0.114610165 -0.22206631 -0.0026205708
-0.12879868 0.10393095 -0.3518418
0.080170505 -0.2943581 0.08020809
0.00018418879 0.05043791 0.11299833
0.04399502 -0.13795869 0.079151206
0.016402408 0.03926679 0.10528991
0.13841614 -0.19066784 -0.037892006
-0.11446084 0.24311833 0.07051289
-0.24235536 0.07756783 -0.23079683
-0.15055506 0.1369512 0.07278437
0.0057398076 -0.104673326 0.0068188314
0.026755797 -0.18681031 0.14689642
-0.06483614 0.002073843 -0.34496203
-0.057377446 0.1027935 0.12554586
-0.15595828 0.2534558 0.050144713
0.21828598 -0.043902427 0.10675111
0.10588902 -0.059296645 0.009399701
0.049987797 -0.187192 0.13529228
-0.038525265 -0.02327421 0.06070697
-0.15178661 0.15430616 -0.14616612
0.1643751 -0.0594595 0.047237016
-0.11822134 -0.072804764 -0.29433578
-0.21171151 0.2455722 -0.24314986
0.07343721 -0.04528786 0.027989991
-0.0037600214 0.1782446 -0.064525984
0.030845528 -0.17988548 -0.097828984
0.0011115883 -0.07030774 -0.28507465
0.02847486 -0.16372886 -0.030038461
-0.06516513 -0.0058315946 0.046634667
0.029701043 -0.07596344 0.032223567
-0.09754499 0.10708019 0.111958764
-0.17386344 0.30215818 -0.034397796
0.2614708 -0.15230171 0.033812426
0.2192392 -0.07733961 0.09262724
0.22735381 -0.0367313 0.10259457
-0.09144916 -0.10007542 -0.25602958
-0.16479908 0.19395138 0.07686094
0.22428843 -0.062054764 0.09567333
0.11388026 -0.07261685 0.03309004
-0.07466812 0.009713666 -0.20305169
-0.06561068 0.09069837 0.12302229
-0.06263852 0.06498692 -0.20603216
0.024290388 0.093944624 0.10422811
0.07386272 0.02329018 0.060464747
0.27121168 -0.14163032 0.031867694
-0.002183204 0.011176001 0.10218256
0.09164338 0.023339706 0.02211468
-0.008034701 0.07991415 0.11812447
-0.13972928 0.12141128 0.072217785
0.17106773 -0.105254285 0.11257395
0.24639054 -0.13123028 0.034856413
-0.035211116 0.14414409 0.11764325
0.16941242 -0.15251757 0.09401408
0.123980194 -0.06978599 -0.066066034
-0.03226419 0.19430217 0.093144305
-0.15243667 0.16869882 -0.09077739
-0.24515691 0.18982795 -0.08571826
-0.1993298 0.23113582 -0.26655692
0.16747163 -0.11192998 -0.048912324
0.026162293 -0.17380407 0.14809272
-0.055191375 -0.095121935 -0.053536937
0.1574718 -0.1353109 -0.06985395
0.08833069 -0.31122977 0.06913104
-0.044365194 0.10618158 0.12552553
-0.24784982 0.21993448 -0.050196286
0.20554149 -0.24909697 0.030210568
-0.0031371322 -0.1081794 -0.2437997
0.044959776 -0.20265685 0.15468211
-0.021961328 -0.06405191 0.024777288
0.19028276 -0.048509095 0.09515896
-0.11203268 0.14947897 0.112470694
-0.1308881 0.17825167 0.1014821
-0.1040573 0.2751491 0.029367559
0.039229788 -0.11670362 0.046484813
-0.099615715 0.25384447 0.06183115
-0.06565236 0.016773805 0.069329634
-0.07113098 0.11312741 0.12450018
0.17287047 -0.1796122 -0.031133141
-0.06075689 0.2376065 0.06392851
0.25638434 -0.07926669 0.06749904
-0.1340224 0.16895585 0.10009875
0.20425807 -0.079548165 0.034172345
-0.11557183 0.1880343 -0.18509063
-0.045857586 0.09942028 0.12543531
0.110896304 -0.22813182 0.008198415
0.18919371 -0.06188506 0.11308724
0.051769048 -0.15112336 0.14899741
-0.05222066 -0.014193821 -0.17761734
-0.2337437 0.21245067 -0.02043675
0.12413462 -0.07109968 -0.06827745
-0.03446448 0.09642578 0.12402763
0.100404024 -0.15328729 0.1388898
0.09181405 0.10757913 -0.118487656
-0.2736357 0.1893054 -0.18213597
0.0878654 -0.26260874 0.10166423
-0.14432561 0.06841565 -0.355096
-0.09254052 0.07330604 -0.20967679
0.06901526 -0.075315066 0.007997311
0.06321554 -0.22674765 0.13271305
-0.24788918 0.15720893 -0.08600886
0.13344082 -0.11472057 0.13328251
0.052737948 -0.19408348 -0.055441037
0.021266695 0.21422638 -0.0827325
-0.24236442 0.2680998 -0.058925014
-0.21763831 0.18035008 -0.023410093
0.026875699 0.03580818 0.09912306
0.23511654 -0.105887644 0.054252222
0.11946664 -0.056559302 0.014318839
0.13255514 -0.09497157 0.12274488
0.04106766 -0.15351544 0.097245134
0.059699126 -0.19371662 0.1487449
-0.17695558 0.08323345 -0.34404808
-0.08176474 0.00028827638 0.059851278
-0.054144025 -0.06751626 0.0049667284
0.120383725 -0.27946582 0.07336073
-0.045504782 -0.09108641 -0.043329038
-0.22374518 0.20351638 -0.0044615115
-0.2545339 0.17423137 -0.07037851
-0.14414057 0.09129494 -0.22268285
0.014636687 0.12593377 -0.056738
-0.08815861 0.27414522 -0.019471584
-0.25716174 0.13597688 -0.15474918
-0.2398604 0.2053726 -0.040593818
0.16276011 -0.14876245 0.099931486
0.01339002 -0.014232056 0.08639985
0.26257652 -0.17417109 0.023998417
0.053255413 -0.073280945 -0.22515066
-0.10704389 0.02854178 -0.35585758
-0.0641557 -0.09417548 -0.07677072
0.05201413 -0.044692952 0.04830077
-0.078060545 0.053633805 -0.3468725
0.24710837 -0.17597087 0.013504502
-0.07521804 0.17921656 0.11009983
-0.14739074 0.10604995 0.056907896
0.21339312 -0.20556754 0.031427197
0.24951024 -0.08101787 0.07127323
-0.0814386 -0.0923653 -0.14586063
-0.107350506 0.042161047 -0.22448651
-0.13220476 0.0844142 -0.21875921
-0.064309664 -0.11220417 -0.18652065
0.07615666 -0.15170181 0.15542889
0.035065953 0.17594576 -0.06786204
0.01570516 -0.11323332 0.023619147
0.090797216 -0.30043837 0.08402107
-0.25397062 0.17708702 -0.11782312
0.21328261 -0.100208 0.01873775
-0.2655553 0.2432649 -0.10260529
