# .PCD v0.7 - Point Cloud Data file format
VERSION 0.7
FIELDS x y z
SIZE 4 4 4
TYPE F F F
COUNT 1 1 1
WIDTH 1000
HEIGHT 1
VIEWPOINT 0 0 0 1 0 0 0
POINTS 1000
DATA ascii
0.26735428 0.12535 0.12936509
0.051490806 -0.010689587 0.059449553
-0.18743213 -0.19453852 0.0063346
0.24156041 0.10226619 0.13942169
0.2934028 0.11483753 0.12570845
-0.226392 -0.2221271 -0.06569786
-0.050904132 0.009139567 0.07186778
-0.08461774 -0.2374975 -0.2673473
0.17040102 0.104461536 -0.038872678
-0.11800059 -0.24452144 -0.25365335
0.15284978 0.011679995 0.112870164
-0.06707943 -0.032225028 0.08486791
0.0137087805 0.10195786 0.03144586
0.05959171 0.08088264 0.08104011
-0.027671246 0.002829594 0.07898265
0.24112248 0.11217994 0.13352633
0.052693024 0.2576857 0.14265637
-0.16540217 -0.2014423 0.015120726
0.006058622 -0.036719196 0.081320174
-0.108566485 -0.19479954 0.040993717
0.02396438 0.14532717 -0.18738465
-0.19819163 -0.11386638 -0.20052885
0.021465 0.13271245 -0.00097042357
0.16862957 0.15709841 0.02382615
-0.25303608 -0.17383564 -0.1977451
-0.070696615 -0.0048150304 0.06983296
-0.13772847 -0.23140238 -0.00077498896
-0.049112357 -0.08106439 0.08845556
0.034292907 0.15087885 0.17525111
0.018826233 0.05829395 -0.37032545
0.009949733 -0.08510048 -0.3358946
-0.13378225 -0.07475946 0.061732966
-0.15791637 -0.016729187 -0.075004116
0.040583592 -0.080095075 0.029559003
-0.015484032 0.009002718 0.076463625
-0.21149556 -0.13813671 -0.017924903
-0.02997624 -0.08032113 0.08714342
0.08471744 0.07558553 0.17872813
-0.16780572 -0.11228024 0.041688252
-0.023922432 -0.005752035 -0.40547606
-0.1537913 -0.10955865 0.05638936
-0.18224576 -0.106858656 0.018074542
0.07398617 0.06301522 0.16075961
-0.0038975675 0.06769548 -0.12376554
0.08764018 -0.028958052 -0.034265812
-0.07877168 -0.22964247 -0.23180284
-0.066199146 -0.017736435 0.08066215
-0.08658519 -0.08856078 0.08602525
-0.25558692 -0.19423482 -0.15697703
-0.14912546 -0.06793217 -0.098058105
0.16569293 0.16749367 0.14342265
0.10497877 0.039034344 0.0751628
0.18362728 0.123375416 0.009268762
0.13295357 0.12085456 0.15902986
-0.17261887 0.010784103 -0.07082578
0.23261245 0.102371454 0.11834612
0.21134757 0.07816357 0.12455559
0.24576136 0.14880963 0.12956358
-0.10172486 -0.086408466 0.082803905
0.22132763 0.16430482 0.13191107
0.08476543 0.09305675 -0.2986463
-0.17981271 -0.09289582 -0.00924164
0.22059423 0.1766272 0.1297038
0.02597969 -0.09755044 0.026222656
0.07771416 0.062305517 0.16741148
0.14739084 -0.00092607597 0.16103752
-0.0820261 -0.23444904 -0.2176351
0.045779087 0.1673965 0.09289639
0.19574876 0.22787897 0.12527095
-0.13239078 -0.20766847 0.025575234
0.01600949 -0.07612037 0.07023154
0.008268858 0.10702872 0.03226547
0.16633281 0.24318479 0.128741
0.20063567 -4.8133425e-05 0.16799742
0.2922335 0.10798637 0.12727922
0.14571087 0.09516684 -0.21074118
0.02719953 -0.07893163 0.055880558
-0.10387146 0.020473499 -0.24551901
-0.048414703 -0.1947048 -0.29434535
0.13676059 0.012657577 0.078704305
-0.051281586 0.012668827 0.068230964
0.051455613 -0.007977209 0.059425876
-0.022225462 -0.08095757 0.08555878
-0.16096687 0.057668667 -0.24584864
-0.18252186 -0.08061147 -0.30055177
-0.0016161915 -0.1584461 0.0018427288
0.010915423 0.097820625 0.014247281
-0.2076428 -0.24772346 -0.07820961
0.0076773255 0.13478257 0.08223332
0.04122168 -0.048214454 0.06074855
0.004472822 0.14633696 0.18262237
0.23498894 0.12955092 0.10984316
0.11761676 0.08289822 0.1505729
0.30145755 0.116347395 0.12366302
-0.24167216 -0.22316635 -0.10264926
-0.09748105 -0.14419395 0.07150138
-0.10289256 -0.22561434 -0.29053068
0.015564409 0.09418927 0.015358765
0.23590213 0.16032726 0.12949917
0.092608295 0.2601245 0.14155306
0.03886885 0.16705862 0.15323992
-0.017508108 -0.117719375 -0.33705947
-0.10512645 -0.24184364 -0.109728485
-0.08936359 -0.07301405 0.085687585
0.040826 0.042680625 0.048247326
-0.16468918 -0.09250639 -0.16750425
0.060348805 0.027666235 0.046170536
-0.14220008 -0.045091886 -0.08125213
0.108036615 0.033997852 0.012805234
0.09229117 0.23196058 0.14312947
0.25092772 0.05856667 0.14577602
0.011255024 0.067248225 -0.3656558
0.07282119 0.18762057 0.05714054
0.24818507 0.0664738 0.1448544
0.23953651 0.10380498 0.13956703
-0.13843334 0.033653636 -0.06777414
-0.0031346595 0.19459678 0.15010737
-0.13105467 -0.06871318 0.061615262
-0.008628793 -0.16540165 -0.015642492
0.04471484 0.1901018 0.16544376
-0.027847115 -0.0109020285 0.08333593
0.15173917 0.016712673 0.17543349
0.013452761 0.02990783 0.06405883
-0.045429606 -0.047192533 0.089274995
-0.07381304 -0.15912564 0.06513005
-0.101490505 -0.019163586 0.055566136
-0.16086921 0.014950151 -0.24697627
-0.041238233 -0.03782104 0.08829798
0.05728705 0.030760268 0.046133507
-0.059986383 0.03125355 -0.092914306
0.09111578 0.052102778 0.17131111
-0.19521984 -0.20320074 -0.0068900976
-0.18422802 -0.103615485 0.0110895485
0.03970513 0.059956297 0.040314324
-0.20552862 -0.2069967 -0.020677181
-0.10979328 -0.22256817 -0.21928062
-0.06724261 -0.20048164 -0.00725781
-0.23237054 -0.18995474 -0.049267463
0.039519116 0.11987177 0.18006955
-0.04692413 0.018530324 0.06557075
0.04182441 -0.07755646 -0.31958082
0.08140391 -0.03203396 0.0060051857
-0.14016064 -0.048039015 -0.015440434
0.068519026 -0.039180096 -0.29407376
-0.0017151679 0.030200137 0.0666719
-0.008278108 0.11338259 -0.30187345
0.14628176 0.17701003 0.024905948
-0.08680505 0.043434475 -0.08439815
-0.11874712 -0.025184495 0.007252847
-0.06779347 -0.19125018 0.02292102
0.1829433 0.17360719 0.13848923
0.10682838 0.093177296 0.17052978
-0.1328252 0.08080573 -0.08491605
0.017193845 -0.031267047 0.077199094
-0.03812893 -0.1577501 -0.31501967
0.16118798 0.17356524 0.049917404
-0.19032653 -0.16312285 0.02050638
0.21822594 0.20411484 0.11025211
-0.0067683565 0.045262426 -0.22745934
-0.13038303 -0.08558926 0.07018015
-0.039071094 -0.11387136 0.08094097
0.039878275 0.15917042 -0.110812694
-0.1942665 -0.16574273 0.015581756
-0.07339164 0.022767317 0.035360858
0.13545664 0.05130938 0.17233466
0.03635652 0.20363632 0.1646649
0.041950457 0.1459494 0.17452937
-0.094137564 -0.23099187 -0.1786336
0.25869748 0.09167136 0.13772246
0.12400109 0.2877085 0.1138623
0.27745807 0.14856203 0.12270362
-0.05123479 -0.06064649 0.08953376
-0.17171307 -0.25895536 -0.060477193
0.056329284 -0.005597785 0.056287702
0.10991644 -0.029866625 -0.061327025
0.0592253 0.08450853 0.0335267
-0.09861397 0.0740847 -0.20981172
0.28241095 0.13077341 0.12281961
-0.15841256 -0.15949357 0.04502708
-0.21079929 -0.13386288 -0.019423433
0.15935776 0.14631808 -0.02330461
0.02144975 -0.0063313376 0.07200551
0.25946125 0.11109649 0.13382381
-0.03816793 0.047214374 -0.37114602
-0.053398293 -0.19990297 -0.3155045
0.13370919 0.25254965 0.13405135
0.029683797 0.14151056 0.0072427727
0.15399048 -0.001914509 0.17351554
0.008766098 0.114332646 0.051861774
0.0052113393 0.12680712 -0.235667
0.06306981 0.09968798 0.17881492
-0.11461397 0.10319269 -0.12169077
0.03448789 -0.088059165 0.027434727
0.022716384 0.10818105 0.012121658
-0.2266692 -0.21370327 -0.056159005
-0.02980086 -0.021296414 0.08527222
-0.21839207 -0.25610146 -0.12966876
0.09104355 0.18080972 -0.087406956
0.01461175 -0.14008062 -0.00083360483
-0.22489557 -0.01930295 -0.14745301
-0.20875292 -0.22549742 -0.045370154
0.11140328 0.23151554 0.115973786
-0.20786549 0.0043712864 -0.23390594
0.091469154 0.29148662 0.13577588
-0.23242533 -0.24368894 -0.12940742
-0.083320074 -0.1108267 -0.4063651
-0.068559 -0.16603012 0.05840407
0.05890422 0.15689768 0.029259272
-0.09893935 -0.05967952 0.08138763
0.24705537 0.16943383 0.12531902
0.005299481 -0.07339626 0.078683294
0.21382876 0.0896625 0.09164849
0.043984156 0.19870645 0.16394983
0.10534063 0.10291275 0.16898316
-0.14309268 -0.07559826 0.053393565
-0.02722715 -0.1803883 -0.0074790963
-0.18347669 -0.057792127 -0.11743024
-0.11872694 -0.07802052 0.07527205
0.15994921 0.2353822 0.13163136
0.111893445 0.015272641 -0.28430888
0.2047077 0.15918197 0.11162347
0.029633015 0.02967958 0.058374934
-0.07987451 -0.19535258 0.029723946
0.054982446 -0.09353271 0.0017481413
-0.026414238 0.022457574 -0.39626986
0.046953302 0.0053971424 0.059427712
0.04508778 0.11834319 0.17914955
-0.15613948 -0.17858137 0.03590827
0.11375781 0.074492924 0.17260918
0.19607674 0.007811062 0.16748127
-0.10716272 -0.16491224 0.061513778
-0.19556537 -0.050712194 -0.121776305
0.06356161 0.12964624 0.1615003
0.22832638 0.17470701 0.12838763
0.14490107 0.01586339 0.05941769
-0.1380177 -0.07847844 0.05952799
0.064834155 0.07018651 0.06502581
0.07724275 0.092251 -0.30662403
0.2289378 0.07127068 0.14812759
-0.08030194 -0.15296842 0.069015525
-0.20135911 0.008101768 -0.23180233
0.19605342 0.013844279 0.16632716
0.26305285 0.16490898 0.12270216
-0.08725263 0.01071148 -0.0027482638
-0.031517584 -0.16801903 -0.31400535
0.06632195 0.18285275 0.0035181777
-0.19372882 -0.16362219 0.016812336
-0.12790255 -0.15435429 0.059553154
-0.100580804 -0.23443498 -0.073531225
-0.046575304 -0.010185041 -0.40789807
0.05548689 0.09237664 0.10173858
0.091474645 0.035119478 0.03409936
-0.18189633 -0.11608336 0.02631657
0.026487144 0.06957981 -0.3598206
0.20957859 0.01535784 0.16308889
-0.14185986 -0.12004415 0.064677745
-0.22160429 -0.1278322 -0.30487472
-0.043732822 -0.028430784 -0.41145837
-0.060823385 -0.09887478 0.086227074
-0.13068432 -0.06648454 0.060978785
-0.20733845 -0.119787805 -0.12525934
-0.09580189 0.038442962 -0.23522708
0.20649928 0.07163896 0.14508137
0.0090878215 0.11958011 -0.015564444
-0.18525073 -0.086155325 -0.27834344
0.0732533 -0.01856753 -0.29083645
0.21915415 0.18964137 0.12751716
-0.02627844 0.05150926 0.0453672
-0.19344361 -0.10697709 -0.032561153
0.022718498 0.08513591 0.023846293
-0.00038344975 0.045945287 0.057903726
-0.24187404 -0.15386075 -0.17522468
0.036829695 0.14722838 0.07452881
-0.21211159 -0.012729271 -0.0958437
-0.18330352 -0.017428983 -0.22762808
-0.122253135 -0.22013688 0.013526008
0.24535468 0.07483327 0.1438654
0.013035341 0.10880647 -0.17109728
0.17590968 0.10853204 -0.013334357
-0.13763312 -0.09701318 0.06684376
0.27954605 0.09096165 0.13331544
-0.09234211 -0.072156 -0.4100901
0.16475284 0.18699965 0.1374443
-0.118964575 -0.20790094 0.028773518
0.09648806 0.28398207 0.13309681
-0.04106178 -0.07436701 0.08863206
-0.09437872 -0.09454877 0.08335024
0.0750267 0.09617075 0.17688507
0.076501146 0.26480818 0.14416361
-0.10781503 -0.17393714 0.056209955
-0.07734339 -0.116046526 0.08170321
0.24207214 0.07876342 0.14382574
0.22131377 0.08959996 0.11991811
0.035914652 0.0993921 0.16902113
-0.05156625 -0.012752211 -0.40844917
-0.021612234 0.08418699 -0.0068805013
0.21319154 0.17548302 0.13153651
-0.106954694 0.069003865 -0.08800621
-0.05600468 0.021568894 0.05762883
-0.046162855 -0.019469356 0.08509885
-0.10450773 -0.015075201 0.04703395
0.13522083 0.2150236 0.10235819
-0.09165644 -0.23255605 -0.16359979
0.17013067 0.18009445 0.08740875
-0.15168433 -0.115668446 -0.1764676
-0.11802252 -0.025371281 -0.07063168
-0.19605078 -0.13640033 0.012247631
0.29729125 0.11534904 0.124762625
-0.19728014 -0.10896583 -0.076650046
0.07705528 0.11527449 0.17277245
-0.20093216 -0.22152099 -0.03062397
-0.052345004 -0.11389299 0.082987286
0.026035612 0.10418889 0.06541721
-0.17118709 -0.26703483 -0.08165983
0.060109947 0.09419441 0.11704534
-0.18673497 -0.026390495 -0.09059126
-0.077256404 -0.17301941 0.054849193
0.21957001 0.13431147 0.09637034
0.1273025 0.11500958 0.14949918
-0.033761963 0.013257441 0.07316734
0.07263053 -0.055797514 -0.30217758
-0.05886027 -0.052709475 0.0893591
-0.044134267 -0.0051314645 -0.40659168
-0.11464076 -0.24089792 -0.035620507
-0.2236299 -0.14430478 -0.04544269
0.16253391 0.016606884 0.17310105
-0.13443835 -0.26323843 -0.21215856
0.062160928 0.12075576 0.1749654
-0.058868475 -0.16572331 0.053816933
-0.16186567 -0.017822033 -0.07635859
0.12028942 0.082537025 0.16964011
0.057672244 0.09805062 0.18030594
0.15448128 0.04355315 0.013122687
-0.11815181 -0.24853459 -0.057046674
0.060857702 -0.070451945 -0.33710617
0.114424035 0.006244958 -0.05871321
0.13086416 0.06433594 -0.27939105
0.1415209 0.26913825 0.12916179
-0.061288778 -0.0009492384 -0.4016515
0.12736979 0.22228861 0.1088632
-0.08959057 -0.24740568 -0.18517366
-0.0848127 -0.036040273 0.08076482
0.048769493 -0.019802494 0.061440576
-0.18085729 -0.23957328 -0.03356894
0.15383066 0.2322238 0.13357142
-0.13058737 -0.0038280124 -0.06815986
0.06544842 0.19885936 0.10433868
-0.21509106 -0.010078733 -0.11349065
-0.07003254 -0.17146032 0.053549606
0.14371681 0.0022563583 0.16097608
0.16834593 0.13072567 -0.029557195
0.045131084 0.18235913 0.12849942
0.0012792626 0.087829255 -0.1481397
0.19142418 0.00468957 0.16909485
-0.117068194 -0.044662215 0.061488595
-0.02921122 -0.13133968 0.0666108
-0.10601145 -0.08081743 0.081463926
-0.14056529 -0.25861502 -0.25627163
-0.075642146 -0.042435538 0.08614289
0.20494698 0.07448893 0.10348935
-0.18119377 -0.10966576 0.022517078
0.014651361 0.030005435 -0.12869295
-0.109872766 -0.14442605 0.0688415
0.096409805 0.26186207 0.14039104
0.012931177 0.11184511 0.055534724
-0.17590512 -0.22502081 -0.012153654
0.17449419 0.16779283 0.14144735
-0.07028189 0.028238289 0.02636548
0.14608574 0.05659296 0.16900304
-0.17797723 -0.2760895 -0.20186089
0.08216696 0.05153545 -0.3352599
0.22454825 0.18812743 0.12663259
0.28114346 0.10644434 0.12999247
-0.023503322 -0.073798575 0.08685237
-0.12545905 -0.16315018 0.05641923
-0.10702205 -0.07504427 0.08027367
-0.011025437 0.11130204 -0.2875419
0.043615993 -0.06240036 0.047841586
-0.09492707 0.00047715017 0.027957901
-0.16054158 -0.017589368 -0.07594913
-0.12984362 -0.18237813 0.045339864
-0.016311292 0.07263832 -0.18536642
0.24006337 0.17003569 0.12672727
0.13541117 0.061306745 0.14672391
0.11441285 0.28487232 0.13204643
0.019200915 0.17484254 0.17393565
-0.2394476 -0.15530941 -0.102537535
-0.0336794 -0.060532913 0.08877344
0.012635108 0.20466226 0.16963732
-0.05914145 0.028232692 0.04745538
0.17891234 0.18003973 0.13813162
0.103535645 0.047279228 0.09343701
-0.13375641 -0.23372911 -0.005174962
0.08092787 0.2154852 0.10495157
0.101553924 0.1118043 0.14318326
0.005070868 -0.0848978 -0.33623835
-0.027455986 0.08698114 -0.24398461
0.28614986 0.092228174 0.120201424
0.055837046 -0.056004968 0.03381823
-0.03399655 -0.17373846 -0.0101878
-0.22091027 -0.2476701 -0.10820146
-0.043337587 -0.07556761 0.08860976
-0.13414256 -0.042026564 -0.0012557355
0.1878623 0.018423544 0.16723253
0.15338896 0.028871654 0.17273794
-0.047546722 -0.047308188 0.08940817
-0.11999371 -0.11853028 0.073951386
0.21870282 0.020793937 0.16005588
-0.19555679 -0.017700132 -0.21898049
0.053593688 0.085493416 0.17301515
0.19666834 0.2127226 0.12798268
-0.037058618 -0.055464964 0.08889687
-0.020891894 -0.1044543 0.079452425
-0.11778586 0.08945309 -0.09468358
-0.0048285816 -0.11362364 0.06051619
-0.037924126 -0.19550532 -0.015681038
-0.16313155 -0.1135271 -0.1677627
-0.026654527 0.050749447 -0.37488192
0.21732683 0.03076715 0.15843959
0.13960254 0.010999145 -0.17111653
-0.043816824 -0.105404794 0.084675916
-0.00466416 -0.10781456 -0.33815402
0.21781155 0.18479006 0.12874198
-0.015884953 0.093809515 -0.058798447
0.09409637 0.08401875 0.1750638
0.23858099 0.13409628 0.12901972
-0.040937882 -0.03973489 -0.4117755
0.16699651 0.18352276 0.14005925
-0.076688915 -0.18236402 0.045190603
0.16775669 0.027863093 0.16980064
0.23941873 0.11692854 0.12052882
0.07113469 0.06980818 0.17202038
-0.18230197 -0.25221333 -0.054905117
-0.08294213 -0.22298118 -0.06291914
-0.107101664 -0.22106642 0.007352548
0.15378249 0.05254567 -0.09861361
0.0031298804 0.17493208 0.17742063
0.14059491 0.15338975 0.14832212
-0.11054864 -0.16091079 0.06206673
0.10104788 0.15112093 -0.19719902
0.0047591445 0.15101735 0.18166049
0.12587601 -0.009898077 -0.1002004
0.024117595 0.118393965 0.18370989
0.16878642 0.16248733 0.1437107
0.19435301 0.19104442 0.13265248
-0.13238077 -0.1023759 0.07016982
0.1326682 0.018966995 0.085868105
0.01687641 0.13433594 -0.12977418
-0.18458202 -0.25167635 -0.055849705
0.15224715 0.05685663 -0.1592782
0.053028747 -0.09590441 -0.020455407
0.11858921 0.069883384 0.17244193
0.0020787432 0.12291485 -0.22855361
0.01622294 0.20759407 0.16829206
-0.029438822 -0.11101202 0.080221474
-0.06558665 -0.22677332 -0.0649587
-0.17386508 -0.07151895 -0.36150968
0.22714366 0.05645884 0.151364
0.2072429 0.21636447 0.12497852
0.11912535 0.097776785 0.16540876
-0.09285072 -0.19492984 -0.2782576
0.09041905 -0.025658129 -0.26960975
-0.22281446 -0.13849886 -0.060367953
-0.17905699 -0.16721746 0.02836684
0.1457627 0.03871466 -0.006916359
-0.09560379 -0.23860234 -0.09743311
0.06590491 -0.022790821 -0.29796597
0.08039973 0.057509962 0.16099681
0.11668709 -0.021598745 -0.07394607
0.15272714 0.02627272 0.17338143
-0.072697945 -0.23404053 -0.07862382
-0.114200346 -0.1388825 0.06956325
0.05264332 0.19169284 0.12683594
-0.07851244 -0.0314061 0.08152757
-0.008246277 0.061091125 -0.10480232
0.007966327 0.11921328 -0.032530643
-0.0468275 0.025575226 0.059163544
-0.110386506 -0.17094974 0.05828452
-0.123399116 -0.12629136 0.07099417
0.07267251 0.26728356 0.14452255
-0.027899247 0.09316252 -0.30295134
0.09684244 0.03821719 0.05445461
0.1300188 0.26052073 0.13332403
-0.08008398 0.0054218904 0.051981803
0.13500236 0.2797554 0.12854242
-0.14568031 -0.069614284 0.04606041
-0.049957618 -0.15436766 0.059622448
0.04892627 -0.08360237 -0.34184217
0.19010596 0.07329458 0.07630243
0.15166692 0.25563943 0.12954412
-0.054643106 0.018412871 0.061056133
0.11030483 0.25648016 0.13839656
0.10095793 0.21952742 0.09313017
0.204716 0.1564289 0.10444078
-0.07467954 -0.16006379 0.06462979
-0.25021255 -0.17308353 -0.13274546
-0.10922382 -0.02391555 0.0508411
-0.16877292 -0.27831134 -0.15371506
0.1550919 0.050258692 -0.027198091
-0.1979702 -0.2636232 -0.23637965
0.2595516 0.14535517 0.12722173
0.28679436 0.13285688 0.12368648
0.10657704 0.06380605 0.1762273
-0.118194796 -0.027911544 0.040072065
-0.17833765 0.0114727765 -0.07166153
0.104979396 0.0165801 -0.20143151
0.18561028 0.080304675 0.05236273
0.197936 0.042850327 0.16034403
-0.15496401 -0.25171277 -0.038158912
0.08186498 0.085709125 0.1774046
-0.18678041 -0.26335496 -0.08390589
-0.0792225 -0.2096101 -0.0001489464
0.24225491 0.14471112 0.1311151
-0.15395948 0.037875913 -0.06662086
-0.03105854 0.088104606 -0.27425003
0.14007919 0.016986996 0.17792197
-0.11217378 -0.08872076 0.07983059
0.22637883 0.12761879 0.104794346
-0.2119283 -0.14706765 -0.012440764
-0.16522858 -0.10846047 -0.13226165
-0.1821068 0.016236331 -0.07118478
0.19967583 0.192414 0.13122915
0.061965406 -0.081557244 -0.0023506065
-0.011633619 0.032683935 -0.39132592
0.013271421 0.11169418 -0.22094737
-0.010234373 0.18143642 0.17908354
0.22298223 0.089871496 0.110119835
0.14563978 0.16017821 0.12698351
0.1454699 0.20119976 0.086330675
0.10265171 0.20805334 0.063794926
0.16464463 0.017037243 0.1725585
0.0643278 -0.038522586 0.03597865
-0.039684754 0.037743635 -0.11336219
0.034531865 -0.07924821 -0.3215634
-0.129943 -0.037411813 0.00067770213
-0.00899364 0.18524384 0.17808145
-0.08006884 0.0020028313 -0.38743085
-0.20005597 -0.20460245 -0.012850692
0.03678553 0.09094305 -0.33713722
-0.090068 -0.24974225 -0.15095678
0.05131172 -0.0814148 -0.33249992
0.2841471 0.14720993 0.12150549
-0.15761812 -0.09033299 0.045997735
0.056062773 0.13856405 0.17287265
0.17436004 0.115039274 -0.022449505
-0.013224926 0.09569724 -0.037907008
-0.23309301 -0.027166631 -0.1729685
-0.20371097 -0.1192908 -0.021862168
0.02232337 0.024145141 -0.13117012
-0.11393698 -0.124879435 0.07392184
-0.11387537 -0.18244985 0.04945134
-0.054918993 -0.082551174 0.08846212
-0.10646325 -0.24586335 -0.13007256
-0.041447565 -0.051589683 -0.27297574
-0.21844634 -0.12779367 -0.17059876
-0.033975694 -0.010315973 -0.4076603
-0.057942104 -0.1974503 -0.2868
0.1488859 0.04851704 0.1440227
0.031539053 0.05392502 -0.36797702
-0.1152727 -0.24791798 -0.13087174
-0.19031993 0.016271438 -0.08557747
0.09674586 0.2686853 0.13900636
0.13126335 0.23805586 0.13736908
0.15140724 0.14282484 0.1353486
0.06021647 0.03972498 0.040318385
0.23214066 0.14294724 0.1317692
0.03901332 -0.0340937 0.06668773
-0.024722047 -0.16633545 -0.34141144
-0.07789817 -0.10656271 0.083495446
0.03968969 -0.0015471545 0.06466292
-0.09879361 -0.23221807 -0.077516854
0.078144774 -0.015927566 -0.28572795
0.05040937 0.25098452 0.15250553
-0.12585881 -0.037668683 -0.074198745
-0.11568974 0.03468439 -0.24379367
-0.0030777797 0.08026702 -0.120445326
0.059494656 0.2206025 0.15636301
-0.05294654 -0.17674941 0.031631608
-0.1079229 -0.19619584 0.03990104
0.0038533348 0.14275551 0.18344523
-0.24931759 -0.17295945 -0.12391049
0.26361328 0.10547181 0.13399963
0.05614974 0.18655889 0.10471704
-0.11548321 -0.24653229 -0.161699
0.024421131 -0.07826725 0.060387254
-0.13611582 -0.07498973 0.059642244
-0.14737035 -0.25433883 -0.28010926
0.06361251 0.17995161 0.00082846486
-0.17502852 -0.22033882 -0.0071272766
-0.21980804 -0.1229877 -0.2910104
-0.12181809 0.08032497 -0.0860375
-0.1688691 -0.085032344 -0.25959694
-0.21331678 -0.033184044 -0.11898442
0.00048078713 -0.10824529 0.059974987
0.21170166 0.09405565 0.082435474
0.26531568 0.11264324 0.10908127
-0.1450316 -0.15516149 0.052768797
0.030645866 -0.042017873 0.07061827
0.09445626 0.18369175 0.010793609
-0.13929187 -0.26727712 -0.11334732
0.18315065 -0.0067676976 0.17309915
-0.15727147 -0.03632421 -0.082979046
-0.1150605 -0.24963614 -0.09368649
-0.14605962 -0.056020066 0.010341315
0.16280499 0.01716379 0.17293526
0.06977663 0.115855046 0.17424722
0.05702036 0.021361127 -0.36735946
-0.013996027 -0.043995284 0.085309565
-0.02920358 0.082942724 -0.24508771
-0.017435377 -0.1320199 -0.32489565
-0.09298297 -0.23549879 -0.08948422
0.04265258 0.17153732 0.15792847
0.11793777 0.28194198 0.13184121
0.03249504 -0.0890178 0.03288088
-0.074416384 -0.0072877943 0.06934843
0.0947211 0.10907634 0.17011338
0.038323652 0.14779617 -0.24374686
-0.15361516 -0.26637185 -0.07838462
-0.19018275 0.016173711 -0.08079113
-0.19915491 -0.26797095 -0.121413395
-0.104515 -0.22567993 -0.006395086
0.19546592 -0.006008816 0.17026946
0.0059885024 0.20248021 0.171505
0.047590442 0.18058284 0.16549546
0.14321736 0.01196726 0.1782023
0.019478962 0.02839713 0.06329405
0.20046918 0.059501242 0.15659283
-0.033240195 -0.118501015 0.07771856
0.17055212 0.16975306 0.061318267
0.021261973 0.022133749 0.06471804
-0.1873769 -0.10019565 -0.070947886
0.13880071 0.19837053 0.06511606
-0.101806365 -0.21987264 0.0046920083
-0.1547166 -0.12315753 0.05572362
0.13554466 0.04936073 0.17268986
-0.12501226 -0.17914642 0.048895728
-0.08799291 -0.2039099 -0.33818424
0.16690217 0.1768651 0.14135878
0.060045384 -0.029648883 0.049275357
-0.22816002 -0.21004012 -0.054939672
-0.20149155 -0.17634913 0.0037409824
-0.16263093 0.05631478 -0.2556345
-0.12753798 -0.114459135 0.07205137
0.20206474 0.16826123 0.131397
0.054260485 -0.026025001 0.056094673
0.022933215 0.02308131 0.063854344
-0.14566013 -0.06734665 0.043812454
-0.17039305 -0.11775995 0.040662505
-0.25083295 -0.17197283 -0.22231081
0.052809767 0.0943377 0.18207866
0.15247068 0.2116206 0.12956965
0.15325427 -0.00243858 0.17046382
-0.16069914 -0.072923966 0.019137876
-0.02327489 0.091811426 -0.23575187
0.050084792 0.17553401 0.098213196
0.1391254 0.2620299 0.13104959
0.059136726 0.22941794 0.154747
0.13171229 0.012053702 0.15920538
-0.071487285 -0.23080121 -0.05784399
0.016417356 0.019523412 -0.38888732
0.039722983 0.038252354 0.050700504
0.051134236 -0.06841359 0.0093595665
0.0047328267 -0.019557746 0.07953853
0.2438873 0.16668735 0.12653738
-0.16809994 -0.013222226 -0.07651979
0.054092124 0.15897416 0.048888277
-0.10544167 -0.03989853 0.06825574
0.05626532 0.08466534 0.08334351
-0.008657112 0.057821896 0.04820659
0.097271085 0.25136635 0.14221968
0.02397031 0.028163588 -0.3837515
0.035447735 0.105006464 0.18264244
-0.1414817 0.056649886 -0.24277182
-0.011777769 0.043220498 -0.19445981
0.09874436 0.29854482 0.13283421
0.0043696896 -0.13798405 0.0014749754
-0.08529689 0.0952022 -0.13688864
0.060492877 0.18611291 0.09061704
0.13795026 0.25734538 0.13220578
-0.046905305 -0.14399196 0.06735294
-0.20271729 -0.26060107 -0.100503005
0.19696803 0.14737523 0.06651598
0.107255556 -0.021538751 -0.27640423
0.12890273 0.20680961 0.07152593
0.12012391 0.030700218 0.17963588
-0.0006021866 -0.03303034 0.08255636
-0.039355226 -0.037537675 0.087969474
-0.12828444 -0.13218336 0.06787015
0.094031624 0.2694823 0.1394451
0.042187016 0.13288713 0.024848675
0.061201155 0.19816393 0.11558248
0.0029800865 0.13110699 0.1768132
-0.19210574 -0.1268965 0.014970456
0.026378 0.1598721 0.17524788
0.0286811 0.11163903 0.09094457
0.061059386 -0.012652545 0.05261809
0.05074601 -0.055874288 0.043046623
0.07928724 -0.03168592 0.013346497
-0.16113427 -0.26193357 -0.063983776
0.11224983 0.12179953 0.14371118
-0.20217644 -0.18246137 0.000112322225
-0.076812595 -0.16708863 0.060078565
0.16282399 0.0754089 -0.12636073
-0.012761456 -0.07326243 0.08435176
-0.18377405 -0.20642933 -0.0013299225
-0.12810548 -0.083038814 0.07111767
0.034453373 0.13664879 0.057902783
0.19407475 -5.993225e-05 0.16942967
-0.028943565 0.07365339 -0.080422625
0.22832224 0.12778726 0.10918842
-0.027535459 -0.011854889 0.08352731
-0.059387825 -0.091283865 0.08681867
-0.077111885 -0.1828035 -0.29743493
0.1512086 0.24016126 0.13261801
-0.18080066 0.016286025 -0.24305084
-0.19414097 -0.11149658 -0.20597057
-0.21802466 -0.20239113 -0.031170746
-0.063817285 -0.17501558 -0.3097063
0.096990906 0.07802457 0.17558472
-0.18130152 -0.07890699 -0.30690435
0.08309743 0.22817524 0.14976409
-0.1764426 -0.16823865 0.029991223
-0.04155976 -0.1395481 0.06768546
0.07082822 0.16518824 -0.009122735
0.12086407 0.030930659 0.090221904
0.061120838 0.26226684 0.14800347
-0.048831724 0.043617424 0.036097236
0.26450276 0.07380836 0.13988926
-0.15159905 -0.1307503 0.057535004
0.021450263 0.13619561 -0.06748566
-0.09989096 -0.1727169 0.057214085
0.095312245 0.045275 0.1630283
-0.24485424 -0.23325025 -0.15336595
0.06878578 0.00446476 0.045988407
0.22308823 0.11909013 0.09464116
-0.2372858 -0.16195184 -0.07361163
0.012641031 0.121629156 0.021333996
0.041759085 0.024522804 -0.3775302
0.22027867 0.07494404 0.14930892
-0.23085193 -0.22837931 -0.08370343
-0.22860672 -0.02414994 -0.13454084
0.09226215 -0.051366266 -0.024560874
-0.19949739 -0.16766828 0.009151125
0.04543345 -0.03348453 0.061638944
-0.013473412 0.012664774 0.075048134
-0.053023692 0.031938683 -0.37848052
-0.15611835 -0.03214609 -0.08050983
0.062319096 0.113358065 0.17635223
0.11532111 0.032994352 0.082968734
-0.057090133 -0.102062434 0.085627586
0.024006624 0.077682115 -0.35380998
0.11661438 0.0088807605 0.008583098
-0.12487115 -0.072298996 -0.088426955
0.019483082 -0.10458387 0.021233927
0.024557432 -0.06799859 0.06696374
0.09883802 0.23620869 0.12803373
0.21241842 0.15357101 0.11454461
0.026793364 -0.09369317 -0.325935
-0.15622184 -0.16993128 0.040728707
0.046014883 0.08691755 0.065839104
-0.16094363 0.017839817 -0.067821756
-0.12125562 0.084011145 -0.08884788
-0.08139363 -0.21419519 -0.25024524
-0.15373714 -0.092516765 0.05044408
0.03155558 0.068868466 -0.35868365
0.20242849 0.18062665 0.13289379
-0.012715515 0.051449526 -0.14812659
-0.01014878 -0.08611223 0.081920885
0.2262181 0.047022022 0.15337907
0.12737384 0.021704536 0.0809461
-0.03936735 0.057389066 -0.312375
-0.15488635 -0.23864552 -0.015886396
0.16159338 0.02670373 0.1713663
-0.20796023 -0.25328186 -0.09332328
0.05054216 0.19083832 0.13125087
0.019912813 -0.103371106 0.03522649
0.27744064 0.15496607 0.12147699
-0.05039985 0.02871277 0.054558657
-0.0076946244 0.18535323 0.17777754
-0.07355467 -0.021642834 0.08000229
-0.112395704 -0.2243016 -0.20640326
-0.06616435 0.01583386 0.054894343
-0.11182199 0.09992452 -0.18510863
-0.14341031 -0.23586832 -0.008244677
0.06043119 0.23101233 0.15415864
0.20318301 0.10588751 0.056402203
-0.043916572 -0.10086818 0.085481055
-0.006735007 -0.0390076 0.08392437
0.1708474 0.22672966 0.13091858
0.007983867 0.040030137 -0.13904941
0.10397364 0.25693053 0.13969015
0.086644225 0.045844693 0.051130205
-0.0066039446 0.10770453 -0.12479005
-0.029903267 -0.06977239 0.088400476
0.16013263 0.16215733 0.14565997
-0.01886175 -0.098107874 0.081306666
-0.06259295 -0.14158355 0.07309361
0.080294035 0.2623365 0.1438118
0.08771938 0.06251483 0.09719203
0.14351146 0.036203783 -0.007245436
0.23369108 0.05832214 0.14957926
-0.03151299 -0.01574905 0.08471897
-0.22794543 -0.13413975 -0.25274435
0.25527194 0.05937857 0.14467345
0.025157 0.1961206 0.16854976
0.054465268 0.08382913 0.077047236
-0.16558097 -0.019521639 -0.07835858
0.11907632 -0.011622933 -0.1356316
0.18733294 0.055398095 0.10887031
0.07956494 0.23305704 0.14959611
-0.1118006 0.1085703 -0.16385183
-0.052719068 -0.17459583 -0.30280918
-0.21018422 -0.22033642 -0.04030404
0.29480475 0.12824285 0.122827046
0.058922887 0.19659899 0.16109939
-0.18803783 -0.26359528 -0.08620615
-0.18375354 -0.08232396 -0.29429513
-0.10163824 -0.088816345 0.08261563
0.15421745 0.014749555 0.17527047
0.13683832 0.20786235 0.086463585
-0.028284464 0.06434553 -0.3541691
-0.06965103 -0.2041733 -0.035506
0.089799605 -0.022669548 -0.03973879
-0.14917515 -0.23423351 -0.007672396
0.08301787 0.2615408 0.14337094
-0.1879987 -0.10346486 -0.23108222
-0.08550359 -0.1306105 0.07707689
0.022538226 0.090161696 0.020740516
-0.0030975633 -0.12888621 0.035279475
-0.25023422 -0.16506357 -0.19312286
0.02093527 -0.040277906 0.07575254
0.045831516 0.049620997 0.04242152
0.010825876 -0.11974011 -0.32825795
0.024457434 0.026305191 -0.14419357
-0.25381577 -0.2084678 -0.13458434
-0.01666185 0.07540803 -0.18686774
-0.13257703 -0.01646124 -0.24726826
0.080462374 0.06010089 0.16791712
-0.025720522 -0.023597432 0.08495507
0.049069203 -0.070934966 0.013205186
-0.24636663 -0.20500839 -0.09460101
0.22549899 0.13654533 0.10935575
-0.24584852 -0.16461502 -0.116025664
-0.057969555 0.042441845 0.019218786
-0.2435762 -0.17842454 -0.08477196
-0.16782162 0.038813613 -0.06581834
-0.11887483 -0.09256472 0.07682281
-0.13445237 -0.041916322 -0.00996241
-0.16353594 -0.057038877 -0.099000774
-0.003941022 -0.05895223 0.08384516
-0.034687173 -0.16342165 0.027293898
0.07373495 0.074459106 0.09651823
-0.03264277 -0.13168687 0.0685449
0.06302754 0.24513738 0.15087904
0.0957667 0.30056563 0.13309476
-0.09321499 -0.083003186 0.085325785
-0.039030507 0.0064183497 0.07584868
-0.17571263 -0.13804443 0.038408067
-0.006238694 -0.09715799 0.07529028
-0.19643614 -0.111395136 -0.012466254
0.011791889 0.20617671 0.16952999
-0.24325238 -0.16128418 -0.25921056
-0.16772643 -0.09174098 0.030688811
0.1398603 0.25354502 0.13251965
-0.08602437 -0.19833918 0.030581351
0.1344812 0.19390067 0.04666551
-0.090156905 -0.20069931 0.030379046
0.00798566 0.19237246 0.17301175
0.049298376 -0.05903066 0.042539492
0.054930545 0.23321664 0.154934
0.08533917 0.29488763 0.13241385
0.21623494 0.048625503 0.15524648
-0.13667677 -0.1470179 0.059796777
-0.11534429 0.035761204 -0.07222741
0.14690898 0.14543897 0.15175387
0.24867548 0.11532472 0.13536167
-0.13669504 -0.20724204 0.02486039
0.17545818 0.07253524 -0.015871476
-0.23411833 -0.14324906 -0.21136838
-0.043747213 -0.16153847 0.04409012
-0.01938876 -0.15382047 -0.32080063
-0.10561884 -0.21862523 0.01094505
-0.06491351 -0.04723056 0.088339195
0.013062834 -0.02574015 0.07818348
-0.11321509 -0.019025587 0.008276002
-0.17584178 -0.07642328 -0.286317
0.0036861352 0.12504181 -0.23466863
0.01623042 0.020404318 0.066955954
0.085352056 0.28178954 0.13897188
-0.023714757 -0.14708368 0.04014254
-0.021293698 -0.13711023 0.05212735
-0.104903564 -0.12226433 0.07585318
-0.1325583 -0.2643621 -0.1095326
-0.10848571 -0.04502349 0.06837594
-0.14128412 -0.27046207 -0.16400515
0.14484578 0.02643101 0.17506851
0.12810901 0.022224005 -0.07031067
-0.24382159 -0.22568654 -0.11652615
-0.053436264 -0.097680524 0.08616629
0.17115939 -0.014449227 0.17403558
0.17622386 0.19940746 0.13499628
-0.1249409 0.0045932825 -0.2492793
-0.11604075 -0.022058144 0.005599808
0.19533023 0.016337737 0.16600566
-0.069089256 -0.20248108 -0.003855996
0.12892745 0.064823076 0.17116113
0.22520961 0.024458699 0.15793374
-0.03705205 -0.05610947 -0.28425324
-0.15085094 -0.12107376 0.05845774
-0.059993442 -0.11593178 -0.4009019
-0.21607462 -0.0117486995 -0.10274785
-0.020976014 0.08439349 -0.21621667
-0.12794816 -0.23827517 -0.014311674
-0.16626814 -0.01739711 -0.07768195
0.23501126 0.05899968 0.14916135
0.1875356 0.0025005946 0.1652393
0.05693609 0.046243984 0.038706798
-0.0062187915 -0.004570157 -0.4024915
0.14673136 0.18375948 0.043588407
-0.009158674 -0.13637857 0.014172255
0.08309436 0.0043274025 -0.26316106
-0.103069164 0.064612515 -0.2230608
-0.075165704 -0.12611617 0.07950714
0.019105114 0.13493432 -0.093573794
0.10219532 0.092416376 -0.27939713
0.016247224 -0.08626173 0.063558474
0.031316098 0.14686956 -0.05977501
0.00041362655 0.059171695 -0.14289995
0.10752286 0.090631254 0.17086741
-0.067121476 -0.217998 -0.049746174
-0.083542295 -0.113673486 0.08168473
0.0041563474 0.10834412 0.0137054315
-0.008742916 -0.06314237 0.08470175
-0.19759066 0.008400921 -0.2338857
-0.014274529 0.10642807 -0.26426184
-0.0978011 -0.17446607 0.05605522
-0.2061953 -0.037023757 -0.11587199
0.04907041 0.16524506 -0.030062031
-0.18069692 -0.13757566 0.034063183
0.1979939 0.20299794 0.12956242
0.27931312 0.08774554 0.13398422
-0.16321781 0.03133766 -0.06594535
0.16767123 0.15039805 0.0064450176
-0.07272889 -0.13534924 0.07662941
0.037042342 0.0044783 0.064612806
-0.13578665 0.056578863 -0.072078444
0.02624527 0.20506907 0.16659327
-0.18152265 0.012416661 -0.07199345
0.08489081 0.068221 0.049500085
0.052606344 0.17206945 0.082817644
-0.106424436 -0.17665417 0.054229524
-0.10769257 -0.21895461 0.011963864
0.20055664 -0.0031574846 0.16861206
0.16244076 0.060082056 -0.057043616
-0.03466515 -0.05194405 0.08868834
-0.15021104 -0.26079053 -0.061598875
-0.21988058 -0.12563308 -0.24228169
0.043090224 0.17645882 0.14782372
0.2012921 0.20432939 0.1285877
0.12558348 0.22145872 0.104613796
0.28570956 0.10205161 0.12984127
-0.033661652 0.050274666 -0.14117059
0.25737372 0.17063281 0.122840285
0.020235801 -0.091420285 0.052019242
0.11569045 0.040287916 0.046728376
-0.15688714 -0.16606909 0.042410422
0.1627134 0.15508568 0.14364183
-0.014858403 0.07664602 0.019421255
0.04534147 -0.0728706 -0.31719393
-0.07067422 -0.00949273 0.0739386
0.14295974 0.23747669 0.13493153
-0.090909824 -0.03913653 0.079199985
0.08573957 0.018983718 0.028712777
-0.004443635 0.051652964 -0.11622429
-0.008544896 -0.019893574 -0.40607387
-0.07899554 0.010111025 -0.07543462
-0.15224648 -0.21634713 0.011213009
-0.052190192 -0.19992715 -0.28926152
0.19239752 -0.0010110722 0.16997814
-0.007416199 -0.08247804 0.081914
-0.040398672 -0.16441095 0.035797406
-0.080939956 0.09033418 -0.13533935
0.17101529 0.12211032 -0.028415376
-0.10495183 -0.12013982 0.07642783
0.08565135 0.22476532 0.13815695
-0.12625976 -0.05925683 -0.08184937
-0.12117636 0.04797591 -0.07380958
-0.08549428 -0.20174225 0.024445536
0.16588871 0.17939538 0.07589791
0.005467872 -0.13190024 -0.3514938
-0.069602996 -0.00082093326 0.06751701
-0.047722176 0.042209167 -0.37066674
-0.15984866 -0.15678987 0.045911387
-0.03772296 -0.095982105 0.08575576
0.09258235 0.051761795 0.080162086
0.141602 0.24339494 0.1340901
0.17297812 0.16920082 0.1415074
0.13131027 0.09869723 -0.25351518
0.012072174 -0.047696862 0.0791464
-0.15751147 -0.23684742 -0.0142283365
