# .PCD v0.7 - Point Cloud Data file format
VERSION 0.7
FIELDS x y z
SIZE 4 4 4
TYPE F F F
COUNT 1 1 1
WIDTH 1000
HEIGHT 1
VIEWPOINT 0 0 0 1 0 0 0
POINTS 1000
DATA ascii
-0.1880429 0.10328532 -0.26734507
0.08032674 -0.12815668 0.19182554
0.13682596 0.0014760897 0.19548571
-0.24761905 0.10415064 -0.30553913
-0.10840545 0.1529485 -0.22826374
-0.014713231 -0.004262118 0.18130879
0.11985149 0.085549995 0.1666209
0.0011636281 -0.031424526 0.19713505
0.19140303 -0.114510596 0.032923713
0.1500026 -0.20429492 0.03662848
-0.17449431 0.2635121 -0.3301078
-0.059308805 0.097041965 -0.4070063
-0.07414432 0.12791699 -0.17554192
-0.06347413 -0.04704625 0.20231949
0.21641001 -0.097660124 0.011489261
-0.006706656 0.16086668 -0.35318658
0.083261006 -0.21911116 0.04844541
-0.16299659 0.046777535 -0.3190408
-0.07022188 0.029635837 -0.05977863
0.055734567 -0.034429483 0.21724695
0.04722514 -0.24048357 0.0347757
-0.17811039 0.14606068 -0.2727244
0.06396833 -0.035538536 0.14836195
-0.2880093 0.16738524 -0.31763434
-0.21536556 0.26428536 -0.3315606
0.092660345 -0.22728683 0.06324755
0.011482109 -0.1475141 0.17662661
-0.0509187 -0.09920233 0.1547599
0.029592698 0.017626148 0.041901097
0.09889713 0.054374307 0.19035211
-0.15314777 0.08829187 -0.20214406
-0.22733884 0.18454361 -0.29102463
-0.079722635 0.12466804 -0.17185281
-0.107295774 0.11598499 -0.16597676
0.030325996 -0.18301617 0.16637158
0.16888927 -0.004232584 0.16168092
0.13517399 -0.21570417 -0.010871532
-0.0034163063 0.095492005 -0.16710609
0.14668451 -0.16623712 0.10739412
-0.022172704 0.084215045 -0.08596354
0.11582297 -0.15966289 0.21703042
-0.15396108 0.21172282 -0.2753488
-0.063164935 0.17238285 -0.32850114
-0.22750086 0.13130608 -0.29624358
0.06762592 0.035639986 0.20100512
-0.076783866 0.09350987 -0.37598675
-0.1715255 0.19954453 -0.23854461
0.14887655 0.0786287 0.14909266
-0.24096975 0.04466109 -0.3028325
-0.23036264 0.19494763 -0.23478535
-0.03434064 -0.19659428 0.1040985
0.14111336 -0.14993162 0.13060147
0.037171975 -0.10497919 0.23009254
-0.0916188 0.24287441 -0.30552
-0.20677231 0.21520542 -0.22723554
-0.13090682 0.2666215 -0.32359803
0.018170983 -0.22278172 0.047576163
-0.105843775 0.2034616 -0.29109094
-0.03167892 -0.042545196 0.029049125
-0.08603649 0.13437405 -0.19010247
0.1504045 -0.18234847 0.13615634
0.15747297 -0.021321252 0.18146563
-0.08121863 -0.0014434414 -0.18597612
-0.17926931 0.2384983 -0.22354104
0.009904732 -0.121523656 0.18754873
-0.13305546 0.23894383 -0.24382229
-0.16550608 0.15668182 -0.25391683
-0.22275102 0.27112338 -0.3259606
0.10263478 -0.060711794 0.22195238
-0.15101364 0.22867957 -0.2349178
0.16131358 -0.023192512 0.17757192
0.18082829 0.048715148 0.09645801
-0.03024952 -0.20417836 0.12215403
-0.11214442 0.054353993 -0.13237716
-0.18464215 0.26174816 -0.30513498
-0.023801135 -0.020808838 0.021359742
-0.08549418 0.22610247 -0.2815927
0.1851582 -0.18123223 0.025711523
-0.03341974 -0.031265706 0.20974667
-0.15693916 0.21267323 -0.23973997
0.09904524 -0.042613372 0.23285432
0.23359868 0.011730228 0.08188363
-0.0753028 -0.08917031 0.18298806
0.10152501 -0.17458583 0.16590475
-0.06800433 -0.01962087 -0.052456714
-0.064428315 0.10157144 -0.34399304
-0.15646173 0.1607744 -0.25649506
0.17767762 -0.16576615 0.12995854
0.14893448 -0.09069542 0.19280547
0.16262932 -0.15092762 0.20923373
-0.021663642 0.15710327 -0.36781928
-0.15741538 0.06696818 -0.21824373
0.032488346 -0.15601589 0.20398124
0.17240955 -0.053436577 0.17183112
0.037047487 -0.15184976 0.1900533
0.18449578 -0.06873029 0.16718744
0.13063681 -0.114020415 0.22613372
-0.19495583 0.21872298 -0.25433
-0.05020865 -0.17143653 0.14589739
-0.09522587 -0.0029257496 -0.114095435
0.22023618 -0.03649218 0.08647923
0.18944238 -0.046827592 0.182882
0.109719664 -0.12805527 0.23538966
-0.2078347 0.12959082 -0.2541059
0.17091013 -0.066646606 0.16584665
-0.05017376 0.10532429 -0.34967646
-0.053773183 0.032901898 -0.043996006
0.038615223 -0.23926553 0.06843694
0.097989865 0.061343104 0.17427687
0.13000159 -0.10913649 0.21775076
-0.023923306 -0.12764707 0.18428315
0.0636095 -0.025792992 0.21642111
-0.14318714 0.17774203 -0.26439667
0.0052519976 0.0004874713 0.2140932
-0.051750597 -0.1359028 0.12781781
0.026742749 -0.1940002 0.14303519
0.14616105 -0.053770643 0.16413446
-0.030197509 0.100908875 -0.11646073
-0.030421812 0.02679798 -0.0023621283
0.14452969 0.06439057 0.1578084
0.17237285 -0.15765555 0.1368017
0.040554553 -0.22735226 0.033448506
0.16849099 -0.17459239 0.13043413
-0.24983795 0.09404521 -0.3023647
-0.029384984 -0.1776985 0.14620246
0.18039829 -0.0464622 0.18785319
0.10108152 -0.0044627143 0.20023684
0.098363526 -0.120903276 0.20989214
0.05587862 -0.042770237 0.2023683
-0.25446138 0.08698252 -0.29996863
0.17817274 -0.022592975 0.1593117
0.040432923 -0.025977593 0.20899878
-0.045833316 0.17836978 -0.35339704
-0.12635282 0.24307647 -0.2535702
0.033028636 -0.23556791 0.03334822
-0.23786785 0.029138153 -0.28911024
0.07524997 -0.033137634 0.2182076
-0.045518037 0.11862623 -0.18504189
-0.24770118 0.04203407 -0.3099608
0.07863952 -0.240647 0.050252356
-0.050468154 0.07006832 -0.4069866
-0.0371105 0.12348147 -0.19053242
0.20625192 0.03459931 0.10310727
0.24881268 -0.029010512 0.04965025
0.0797711 -0.121889524 0.15348442
-0.11336544 0.05803057 -0.13892202
0.00399695 -0.16431826 0.16731445
-0.0025819126 -0.08494646 0.18180619
-0.13920774 0.050836917 -0.18274868
0.078775905 -0.17156704 0.16995423
0.15052557 -0.073204346 0.19037503
0.03055504 0.053555023 0.20979796
0.036439102 -0.011666601 0.21221003
-0.0051529896 -0.01982387 0.059649974
0.13074103 0.056355707 0.16380736
-0.052888162 -0.11114614 0.174855
0.047953475 -0.24514176 0.02068188
-0.2598995 0.13491732 -0.24570747
-0.04890224 -0.062640555 0.18675718
-0.025986424 -0.14255834 0.11086215
0.13195382 -0.06453789 0.20452105
-0.06180411 -0.060367767 0.1853633
-0.062346064 -0.015929831 0.19309866
-0.24333799 0.15608609 -0.22212483
-0.06630337 -0.100789234 0.15298979
-0.009344998 0.03676411 -0.002416857
-0.27869937 0.13925393 -0.36110887
-0.2791652 0.086702935 -0.3954497
0.11420461 -0.1552826 0.21727812
0.03640681 -0.14099918 0.20644346
-0.14609975 0.047060028 -0.20759757
0.15056933 0.01721327 0.18204974
0.18709171 -0.18555753 0.0085871415
0.07128854 -0.13890482 0.1810149
-0.18249524 0.099717215 -0.25497597
-0.11448826 0.25601467 -0.29809448
-0.1423757 0.20522884 -0.27878964
0.08299806 -0.13020183 0.1534777
-0.21717738 0.11482889 -0.2667529
0.19078746 -0.1543356 0.11783099
-0.23670493 0.12562123 -0.2407895
-0.102144 0.1117182 -0.1572064
0.063621245 0.017588222 0.20653327
0.1159005 0.018141702 0.17848478
-0.03940306 -0.0033188767 0.18721944
0.03835978 -0.062709466 0.22072963
0.102237366 0.046303727 0.18941851
0.14724824 -0.15661673 0.21455045
0.11448994 -0.022730103 0.22390942
0.042134717 -0.1402454 0.21443814
-0.11849976 0.17454539 -0.267628
-0.15230997 0.25628352 -0.2725091
-0.11030444 0.25002223 -0.3057206
-0.058332898 0.09061954 -0.10807065
-0.10770741 0.07399243 -0.12981549
0.15793642 -0.101754285 0.18221219
0.006863078 0.00019269853 0.21357016
0.22933444 -0.0037206183 0.084248886
-0.06400971 0.14793155 -0.23996454
0.13017981 0.005207667 0.19657251
0.11230408 0.01608049 0.17508526
-0.16506366 0.225078 -0.2312292
0.052091543 -0.011245039 0.19898342
-0.06985419 0.058041766 -0.36276898
-0.09673652 0.14832 -0.21683723
-0.1567095 0.04926816 -0.23658529
-0.14496997 0.08055382 -0.18660569
-0.041320898 -0.19774495 0.107891046
0.104166 -0.13267317 0.21354821
-0.05005283 0.12417641 -0.16169494
-0.1534313 0.2697464 -0.30184636
-0.15088734 0.014116478 -0.37510437
0.03051539 -0.025221959 0.21621002
-0.15603794 0.13888618 -0.24632306
-0.06022772 -0.10616578 0.17589594
0.085411735 0.05743634 0.1624216
0.07577801 -0.20803212 0.10963521
0.10756114 -0.20998095 0.11314111
-0.14395846 0.26876393 -0.34850162
0.2206806 -0.03233438 0.0835104
0.15999734 -0.009500945 0.16377044
-0.008564942 -0.1006442 0.14589235
0.1581633 -0.0520459 0.19685344
-0.024683729 0.11360305 -0.20414433
0.12051331 -0.11807382 0.22974151
-0.17370115 0.15268782 -0.2606969
-0.13007313 0.03968323 -0.22609055
0.006293421 -0.08469937 0.15085866
0.002640901 0.04116761 0.18707755
0.10877772 -0.06618644 0.21597598
0.21883468 -0.09401137 0.022911454
-0.037678167 -0.036115013 0.19148746
-0.089277335 0.12902701 -0.18216163
0.077161446 0.07244368 0.16316432
-0.05668733 0.13426305 -0.21475719
0.1496106 -0.034872293 0.20169912
0.16819799 -0.09201613 0.17165887
0.07325446 0.021115588 0.17510179
0.1986163 -0.1706727 0.116428554
-0.04606818 0.13407727 -0.34739926
-0.19730707 0.18605787 -0.23159793
-0.088821895 -0.12556079 0.16662031
0.11060183 0.10373606 0.1610139
-0.11358911 0.2549172 -0.27421647
0.068115406 -0.19576451 0.1243136
0.1831341 -0.10010801 0.15118971
-0.24602222 0.11609938 -0.24059026
0.056402963 0.0121345995 0.14416414
0.13123015 0.0022855562 0.2018
0.061727885 0.016713576 0.053539287
-0.03811217 -0.09773684 0.14576297
-0.04294463 0.18005368 -0.35530987
0.13662717 -0.17849958 0.14188947
-0.23560412 0.19855149 -0.24447061
-0.0026655984 -0.12643042 0.15772697
0.11403616 0.019382734 0.17528193
0.046904553 -0.033927478 0.21498348
-0.07806286 0.018265141 -0.06118343
0.10218745 -0.06934123 0.21789725
0.034891218 -0.2004876 0.13977484
0.20655364 -0.12374662 0.13556361
0.03961433 -0.09135422 0.24008939
0.07571928 -0.20208505 0.16405645
-0.10859597 0.07099751 -0.12608293
0.17975806 -0.07288575 0.1726601
0.073794656 0.0718434 0.19661176
0.16502468 -0.03191269 0.17126964
-0.010666761 -0.08065818 0.047496095
-0.07638733 0.06850866 -0.38336068
0.17281069 -0.011766623 0.17028
-0.109573506 0.23670651 -0.28330994
0.15525782 -0.14953764 0.2138298
0.022080464 -0.11008059 0.16847612
0.0062304046 -0.009068231 0.16019133
-0.20766093 0.07135431 -0.30492303
0.12995443 -0.10896726 0.21745238
-0.22382595 0.24461167 -0.3159481
0.098284386 -0.102200255 0.20362215
0.09441238 -0.12254129 0.19625422
-0.08585122 0.22581515 -0.3406015
-0.023365473 0.15169942 -0.36784437
-0.20323078 0.14436145 -0.30246922
0.09966342 0.09103537 0.1546904
0.10303587 0.022994855 0.1652794
0.14338154 -0.026873168 0.21720128
-0.03504191 0.110103205 -0.13339151
-0.18299976 0.031420704 -0.37303963
0.16820829 0.07750967 0.11181987
0.1894339 -0.17383936 0.032790344
0.08140559 -0.183072 0.15598519
-0.21552719 0.16156165 -0.26865277
-0.03798639 -0.010570867 0.18286243
0.18983674 -0.116387926 0.14650391
0.031553295 -0.15486117 0.19146547
0.15228072 0.038638555 0.14750725
0.032430742 -0.1503158 0.20821972
-0.25665462 0.16115065 -0.23162918
0.19771379 -0.103210986 0.15045913
-0.18366298 0.17853956 -0.24256276
0.16163245 -0.04945364 0.1958404
-0.25168917 0.039493214 -0.31356928
-0.25967202 0.040963717 -0.3242944
0.056972906 -0.19031021 0.1795458
-0.060356762 -0.092121795 0.18707222
0.18824679 -0.05094336 0.181468
-0.12253941 0.26010638 -0.35244265
0.08961456 0.03159329 0.13625154
-0.12122845 0.24223806 -0.24562171
-0.067696474 -0.12329649 0.14521173
0.19574726 -0.1487861 0.12148461
0.18814881 -0.11367144 0.011817585
-0.013757441 -0.1377208 0.1847258
-0.07615209 0.06965817 -0.4083407
-0.056955058 -0.19671357 0.10124463
0.003730507 -0.22902605 0.043986894
-0.050399646 0.24950026 -0.30365565
-0.051245272 0.11808291 -0.35630065
-0.01796563 0.027960671 0.009622087
0.006270157 0.062832735 -0.041186415
0.1476684 -0.19083966 0.0718705
0.18765645 -0.043489117 0.18548799
0.13928445 -0.20615935 0.07708927
0.19521704 -0.12327741 0.14180107
0.10359319 0.028462106 0.1649859
0.011062077 0.04789197 -0.014643266
-0.23553881 0.096740976 -0.31675643
-0.15323691 0.21733479 -0.29465255
0.12174906 -0.01050181 0.18449332
-0.14338005 0.10197012 -0.19371393
0.07649348 0.06010879 0.15738367
-0.27574107 0.08900716 -0.31956777
0.17573337 -0.12545341 0.20416752
0.030940792 0.014495948 0.21209477
0.10549512 -0.19697966 0.1526641
0.087665275 -0.09590974 0.2069543
0.19841675 0.023927044 0.1185262
0.007061574 0.0080197 0.05091026
-0.016493898 0.053865544 -0.033321787
-0.1269787 0.07973198 -0.17064168
0.07983976 0.066176355 0.15862852
0.028722387 -0.030375933 0.22265258
-0.036663644 -0.1742431 0.13812225
0.072136 -0.1313963 0.20277345
0.13490982 -0.16985896 0.150574
-0.1388889 0.10919016 -0.1986032
0.18723898 0.060863942 0.09910521
0.19663377 -0.032047737 0.14361182
-0.07434299 -0.15988685 0.1362859
-0.05644374 -0.10224653 0.18611822
0.06022722 -0.0237365 0.22018541
-0.04088467 -0.18156096 0.09935491
0.11764942 -0.11970229 0.23156905
0.18445517 -0.17707288 0.03253427
0.1013804 -0.09508933 0.20551884
0.19000223 -0.18415532 0.0077429195
-0.10423742 0.16777647 -0.25179878
0.08362253 0.06392219 0.15550444
0.19562526 -0.026615141 0.100117914
0.04646047 -0.024021737 0.21921435
-0.00034722604 -0.07650467 0.1405832
-0.045845002 -0.05551772 0.20241831
0.24365067 -0.07570743 0.01049578
-0.25909323 0.16915394 -0.27873713
0.10496003 -0.010044213 0.18217248
-0.05217176 -0.10337044 0.18631518
-0.27227676 0.12198729 -0.35461387
0.0775175 -0.0405178 0.2398804
0.1664301 -0.13735247 0.21397239
-0.11394618 0.083516456 -0.14773643
0.07619521 -0.11647461 0.20672347
-0.17471926 0.2718404 -0.31205273
0.02719476 -0.14329885 0.18258159
0.0034498244 -0.018339893 0.18373016
0.06229892 -0.11176471 0.20574196
0.1756844 -0.034717873 0.18878119
-0.26815686 0.07948598 -0.36013165
0.075428866 -0.15683435 0.17828746
0.17704657 -0.17103577 0.11701784
-0.24184176 0.23620942 -0.31934837
-0.25162032 0.15966363 -0.2810002
0.14578864 -0.21192448 0.12389081
0.2134339 -0.09786578 0.14479175
0.18256879 -0.050589062 0.18465172
0.059485897 -0.073146574 0.21731208
0.105868556 0.07385697 0.17348792
0.19973327 -0.052549373 0.17458642
-0.033641636 -0.057941202 0.0054348903
-0.053283878 0.09713246 -0.11739547
0.10504786 -0.06436673 0.2188562
-0.05422141 0.11639232 -0.35440415
0.069764026 0.016484007 0.056452163
0.06081525 -0.0076598045 0.21452902
0.17518029 -0.0019606433 0.12052069
0.18707877 0.06103526 0.12092565
0.13313155 -0.009975303 0.15479584
-0.15946701 0.0061414773 -0.35220265
0.18694341 -0.15245575 0.12083753
0.16507727 -0.15220138 0.14160137
-0.2037733 0.18790354 -0.22725455
-0.23856086 0.1856052 -0.22170928
-0.06997252 -0.01878119 0.19496328
-0.06189606 -0.028535891 0.1865907
-0.13371524 0.03797856 -0.23888545
-0.02911179 -0.07440736 0.1847691
0.17612751 -0.15679233 0.13524306
0.063665204 0.029414086 0.20323472
0.16381168 -0.016075213 0.14059605
-0.050990216 0.065089166 -0.37639877
-0.0802749 -0.12049042 0.15059027
-0.14707632 0.21177582 -0.2507365
0.13667715 0.06240214 0.16503158
0.23994136 0.014464323 0.055563528
0.22893171 -0.0729753 0.063729525
-0.13937959 0.038209233 -0.33581054
0.10367823 -0.13962749 0.20406722
0.13294649 0.081016526 0.13856162
-0.257983 0.1874922 -0.3052906
-0.065569304 -0.029513372 -0.056643985
-0.10277856 0.014282721 -0.36709538
0.19415899 -0.15269351 0.054635625
-0.14323483 0.0064638434 -0.36119407
0.11622383 -0.124185145 0.23863281
-0.01745116 -0.096976124 0.1813278
-0.038546134 0.06891002 -0.06546866
-0.059091616 -0.032678228 0.18304507
0.09252287 0.018293027 0.18136744
-0.05321189 0.121356115 -0.15796264
-0.1680577 0.24311702 -0.27691275
-0.16727543 0.20089006 -0.29304296
-0.08627331 -0.1381071 0.14500605
0.045298047 -0.07884599 0.15833493
0.18249616 -0.16467567 -0.01055532
0.12995128 -0.15573356 0.17570788
0.048221875 0.051704485 0.17646144
-0.14639305 0.071699634 -0.18001446
0.11473191 -0.106773406 0.20898758
-0.13759798 0.18632492 -0.26308793
0.17232575 -0.16405557 0.1336439
0.14162935 -0.013033178 0.18861534
-0.1207544 0.13390301 -0.20023511
0.13272712 -0.0682111 0.20228478
-0.25967935 0.070616595 -0.28755963
-0.09924661 0.014340006 -0.221339
0.031327534 -0.02506428 0.20234466
0.10147555 -0.18098126 0.16274995
-0.22394471 0.07755056 -0.30863783
-0.08235211 -0.07771808 0.17278102
0.15789421 -0.18954188 0.12057612
-0.2200624 0.0126320515 -0.30579934
0.030619616 0.005182162 0.15436119
-0.26992017 0.12788083 -0.30948412
-0.20437166 0.1508898 -0.24534684
-0.15094405 0.21868065 -0.2542601
0.010268083 -0.12487692 0.11627499
-0.25116917 0.19814974 -0.24669611
0.17188299 0.012395732 0.12950133
-0.15773982 0.15668565 -0.25004536
-0.24378207 0.1880588 -0.29468486
-0.10757569 0.03965677 -0.10631284
0.062432747 -0.0036401767 0.21378718
0.032780785 -0.10356598 0.23150657
0.14429152 -0.13641311 0.22616458
0.01198258 0.053714793 -0.024110796
0.20263912 -0.050779156 0.17392723
-0.20646584 0.10035585 -0.27320588
0.015152713 0.04177106 0.20133981
-0.23565659 0.013409333 -0.34065184
-0.082280144 0.10058598 -0.13230407
0.07611679 -0.110858746 0.21105589
-0.11380867 0.27356485 -0.29578078
-0.26571548 0.12298311 -0.24502614
0.054933757 -0.20559038 0.15583597
-0.028609116 -0.12894875 0.17229126
-0.053259164 -0.10498819 0.16718015
-0.17300266 0.2541322 -0.27355027
0.14136395 0.057861164 0.12190878
-0.0020375105 0.014408969 0.17624635
-0.2242388 0.10957555 -0.26017204
0.04238053 0.069792815 0.1802667
-0.07061572 0.09487731 -0.11906866
0.05232437 -0.14423212 0.17721157
-0.15191068 0.084492765 -0.19538909
-0.10265785 0.06482865 -0.3420198
-0.035068728 -0.030236851 0.206033
0.025451794 0.030892385 0.21495692
0.21433437 -0.099293895 0.14360444
0.029623505 -0.060669042 0.19034664
-0.2674082 0.11987408 -0.25364938
-0.11086594 0.024103837 -0.3598321
-0.060473233 -0.1673741 0.14635666
0.2124351 0.039590325 0.09668929
-0.12788792 0.15079264 -0.23078029
-0.24013408 0.05960718 -0.31106737
0.016053839 -0.058608405 0.21000524
-0.20313159 0.2225784 -0.2477045
0.043812115 -0.17950411 0.19402483
-0.2657114 0.1629339 -0.25649223
0.20729525 -0.08306253 0.1513577
0.2075352 -0.14950381 0.03560284
-0.010375277 -0.16518635 0.16528943
-0.11467362 0.018311642 -0.14737983
0.2077923 -0.15153246 0.031738248
-0.2517163 0.17849937 -0.28208876
-0.06847473 -0.09308468 0.18993394
-0.25295988 0.052707072 -0.32229793
0.030932112 0.049467016 0.20619811
-0.06831841 -0.015210292 -0.048296962
-0.2250435 0.054003414 -0.28258488
0.14594685 -0.1895655 0.13492739
0.08822239 -0.030691527 0.22320798
0.15725726 0.020264784 0.15072332
0.16349898 -0.13225108 0.1541364
0.21516979 -0.062814645 0.10565923
0.092549466 -0.18369481 0.16612767
-0.12708995 0.051459853 -0.146007
0.020572767 -0.07347764 0.20626637
-0.22346756 0.11818185 -0.30564183
0.14293824 -0.195421 0.1336092
-0.0987323 0.15402281 -0.22702104
-0.051655702 -0.00387006 0.1886552
0.18252881 0.04162629 0.09203198
-0.1342338 0.28337455 -0.36033583
-0.11978279 0.017367393 -0.16365786
-0.061242543 0.057160355 -0.37780267
0.031012015 0.006333819 0.20799784
0.16867916 -0.11338436 0.21139798
-0.2031678 0.15038587 -0.30484712
-0.03920404 -0.13808428 0.1520505
0.10753854 -0.034190495 0.22207703
0.1267923 -0.07172083 0.2036824
-0.11342163 0.20884514 -0.2646921
0.13350639 0.050185487 0.16325587
0.1652209 -0.13900618 0.09659445
0.035926756 -0.050106943 0.22127362
-0.04545882 -0.17416842 0.14433943
0.14142242 -0.20843568 0.006341608
0.021071296 -0.22059755 0.097664766
-0.033413265 0.037426747 -0.011098761
0.20015046 -0.10771616 0.13675371
-0.16714334 0.15363693 -0.26229975
0.0769017 -0.21032275 0.14270264
-0.07972189 0.20182209 -0.2924736
0.03219558 -0.00879797 0.20028132
0.11111613 -0.14113145 0.22443984
0.10532546 -0.15774895 0.17226532
0.1099581 -0.09009239 0.1974138
-0.19204858 0.24536419 -0.23906583
-0.041391622 0.0731193 -0.073416896
0.13752326 -0.06612281 0.20078325
-0.10545334 0.10518394 -0.14729883
-0.25305858 0.19522507 -0.24238929
-0.06514731 -0.054435372 0.20099314
-0.060588945 0.062031854 -0.060877405
-0.04714707 -0.032774076 -0.0056462567
0.034764294 -0.22956866 0.06737521
0.19743049 -0.040281605 0.1286362
-0.16530763 0.2694502 -0.33303922
-0.13435017 0.2453546 -0.30164745
0.059342705 -0.08198302 0.1964605
-0.0074883252 -0.06567913 0.18947193
-0.0025007694 0.018531548 0.030287078
-0.167297 0.027968058 -0.35027173
0.053314175 -0.05469562 0.22377019
-0.26366037 0.121515475 -0.24061309
-0.030486112 -0.016802179 0.01254357
0.033232495 -0.1965851 0.05262852
-0.039543167 0.22469275 -0.32681897
0.17536587 -0.104574844 0.15623063
0.18917455 -0.16952151 0.036768552
-0.20781197 0.15821822 -0.2398799
-0.26367837 0.12902951 -0.28453413
0.15505485 -0.10532463 0.15109749
0.040213875 -0.10734051 0.22554359
-0.13123065 0.050899204 -0.33381513
0.015851887 0.0026788083 0.062623926
-0.081072494 -0.14613654 0.13825794
0.012626398 -0.0044396897 0.21177083
0.21648732 -0.09314837 0.06028682
-0.1007535 0.18142647 -0.30764887
-0.09563777 0.021233022 -0.08742056
-0.045361154 0.14361253 -0.3631549
0.08186211 -0.04191704 0.23848115
-0.19750251 0.05612426 -0.29611677
-0.17368874 0.24850987 -0.27263436
0.009367208 0.07290909 -0.057095792
-0.22191326 0.21395682 -0.26397935
0.023749512 0.021340307 0.16603614
-0.24000095 0.030439038 -0.29270002
0.16594236 0.012733416 0.12706622
0.19507506 -0.008867873 0.13835406
0.20658089 -0.13264504 -0.0073807295
-0.1545796 0.20318352 -0.2829643
0.043466803 -0.1868289 0.17991033
-0.03501017 -0.06128739 -0.0024970153
-0.20545389 0.051818963 -0.30386513
-0.17974743 0.17466246 -0.24656497
-0.049678333 0.21364103 -0.3047475
0.014716003 0.05041158 -0.017716322
-0.09033024 -0.119045146 0.1583542
-0.033385415 -0.04145179 0.025239117
0.078691214 -0.10084802 0.20674689
-0.24939743 0.16202988 -0.23509511
-0.00046668248 -0.076413974 0.20374987
0.18956529 -0.069456525 0.15677276
0.033667836 -0.15636155 0.20708771
0.22064643 -0.031495903 0.10049317
0.01788643 -0.2143792 0.086242445
0.21129273 -0.14274514 0.03837112
-0.20642963 0.15969218 -0.23987904
0.16746624 -0.08954912 0.17327346
0.00068023405 0.08067926 -0.14099638
0.12484663 -0.024661994 0.22691588
-0.1371596 0.13430066 -0.20606197
-0.02469039 0.19448103 -0.3503973
-0.06549438 -0.10361885 0.18523096
0.12361847 -0.19161731 0.14568482
-0.0756095 -0.10634471 0.15515524
0.0038109175 -0.24168612 0.059425287
-0.081746615 0.088473186 -0.11183919
-0.030726472 -0.23040152 0.08387593
0.23812154 -0.07719574 0.03545475
-0.059453912 0.24743089 -0.30303672
0.095480435 0.04049434 0.1946766
0.15165035 -0.13778791 0.2215835
-0.023438878 -0.14844857 0.16720681
-0.030247992 -6.4754618e-06 0.018548481
0.24365789 -0.07885162 0.0086096395
0.24508825 -0.07575924 0.03247951
0.13175721 -0.20776567 0.11819194
-0.0514502 0.09700064 -0.39874607
-0.025409155 -0.172809 0.13925953
0.08777736 -0.16918215 0.1758732
-0.041617777 0.1014125 -0.35615328
0.18016705 0.014205888 0.1542246
0.17873861 0.04344314 0.09494326
-0.26018882 0.11946281 -0.23266344
-0.092282854 -0.12635592 0.1554143
0.066553585 -0.048712086 0.23185115
0.08528432 -0.117612116 0.20284238
0.18679975 0.052225232 0.095041715
0.019848244 -0.21166705 0.08698097
-0.0041586966 -0.14499818 0.17153111
0.02356798 -0.16102354 0.11395193
0.1077218 0.072633326 0.17666517
0.24736743 -0.0339378 0.04984825
0.00032162332 -0.08003998 0.20158781
-0.16666973 0.28651837 -0.3378946
0.05981467 -0.16585857 0.18849644
-0.27132666 0.11596176 -0.32742953
0.07888744 -0.080262855 0.19893229
0.20628563 -0.1560366 0.11964581
-0.09041986 0.046055347 -0.35783845
-0.02360257 0.10986401 -0.1975389
0.23281336 -0.022000194 0.060205843
0.05385841 0.08274395 0.17893396
-0.21129656 0.116203 -0.31818998
-0.2840119 0.124042675 -0.3558066
0.14753634 -0.169968 0.10517006
-0.051624544 0.128312 -0.20319271
0.19257082 -0.065440096 0.16421402
0.09525694 -0.056692135 0.22116195
-0.034032337 0.103004865 -0.12117917
-0.026907178 0.2094663 -0.3102039
0.098305225 -0.02100625 0.2125239
0.12459143 -0.077139825 0.20215294
0.035703108 0.032885004 0.21154897
0.14381641 -0.046157252 0.20086718
0.07878311 -0.20049436 0.16506326
0.012692482 0.062392104 -0.03842734
0.141157 0.06253573 0.16540293
-0.033530336 0.07536604 -0.074708
0.034628145 0.03813923 0.009112493
0.012553701 -0.14984843 0.19336706
-0.115630314 0.17618494 -0.2694731
0.09547573 0.06678443 0.17499252
-0.05965688 -0.056758475 0.19079515
-0.25527376 0.20307302 -0.29434124
-0.16671538 0.22220254 -0.23946008
0.11330335 -0.06973529 0.2118139
0.15465601 -0.20869088 0.021984683
0.117290996 0.07625116 0.17574947
0.053810835 0.05502154 0.18167146
-0.047767304 0.111083716 -0.3480864
-0.048310235 0.14196877 -0.3613283
-0.024650658 0.21501547 -0.30863923
-0.009576541 -0.1988068 0.11965691
-0.010842931 -0.0675494 0.20828418
-0.068415776 -0.11029575 0.14938016
0.050637964 -0.079065025 0.2403632
0.05029101 0.084620565 0.17466715
0.09932078 -0.12963663 0.2026518
0.21533522 -0.04702745 0.12692206
-0.12771556 0.033424925 -0.16869503
-0.0075266897 0.06414168 -0.047720008
0.15825436 -0.073261335 0.18360345
-0.09140481 0.10615498 -0.14450608
0.18853442 0.0638038 0.120130405
0.103274636 0.05344613 0.18787573
-0.19102764 0.2688568 -0.33605418
0.16824731 -0.024117427 0.17110902
0.116587326 -0.21472871 0.040478434
-0.24430236 0.23469377 -0.3166179
-0.18684764 0.2756782 -0.33921406
0.19229084 -0.10779014 0.14382453
-0.05928188 -0.19229782 0.1037586
-0.19066626 0.2481986 -0.27878842
-0.028498242 0.0083421515 0.18724357
-0.12989496 0.23077145 -0.30898723
-0.03888679 -0.0338575 0.017656356
0.14021629 -0.10303592 0.21074152
0.16191755 -0.14397407 0.14170966
-0.1429485 0.111360736 -0.20351729
-0.012562203 -0.042669035 0.20670418
0.1376786 -0.104531914 0.21244983
-0.06278814 -0.14497255 0.12915301
0.017826257 -0.10576998 0.2184231
0.10961982 -0.04588079 0.21476266
-0.1704085 0.14999442 -0.2637799
-0.03397052 0.1926678 -0.31481764
0.10093777 -0.004030706 0.19423823
-0.09183001 -0.13718073 0.1442588
-0.07289767 0.046613257 -0.07298685
0.17031808 0.019070497 0.11782463
-0.13145413 0.22138974 -0.31282797
0.12007872 -0.16696793 0.15986674
-0.09280113 0.0056400513 -0.38507092
0.13975205 -0.18039317 0.14276987
-0.2318772 0.034525245 -0.28865367
-0.19539757 0.24543647 -0.35550427
0.105932444 -0.19167946 0.15065478
0.1442919 -0.16988367 0.20673078
-0.035952322 0.022011863 -0.020141715
0.015864152 -0.06711726 0.18762714
0.04383043 0.029292664 0.17734839
-0.03814333 0.1945576 -0.31166777
-0.041731015 0.0030491673 -0.005791212
0.20520572 -0.066647924 0.1466553
0.045858365 0.047973424 -0.08495822
-0.16555063 0.1206144 -0.23808828
0.011966668 0.028423026 0.018263618
0.101260684 -0.21592107 0.14548633
-0.055613656 -0.19148222 0.10222137
-0.05405158 -0.02841756 -0.021140061
-0.043261617 -0.013531012 0.19344658
-0.17969069 0.14049123 -0.26388884
-0.10230944 0.001747722 -0.12975527
-0.041864116 0.23923585 -0.28747594
0.054665923 -0.14605595 0.1942571
-0.16126543 0.07908457 -0.21569529
-0.018478233 0.17587297 -0.34060788
-0.14936645 0.04460572 -0.2201423
0.08771861 0.039807815 0.18620355
-0.13145329 0.04267541 -0.16912289
-0.030488413 0.216131 -0.30962422
0.19130838 -0.16592398 0.122660905
-0.20418593 0.25184086 -0.3166163
-0.2638041 0.22009735 -0.32187983
0.17199942 0.07570085 0.10886768
0.018075626 -0.16361974 0.15639043
0.034421295 -0.13605002 0.22061034
0.15070586 -0.085978866 0.18545939
-0.016372984 -0.052216344 0.063379094
-0.25572047 0.086980656 -0.2524186
0.19225274 0.012850347 0.13514675
0.22566582 -0.014434634 0.055083964
0.18076621 -0.043193836 0.1892843
-0.17556418 0.20213251 -0.23511842
-0.13003555 0.036924466 -0.22916454
0.21095778 -0.048472248 0.17066875
-0.19129755 0.1389524 -0.2934451
-0.021811275 -0.09806251 0.13078128
-0.050126594 0.0043183677 -0.029025508
0.14103584 0.0059564183 0.13058712
0.0525743 -0.0060539963 0.15017444
-0.0037478092 -0.06544517 0.14324641
-0.099188484 0.016905144 -0.102973066
-0.16301008 0.21514557 -0.29421112
0.1484265 -0.024853028 0.18453813
0.17466497 -0.13488314 0.1324861
0.23891076 -0.073755406 0.058056425
-0.078367084 -0.1313602 0.16946554
0.16064572 0.08110654 0.11777135
0.036632866 -0.121106036 0.21436355
-0.23751165 0.13817354 -0.24412073
-0.0046770424 0.071946956 -0.059902683
-0.10088988 0.014984411 -0.16786402
-0.24609819 0.09879577 -0.24915628
0.14593692 -0.16771428 0.20972583
0.05654198 -0.15116684 0.1969221
-0.24171412 0.105969444 -0.25962776
0.23181169 0.014510187 0.07666349
-0.042370934 -0.1736148 0.13715526
0.12105545 0.023533765 0.19017093
0.2322903 -0.064238206 0.038401116
0.11531623 -0.03023828 0.20908377
-0.007378203 -0.118764095 0.11284126
0.028542958 -0.17821278 0.16528727
-0.0451844 0.11719013 -0.3640965
0.112930685 -0.09668254 0.1935103
-0.19010366 0.108861454 -0.26703224
-0.26890978 0.14302114 -0.2621208
0.082891464 -0.20198575 0.11354381
0.19918141 -0.09981749 0.15136944
-0.0703572 0.240262 -0.3784167
0.15871319 0.03463584 0.15623848
-0.0501244 0.08085014 -0.089118116
-0.12049776 0.17789361 -0.2738668
-0.064123735 -0.17003034 0.14292318
0.113855086 0.023826199 0.17227475
0.10123896 -0.21911009 0.14391178
0.069896646 -0.19811535 0.160299
0.15549561 -0.0034956015 0.18504745
-0.04553629 -0.006874611 0.18869922
0.19154492 -0.14960578 0.05043069
-0.062314663 0.12148875 -0.16104913
0.23077948 -0.096697584 0.05824362
-0.13066931 0.20390345 -0.26867238
-0.18082222 0.10287351 -0.24635702
0.17829482 -0.17467017 0.11454884
-0.23981449 0.21644314 -0.29056153
0.14445405 -0.20451012 0.059315845
-0.06734171 0.23695229 -0.33033282
-0.029240271 -0.15309139 0.17127231
-0.07935699 0.039663896 -0.0753524
0.13694718 -0.015344609 0.19906734
-0.0033775277 -0.17564346 0.13933384
0.16562507 -0.19904257 0.115007594
0.17296118 -0.16015486 0.13524693
0.18852456 -0.17913392 0.025753535
-0.12266245 0.036059767 -0.15063022
0.027321085 0.033161826 0.015154297
0.15170538 -0.0057771513 0.187678
0.17104429 0.07528102 0.11466561
-0.016805835 -0.11398431 0.14561744
0.062868476 0.064410806 0.19870177
-0.023948552 -0.07653375 0.012777041
-0.15891837 0.05308138 -0.35397804
-0.10607575 0.052804608 -0.37006313
-0.072868265 0.10227858 -0.13217987
-0.21576084 0.19774212 -0.23487408
5.1611525e-05 -0.124667145 0.20137855
-0.07003404 0.040790558 -0.3920303
0.17839915 -0.18550089 0.02554442
0.16799071 -0.18439734 0.12582256
-0.18222247 0.21558136 -0.27851462
0.052915104 0.050572466 0.18327984
-0.00029425972 0.008110944 0.21576083
0.03692284 -0.2055186 0.04623099
-0.075732104 0.122540094 -0.16703156
-0.2631298 0.14423963 -0.2623443
-0.026730014 -0.032411866 0.16603804
-0.08230068 0.25249335 -0.29923803
0.091054745 0.0012556396 0.16965604
-0.032613773 -0.2206739 0.08090372
-0.20879179 0.14180519 -0.261792
0.17239897 -0.13611841 0.008995914
0.18066818 -0.0560988 0.18291794
0.07744287 -0.11348823 0.20904568
-0.14735518 0.24741288 -0.30617383
-0.14427757 0.26288825 -0.35623437
-0.0023177534 0.13456531 -0.36852795
-0.0032881186 -0.066067986 0.20150863
-0.13867886 0.042055253 -0.19131812
-0.0039017086 -0.22599156 0.053430215
0.22171153 -0.072994195 0.12081441
0.19055928 -0.04172427 0.18482837
-0.005999657 0.12619086 -0.3626943
0.21519399 -0.111006476 0.12812416
-0.008509786 0.031556837 0.006570938
0.2400507 -0.08392758 0.040008087
-0.09363897 0.071107164 -0.36957103
0.068591945 -0.15338138 0.17035101
-0.1530184 0.27245796 -0.30626082
0.09241653 -0.100461796 0.20759468
-0.053268816 -0.1418635 0.15915084
-0.09600094 0.25496122 -0.33711195
-0.28001112 0.08253073 -0.39796683
0.20836912 -0.07278618 0.07489251
-0.12860289 0.04826262 -0.15419774
-0.12996066 0.031402484 -0.23531938
-0.2659229 0.21905337 -0.32043782
-0.059760254 0.22603884 -0.32039937
-0.021463983 -0.13179293 0.1701692
-0.22150928 0.27532926 -0.33261758
-0.014821206 -0.08922138 0.19815685
0.117836975 0.068807416 0.14117743
-0.06684733 0.037394766 -0.055636585
-0.07917091 -0.0041738674 -0.0678106
0.14312792 -0.039996844 0.20593557
-0.06087921 -0.015821243 0.19237609
-0.051787898 -0.05932965 0.16727181
-0.06108736 0.1034582 -0.34482434
-0.23168331 0.07861323 -0.2690947
-0.08300119 0.0023945658 -0.07161175
0.17474122 -0.15113468 0.13183175
0.1669828 -0.16381562 0.13659309
0.22865868 -0.11494233 -0.010269686
0.06481072 -0.048902526 0.23260558
0.03748062 -0.04564511 0.20606035
0.20377995 -0.13246149 0.12204423
-0.2679105 0.17262231 -0.25184116
-0.23959245 0.034110434 -0.34490466
0.03013036 -0.003531622 0.2002243
0.00015572543 -0.036469717 0.188313
0.13595486 -0.09456754 0.1952107
-0.14341941 0.048091453 -0.32875592
-0.054281037 0.23313215 -0.2959195
-0.025721945 -0.05853741 0.15251088
-0.050962005 0.119941704 -0.15488534
-0.018976917 0.08557332 -0.08723457
0.06664171 0.06264852 0.19582672
-0.10753462 0.17479849 -0.26460233
-0.241637 0.16249804 -0.24717955
-0.0061898185 -0.07362275 0.18415871
0.11231348 -0.21976978 0.1377182
-0.2564846 0.15692982 -0.23599914
-0.11752649 0.031959735 -0.40757263
0.059793953 -0.17401458 0.18828999
0.18160443 -0.16081327 -0.008161819
0.09718251 -0.20472905 0.014708589
0.06555665 0.0867055 0.17597638
0.06554777 -0.05324518 0.19203705
0.07701208 -0.040736172 0.2390041
0.15676007 -0.102628976 0.21526426
-0.03472126 0.11562279 -0.14302294
-0.09158622 -0.012023748 -0.11378298
-0.092075184 0.121968105 -0.17121448
-0.06429273 -0.08730569 0.15863033
-0.23222943 0.028849395 -0.34497887
-0.017353967 -0.016705887 0.043858092
0.18339278 0.06649498 0.10394243
0.011124827 -0.04587435 0.18526076
-0.20399064 0.09273776 -0.29373488
-0.109354556 0.2334932 -0.31273335
-0.035937693 0.115508 -0.14272992
0.035508126 -0.056072515 0.1555329
-0.2183499 0.05421046 -0.3221518
0.0931762 -0.031935483 0.21551043
-0.045442037 -0.07311614 0.18329212
-0.12634714 0.11838496 -0.18174067
-0.019875802 -0.051186513 0.20979135
-0.13535932 0.01760116 -0.34818962
-0.059131797 0.09194613 -0.4147396
0.05309742 0.034878552 0.19075324
0.16951613 -0.039524164 0.19706774
0.053825725 -0.029223856 0.2208467
-0.13816926 0.062751 -0.16590199
0.2339133 -0.036589228 0.07918719
0.010023386 -0.18001302 0.1284048
-0.147255 0.2064614 -0.26866928
-0.040254746 0.11557817 -0.36574915
0.053330515 -0.07953704 0.22184768
-0.06641102 0.023022162 -0.056089938
-0.007631019 0.067290835 -0.05302968
0.11712267 -0.052812696 0.2182079
-0.055236105 -0.060189757 0.16910684
-0.061160557 0.14845926 -0.239952
0.0065250504 -0.031931218 0.2124879
0.043652415 -0.09279258 0.2372352
-0.113452 0.22676091 -0.3096519
0.010153229 -0.10504173 0.19645582
0.12083883 0.06800638 0.1491751
-0.018388506 -0.09229172 0.13183866
-0.11711852 0.18071677 -0.276724
0.1062698 -0.20046811 0.15051875
-0.06062786 -0.0076425504 -0.016696328
0.036043875 0.04200938 0.0030721645
0.00785819 -0.17451754 0.13031347
-0.022854095 -0.08669736 0.20021148
0.14978386 -0.17585854 0.13971215
0.16244473 -0.10635296 0.19283183
0.012377918 -0.16734321 0.11775649
-0.05129923 -0.009881553 0.19025673
0.15249294 -0.041152187 0.18603972
0.10087098 -0.14155075 0.19350168
0.12685697 -0.22088669 0.044226434
-0.0069428966 0.04752526 0.18474732
0.10046653 0.007185823 0.18391155
-0.08304401 0.11395416 -0.15494554
0.028989209 0.06324639 -0.10790988
0.0713859 -0.051436573 0.20992242
0.010872372 -0.0035437057 0.071484774
-0.07948052 0.23807603 -0.3427099
0.031344697 0.03379698 0.16820912
-0.068189435 0.21458557 -0.36560285
0.039434347 -0.19736156 0.17680782
-0.10390337 0.09126066 -0.14634924
0.099779375 -0.13398927 0.19898845
0.1031109 -0.09353453 0.19799581
0.07403531 0.07484318 0.19797626
0.08327813 -0.14404927 0.19075558
-0.19030635 0.11317684 -0.26265135
0.10976239 -0.08216275 0.20216772
-0.106540956 0.0384246 -0.103921555
0.06778618 -0.14835027 0.19573915
0.10570385 -0.006372452 0.15688151
0.087302275 -0.12884852 0.1929587
-0.041979324 -0.021836417 0.19519168
0.054340865 0.02467322 0.18953511
0.0119787175 -0.15589637 0.15675505
