# .PCD v0.7 - Point Cloud Data file format
VERSION 0.7
FIELDS x y z
SIZE 4 4 4
TYPE F F F
COUNT 1 1 1
WIDTH 1000
HEIGHT 1
VIEWPOINT 0 0 0 1 0 0 0
POINTS 1000
DATA ascii
-0.28552702 0.08240767 0.105451174
-0.14311387 0.037859753 0.08587805
-0.13371779 0.027782893 0.16981702
-0.12400034 0.027711814 0.07206032
0.20626318 -0.20252882 -0.22656561
0.19184344 -0.18607564 -0.06701639
0.08256424 -0.1548823 -0.22878869
-0.11887892 0.14851256 0.16239539
-0.16154228 0.09483395 0.20207947
-0.02379804 -0.016472911 0.0095587075
0.15291655 -0.043249827 -0.09585004
0.1100768 0.013456814 -0.09611011
0.15260261 -0.037581418 -0.10155893
0.18894206 0.03695009 -0.23774372
0.13900511 -0.22121729 -0.10761598
0.1321763 -0.076765075 -0.09737725
0.16420889 -0.19227786 -0.097371496
0.0777127 -0.0055351076 -0.041519564
0.284293 -0.06890465 -0.06610542
0.07436953 -0.08312319 -0.077420495
-0.24464211 0.23168416 0.055066545
-0.16017632 0.16960785 0.18890524
0.14058597 -0.024742968 -0.09829887
0.18915068 -0.036488708 -0.15508568
0.20451386 -0.12496333 -0.09674381
0.1631608 -0.11526801 -0.12508109
0.25626558 -0.18333156 -0.16476303
-0.02714292 0.06492868 0.044478696
0.19536199 -0.15913638 -0.08273819
-0.3177348 0.0631995 0.105284594
-0.15527387 0.09189443 0.18680911
0.054314442 -0.22622856 -0.22575293
0.14927816 -0.24670753 -0.15376037
-0.09035769 0.19620931 0.10568421
0.16005933 -0.1928104 -0.10222798
0.21555221 -0.12193321 -0.08503293
-0.2701925 0.15969266 0.112615176
0.192617 -0.10207873 -0.12895197
0.20929475 -0.1952063 -0.04752829
-0.19329274 0.08991177 0.22387367
0.019629665 -0.073798865 -0.05960218
0.15596157 -0.0793165 -0.1090414
0.06716297 0.0076430957 -0.028336829
-0.27564248 0.004362693 0.06722418
0.11770319 -0.041424453 -0.08122596
-0.025947187 -0.0075256247 0.019715142
-0.16046432 0.22350122 0.09949761
0.049528196 0.008898692 -0.021729155
0.14592841 -0.078170605 -0.10639578
0.1909354 -0.0018714848 -0.20614088
-0.16145149 0.1645989 0.19303717
0.2024341 -0.14768992 -0.0823549
0.20753 -0.12263887 -0.09466438
0.14673148 -0.20095709 -0.113005996
0.22091958 -0.0024477823 -0.16773379
0.19453554 -0.0988514 -0.12894003
0.007108819 0.038241908 0.016453264
-0.16607635 0.02306263 0.15364353
0.05240783 -0.15723173 -0.26522255
0.17231067 -0.14618187 -0.12163664
0.1893572 -0.03566769 -0.15627335
0.25981113 -0.19976988 -0.17169996
-0.104074664 0.18600301 0.14547107
-0.23566143 -0.02128182 0.107170194
0.28405985 0.0051401663 -0.09948371
0.26255766 -0.088676445 -0.05040931
0.070813626 -0.048914343 -0.3230442
0.22646078 0.011682482 -0.17129938
0.077004544 -0.21441045 -0.19124152
-0.23083514 0.24738501 0.07030872
0.04162113 -0.056158647 -0.04319178
0.15238509 -0.19875425 -0.10749618
0.067390375 -0.15215413 -0.25004956
-0.13409092 0.21944574 0.13122316
0.19533864 -0.22779785 -0.059853557
0.10899777 -0.23887055 -0.13239945
-0.036686804 -0.001994832 0.027289871
0.015277883 -0.02725259 -0.007706003
0.23025474 -0.1968554 -0.052234083
-0.034182478 0.052440204 0.03779137
-0.04710877 4.179643e-05 0.03097029
-0.2678617 0.17232426 0.08238191
0.26545548 -0.14905646 -0.17588118
0.008041085 -0.03769632 -0.018218376
-0.08474256 0.13384354 0.1836143
-0.20491989 0.07632072 0.19986454
0.20589386 -0.21321528 -0.091478944
0.2856558 -0.14946571 -0.23818593
0.07204312 -0.19177426 -0.2144804
-0.21851729 0.15864675 0.17884716
-0.026209781 0.079657465 0.027139459
0.2852966 -0.157379 -0.16990145
-0.13327925 0.19949375 0.13025303
-0.122498825 0.124793515 0.19762757
-0.18714315 0.075722136 0.20756802
-0.1280474 0.17263238 0.17981674
-0.2457206 0.2104238 0.09796129
0.102259405 -0.0061557987 -0.063606024
0.22116406 0.012321062 -0.17848605
0.27300322 -0.19220535 -0.16439483
0.21298414 -0.15900125 -0.060520228
-0.10867428 0.20017177 0.14848405
0.061756924 -0.19204748 -0.22730315
0.05659582 -0.08647751 -0.07866849
-0.120902866 0.166472 0.101693384
0.061114103 -0.14396553 -0.26413244
0.026567683 -0.008158072 -0.012789765
0.14081064 -0.15381432 -0.15581615
-0.002460711 0.048613794 0.0268566
0.28949863 -0.048469342 -0.21813338
0.16842914 -0.047527943 -0.1134175
0.2648816 -0.1297891 -0.060427252
0.26068607 -0.11788501 -0.044627037
0.06697658 0.010447011 -0.03111604
0.17008276 -0.17809963 -0.21067174
0.205635 0.0276111 -0.20960668
0.0019657926 0.02864358 0.008393184
-0.051405728 -0.0368454 -0.009088484
0.07439592 -0.034200866 -0.048081536
-0.16636556 0.06524409 0.20520367
0.16311987 0.05096916 -0.2809497
0.1638603 -0.23270391 -0.082591794
0.23991284 -0.0014167668 -0.14444987
-0.22142458 0.20084645 0.12885515
0.011700383 -0.0129104545 0.005779758
-0.27396902 0.21779484 0.06431175
-0.057518054 0.0020769534 0.034647774
-0.28565526 0.10820831 0.13159424
-0.22389373 0.051203355 0.20586888
-0.05360347 0.055212736 0.059106536
-0.2429762 0.108281285 0.18559353
0.09441391 -0.052344333 -0.06983077
0.06672907 -0.20195602 -0.21358441
0.0819052 -0.13441844 -0.24495116
0.007624602 -0.058025125 -0.04056427
0.066148065 -0.15924822 -0.24630938
0.17144479 -0.029115831 -0.13774025
0.18953316 0.03620997 -0.23644143
0.20606983 -0.20106177 -0.1518265
0.0010584368 -0.03551937 -0.014857378
0.032728735 -0.034051888 -0.017603481
-0.12530506 0.03758172 0.180945
-0.19259739 0.02196957 0.18241799
0.285483 -0.007089758 -0.092984445
0.207974 -0.093323894 -0.11606051
0.18084624 -0.014750717 -0.20927279
0.13886999 -0.24147525 -0.1309386
0.25308383 0.048965134 -0.17037986
-0.28655717 0.15320663 0.09674659
-0.19582553 0.120184466 0.22601147
0.24883488 -0.051927473 -0.09531553
0.255139 0.0458363 -0.16992347
-0.08967256 0.107172765 0.16942295
-0.0063945646 0.03867221 0.01878877
-0.13599113 0.016907299 0.061805572
0.0430475 -0.048807856 -0.03528781
-0.23471922 -0.0016369408 0.1286901
0.18979107 -0.087503314 -0.13439867
0.029253965 -0.08046333 -0.06827242
0.0046766554 0.06781826 -0.004229152
0.18106885 -0.21825984 -0.18277235
0.20072421 0.047689397 -0.23086536
0.1602943 -0.19439664 -0.10074259
-0.22326876 0.20497814 0.10554677
0.22901337 -0.05040972 -0.12155722
-0.20467237 0.19217604 0.16613586
0.23022498 -0.08839094 -0.09157406
0.07696494 -0.11128129 -0.13338274
-0.12509748 0.0072444044 0.025082689
-0.08379673 0.10041669 0.08705533
0.048415095 -0.14175367 -0.2818733
-0.16181274 0.08863625 0.14441286
0.067083046 -0.0035106626 -0.03782356
0.11755419 -0.21183498 -0.14181268
-0.30172914 0.10790388 0.11121036
-0.19220173 0.012324745 0.18055932
-0.0074978014 -0.05835501 -0.06341655
-0.2388387 -0.016492715 0.11288636
-0.19644228 0.17618069 0.18024282
-0.03087105 0.043088008 0.039724816
-0.2761403 0.051401056 0.18619546
0.15867524 -0.025038807 -0.19152392
-0.14785402 0.20582467 0.16573174
0.058358483 -0.11329658 -0.29059485
0.124254316 -0.16345152 -0.16956756
0.09711397 -0.06261281 -0.062540874
0.053165928 -0.078936 -0.069884196
-0.026991555 -0.03425214 -0.009594876
0.20457245 0.0023209022 -0.1920089
0.039246716 -0.01801826 -0.025403835
-0.12907726 0.078570105 0.2094563
0.08149422 -0.03392206 -0.04875254
-0.14432871 0.21701647 0.14852351
-0.06309265 -0.02520613 -0.019223273
-0.112632826 0.22506025 0.09140439
0.12927899 -0.18282188 -0.14869465
0.09742745 -0.16241747 -0.20431921
-0.13049959 0.05705878 0.10529783
-0.16567679 0.23302425 0.09981724
0.08721951 -0.2275814 -0.1684381
-0.19399956 0.25416556 0.11165302
-0.20945835 -0.016154084 0.13378343
-0.20722367 0.10579762 0.19032402
0.15196267 -0.022766912 -0.11673757
-0.08944356 0.04709433 0.08543244
0.15334524 -0.14139742 -0.14924112
-0.19103937 -0.0036572753 0.16958898
-0.23798199 0.11680888 0.18553258
-0.1509176 0.23552416 0.08393761
0.0754574 -0.13849531 -0.25006375
-0.23256306 0.00943747 0.15822831
0.02984815 -0.045583528 -0.02991448
0.13853194 -0.13542873 -0.14390624
0.20128429 -0.16541497 -0.07053466
-0.1660707 0.061927363 0.20561588
-0.19124232 0.22571643 0.13861403
-0.085179165 0.1325039 0.18219753
-0.32525054 0.15418637 0.04259469
0.23691122 -0.053913157 -0.10893013
0.23606122 0.043630954 -0.1830703
0.14598624 -0.20981434 -0.1073151
-0.25063327 0.01954322 0.1542247
0.1320865 -0.24908192 -0.1141267
0.20771179 -0.07626931 -0.12916687
-0.16894923 0.1288203 0.16510892
-0.16226311 0.18917799 0.18156038
0.2259879 -0.0818879 -0.10181089
0.2596939 -0.07900558 -0.06127912
0.28122127 -0.16697396 -0.14918773
0.23639637 -0.12482256 -0.05646908
-0.19324124 0.22746092 0.15931645
-0.15008539 0.20450395 0.17036164
-0.28615516 0.073268004 0.135776
0.11695561 -0.08637501 -0.086873166
0.13542707 -0.26230162 -0.1358645
0.19500673 -0.037567005 -0.1623003
-0.043481473 0.0052148616 0.03617264
0.1597708 -0.16247144 -0.12531812
0.28132832 -0.037670556 -0.080419526
0.04699891 -0.1537916 -0.27465007
0.14483577 -0.2191373 -0.10178939
0.13758788 -0.011108443 -0.10881809
0.23994128 0.058050595 -0.1908564
-0.07842477 0.18935573 0.14563178
0.25603816 -0.06295196 -0.077934824
-0.061860055 -0.028282404 0.001788882
-0.17314748 0.20440716 0.17527114
0.17750317 -0.17209525 -0.09565068
-0.25080165 0.19738446 0.08558409
0.09713508 -0.14202191 -0.21996634
0.25976527 -0.15800734 -0.124186404
0.16776116 -0.13543187 -0.1354518
0.19067414 -0.1515149 -0.09438381
0.13835606 -0.08669617 -0.09543672
-0.15421014 0.029072786 0.17601249
-0.036295645 0.09206335 -0.03953732
0.15231061 -0.22557908 -0.20127824
0.23395915 0.04162993 -0.18423326
0.29307997 -0.02162128 -0.083326444
-0.21785212 0.19458658 0.12351831
0.22047198 -0.14619061 -0.060632847
-0.2455312 -0.014406004 0.11610806
0.30474955 -0.10773932 -0.18543927
-0.21356426 0.10277408 0.20268923
-0.24461159 0.10542052 0.18566598
-0.12181834 0.05372233 0.100424245
0.13046283 -0.013372974 -0.096154265
0.13096042 -0.019789658 -0.08989537
0.05882631 0.010053179 -0.021738674
-0.047135055 0.045875654 0.056913976
0.28146133 -0.023352902 -0.08240922
-0.12264293 0.077047914 0.10167193
0.14004347 -0.23827773 -0.093522064
-0.17094219 0.110130936 0.20130047
0.045938477 0.0057026283 -0.024756335
-0.23072314 0.25109956 0.066112205
-0.184385 0.16929641 0.21184346
-0.111086495 0.071286164 0.16744684
0.1523345 -0.030966083 -0.10836197
0.08070912 -0.23798405 -0.16889161
0.2413906 -0.17866167 -0.107435085
-0.26325345 0.06962594 0.1745778
-0.20127542 0.092697315 0.171879
-0.25326398 0.042385533 0.106043324
-0.16511534 0.14922811 0.2181201
0.05905743 -0.068473555 -0.059166517
-0.12843953 0.08981757 0.21285729
0.22704996 -0.16665511 -0.07516386
-0.067871526 0.052371405 0.06693013
-0.037584323 -0.03725734 -0.0114467135
0.21557441 -0.07202947 -0.12238326
-0.074734166 0.12463646 0.17208809
-0.17247391 0.19596833 0.17995656
-0.051614005 -0.03518599 -0.07742385
-0.19114335 0.22256118 0.16564354
-0.32707167 0.11408121 0.07473922
0.04484252 -0.15270312 -0.27819595
0.17756088 -0.1425142 -0.117734514
-0.14145662 0.12318844 0.1787078
-0.10068237 0.16679698 0.16921403
-0.19615284 0.0075053293 0.18259616
-0.21735545 -0.009072481 0.14267553
-0.18568243 0.13663061 0.21912952
0.20971364 -0.21416177 -0.18313378
0.02773709 0.043155685 -0.010459234
0.25028294 -0.1937965 -0.27277416
0.12486954 -0.23224016 -0.11726303
0.2705103 0.021204306 -0.13135427
-0.31318864 0.1496056 0.060456973
-0.010000838 -0.058813434 -0.039003916
-0.25716677 -0.0118264295 0.09598126
-0.07761433 0.18440557 0.14006454
0.1337142 -0.21808033 -0.11666647
-0.22257896 -0.007032967 0.14564332
-0.13824226 0.21737616 0.13469341
0.16654325 -0.24110276 -0.10333205
0.18797931 -0.053928006 -0.13446037
0.19390652 -0.034729827 -0.17776635
0.0726209 -0.082343526 -0.29571542
0.23072217 -0.10129347 -0.08127996
-0.32256922 0.11336829 0.049058475
0.028783008 -0.010885663 -0.016101519
0.034080636 0.008473323 -0.015684016
-0.107160166 0.13142902 0.019177264
-0.020963566 0.082790695 0.016222294
-0.2057021 -0.010936766 0.11343374
0.12039984 -0.07731236 -0.07991783
-0.11206727 0.08247541 0.10619619
0.17989813 -0.045612417 -0.1319227
0.18026508 -0.19536841 -0.07472019
-0.19449209 0.16942947 0.13966565
0.27569336 -0.14537665 -0.14919697
-0.1352707 0.09599899 0.13174808
-0.30862144 0.043598417 0.13958059
-0.12917018 0.13652816 0.19269443
0.17383571 -0.096684106 -0.13064435
-0.18680221 0.05889496 0.20136148
0.29434794 -0.14632107 -0.25405008
-0.23962224 0.037059065 0.17201075
-0.15109633 0.104444645 0.20950265
-0.2370017 0.20116095 0.09553951
-0.22719309 0.019241048 0.14779803
0.08836751 -0.22411875 -0.1695775
0.0709178 -0.029300902 -0.042202666
-0.013060977 -0.038685624 -0.016400142
-0.27372694 0.030572308 0.16956152
-0.27522585 0.17282593 0.08081573
-0.17216364 0.0688383 0.19357012
-0.015817186 -0.006028596 0.01996888
0.1472562 -0.145325 -0.1540116
0.21599835 0.026410658 -0.19558197
0.06989835 -0.07116771 -0.063629314
-0.11953474 0.073259756 0.2015598
0.21311606 -0.20819603 -0.13608743
0.02797017 -0.07045946 -0.057071228
0.2380078 -0.09555477 -0.07635039
0.12317979 -0.2257099 -0.12429518
-0.095239386 0.020280493 0.059907373
0.10987804 -0.06894913 -0.07393587
-0.17021114 0.09131611 0.21477076
-0.24492727 -0.002088099 0.1295996
-0.0822314 0.085102364 0.080407165
0.07865039 -0.19933428 -0.20044957
0.18835315 -0.20061624 -0.060545493
0.21277949 -0.19255781 -0.045089766
0.2180189 -0.030815253 -0.1501588
0.10029999 -0.1201932 -0.23230812
-0.15350778 0.025374528 0.17184032
-0.28279874 0.21125704 0.048692573
-0.27684885 0.18934806 0.077863365
0.19941556 -0.17008123 -0.06940656
-0.24451146 0.2516192 0.06879484
-0.1878241 0.011184637 0.16216864
0.0076125585 -0.01961418 0.0017684734
0.16303028 -0.06079984 -0.11418052
0.2702752 -0.14414096 -0.122516364
-0.088889584 0.118754104 0.074424446
-0.08191438 0.18919699 0.14593735
-0.0131184915 -0.041220773 -0.019186445
-0.11438255 0.173384 0.18341728
0.26173326 -0.08010106 -0.057876647
0.21217462 0.015337769 -0.19213025
0.13756813 -0.22872442 -0.10381259
-0.14220579 0.09297119 0.21241127
0.22720912 -0.061353557 -0.11564519
0.2588192 -0.12181114 -0.05495264
0.215874 -0.13125196 -0.077644855
0.066951856 -0.10653477 -0.10219982
-0.07442797 -0.015777614 0.017301353
-0.10908827 0.08892675 0.10193662
0.113170944 -0.11226488 -0.11488291
0.14841434 -0.20089488 -0.11092123
-0.0153621305 0.056181643 0.037110273
0.15562567 0.046802048 -0.28732064
0.051443055 0.039723374 -0.10832046
0.049153868 -0.2002076 -0.23715338
-0.017067373 -0.040137026 -0.017447883
-0.22279502 0.047416307 0.1745888
0.050511323 -0.0447821 -0.031879403
-0.0008720509 0.018116191 0.019946178
-0.14132158 0.13466841 0.1998632
-0.09742637 0.11127353 0.16242084
0.21233569 0.010927337 -0.18862407
0.09809746 -0.027618926 -0.06814881
-0.28856224 0.021196388 0.062171206
0.2515906 -0.15776753 -0.061241373
-0.18970096 0.09488406 0.22885801
-0.047491997 0.09398692 -0.025592392
0.17703685 -0.17661946 -0.09285239
-0.087157734 0.06108538 0.07919116
-0.0575435 0.1052869 -0.023475263
0.24273713 0.00689891 -0.14710134
-0.21643491 0.21237108 0.100867584
-0.16932955 0.1111398 0.19789524
-0.13671535 0.1844596 0.14691566
0.005629999 -0.029431343 -0.008777065
-0.263762 0.2052706 0.08662003
-0.2619372 0.14623547 0.1331507
-0.266958 0.22594458 0.06708699
0.0047860597 -0.02524157 -0.0040434743
-0.28753006 0.06423347 0.15941596
0.0065223435 0.06546655 -0.07195949
0.039245855 0.037040997 -0.020297697
-0.05117591 -0.015198908 0.014735394
0.10518368 -0.23340178 -0.14132604
0.2103539 0.050625537 -0.2208686
-0.26347452 0.02449713 0.13132906
-0.19898203 0.16686235 0.19743589
0.29342863 -0.08463011 -0.19784392
-0.1468128 0.07428194 0.20569298
0.1353237 -0.04946676 -0.097722605
0.10030476 -0.21848537 -0.15867785
-0.019791469 0.013617213 0.022055853
0.10948174 -0.15588997 -0.1939406
0.13182396 -0.055574827 -0.08607431
0.1586986 -0.19299257 -0.10381472
0.2853829 -0.1307756 -0.15901324
0.18927106 -0.091334514 -0.12949176
-0.25917658 0.072357535 0.13988931
-0.07686185 0.07541595 0.0704638
-0.012679254 0.025005005 0.029164903
0.23611118 0.023485245 -0.1679174
-0.1106768 0.14481911 0.16392243
-0.25680667 0.18266201 0.11236426
0.20501103 -0.159016 -0.07060784
0.17079198 -0.20392138 -0.08031219
-0.06218796 0.003426523 0.0367786
0.29545844 0.007053135 -0.117886126
0.18829983 -0.21674138 -0.11751308
0.2001751 -0.06844414 -0.13615566
-0.11143765 0.054190055 0.09950968
-0.31664458 0.05538232 0.104528084
-0.13537747 0.060445383 0.10970195
0.1700257 -0.00019358618 -0.2338812
-0.12527068 0.0022040824 0.019552076
-0.02413463 0.07661528 0.027473476
-0.25042886 0.111578725 0.17368537
0.09970595 -0.05578013 -0.07367683
0.22533372 -0.06458712 -0.1155985
-0.17361999 0.105280645 0.20255576
0.24298972 0.016064486 -0.15364668
-0.12829061 0.065739915 0.11456038
-0.11300964 0.15594675 0.18729536
0.27955523 -0.045255296 -0.20738532
0.02596174 -0.055505484 -0.04031404
0.08193989 0.010397546 -0.052491266
-0.25059152 0.02526894 0.15974694
0.10593858 -0.122910306 -0.12561825
0.25241405 -0.19133516 -0.14749336
-0.13758925 0.09179303 0.19369882
-0.13811015 0.03437136 0.16894922
-0.14899893 0.06929683 0.19300593
-0.23485856 0.1258337 0.17430994
0.19406717 -0.20826274 -0.059819005
0.17028351 -0.046522792 -0.117164776
-0.05354622 0.019714404 0.05353826
-0.10856666 0.1194025 0.10190112
-0.2192485 0.04390707 0.14633688
-0.14730227 0.10317811 0.2081569
0.007365255 -0.07078362 -0.05458947
0.1577131 -0.044951335 -0.10087023
0.27835172 -0.09829861 -0.046569597
-0.0016742031 -0.042437103 -0.022103848
0.03187137 -0.082443945 -0.070816346
0.10977102 -0.09441457 -0.09474342
0.049521416 -0.0007445551 -0.027780911
0.105369955 -0.050529663 -0.07034525
0.25512782 -0.16016707 -0.06437351
-0.16252218 0.2440989 0.14515452
0.2897869 0.013312248 -0.11656409
0.14882019 -0.037082586 -0.096683964
0.18047361 0.048029076 -0.2567685
0.15231419 -0.057038732 -0.10855919
0.24813321 -0.16813496 -0.072190955
-0.19015063 0.21578573 0.16558208
0.27821165 -0.052341606 -0.062478073
-0.09561762 0.1958421 0.1551486
-0.26365325 0.115216166 0.15421188
0.079506926 -0.10027724 -0.09703368
0.08991139 0.0021978344 -0.0549982
-0.16450801 0.14700624 0.18584277
0.18136461 -0.21920498 -0.0701279
-0.26555568 0.039532498 0.1537373
-0.28582025 0.04101478 0.15816423
0.17549998 -0.12681685 -0.1321026
-0.011539006 0.0123702735 0.015083822
0.2820715 -0.07113444 -0.14149754
-0.10956275 0.15605564 0.18707258
-0.21700557 0.049515985 0.16401662
-0.24348158 0.1466197 0.15623757
-0.12291508 0.09223999 0.18578002
-0.1067628 0.098193124 0.19650449
-0.31867224 0.112672545 0.07337935
0.1792618 -0.12034692 -0.13218455
0.12733091 -0.03400723 -0.07973493
0.2233807 -0.1183944 -0.07776765
0.09089533 -0.18488292 -0.19576472
-0.1348398 0.2031837 0.14996377
-0.16340035 0.07510335 0.16091362
-0.10246418 0.11031405 0.103035405
-0.22882898 0.019870568 0.16769712
-0.19002879 0.072909616 0.20601913
-0.22065972 0.08929288 0.1844911
0.24844927 -0.09968099 -0.060035177
0.18340832 0.022677032 -0.23406208
0.18095282 -0.21181463 -0.22342958
-0.019138087 0.058217525 0.040305976
0.28103068 -0.04771031 -0.0914432
-0.25366467 0.04258398 0.20460746
0.19175313 -0.0037865746 -0.20367086
0.28497258 -0.12324501 -0.13319565
-0.17288037 0.21557067 0.18753746
0.055635646 -0.1581606 -0.26043898
-0.13263996 0.040851537 0.08773144
0.07196686 -0.06265892 -0.3112881
-0.008809218 -0.005712105 0.019351665
-0.24686393 0.11409707 0.17631446
0.123732425 0.005353147 -0.29666817
0.2657439 -0.051891204 -0.07392639
-0.12116422 0.07565785 0.17365316
-0.011558761 0.054190386 0.033827137
0.11852845 -0.07210762 -0.082891434
0.16051668 -0.0165541 -0.23367032
-0.16545819 0.20765753 0.18008633
-0.16943331 0.049541708 0.19732495
-0.20554456 0.19499384 0.12483221
-0.21162388 0.010478744 0.16343296
-0.17911269 0.10342081 0.15346858
0.21469973 -0.05033099 -0.13974446
0.27478448 -0.0044211997 -0.098032996
0.0724027 -0.07576963 -0.30091584
0.23323448 0.0466916 -0.18894303
-0.068704754 0.06324569 0.07200476
-0.23424235 0.008151143 0.13941154
-0.29003578 0.15444218 0.09141548
-0.09033304 0.21152633 0.110984005
-0.10476027 0.047104906 0.09078107
-0.061218515 -0.0056521334 0.026640689
0.029115506 -0.039281156 -0.022868581
0.15593071 -0.13371249 -0.1444122
0.26977122 -0.13131438 -0.083738364
-0.113425426 0.14375815 0.1739207
-0.071432665 0.04971791 0.064496234
0.2658486 -0.15400085 -0.18744734
-0.2903192 0.09428985 0.11920638
0.15595113 -0.08194545 -0.11193687
-0.1092389 0.22398432 0.12280022
-0.16850327 0.22324093 0.16689235
-0.17245585 0.16329806 0.22816136
0.13940191 -0.22551477 -0.10389464
0.101655856 -0.04258583 -0.061078753
-0.1478753 0.16311511 0.20103873
-0.09634581 0.04730787 0.089845814
-0.18218786 0.12741324 0.214527
-0.1198447 0.1881254 0.17780225
-0.24275099 -0.008941374 0.09638277
-0.27581295 0.1028837 0.14804795
0.09863184 -0.19765484 -0.17639977
-0.1560695 0.23095866 0.15018946
-0.20447604 0.06709891 0.1978909
-0.24794059 0.15921186 0.14115854
-0.24494515 0.05391098 0.19763656
-0.08817879 0.13368773 0.1839152
-0.12806569 0.17449304 0.11151958
0.21733968 -0.15402853 -0.05872857
-0.08020643 0.11321535 0.00036621717
0.1673523 -0.2171143 -0.07478663
0.11137075 -0.21592245 -0.14658247
0.22387262 -0.19211344 -0.10337337
0.22543915 -0.11947691 -0.07435037
-0.2105341 0.08673558 0.241278
0.26924786 -0.116198815 -0.042436242
-0.16824841 0.070932806 0.20347333
-0.04756245 -0.035822444 -0.06845203
0.21651033 0.0604588 -0.22043641
-0.21489535 0.010407707 0.1576371
0.15249693 0.00505928 -0.26001617
0.13803191 -0.038671836 -0.08634963
-0.073576346 -0.023180287 -0.015546532
-0.19943576 0.12448245 0.19269131
0.17394999 -0.23099592 -0.18038918
-0.21496026 -0.015396037 0.11080438
-0.28196827 0.03260248 0.12378963
0.28574923 -0.05462186 -0.20607944
0.12729774 -0.13238414 -0.13900182
-0.19618104 -0.022877911 0.124543875
0.14935583 -0.04844389 -0.09867973
0.06439293 -0.1737698 -0.237656
0.16006155 0.03998727 -0.27659827
0.20068936 -0.10217684 -0.11865406
0.26701012 -0.088636726 -0.052450743
0.2345497 -0.18691048 -0.14015515
-0.27878708 0.043088567 0.15981805
-0.1260653 0.031215968 0.07620693
-0.049913984 0.02788657 0.049691096
0.034174502 0.029863907 -0.0052371724
0.28506982 -0.0995813 -0.124591865
-0.26790133 0.19104493 0.062781475
-0.18031934 -0.015899999 0.15462017
-0.25014344 0.05828401 0.18471465
-0.11688352 0.083283916 0.18687287
-0.19772592 0.24066512 0.11986717
-0.10415342 0.10927981 0.10657755
-0.23907728 -0.021431893 0.10747567
-0.10344784 0.07219608 0.17967841
-0.25228688 0.06305437 0.17842697
0.17780468 -0.1969549 -0.07664812
0.13028167 -0.009264563 -0.10035867
-0.1603318 0.17857434 0.20836361
0.19892599 -0.22177413 -0.14909595
-0.21191531 0.04149604 0.17801565
-0.27141854 0.009306691 0.09666273
-0.20882322 0.0023606343 0.15409973
-0.06976709 0.10472969 0.062276583
0.13796951 -0.048985265 -0.09770746
0.008607821 -0.06914958 -0.11354965
0.29464695 -0.1378459 -0.2636861
0.14372006 -0.053308118 -0.10326389
-0.12381748 0.07863393 0.20185503
-0.27268848 0.08825872 0.13470252
-0.095558666 0.010284286 0.048935235
0.16855823 -0.15261936 -0.12156768
0.18715045 -0.11609296 -0.12537934
0.25511065 -0.15765588 -0.06160366
-0.15524924 0.19002461 0.18152687
0.12670812 -0.21499734 -0.12784953
-0.18377268 0.07597567 0.20720336
-0.083043575 0.092438884 0.0886042
0.21249703 -0.18991974 -0.09613159
0.023461662 -0.031912018 -0.013968685
-0.16996628 0.13650233 0.17125139
-0.1948791 0.17782961 0.14897588
-0.16622491 0.026070943 0.18440902
0.20997193 -0.035413276 -0.15690628
-0.16980802 0.098035306 0.21281648
0.01980798 0.0050662598 0.0027153173
-0.30652702 0.08876468 0.11972363
0.28489128 -0.034980267 -0.07794609
0.0873617 -0.20786409 -0.18302745
0.1179626 -0.24761873 -0.11727657
-0.09247744 -0.0020453006 0.034923285
0.20260279 -0.07935117 -0.1333291
0.0657381 -0.21075095 -0.208252
0.024959883 0.019955778 -0.006158465
-0.10961986 0.17376222 0.16765998
-0.17596091 0.16068025 0.22575942
-0.13710764 0.013331821 0.058018573
0.21236941 -0.005774469 -0.17607062
-0.038601063 0.06797726 0.055522304
0.17740439 -0.06275478 -0.118315965
-0.14332646 0.13763216 0.19951428
-0.2251787 0.14725475 0.17894378
-0.30675155 0.046874344 0.1267696
-0.3096653 0.04855058 0.14518215
0.100085646 -0.1149318 -0.11601944
0.15190504 -0.14400695 -0.14911097
0.16037421 -0.23028755 -0.07944835
-0.20894952 0.08705534 0.24458943
0.15384491 -0.18778948 -0.11385973
0.18208067 -0.13865943 -0.114897564
0.16481061 -0.030304624 -0.19458956
0.23546873 0.041116443 -0.18193762
-0.16662511 0.15739743 0.21140644
-0.21839106 0.0047693024 0.15807237
-0.18500069 0.12432916 0.21151595
0.15937406 -0.03877525 -0.10995898
0.11035637 -0.062682055 -0.08143003
0.015411145 0.010550226 0.008795864
0.16522478 -0.019787118 -0.13896734
-0.11548427 0.06730611 0.20222798
-0.14073911 0.22459263 0.12846984
-0.19424585 0.019097708 0.18248168
-0.1184141 0.22835802 0.095834546
0.25445196 -0.059186675 -0.08276353
-0.24868162 0.11119626 0.176188
-0.23832081 0.040843897 0.15143071
-0.2711975 0.12431904 0.137838
0.2157908 0.026240943 -0.19571726
-0.17233722 0.061465617 0.17085028
-0.12138453 0.17074564 0.18219759
0.2831525 0.024251496 -0.15276942
-0.1187414 0.18695761 0.16011733
-0.035498645 -0.0468252 -0.04685112
0.08816703 -0.087862164 -0.08454476
0.15755332 -0.01972297 -0.12805086
-0.24911942 0.23038042 0.05415258
0.09309493 -0.1981211 -0.18306424
-0.2534418 0.1884253 0.11230923
0.09611064 -0.10393213 -0.24979442
0.11288358 -0.1803181 -0.17133537
-0.2720279 0.13017052 0.12354784
0.21795924 -0.081793115 -0.11205018
0.004203194 -0.053091012 -0.03465501
0.2929334 -0.15297313 -0.1599444
-0.20940237 0.058757994 0.21633294
-0.066666156 0.06019614 0.07239908
-0.24566668 0.17941576 0.1040222
0.15431857 -0.122279204 -0.13158987
0.13876203 -0.2231975 -0.10644062
-0.033067398 0.0032238516 0.032542236
0.1867661 -0.080927454 -0.13721144
0.2563435 -0.1967171 -0.17853849
0.15066037 -0.036074203 -0.10041483
0.10329328 -0.2366447 -0.14129063
-0.23580769 0.07826232 0.20939188
0.18828157 -0.15248586 -0.0966873
0.08011605 -0.24095175 -0.16742036
-0.20395522 0.1583442 0.19751777
0.23460217 -0.085845985 -0.08793613
0.031781558 -0.08753622 -0.07641599
0.19401821 0.012472156 -0.21298034
-0.13517377 0.23454139 0.11230906
-0.13454308 0.08226464 0.182778
-0.1667177 0.13707165 0.1984666
0.18442573 -0.1942217 -0.070309244
0.12562533 -0.04629609 -0.087278716
-0.25146654 -0.018605607 0.087725036
0.25274855 0.0055681495 -0.13342495
-0.04018726 -0.0021517128 0.027599003
0.030497748 -0.022956017 -0.010226556
0.2499376 -0.027056118 -0.11254848
0.011762886 -0.02741156 -0.0073966077
-0.06477105 0.031939197 0.06656453
-0.203693 0.037681196 0.19163124
-0.22058454 0.2273326 0.124409035
0.15207563 -0.041403286 -0.0966519
0.12973182 -0.14940795 -0.17314881
-0.202856 0.026694266 0.15552206
-0.2789592 0.123116665 0.12890804
0.29392314 -0.08798813 -0.18455619
-0.27541003 0.19005033 0.027330127
0.26233235 -0.119088404 -0.052502826
0.018132877 0.032275006 0.008358324
0.08126017 0.0034206943 -0.043937784
0.15251029 -0.097652 -0.10420033
-0.097584054 0.13952729 0.1705413
0.11300485 -0.015427804 -0.068920664
-0.26536584 0.14219294 0.1318364
0.07592273 -0.16978806 -0.2260349
-0.29427353 0.09079081 0.09132285
-0.16967149 0.11519026 0.19398369
-0.12865439 0.24123684 0.08913664
0.27384722 -0.14398748 -0.12283888
-0.022561524 0.006597143 0.03365009
-0.2374066 0.2059605 0.11742483
-0.18199846 0.18756588 0.20343873
0.16087395 -0.20718224 -0.09043148
0.13437125 -0.14508541 -0.15397422
0.20732754 -0.051512904 -0.14819698
0.09076773 -0.03165286 -0.05326836
-0.18696015 0.03341875 0.18531533
0.24496886 -0.1372254 -0.13597962
-0.13354014 0.015984382 0.060450394
-0.05744834 0.0045438344 0.03735716
-0.26721647 0.11334159 0.1511032
-0.30432934 0.044955377 0.11591274
0.28135243 -0.04024124 -0.08325597
-0.19963574 0.18085323 0.15296346
0.25277546 -0.15185903 -0.039954625
0.24195638 0.028835308 -0.16452128
-0.23378551 0.04079518 0.19989598
-0.09972757 0.19436927 0.10494711
0.28299543 -0.17245506 -0.24932586
-0.13601287 0.04317989 0.090762004
0.014603789 0.03211325 0.008666545
-0.063653685 0.09560861 0.06343172
0.26326993 -0.051107742 -0.07764703
0.15318076 0.0090479925 -0.26213887
-0.22582501 0.15877275 0.16949765
-0.12214486 0.14170912 0.1974357
0.1417321 -0.11105696 -0.117488384
-0.2548995 0.06385277 0.20270738
0.24608396 -0.020276025 -0.122507356
0.042057432 0.05144286 -0.03997093
-0.047418687 0.051289234 0.05451225
-0.25862733 0.09411906 0.17637965
-0.23505768 0.078589074 0.16391368
-0.11028674 0.10567668 0.2052373
-0.029748019 -0.018276278 0.008391142
-0.13487177 0.014233662 -0.01043406
-0.18417668 0.04563532 0.18886165
0.078225575 -0.19067201 -0.20747526
-0.28257626 0.121233955 0.12573712
-0.14278133 0.18985645 0.16729227
-0.09200189 0.0129432585 0.051375266
-0.276098 0.17888276 0.08761136
0.13493069 0.0017048398 -0.27975202
-0.124240495 0.07736344 0.10237815
0.0738539 -0.22629775 -0.18632777
-0.14724521 0.06597007 0.20690128
0.23163185 -0.031472426 -0.13242541
0.07406699 -0.10626278 -0.102880105
0.13607122 -0.24043433 -0.09693731
-0.28442615 0.038745027 0.1120524
-0.19880731 0.0917291 0.15973452
0.12589656 -0.24902222 -0.118726574
-0.07051068 0.091383815 0.077842616
0.23939817 -0.15307377 -0.054388996
-0.14400704 0.23731852 0.08553292
0.17390545 -0.114498824 -0.12571423
0.09533353 -0.020060126 -0.05995557
-0.17645936 0.15752575 0.21777691
-0.083887175 -0.016046703 -0.0062638284
-0.09863506 0.022579238 0.062908225
0.2089054 -0.055666976 -0.14308698
-0.042493545 -0.044628493 -0.043466188
0.17103122 -0.030273138 -0.169711
0.29343796 0.010113298 -0.11831772
0.29316944 -0.072716415 -0.21892053
0.23793224 -0.18771377 -0.12147849
-0.18570173 0.053115174 0.18604037
0.24884501 -0.18839726 -0.14533485
0.2867474 -0.14836095 -0.24094923
-0.14078842 0.10843921 0.20103145
-0.2081499 0.06420695 0.2221651
0.10950013 -0.11360955 -0.115859464
0.06849064 -0.18329182 -0.22533311
0.14725748 -0.17523001 -0.13161078
0.113903046 -0.26328686 -0.1654955
-0.25125012 0.22782212 0.05536691
0.23314835 -0.004903458 -0.1504051
0.27956304 -0.10511647 -0.17618075
-0.19481581 0.20057632 0.17403525
0.100802206 -0.100897096 -0.10065086
-0.09665565 -0.007859593 -0.03709803
-0.1504215 0.14873655 0.19242945
-0.3077203 0.1067429 0.08618355
-0.24861373 0.12519 0.16430892
0.28052446 -0.02630745 -0.18820563
-0.18252279 0.236648 0.16486849
-0.1362967 0.18692891 0.16971003
-0.14480485 0.19098762 0.16451947
-0.2494056 0.12636468 0.16295221
-0.19598833 0.104194105 0.20979717
-0.05139586 0.077343956 0.065721914
0.14571437 -0.013454937 -0.11790678
0.13817257 -0.24147376 -0.09349799
0.22461459 -0.01114238 -0.1565408
-0.18490195 0.0654702 0.20217133
-0.08060219 0.19056429 0.14726341
0.2344755 -0.14261232 -0.04557631
0.24221888 -0.04234344 -0.11087408
-0.026720427 0.07574993 0.03211632
0.20960265 -0.12371072 -0.0912366
-0.24373448 0.06692628 0.1819555
0.2335374 0.037852265 -0.18193842
-0.12089641 0.006399355 -0.018490015
-0.23483345 0.08684503 0.21196426
0.024671493 -0.045605954 -0.02922669
-0.0001245105 -0.011369056 0.011921466
0.23244512 0.047500674 -0.19054838
-0.24980566 0.0736455 0.18477374
-0.33559024 0.13325274 0.047497038
0.021786198 -0.05484718 -0.039013315
-0.07230163 0.035991944 0.07294641
0.28955275 -0.05524949 -0.17702354
0.17863484 0.03832658 -0.25183034
-0.2189898 0.22679268 0.12500371
0.22323582 -0.18692283 -0.040807452
0.17509653 -0.16442734 -0.104442246
-0.1810575 0.12510036 0.1995219
0.24663104 -0.04650857 -0.10216543
0.11684525 -0.052759796 -0.0743844
-0.006635858 0.013522219 0.015677871
0.06893902 -0.10505802 -0.16276553
-0.15261026 0.1232493 0.19461559
0.20240429 -0.15977319 -0.07334235
-0.17422654 0.2011382 0.17386468
0.24218702 -0.15798394 -0.15847403
0.11581447 -0.14668675 -0.1928138
0.2868866 0.016147723 -0.11549086
-0.14865234 0.05467313 0.16198964
-0.2317717 0.08391821 0.21542805
0.19917083 -0.21672449 -0.108901285
0.0033742986 0.07586752 -0.01110947
0.2243715 0.05296085 -0.20486394
-0.1416833 0.16794863 0.18086442
-0.0080562355 0.030935412 0.020255126
0.26640707 -0.15455721 -0.1088904
-0.28608283 0.07543994 0.05985019
-0.19311148 0.018196724 0.18459363
0.1657826 -0.032134116 -0.12635143
0.12731692 -0.129779 -0.13613364
0.22968169 -0.09185199 -0.08966903
0.0072777434 -0.029557774 -0.009143873
-0.25776076 0.17556113 0.11435244
0.26935723 -0.012243858 -0.09904783
-0.04399132 0.09614949 -0.03295547
-0.2975424 0.17779212 0.06441846
-0.2588665 0.03741391 0.15048084
-0.12762953 0.013197212 0.056564495
-0.057978958 0.0604753 0.05965515
-0.16251409 0.030476648 0.05584187
-0.18089046 0.17317337 0.21562234
-0.09659481 0.19824338 0.14507435
-0.15002534 0.12201247 0.1922583
0.22345975 -0.14938714 -0.05445402
0.16735746 0.014262057 -0.24808773
-0.1046931 0.17637888 0.16973421
-0.105670944 0.10677684 0.20581335
0.033263683 0.050687976 -0.060377408
0.22059073 -0.2088028 -0.20371944
0.005450133 0.021762133 0.010879448
-0.23615281 0.21519715 0.11289424
-0.19045341 0.000920749 0.17455365
0.11027025 0.009335981 -0.091909505
-0.2755214 0.18258703 0.03559836
-0.15533271 0.12292902 0.19886231
-0.010977307 0.071596965 0.014083085
-0.082059175 0.15672041 0.15867794
-0.14942747 0.14439198 0.19256406
-0.25016314 0.1338452 0.14933082
-0.24599817 0.11176381 0.14940795
0.2358661 -0.07875748 -0.09164389
0.15471126 0.02121769 -0.26931563
0.25859755 0.05620499 -0.1861411
-0.18048301 0.12694448 0.2350529
-0.19946012 0.03582241 0.16033913
-0.15009865 0.07280648 0.19907022
-0.06895284 0.021057554 0.05714159
-0.09971336 -0.004977365 -0.027254686
0.23804954 -0.11133907 -0.064474724
0.287212 0.00945673 -0.15215604
-0.09755454 0.08852631 0.086292975
-0.21195813 0.0031973063 0.15545386
0.2094209 -0.1696592 -0.05705048
0.018261394 0.03939521 0.007196762
0.24204966 -0.05508165 -0.10154659
-0.24608274 0.1641916 0.13978092
-0.30129644 0.13902037 0.03684246
-0.2513389 0.13105036 0.15606207
-0.094484605 0.09135085 0.1872714
-0.2117503 0.21405627 0.11750715
0.18556406 -0.17401019 -0.08400677
0.19334409 -0.2154093 -0.101646975
-0.05819895 0.07132353 0.061910503
-0.28591475 0.1154966 0.12580626
0.116827264 -0.10180153 -0.10385642
0.1706356 -0.13440244 -0.13258171
0.27397665 -0.16959858 -0.16576572
0.053678997 -0.04578971 -0.033426378
0.050484475 -0.20367429 -0.23287149
-0.19767949 0.13132559 0.1964009
-0.2818154 0.10968409 0.13535203
-0.124371424 0.19803843 0.15846072
0.07720734 -0.2125431 -0.19238307
-0.2803802 0.03892491 0.097195074
-0.1711295 0.032269895 0.18922591
0.26264477 -0.078702234 -0.057769775
-0.17530204 0.02193242 0.1680832
-0.058154818 0.01475039 0.048702486
-0.114417925 0.073568575 0.17042136
0.27379552 -0.10835637 -0.041310724
-0.2949726 0.10236522 0.08130682
-0.17131126 0.002443411 0.14972137
-0.10095606 0.1798593 0.1382705
-0.22869386 0.17551711 0.15108702
0.15783201 -0.0021257098 -0.2478782
-0.25433445 0.06234904 0.20353203
0.13452025 -0.07513687 -0.10148021
-0.16852586 0.09959526 0.19052796
0.09944435 -0.22778499 -0.152802
-0.20806082 0.19903767 0.1495926
0.09539484 0.0052827094 -0.06620292
0.08478345 -0.22696899 -0.17198208
-0.0070575774 -0.03789886 -0.016360674
-0.10668026 0.10057861 0.19912176
-0.0009232429 -0.046513114 -0.026699498
-0.2227966 -0.00011415524 0.15329787
0.2081962 -0.08924896 -0.11883074
-0.03520408 0.078535035 0.041239314
0.16848885 -0.012291506 -0.22676587
-0.20933364 0.036894467 0.18885744
0.17027149 -0.086495705 -0.118924856
-0.18725859 0.07340341 0.20484881
-0.19996144 -0.0023140272 0.17229927
0.15169106 -0.15523395 -0.14097251
0.14653502 -0.2041214 -0.1108849
0.08376959 0.01144433 -0.056249045
0.19557348 0.024568127 -0.22007129
