# .PCD v0.7 - Point Cloud Data file format
VERSION 0.7
FIELDS x y z
SIZE 4 4 4
TYPE F F F
COUNT 1 1 1
WIDTH 1000
HEIGHT 1
VIEWPOINT 0 0 0 1 0 0 0
POINTS 1000
DATA ascii
0.026505018 0.20266326 0.13454665
-0.026179025 -0.23196837 -0.048124727
0.078825004 0.10527622 -0.0072961883
-0.17197151 -0.3151858 -0.009882083
-0.24291523 -0.11672348 -0.089675896
0.2436753 0.26561293 0.025491206
0.06488336 0.17825378 -0.0027726272
-0.006827823 0.21696149 0.11511488
0.16606335 0.28121677 0.053561155
0.12494116 0.16298696 0.13608293
-0.056170713 -0.28111216 0.0929385
-0.18309236 -0.2337051 -0.06066135
0.025383309 0.22864124 -0.15220806
0.08869052 0.21012083 0.124762855
-0.064380564 -0.19313863 -0.22663093
0.050810486 0.28509066 0.096052855
0.04586702 0.3329859 -0.03999282
-0.15538566 -0.29113483 0.018496824
-0.17690355 -0.14463606 -0.14346983
0.024313452 0.2599618 0.08579149
-0.095053904 -0.34081158 -0.085807264
0.054172326 0.25645605 -0.022139065
0.046571802 -0.2660684 -0.076552086
0.011404499 0.23175283 0.03670498
-0.045750864 -0.23891969 0.10859362
-0.04123004 -0.25022793 0.04013405
0.061042555 0.12914996 -0.00030635807
0.19086845 0.12208883 0.05109242
0.06729375 0.27477518 0.05928142
0.044799343 0.20145935 0.1410216
0.041505743 0.2610274 0.06797103
-0.16538143 -0.2004341 0.103945404
0.06623382 0.18091582 -0.0024897452
-0.17351665 -0.2061722 -0.0505963
0.028139535 0.20597957 0.04427293
-0.09429704 -0.30935618 0.010396307
0.184483 0.31671897 -0.05937983
0.0058228048 -0.26526952 0.07992379
0.2186208 0.24404272 0.054611478
0.061013766 0.28840554 0.092119314
0.10936723 0.23391947 0.033042017
0.09009152 0.21546265 0.07517604
0.1682371 0.21169485 0.06453962
0.03189079 -0.26494396 -0.017595526
0.28074157 0.16592461 -0.07819178
0.2270905 0.108548045 0.005160001
0.08038563 0.25782833 0.012765176
-0.15645462 -0.17978278 0.08484973
-0.22111121 -0.23932579 -0.122179046
-0.22135599 -0.18831483 -0.074839406
-0.20532213 -0.21842575 -0.008635684
0.12709448 0.2841727 0.023169503
0.11633924 0.32003653 0.015084966
0.059619486 0.32265145 0.02878748
0.072866865 -0.27536085 -0.11486233
0.08428166 0.082445316 -0.030524475
-0.03354402 -0.019704616 -0.022877581
0.12231862 0.32010055 0.013396361
-0.17693351 -0.32741904 -0.08373257
0.10791673 0.33251435 0.04985499
-0.027134571 0.0027644471 -0.022880018
-0.073137075 -0.2000895 -0.04294304
0.016929416 0.3223172 0.027756829
-0.06607906 -0.23810561 0.120113656
0.087226294 0.2376927 0.033325095
0.041793685 0.16162784 -0.019087274
0.20160161 0.13406914 0.0412777
-0.00042938918 0.2294752 -0.037977707
0.036572766 0.24096924 -0.0025212525
0.20670126 0.28535733 0.06064715
-0.087746255 -0.12987888 -0.032894533
-0.11232254 -0.32039812 -0.0052546356
0.08215618 0.32049868 0.022591721
0.031724036 0.09719837 -0.005761616
-0.089613415 -0.15820017 -0.030899033
-0.15493153 -0.18365829 0.11348376
-0.2212149 -0.265475 -0.07581183
-0.0059505478 0.21967591 0.07869512
-0.007142307 -0.25782716 0.091954105
0.10532582 0.26334924 0.02835322
0.15692814 0.28765655 0.038474202
-0.07389014 -0.28196386 0.05634913
0.04316334 0.07595978 -0.00559026
-0.037491232 -0.09620302 -0.025152467
-0.055902913 -0.23081742 0.08164852
-0.0076985103 -0.102084406 -0.0684581
-0.064417325 -0.080239706 -0.029397042
0.03231978 0.032151937 -0.011810075
0.01849639 0.2742691 0.11318341
0.20842986 0.112416945 0.08731759
-0.02148452 -0.31037194 -0.021380505
-0.18016113 -0.2756171 -0.03437119
0.24332134 0.10350647 0.034449477
-0.0017295913 -0.27077174 0.04345608
0.099088594 0.29328918 -0.009076401
-0.2187651 -0.17331189 0.010258951
-0.2074926 -0.20609671 -0.081121735
-0.2146197 -0.13586584 -0.046377417
0.034511607 0.21091259 0.12021245
0.17232129 0.2801984 0.0151942745
0.03875747 -0.24956429 -0.19221221
0.013966373 -0.23518789 -0.20800519
0.06813211 0.118799746 -0.0013513104
-0.01877163 -0.27684024 0.007053425
-0.20895424 -0.28577977 -0.058832508
-0.10159719 -0.16122116 -0.034324937
0.15153655 0.23247236 0.041123003
0.1953557 0.24785317 0.045960937
-0.10397007 -0.21898207 0.12502874
0.010672221 -0.0011031178 -0.014810114
0.15370461 0.16351728 -0.15633935
0.1700115 0.32331473 -0.117988214
0.23953594 0.10520828 -0.022753166
-0.24340996 -0.14495468 -0.07643214
0.13700849 0.2667033 0.055769235
0.077056125 0.18676025 0.14251322
0.26248333 0.14595681 -0.06793201
0.10932028 0.15160765 -0.006660264
-0.24119231 -0.14259858 -0.07775795
-0.06928215 -0.2517899 0.09116525
-0.15790704 -0.33707845 -0.098316796
0.052733615 0.20177305 0.11862134
0.15380621 0.2302713 0.04336229
-0.036925722 0.2942921 0.0133551415
-0.100608855 -0.1718512 -0.2522855
0.17245652 0.24644028 0.037949603
-0.2053455 -0.15016215 0.041975483
0.10877482 0.16029903 0.085654885
-0.17101015 -0.28732845 -0.011296885
0.00014114396 0.23048265 -0.049989466
-0.05403106 -0.08645286 -0.022999393
0.07152657 0.24851519 0.014769172
0.21602744 0.12459702 0.06069959
0.14151289 0.28630728 0.030166175
-0.20216854 -0.2714312 -0.060271602
0.003876086 0.047339894 -0.012434535
0.083682224 0.34637123 -0.06259862
0.234125 0.28686705 -0.046182096
0.020264644 0.018940276 -0.012558761
0.068913214 0.07064838 -0.01603495
-0.06206499 -0.17807405 -0.040447842
0.010698319 0.25148702 0.090834826
0.19798264 0.13419682 -0.09444619
-0.12086525 -0.22175138 0.013555984
-0.25505257 -0.11761577 -0.024091141
0.03305382 0.23964337 -0.00441102
0.096074484 0.10162336 -0.04427605
0.021672294 -0.021490946 -0.02589975
-0.050725456 -0.22231671 -0.021394545
-0.23548393 -0.11845865 -0.108739085
-0.1642885 -0.20038714 -0.013182131
0.21581274 0.109536864 0.049296163
-0.1585457 -0.32173064 0.0047592605
0.060742524 0.25819945 -0.012107387
-0.007851133 -0.016835205 -0.01575315
-0.12996855 -0.34195969 -0.07176656
0.14204194 0.3094153 0.095551655
-0.24661285 -0.11600199 -0.07888109
0.00889267 -0.23473838 -0.18819343
-0.04531748 -0.11045455 -0.026624318
0.19192357 0.20845497 0.08442461
-0.021640217 -0.29537356 -0.0816613
-0.03330654 -0.22093667 -0.11644176
0.058180634 0.026867924 -0.05441334
0.09707908 0.19233389 0.07222216
-0.15346219 -0.18163478 0.08783612
0.15762894 0.3084158 0.08851983
0.03695297 0.24515429 0.054202165
0.24161144 0.11108542 0.047864437
0.025789406 -0.27535412 -0.18899894
-0.19983251 -0.174987 0.10025339
0.12378041 0.27151325 0.037182428
0.27665532 0.20884596 -0.08559751
-0.01781622 -0.04582579 -0.018924598
-0.15581568 -0.268263 0.03383657
0.2248688 0.15018915 0.030859591
0.10932497 0.23970412 0.073464364
0.07733744 0.27274773 0.04185008
-0.017216863 0.30979463 0.021040576
-0.21177325 -0.14679219 0.041186146
-0.044107933 -0.21678278 -0.10381584
0.24367292 0.25806218 -0.02281575
0.23378514 0.13332424 -0.10386818
-0.08311682 -0.19546531 -0.03654363
0.11014557 0.22446153 0.037783395
0.16116512 0.13190064 0.10070421
-0.22750217 -0.2651855 -0.06416308
0.119888805 0.34269205 -0.02411526
0.03055322 0.2576402 -0.07878113
0.12554519 0.15117125 0.14325535
-0.05398318 -0.24433725 0.115396224
0.24295478 0.2533643 0.048178695
0.012961339 0.029155822 -0.011214649
0.06284677 0.20594546 -0.11936853
-0.15562792 -0.3413136 -0.02448391
0.0166246 -0.2912741 0.028689332
-0.004589374 -0.25491852 0.062052105
0.21386045 0.2159328 0.09097585
0.23109043 0.10611639 0.008745229
0.019430341 0.039204005 -0.009911386
0.113072954 0.1552205 0.11230331
0.0240655 0.3336392 0.03999611
0.22701102 0.12251773 -0.12360739
0.14826997 0.1420953 0.06737019
0.028334444 0.10616248 -0.010431962
-0.06269778 -0.25508535 0.10315148
-0.03074089 -0.312098 -0.024618473
0.0056394534 -0.25195077 -0.013704604
-0.0031710088 0.07326311 -0.028211327
0.19610317 0.2825904 0.012333132
0.052724935 0.15426572 -0.005319664
-0.044580404 -0.17325924 -0.061411764
-0.10929968 -0.21733306 0.05758857
-0.04444739 -0.06668686 -0.020795347
-0.10038951 -0.29515597 -0.030106727
-0.1559349 -0.24911334 0.055303898
0.16720276 0.14835662 -0.07994903
0.106641755 0.23151018 0.10527584
-0.067030564 -0.22329484 0.06467082
0.12453938 0.17992392 0.057225905
0.19203703 0.16840324 0.01893136
-0.21203148 -0.13049969 -0.108210705
-0.14230888 -0.32967266 -0.020497045
-0.10218703 -0.20140849 0.028414592
-0.09735727 -0.20133884 0.004955291
0.060363427 0.211433 0.06910109
-0.11835404 -0.21181865 0.049382586
-0.17149432 -0.19080597 0.10615909
-0.11798675 -0.14338672 -0.062630065
-0.14414099 -0.20601586 0.11755513
0.21961436 0.12473385 -0.1091543
-0.1543304 -0.2514304 0.05031301
-0.047960427 -0.044505242 -0.026396362
-0.2247656 -0.14322357 -0.08245029
0.11056897 0.3000236 -0.0022189452
-0.13580686 -0.18172179 0.005238231
-0.090781525 -0.2264795 0.05466674
0.045386843 0.2364558 0.032834124
-0.13967662 -0.19880165 0.029770512
-0.044210352 -0.091430835 -0.023536835
-0.24782257 -0.13597882 0.046489567
-0.23150046 -0.13759118 0.04931384
0.11263398 0.180508 0.08305716
0.281129 0.19301665 -0.083436646
-0.0054804613 -0.07182256 -0.03042467
-0.21175267 -0.3022838 -0.13158631
0.25029492 0.27292627 0.013947091
0.038873248 0.21501489 -0.089963175
-0.20248576 -0.13151057 -0.14396071
-0.15976243 -0.21384232 0.042778216
0.034508392 0.06638033 -0.006778354
-0.0412068 -0.2393552 0.09115426
0.17627263 0.27794334 0.07215554
0.21858525 0.19162278 0.017329594
-0.110702746 -0.14506687 -0.046942808
0.009661321 0.3086884 0.016443145
0.12296761 0.18205868 -0.18254942
0.029309297 0.02806437 -0.012133915
0.032965824 0.060908575 -0.007166583
-0.14083247 -0.20593525 0.10118135
0.06015374 0.18038753 0.12962872
-0.0624838 -0.055401973 -0.034334775
0.084371835 0.13734311 -0.00021334109
0.011213376 -0.30550322 0.011798788
-0.08572459 -0.2007426 -0.03712618
-0.06457064 -0.22116178 0.033331413
-0.06922283 -0.21567509 0.0045851353
0.044001374 0.036223277 -0.01506167
0.0054421513 -0.0019697712 -0.014289567
0.023922205 -0.013219663 -0.02373724
-0.0705261 -0.30589446 -0.030314066
0.03912852 0.2896863 0.11727837
0.04950752 -0.27762282 0.016396008
-0.21174847 -0.21740557 -0.0802802
0.009238959 -0.27499512 -0.1833027
0.24286327 0.24072835 -0.0086476505
-0.023980763 0.041220207 -0.043402895
0.13700865 0.14554153 0.08870939
-0.044442646 -0.06745621 -0.020929357
-0.16312945 -0.15389076 -0.12298033
0.10267016 0.22215772 0.10485635
-0.07222755 -0.18348971 -0.036289312
0.103181385 0.18973374 0.067432396
-0.009604054 0.3068983 -0.084121615
-0.047939062 0.26101187 -0.10509591
-0.038672812 0.30115172 0.016908549
0.0047380067 -0.043822233 -0.024771769
0.21918401 0.18221042 0.0216716
-0.0073442315 -0.030352553 -0.017580034
0.19064178 0.29110178 0.045585543
0.064902104 -0.26961938 -0.13031693
-0.10255235 -0.22791113 0.028657163
0.048875675 -0.26817572 -0.0679538
-0.16237795 -0.24494511 0.0021238965
-0.009803471 -0.28845832 0.00796457
0.16653377 0.27027187 0.07836961
-0.1214514 -0.19187407 0.03127685
0.15957946 0.29323283 0.014930352
0.25008395 0.27977204 -0.050037272
-0.2658571 -0.13000083 -0.010200368
-0.09810492 -0.20211177 0.015633384
0.007950076 -0.047995567 -0.028652785
0.13763323 0.31291294 0.007928149
-0.20801365 -0.27705294 -0.05537278
0.023687778 0.21257547 0.13262874
-0.020633684 0.009110959 -0.020630445
-0.0319306 -0.06700084 -0.020927249
-0.013996082 -0.26471108 0.045375284
0.10706408 0.343966 0.010016148
0.041556384 0.28846383 -0.0046926513
0.15845121 0.3183009 0.014485361
-0.0009399611 0.3083645 -0.07743273
0.2431069 0.2607525 0.033997983
-0.035963196 -0.24321738 0.102088094
0.046349008 0.20647001 -0.046279695
0.043391075 0.20844848 0.10104591
0.14641954 0.20384963 0.053101398
0.23460257 0.12601604 -0.040167846
0.16311786 0.13330644 0.07847855
0.10825518 0.26093754 0.033864606
-0.012079191 -0.2947481 -0.08271124
0.22872494 0.20307535 0.114947006
-0.071703635 -0.19242696 -0.040522445
-0.038133927 -0.31150106 -0.021186637
-0.27416456 -0.10644059 -0.04103357
-0.18946879 -0.24752255 -0.06259566
-0.22133192 -0.21087624 -0.072694875
0.24239539 0.1268324 -0.08452557
0.13956347 0.25933006 0.086720504
0.08040873 0.27945614 0.049182333
0.09086499 0.2872686 0.05196798
0.027154574 0.19830899 0.11983563
-0.10375738 -0.31131747 0.0061929654
0.010003051 0.3273946 -0.06425847
-0.24475114 -0.16146328 -0.15575805
0.22163418 0.29935518 -0.10093582
-0.11037879 -0.22164428 0.10254167
-0.17133489 -0.18881957 0.08703853
0.027627459 0.22499105 0.05421318
0.17329739 0.1755327 0.09730562
-0.10587945 -0.20033306 0.03591595
0.25160173 0.17355962 0.02750874
0.02329179 0.11650581 -0.018244836
0.16931291 0.26364928 0.11207269
0.15168741 0.1618568 -0.13145903
-0.10279756 -0.25696626 0.02204813
0.020187395 -0.24260488 -0.16882578
0.021297185 0.21070726 0.13173747
0.12828493 0.16546984 0.097333655
-0.088182755 -0.33701438 -0.049104873
0.15375575 0.1325026 0.13134424
0.053957403 0.110371046 -0.0025116927
0.074732535 0.09404341 -0.009568187
-0.06225077 -0.06076572 -0.031312488
0.12067974 0.33391145 -0.00293864
0.12805696 0.3017782 0.010083452
-0.032680944 -0.2446598 0.0999173
0.015959468 -0.25264084 -0.05607546
-0.028480021 -0.081890576 -0.023821974
0.05298509 0.073228896 -0.007324992
0.20103557 0.2342593 0.059781592
-0.053289738 0.24755056 0.04462861
-0.22131898 -0.21509466 -0.07207875
-0.060107376 -0.26750693 0.099925585
-0.16913891 -0.2614559 -0.014242211
0.088533916 0.13677602 -0.0008460819
0.21659325 0.288053 0.0018903763
-0.034115456 -0.31509864 -0.09793656
-0.061676256 -0.30349076 -0.026566032
-0.08638538 -0.27436152 0.03951441
-0.0833536 -0.29251027 -0.026559848
-0.178952 -0.31190735 -0.018590739
-0.10864402 -0.17182992 -0.03677973
0.08698711 0.36408967 -0.038868137
-0.23402052 -0.21462035 -0.061031163
-0.27979234 -0.11636041 -0.07047104
0.032790586 0.05359225 -0.008145336
0.07057855 0.29703102 0.10195537
-0.052204415 -0.2697069 -0.010033113
0.0773663 0.2582758 0.009744672
0.11611211 0.18535662 0.05347707
-0.12972875 -0.19630417 0.1113337
-0.21171564 -0.25044557 -0.08179908
-0.018912839 -0.25947702 0.020213367
-0.01924594 0.24481739 0.060719464
0.1049333 0.33377144 0.0523156
0.18570733 0.28868976 0.047269356
0.2294523 0.10647258 0.01319043
-0.06353184 -0.04541022 -0.04070862
-0.23419434 -0.18370882 -0.06759228
0.0050163814 0.0382257 -0.0104971435
0.27001953 0.18697421 0.02169892
-0.052397087 -0.15454067 -0.03638988
-0.118508115 -0.32819113 -0.010289372
-0.08626985 -0.22740236 0.12284126
0.0042602946 0.06462924 -0.016292911
-0.24597435 -0.16752389 0.044819485
0.2310748 0.288147 -0.043660853
0.007968694 -0.25405788 -0.0052275406
-0.105735056 -0.18748541 -0.03391818
-0.030383093 -0.25004116 0.10479046
-0.03634554 -0.22751766 -0.04124571
-0.043856602 -0.30411318 -0.08550495
-0.25922328 -0.106897645 -0.10347432
0.07147907 0.34992367 -0.0022647015
0.16735497 0.328277 -0.11754257
-0.16172345 -0.29780135 0.010246491
0.033795875 0.2208217 -0.11965807
0.16667612 0.3306004 -0.018338105
0.15580532 0.26438162 0.08541104
0.20271257 0.20719948 0.09286752
0.27224982 0.20444319 0.011449039
0.07749257 0.17135106 0.146106
-0.01126017 0.30146462 -0.08656814
-0.24924321 -0.11245956 -0.09920122
0.01912703 0.2959643 0.0063720564
-0.03182954 -0.0891308 -0.024649901
-0.018926136 0.018924167 -0.021155624
-0.2398489 -0.27195534 -0.109334044
-0.01871507 0.04229152 -0.031220274
0.12106946 0.24292819 0.032563835
0.026152585 0.29619196 0.0067007164
0.101763904 0.1592363 0.14646913
0.2511235 0.121013485 -0.071962275
0.09734154 0.219889 0.1375055
0.027868036 0.25361446 0.07370942
0.067115925 0.1810576 0.09054277
-0.014640331 -0.031632245 -0.017228518
-0.27802435 -0.118807495 -0.027074397
0.1927108 0.18982609 0.10405095
0.11063231 0.1914809 -0.21138173
-0.0076981904 0.2979869 0.011381626
-0.20373435 -0.26527393 -0.05781631
-0.07409125 -0.33482748 -0.047122464
-0.08869459 -0.30587718 -0.034071162
0.012160907 0.22880752 -0.09128245
-0.026525306 -0.23621522 -0.0072298883
-0.080987774 -0.20109376 -0.038344443
-0.1370391 -0.1974462 0.12281733
-0.043894734 -0.04782325 -0.022174971
-0.049321007 -0.23370178 0.07722249
-0.10823243 -0.30659398 -0.034148756
-0.20414048 -0.16611557 0.0955582
-0.0067826915 -0.29464433 0.0061124815
0.036388792 -0.24735592 -0.20143938
-0.03495758 -0.0824648 -0.023090499
0.19144522 0.11770812 0.105281495
-0.11468233 -0.32345322 -0.007556382
0.08618853 0.33222985 0.051040396
-0.15728088 -0.23712295 0.072476745
0.07780506 0.1403611 0.001153605
0.11163144 0.2877225 0.00874163
-0.22290815 -0.13626762 -0.0035104165
-0.21729086 -0.16136688 0.085331306
-0.16845827 -0.19271193 0.1144138
0.0061897985 0.07396978 -0.017232683
-0.15854977 -0.21142718 -0.01737789
0.11282223 0.19668615 0.04977315
-0.036580972 -0.08503161 -0.023328118
0.010461375 0.21192536 0.072814226
0.14552405 0.14306834 0.13719195
0.2564152 0.23309462 -0.08436015
0.031562667 -0.015177962 -0.0322762
-0.03976116 -0.028286377 -0.024684323
0.012445867 0.3082156 -0.07345125
-0.21859856 -0.25639415 -0.07736345
0.07492536 0.2895291 0.08080925
-0.053672243 -0.22047949 -0.024457607
-0.099368125 -0.2872096 0.018073367
-0.16208182 -0.22596042 0.106112376
0.08835 0.29218817 0.07429676
0.15383016 0.13432522 0.11293707
0.06853933 0.36375734 0.015022417
-0.0914006 -0.35158336 -0.110969976
0.24933214 0.20907895 -0.06926777
0.03888573 -0.001448462 -0.03134199
0.23538558 0.11893155 0.02162705
0.07353637 0.12160894 -0.0015567984
0.19368137 0.16895866 0.12536007
-0.19720608 -0.32213414 -0.049269706
0.07597587 0.2788728 0.05799651
-0.14466304 -0.28218353 -0.019048518
0.10421748 0.22232139 0.13601567
0.0778308 0.30653852 0.0045946147
-0.005660498 0.28246814 -0.08775024
0.08992024 0.20758247 0.09652521
0.17718652 0.14518763 0.05382719
0.057317615 0.19199073 0.14335214
0.021921756 -0.28221613 0.055491198
-0.20610112 -0.28043202 -0.09936502
0.21245515 0.12837286 -0.10897154
-0.08345837 -0.3185033 -0.03786623
-0.061397675 0.2670083 -0.08225046
0.01687319 -0.04601769 -0.03752862
-0.15732828 -0.2363356 0.055662468
0.17397891 0.2168214 0.06309057
-0.17336506 -0.26236707 -0.020897305
-0.24237107 -0.12891488 -0.1830615
-0.08281239 -0.14094593 -0.028773893
0.025935087 0.20169352 0.13441552
0.17059171 0.32160157 -0.029466284
-0.18546088 -0.1659949 0.09441148
0.22849202 0.19684833 0.016105782
0.056774344 0.16227208 -0.0044736345
0.039691813 0.29237038 0.12162586
-0.19982298 -0.19244371 -0.017686501
0.22219217 0.11574862 0.07367784
-0.12373465 -0.34570104 -0.07151292
0.14072096 0.26350036 0.025192032
0.02534819 0.019676423 -0.013082804
-0.16560696 -0.24964993 -0.009313498
0.13711075 0.31967995 0.0052869897
-0.21557258 -0.30707166 -0.06261139
0.20983948 0.13425316 -0.15098074
0.16009717 0.14300278 0.003112239
-0.05238294 -0.21937779 -0.04073429
0.07145958 0.2768168 -0.030645132
-0.01787379 -0.05693317 -0.02084718
-0.008725885 0.22632979 0.030290779
-0.07022277 -0.15098049 -0.030469602
-0.2239925 -0.19742928 -0.072603956
-0.22268139 -0.14401744 0.067063354
0.09699508 0.2040068 0.05035641
-0.16030619 -0.2504973 0.024256425
0.22762546 0.19691041 0.11660229
0.14586937 0.14330669 0.1371409
0.048676614 0.14626181 -0.006165228
0.047058612 0.288943 0.106403224
-0.15251 -0.24096505 0.07277992
-0.16417228 -0.33431086 -0.102863066
0.22403063 0.17526098 0.023635803
0.057223238 0.26432478 0.054477576
-0.08211715 -0.27660826 0.046773225
0.049862824 0.24707535 0.04021949
0.18734784 0.18921427 0.10112127
-0.033795845 -0.31406942 -0.027310958
0.12969732 0.14962031 0.08554149
-0.18330619 -0.31689525 -0.064593814
0.21494883 0.1316981 0.00014563388
-0.19092543 -0.31907874 -0.025208257
-0.08648384 -0.30607235 -0.034269057
0.11231839 0.29484785 0.0041152667
0.1728776 0.26619777 0.10809983
-0.058502488 -0.090880245 -0.02328565
-0.027948208 0.3168408 0.026228145
-0.16460654 -0.32043248 0.0013650613
-0.2190972 -0.27373683 -0.07944553
-0.04086685 -0.05328624 -0.0199741
-0.218151 -0.20586015 -0.074568234
0.1266825 0.1480022 0.14255866
-0.16222222 -0.29942366 0.00040542713
-0.13502704 -0.20237085 0.12301943
-0.18671943 -0.13113151 -0.22194365
-0.046105765 -0.07087654 -0.021310156
-0.236498 -0.14985214 0.06499202
0.06572855 0.12387094 -0.00026058021
0.008756754 0.23077704 0.058235243
0.21545261 0.19761413 0.1127571
0.17534834 0.302394 0.018560609
-0.0680813 -0.06777823 -0.034793064
0.09006118 0.21358551 0.08535207
0.09330347 0.1640558 0.0032816469
0.19321026 0.20586836 0.0879304
0.115702696 0.22100762 0.03789242
-0.019692473 -0.09294429 -0.0305154
-0.21011458 -0.12649438 -0.15429512
0.043874282 -0.270885 -0.019281426
-0.015543205 -0.26740214 0.07755921
-0.07803688 -0.21090248 0.0021021236
-0.14863046 -0.32626662 -0.02100452
-0.107229784 -0.1718878 -0.035565864
-0.12422118 -0.2071108 0.124653704
0.022066917 0.11432036 -0.018612163
-0.118165284 -0.282853 -0.00084598735
0.05732122 0.025723094 -0.05269391
0.19811368 0.30153653 -0.007631319
-0.022464646 0.24386103 -0.06687758
0.008789962 0.21610315 0.042090874
0.07989161 0.19083327 0.091463745
0.025877219 -0.29250413 -0.08020896
0.22340547 0.23170629 0.07330307
-0.21132393 -0.29813212 -0.0422649
0.10431545 0.28825748 0.0007937357
-0.15891735 -0.31955928 0.0050963173
0.02886711 -0.28300565 -0.07156306
-0.019234722 0.030296968 -0.025721502
-0.14266586 -0.20781255 0.015210981
0.18428853 0.19589029 0.09224604
-0.20135942 -0.24762353 -0.09641311
-0.27345955 -0.10249205 -0.07695157
0.14045118 0.24774702 0.14508265
-0.108576655 -0.35069433 -0.051056083
-0.0479973 -0.21565367 -0.09588247
-0.05532043 -0.24699171 0.11510461
0.05706325 0.16892616 -0.005246457
-0.23274192 -0.11169687 -0.18420383
0.0007812272 -0.29850036 -0.08873799
-0.06340017 -0.1674835 -0.034973957
-0.11683709 -0.17613602 -0.041409932
0.13182399 0.28010595 0.03333408
-0.007992501 0.3349215 0.042210676
0.023979513 0.20180067 0.10255575
-0.06881397 0.26293486 -0.0021159397
-0.059106123 0.26351982 -0.07552537
0.0006520794 0.29196313 -0.08253855
0.027323464 0.22466165 -0.12458175
-0.01897522 0.036285203 -0.028467258
-0.23753692 -0.13913624 -0.059530176
-0.018411303 -0.30018234 -0.085849494
0.20741758 0.18881781 0.018988088
0.21774611 0.23314026 0.000808617
-0.104595244 -0.26691732 0.018744526
-0.119938046 -0.29952267 -0.003962234
0.009990234 0.306081 0.014034248
-0.014868008 0.23401105 -0.011705499
-0.04322668 -0.1719271 -0.07777373
-0.07895742 -0.28869644 0.037163988
-0.064855665 -0.3270372 -0.04087282
0.13791446 0.306214 0.08610602
-0.13379027 -0.20383924 0.048534695
-0.02483327 -0.29562086 -0.081187055
0.018656116 0.120793514 -0.03205531
-0.07961708 -0.21238911 0.023309529
-0.07373429 -0.08917062 -0.032643296
-0.18983516 -0.26808304 -0.100802384
0.052620918 0.2031642 0.106295995
0.1623356 0.25424674 0.03295516
-0.037245154 -0.31737775 -0.1003359
0.017056448 0.22248013 -0.055915315
-0.2318211 -0.119464874 -0.11673997
-0.20568363 -0.1648858 -0.08463957
0.04131137 0.23638497 0.010803481
0.03113235 0.20114653 0.13626927
-0.20486587 -0.19690365 -0.083315484
-0.19265437 -0.26617497 -0.06868395
-0.1401272 -0.33927792 -0.02191759
0.27999857 0.17186022 0.028294662
-0.03928274 -0.07718369 -0.022377891
-0.076899186 -0.17417519 -0.033642575
0.072311 0.30877578 0.009401879
0.10919365 0.3033461 -0.015635068
-0.16117118 -0.18039289 0.11277241
-0.25510696 -0.11766462 -0.17502563
0.0024612322 0.009261263 -0.013421023
0.0965286 0.22668196 0.06949565
-0.05344188 -0.307985 -0.08531067
-0.032394357 -0.22018115 -0.12773286
-0.016204087 0.0243102 -0.020587264
-0.046768315 -0.23164783 0.04617507
-0.15784264 -0.3173344 0.00605023
0.04361945 0.262236 0.06667883
0.12697828 0.34494007 -0.060068686
0.122081794 0.24346213 0.085288644
-0.04279567 -0.23878324 0.09337138
0.18521294 0.3133117 -0.05432169
0.07699528 0.36390522 -0.048552454
0.24771804 0.10521654 0.025559884
-0.22672077 -0.13573977 0.009621457
-0.16039418 -0.21744008 0.0524601
0.046994578 0.0631087 -0.008314796
-0.08022808 -0.30062655 -0.031216877
-0.18354242 -0.17998682 0.06305481
-0.1024901 -0.33826312 -0.047553957
0.016948957 -0.29335177 0.027238311
-0.080339424 -0.32128888 -0.03929709
-0.021647196 -0.25817963 0.012498789
-0.06747499 -0.25649267 -0.013246418
0.046866123 0.20295936 0.13537453
-0.09479034 -0.20844442 0.058517996
0.044961546 -0.27028343 -0.029977731
-0.083475314 -0.32692203 -0.0422055
-0.13067083 -0.30858043 -0.012454898
-0.11143808 -0.22889787 0.0074721435
0.2697273 0.21327618 0.001857575
-0.0044660205 0.32562032 0.03284239
0.06889247 0.18623866 -0.0019430859
0.27886 0.2072839 -0.090776116
0.08949536 0.218387 0.06092418
-0.18660705 -0.17741725 0.053777467
0.0730269 0.33940783 0.059554204
0.19829169 0.19467527 0.102825664
-0.102214366 -0.32949176 -0.043905977
-0.24258089 -0.14401528 0.056945924
0.17047617 0.1270345 0.10170127
-0.021707121 0.23401056 0.020607367
0.048781935 0.18620937 0.12952949
0.034121476 -0.24870016 -0.17830175
0.26430386 0.20508504 -0.07715117
-0.24017857 -0.15724291 -0.07371791
-0.044884056 -0.10352479 -0.025475672
0.15030739 0.15633819 -0.073927
0.14987594 0.18701893 0.064532645
0.09070501 0.28763407 0.004854546
0.008826944 -0.24618858 -0.08203118
-0.052296776 -0.11091538 -0.025808886
0.020505046 0.09198802 -0.0122470185
0.287765 0.18661909 -0.086026095
0.1343641 0.16514239 -0.07999976
-0.27116498 -0.10764407 -0.040160682
0.08695965 0.28218222 0.04383113
0.16872114 0.12988454 0.12358179
0.015707422 -0.25636578 -0.020448664
0.06382125 0.3211559 0.02702093
0.13106917 0.3380974 0.0029708778
-0.21476704 -0.30971056 -0.064278476
-0.22737867 -0.17108311 -0.07492485
0.031151569 0.19783309 0.10535264
-0.105992585 -0.30183262 -0.03254707
0.061653826 0.2958292 0.10804654
-0.016363949 -0.24817331 0.05531751
-0.15218982 -0.29664326 -0.025768459
0.14474265 0.20960425 0.049446896
-0.0036831587 -0.2657765 0.086269
-0.02592629 0.3150914 -0.08857147
-0.1300227 -0.34871954 -0.07260959
0.10839833 0.15044236 -0.0065765376
-0.090489306 -0.24112052 0.043297704
0.18848577 0.27196684 0.09152325
0.22481853 0.2239335 0.0049390644
0.20183828 0.17984287 0.01772454
-0.08748507 -0.1163408 -0.035518777
-0.25642183 -0.1335423 -0.022030534
-0.0989652 -0.30019253 -0.031913053
0.22420055 0.22037715 0.0065119783
-0.06675498 -0.17248572 -0.035002876
0.2515778 0.21286026 0.005638964
-0.073443115 -0.24247944 0.08422489
0.101798795 0.22755548 0.120407864
-0.23991895 -0.12940419 0.013397603
-0.0813914 -0.12697864 -0.029321413
0.17906082 0.17126629 0.016626285
-0.101282574 -0.14354773 -0.038411237
0.12696771 0.31996122 0.008357603
-0.14513862 -0.17029096 -0.056354694
-0.16357526 -0.23819388 -0.057756815
0.20836519 0.28151712 0.074532606
-0.13001634 -0.25075528 -0.016345153
0.047704212 0.16459195 -0.013235949
0.07713272 0.20063888 0.081668876
-0.036201112 0.24997129 -0.058474712
-0.16188166 -0.2343768 -0.007822769
-0.17447913 -0.3201102 -0.011854761
0.1474163 0.16727844 -0.1614048
-0.090675175 -0.09410482 -0.07339134
-0.21813227 -0.2140159 -0.07376258
-0.0072140084 -0.26666364 0.03138743
-0.02922439 -0.14428917 -0.05926821
0.021104427 0.085714586 -0.011100033
0.052272603 0.25105083 0.04271837
-0.03091463 -0.29241437 -0.008995218
0.009251994 -0.30791113 0.009047783
-0.015104996 -0.11523844 -0.054825805
0.033635635 0.14560649 -0.020685652
0.18675385 0.1860452 0.103617035
-0.11984222 -0.19530442 0.0553878
-0.037891433 -0.008290876 -0.028609712
0.11399311 0.32247534 0.024465242
-0.027334012 -0.034397356 -0.01738098
-0.20514461 -0.15837504 0.093173675
-0.002059865 -0.011178727 -0.014926743
0.123715155 0.199606 0.04337164
-0.09568294 -0.22494432 0.123726055
0.06641281 0.05349927 -0.024411183
-0.15823847 -0.3424742 -0.07077909
0.2661271 0.1883443 -0.071898974
-0.042558946 -0.23242515 0.03347657
-0.18353347 -0.19335248 -0.037427187
-0.061437994 -0.24881606 -0.0020399776
0.1260548 0.23591103 0.0345342
0.001386699 -0.052708052 -0.026496217
-0.06272442 -0.08625479 -0.02594401
-0.08247826 -0.34428528 -0.053155806
0.18363716 0.23733856 0.05204995
-0.025001107 -0.22283803 -0.13809715
0.013408461 0.21663426 0.015359248
-0.135316 -0.19226167 0.100356445
-0.19290636 -0.14242844 -0.08828227
0.09269364 0.21163921 0.10007519
-0.1865107 -0.13862857 -0.15362355
0.0151162585 0.10042754 -0.01993509
0.109135754 0.16526945 0.038003042
0.2784808 0.18073225 -0.0793653
0.038324155 0.063744284 -0.007091995
0.1692793 0.14991523 -0.104165606
-0.12647524 -0.34159228 -0.019060468
0.065711275 0.0671939 -0.015486894
0.13985892 0.24632613 0.15162885
-0.050733954 -0.009299909 -0.053269558
0.058236457 0.15438528 -0.0012658178
0.056792255 -0.29401448 -0.01812452
-0.1990033 -0.26161495 -0.058022585
0.17265818 0.13384578 0.12313307
-0.16077235 -0.2257376 0.087065935
-0.092097245 -0.20086731 -0.02425114
-0.032999475 -0.090408474 -0.02472206
-0.016637236 -0.22061634 -0.19814375
0.08248085 0.075050004 -0.044741377
-0.19902073 -0.25241873 -0.037187383
0.06895209 0.28275505 -0.021458497
-0.13041693 -0.28035024 -0.010606793
0.15985079 0.26675406 0.077597246
-0.009456527 0.30959114 0.020884506
0.148347 0.15474625 -0.04994558
0.19754802 0.19660428 0.0145378485
0.08603004 0.18487617 0.1175387
-0.07250586 -0.18785062 -0.23713365
0.21547574 0.29489183 -0.08901722
-0.16488843 -0.3371655 -0.030400751
0.051929053 0.22430058 0.03259025
-0.17246644 -0.31222242 -0.010345328
0.120825775 0.15770814 0.05268201
-0.059148207 -0.24861339 0.10985062
-0.24615729 -0.10655559 -0.16835931
0.051539034 0.024734976 -0.027207911
-0.15134695 -0.17877613 0.051415876
-0.06652691 -0.06780111 -0.03289814
0.21042618 0.13462411 -0.15718104
-0.16533133 -0.16767968 0.014894024
-0.10316842 -0.3231329 -0.00089002046
-0.1252511 -0.18054466 -0.046442352
0.042036504 0.2840501 0.102965385
0.07706103 0.11397965 -0.003334284
-0.016521113 -0.23284557 -0.08563904
-0.21172556 -0.2424433 -0.082516395
-0.21938981 -0.1193808 -0.17624408
0.14012928 0.17019588 -0.15394959
-0.0035697059 0.3269888 0.033792462
-0.11776331 -0.3008013 -0.0023298024
0.16408698 0.27506536 0.071021065
-0.209657 -0.29808697 -0.021815486
0.06699185 0.04967213 -0.032873955
-0.067001104 -0.21697727 0.006127777
-0.23505577 -0.1292313 -0.01117343
0.22412167 0.14660545 0.03216745
-0.16115932 -0.20446071 -0.012748851
0.08767999 0.16980053 0.004461512
-0.039390266 -0.117677815 -0.028662298
-0.03589279 -0.008471109 -0.026096467
0.11860661 0.21622688 0.038364492
0.24144207 0.2472754 0.054292187
-0.027882937 -0.04947538 -0.019828415
-0.14727055 -0.16704948 -0.07624945
0.19900204 0.26378086 0.02943576
-0.0803568 -0.30459592 -0.032215115
-0.058343828 -0.27257633 0.10011698
0.08779344 0.14121945 2.1211421e-05
0.031643193 -0.27802014 0.04902803
-0.035312757 -0.2094768 -0.2129055
-0.039030194 -0.23769219 0.06549992
0.120771706 0.15393505 0.14434741
-0.2164611 -0.19860171 -0.13790564
0.026534582 0.19742426 0.130943
0.27427596 0.19986215 0.015296059
-0.04064068 -0.044717703 -0.021039495
-0.08548981 -0.1593348 -0.031625196
-0.2467915 -0.12696595 0.023320533
-0.21065396 -0.15851943 0.08962591
0.0360288 0.20408988 0.1377725
-0.025115002 -0.2637128 0.0886713
-0.031117495 -0.14540887 -0.05702212
-0.10914299 -0.21671492 0.051136628
0.19693278 0.16138825 0.020821223
-0.00080353627 -0.26991114 0.024989313
0.034752294 0.25464502 0.06784188
-0.23004368 -0.190789 -0.06958023
0.033988137 -0.24512064 -0.21076143
0.037386425 -0.27440006 0.043862894
0.109539695 0.23580681 0.09304368
0.21392348 0.226663 0.07533012
0.14544015 0.25914332 0.10689994
0.013064984 0.08852579 -0.01633932
-0.03083345 -0.2645124 0.0051589175
0.02545382 -0.031237757 -0.040325746
0.24689938 0.2581951 0.03818895
-0.04705179 -0.24695487 0.112925485
0.062319145 0.29159483 0.09731607
-0.024753418 -0.23092425 -0.06451419
-0.21990477 -0.16044253 0.082713835
-0.04349988 -0.2118329 -0.15244804
-0.23093763 -0.27620733 -0.11290058
0.22985663 0.12329946 0.007365255
0.10212162 0.22763495 0.08537649
0.1343812 0.15198041 0.14226188
-0.2344488 -0.13876088 -0.077585466
-0.053082984 -0.21113753 -0.11360726
0.09770158 0.2982553 0.08168249
-0.02884026 -0.006682304 -0.022404216
0.057766154 0.14774287 -0.0001917062
0.08818225 0.12413902 -0.0050750202
-0.055107642 -0.25054535 -0.0051063243
0.06304375 0.32046527 0.02619751
-0.06595274 0.27032596 -0.05151873
-0.21774083 -0.1634697 0.07190981
0.007886175 -0.0025886414 -0.014710982
0.17968038 0.13338327 -0.00046988475
0.04963639 0.010230835 -0.042378705
0.016232125 0.26066425 0.09316381
-0.04849409 0.24471474 0.04818953
0.11391925 0.33833626 -0.035683714
-0.26699567 -0.13049757 0.013911585
0.008351703 -0.23508486 -0.18243517
-0.18629575 -0.14589633 -0.087450884
0.09369247 0.16921319 0.07449762
0.10306826 0.30566135 -0.017674258
0.040666707 0.22044338 0.0642375
-0.020706274 -0.012863472 -0.015839009
0.039766967 0.16055362 -0.047950376
0.05976416 0.17427495 -0.00468299
0.024405247 0.22017454 -0.069318235
0.054939874 0.22562255 0.032455165
0.21684079 0.19391257 0.016342632
0.078880385 0.1786047 0.057645794
-0.022915462 -0.08496229 -0.025069702
-0.17719807 -0.18101071 0.04254995
0.029164232 0.21395797 -0.03432652
-0.13114475 -0.3175952 -0.014899822
-0.21496606 -0.20034112 -0.0772964
0.020346856 0.27222353 0.10619044
0.20449568 0.23922196 0.055414226
0.13177066 0.330393 -0.0055891112
0.1991179 0.15565865 0.022315789
0.20444068 0.13459991 -0.12868169
-0.19736353 -0.12573873 -0.22151594
-0.19266665 -0.23543628 -0.046208188
-0.10642724 -0.23433283 0.012955638
-0.022800004 -0.23345143 -0.05037603
-0.054899 -0.12910974 -0.028636161
-0.16285917 -0.28246188 0.002105642
-0.2820291 -0.11390863 -0.07444387
0.12429772 0.33899018 -0.026728023
0.15915844 0.26042023 0.1219139
0.045750383 0.010408595 -0.03150373
-0.23433024 -0.18854827 -0.0671483
-0.15814947 -0.25202012 0.03174897
0.038140908 -0.28592104 0.038557325
0.030658076 0.3013407 0.007691502
0.27178228 0.15110475 -0.071116686
0.20641632 0.19473022 0.016918307
-0.18654986 -0.17603299 0.040711027
-0.17308377 -0.21195878 -0.05760136
0.20235978 0.23463674 0.05968813
0.17888807 0.18820183 0.09365147
0.04452235 0.3017393 0.008054678
0.26693374 0.19498703 0.017402234
0.14391531 0.23199117 0.038739927
-0.11591189 -0.21616508 0.07802574
-0.17185305 -0.286167 -0.058543906
-0.12454928 -0.20875166 0.050293297
0.25275153 0.10216418 -0.057040583
0.23945552 0.17375319 0.026052041
-0.11653698 -0.19674817 0.053121272
0.028592786 0.21277712 0.13093475
-0.04930427 -0.30495775 -0.024207596
0.06547619 0.09529918 -0.005093762
0.04691313 -0.28479207 -0.056714516
-0.045319173 0.24802983 0.0025474562
-0.11899262 -0.30258542 -0.0035236692
0.041500833 0.115683615 -0.003603426
-0.17697835 -0.3032683 -0.06271175
-0.13616602 -0.23079045 -0.012691274
-0.005944405 -0.25221604 0.04347183
-0.12876295 -0.19514059 0.09601466
-0.1358765 -0.34800696 -0.09833395
-0.17616364 -0.17114215 0.09807543
-0.17988166 -0.27957836 -0.026004896
0.15719578 0.2119785 0.057182856
-0.06769651 -0.12215735 -0.02744886
-0.16649437 -0.14918166 -0.15062
-0.0971004 -0.30655992 0.0134137785
-0.07965316 -0.22143415 0.107096665
-0.12722683 -0.32680428 -0.016182154
0.14600448 0.18954338 0.060532775
0.07346892 0.34205008 0.06120124
0.11471853 0.23476698 0.13633695
-0.10441172 -0.28770605 0.013132489
-0.25750518 -0.1333481 0.033414837
-0.17385209 -0.17942251 0.012061867
0.043336637 0.23988198 0.0046239044
-0.02571271 0.30461964 0.017353278
-0.116059884 -0.27039897 0.0026248868
0.0015250285 0.046567306 -0.014887944
-0.02478675 -0.30333036 -0.086852975
0.07786052 0.34714785 -0.002283814
0.25368476 0.16162959 0.032100905
-0.18310675 -0.2543593 -0.06965713
0.18620598 0.17171462 0.01789493
0.036697615 0.3259062 0.030762704
-0.06406562 0.27553335 -0.030170983
0.094159946 0.2157073 0.044188295
-0.16642644 -0.2913131 -0.0014171602
0.07851472 0.16344148 0.003409399
-0.02780321 -0.0412048 -0.018503647
-0.26045004 -0.14110602 -0.17115761
0.22933313 0.2598901 0.035119716
-0.089686416 -0.337137 -0.0494334
0.25935903 0.22825204 -0.08403944
-0.20846274 -0.16342172 0.027638316
0.17632313 0.15507987 0.042278755
-0.061638072 0.25892445 0.020274483
-0.15891105 -0.16463411 -0.043588717
