# .PCD v0.7 - Point Cloud Data file format
VERSION 0.7
FIELDS x y z
SIZE 4 4 4
TYPE F F F
COUNT 1 1 1
WIDTH 1000
HEIGHT 1
VIEWPOINT 0 0 0 1 0 0 0
POINTS 1000
DATA ascii
0.28547904 0.05398843 0.047370687
0.2743689 0.15616019 -0.016730387
-0.18987966 -0.14838864 0.15632929
-0.17315076 -0.15846212 0.15284778
-0.27483088 -0.006241069 0.100671284
0.189341 0.058101635 0.06004121
-0.29613724 -0.0018446564 -0.09336943
-0.28546086 -0.22883359 0.027433697
-0.27895674 -0.051647324 0.06920748
-0.2998603 -0.19608214 0.050639585
0.19133559 0.26876283 -0.06392765
0.2350618 -0.028318072 -0.096781775
0.18580459 0.20322023 -0.03646828
0.12104863 0.06480697 -0.019354315
0.11549686 0.18866745 0.090318725
0.121625945 0.27303097 -0.099838845
0.091891035 0.20407379 -0.076922596
0.26620245 0.21789917 0.017340507
0.23930179 0.06824042 0.028217984
0.09162348 0.21090573 0.001980281
-0.16426533 -0.18278557 0.14684762
0.27482283 0.16022806 -0.023287103
-0.26756257 -0.24053805 -0.0008624613
0.33463633 0.008624492 -0.046836693
-0.23729025 -0.08541454 0.0526267
0.22305924 0.19417977 0.046864152
0.24256058 0.041594315 0.055478536
0.1663608 0.094124615 0.047471307
0.2128105 0.24937177 0.016394181
0.1802511 0.08189744 0.12054684
-0.22851112 -0.09796693 0.065488696
0.33977395 0.08132573 -0.01932199
0.15861858 0.1763799 0.032911636
-0.28885674 -0.07055604 -0.09438627
0.20513716 0.19967821 0.06135937
0.22891809 -0.0064802733 0.05034606
0.24257101 0.11986985 0.11540797
0.067173496 0.07665651 -0.034596633
-0.28711694 0.014044602 -0.05933694
0.2290728 0.20306258 0.07842013
0.23351793 -0.024790807 -0.08397199
-0.16161221 -0.17206246 0.14034542
-0.28716207 0.0073605548 -0.14262955
-0.16061787 -0.19776021 -0.15669045
-0.3085988 0.027823227 0.024734924
0.22454295 0.0064196587 0.084436715
0.15543962 0.08824963 -0.24196728
-0.2102836 -0.09574045 0.11404996
0.07022911 0.25536165 -0.06716665
-0.16197205 -0.19710627 0.14100006
0.15143517 0.118552856 0.052019943
-0.25512126 -0.1585147 0.08892882
-0.12578082 -0.27211612 -0.039975088
0.2622747 0.12670824 0.09364779
-0.21046993 -0.09879573 0.07268672
-0.13771233 -0.12905397 -0.024350772
-0.17762925 -0.15539397 0.02754497
0.16930187 0.11791871 0.05815082
-0.27224705 -0.01904501 -0.17176998
0.27059677 0.15719256 -0.016304633
0.23231667 -0.027955648 -0.14685625
-0.02063988 0.02701366 -0.038574565
-0.26349682 -0.23399694 0.034356833
-0.28321123 -0.25476262 -0.0075164135
0.074318804 0.03127362 -0.016878258
0.23623508 0.04420658 0.051914897
-0.14938967 -0.2761265 0.02914033
-0.2509712 -0.097714484 0.026008334
0.23286726 0.18391003 -0.01371461
-0.28586334 -0.24640343 0.025833415
0.11352155 0.18214849 0.08261432
0.1439319 0.19504504 0.07844263
0.25513083 0.021443952 0.07937982
-0.2538465 -0.048514232 -0.16940948
0.20119612 0.06554068 0.046233527
0.2915984 0.0481557 0.054098316
0.14536111 0.27191815 0.012049
0.0029127875 -0.047314793 -0.040527277
0.2639694 0.08715244 0.012096151
-0.23555462 -0.0829433 0.1107316
0.22281256 0.00076759397 0.018368997
-0.26322642 -0.24822274 -0.0060337884
0.11477457 0.2660148 0.0052674008
-0.29260007 -0.0826824 -0.17167915
0.18067469 0.16411614 -0.01261191
0.24770975 -0.011632661 0.019153431
0.32111922 0.096055105 -0.02917984
0.154341 0.25949448 -0.08808104
-0.21959253 -0.08083104 0.1128699
-0.28920773 0.016796336 -0.06695855
-0.030859405 0.004769005 -0.018252127
-0.28651968 -0.082171924 -0.17406876
-0.25826147 -0.14951967 0.08301361
0.19919376 0.04495991 0.09382159
0.07946894 0.22055222 -0.12062936
-0.15510419 -0.21195959 0.11891895
-0.2680322 -0.022011297 -0.1245806
-0.12782536 -0.24963462 0.098871514
0.17269911 0.23999397 -0.0075858636
0.2236005 0.030475006 0.059163306
-0.198598 -0.11281474 0.1357731
-0.20178695 -0.11101879 0.09454405
-0.18722928 -0.19604921 0.09403556
0.25325543 0.16013002 -0.013689507
0.24135976 -0.0029712892 -0.0002540641
0.13358675 0.23474556 -0.011374659
0.310371 0.15758808 -0.060481176
-0.2800351 -0.2620179 -0.013642638
-0.24383056 -0.10212685 0.036268573
0.3243154 0.08532854 -0.010345774
0.22412075 -0.009164549 -0.07807624
-0.28771743 -0.008656536 -0.010032954
0.25544906 0.13383152 0.036097206
0.13552897 0.13845953 -0.018650396
0.18031196 0.10819961 0.05490564
0.21666676 0.1487206 0.0041930256
0.009290305 0.0054323412 -0.012373444
0.18697576 0.045798797 -0.13862817
0.26264656 0.07221566 0.025272103
-0.22830604 -0.24529755 -0.04891652
-0.26489916 -0.08980059 0.0001687369
0.15573926 0.11625499 0.10921874
-0.16929592 -0.16362503 0.09167271
-0.22941756 -0.12163806 0.050367504
-0.16928633 -0.25049564 0.022221765
0.13887113 0.13684589 0.027871862
-0.33205834 -0.210788 -0.051668484
0.3435963 0.08956112 -0.040840182
-0.14126469 -0.23066081 -0.17770608
0.20149854 0.19301757 -0.054609284
0.28992513 0.035915963 -0.117408454
0.103455216 0.019474886 -0.038282577
-0.17150767 -0.16176969 0.07059986
0.20557334 0.20875274 0.08700395
-0.010273273 0.023908064 -0.02519501
-0.24956042 -0.20644614 0.03914238
0.2750612 0.04483375 0.05765076
-0.26118913 -0.041640453 0.1105053
0.16693154 0.14618927 0.011339796
-0.120856054 -0.10878175 -0.014555766
0.15784882 0.19599353 0.071739405
0.10161578 0.19396628 -0.00828171
-0.28938162 -0.07858776 0.055254735
0.23600705 0.07916287 0.019176668
-0.3252683 -0.10514378 -0.017325766
-0.29226184 -0.00068506744 -0.0020684774
-0.32230005 -0.11852396 -0.07275989
-0.11980609 -0.03214778 -0.036344536
-0.15071277 -0.19850726 0.030930918
-0.2459039 -0.24861507 -0.0043504136
-0.24328496 -0.13020249 0.0951442
-0.30326065 0.020354211 0.038734224
0.13780458 0.16104618 0.10812295
-0.28473023 -0.0065383967 0.075436056
0.16808866 0.17249025 0.017907757
-0.22536142 -0.08483999 -0.05119329
-0.22248375 -0.10331137 0.11937745
0.121410646 0.18187986 0.096029066
-0.06964176 -0.06193088 -0.010000169
-0.26139116 -0.21470891 0.033927973
-0.2887612 0.01668243 -0.05949215
0.21680945 -0.0044768206 -0.16556582
-0.11350959 -0.2694239 -0.10402832
0.0535225 0.07826584 -0.05084553
-0.23480287 -0.20944172 0.04958976
0.2619842 -0.052327354 -0.028915877
0.12982738 0.17953672 0.033344742
0.24149017 -0.031130612 -0.0037094282
0.1652653 0.08134655 -0.13182051
-0.22779344 -0.22228944 0.059172466
0.20869201 0.09562322 0.008914396
-0.3295481 -0.1515274 -0.016220275
0.14883697 0.28574592 -0.08708513
0.14064108 0.06142971 -0.024844846
0.11617778 0.17081489 -0.004318355
0.081107356 0.08189493 -0.031311832
-0.32037437 -0.2293613 -0.007551939
-0.20284231 -0.26432273 0.0027970457
-0.22470164 -0.084695406 -0.03629812
-0.109769754 -0.047309343 -0.012862723
0.20745091 0.11886358 0.068155766
-0.14664054 -0.20639034 0.1329296
0.07613272 0.23624311 0.0065099685
0.22159787 0.044823658 0.026241226
0.19020265 0.053158578 0.016224165
0.13793015 0.0943167 -0.019861316
-0.015844364 0.01470485 -0.019290134
-0.23975691 -0.06979823 -0.15181817
0.20000526 0.08736359 0.017246354
0.22071375 0.0059988126 0.0411516
-0.23376384 -0.18720248 0.043375593
0.13936895 0.2809123 -0.0922119
0.20791551 0.24861951 -0.059930902
0.2517342 -0.047418524 -0.00093783875
-0.31046999 -0.10310019 -0.077229455
0.31536984 0.08030757 0.0020175718
-0.20208824 -0.13415787 0.14439571
0.3150468 0.04930045 -0.054196924
-0.24916416 -0.03345997 0.10921726
0.20528904 0.061853077 0.082111545
-0.12795286 -0.2519637 -0.17579252
-0.21926497 -0.08640592 0.050655324
0.22723036 0.1613539 -0.009921104
0.12109682 0.14699349 -0.20023191
0.12848178 0.18299712 0.09715687
0.28894106 0.047120914 0.054496877
0.2221924 0.18663424 -0.07734131
-0.09936768 -0.28541327 -0.020123733
0.28699312 0.17879781 0.050537374
-0.25725865 -0.040518977 -0.13865596
0.3260596 0.12515537 0.0027988278
0.28938264 0.08649438 0.009050586
0.046106365 -0.020416902 -0.042532858
-0.22174384 -0.18633719 0.053885154
-0.18925866 -0.18520321 0.08730086
0.2031791 0.14096923 0.009711524
0.15852284 0.2756144 0.016684491
-0.21482639 -0.2047148 0.06694618
-0.22361606 -0.12413889 0.06012483
-0.17379656 -0.21163812 0.12095127
-0.133403 -0.07463209 -0.005925288
0.07927487 0.017404245 -0.023393944
0.27182543 0.15681477 -0.01637626
-0.2987333 -0.23174573 0.0026256149
0.2241736 -0.0015551472 0.016785333
0.24774884 0.25007704 -0.02252649
-0.30495036 -0.1169559 -0.07846183
-0.27666965 -0.096476905 -0.002645786
-0.16189957 -0.19123413 0.14311798
0.09647471 0.060638737 -0.016791826
0.29076833 -0.0089395465 -0.12724334
-0.24651255 -0.06476166 -0.22397377
-0.00027343928 0.011276439 -0.01413139
0.044476338 -0.021371556 -0.059141353
0.12982793 0.12358333 -0.06975787
0.120884925 0.1712262 0.09428503
0.046472393 0.031957805 -0.014339448
-0.3317769 -0.08962394 -6.494495e-05
-0.35172683 -0.12321848 0.0053643887
-0.17252542 -0.18380854 0.119772114
0.14009991 0.25656807 -0.09542538
0.14383104 0.1343639 0.09583132
0.19720738 0.033948753 -0.081392445
0.20881398 0.066744715 0.04191049
-0.23787759 -0.14183646 0.13014632
-0.11249373 -0.2877719 0.031058317
-0.2474226 -0.13571979 0.019647233
0.15064771 0.116017155 0.0051173544
-0.13962975 -0.23976372 0.08365757
-0.24680299 -0.063124485 0.13153093
0.20600489 0.02454697 -0.02247581
0.20329456 0.118514165 0.0855134
0.30474398 0.09006864 -0.0023367442
-0.01767046 0.008731973 -0.017000664
0.29249993 0.06304039 0.03360547
0.15628673 0.22501676 -0.019464105
-0.17129508 -0.16553281 0.028426621
-0.08376015 -0.013583528 -0.032272197
-0.30689034 -0.03520002 -0.10011896
-0.0034038597 0.0067233182 -0.012788306
0.16085027 0.28277582 0.024526656
-0.27440625 -0.1083585 -0.012234163
-0.25988105 -0.27143535 -0.018640298
0.2893775 0.14677228 -0.005200467
-0.23935975 -0.17428218 0.03431259
-0.14284867 -0.26173875 0.037256937
-0.18291019 -0.19146517 0.09747982
0.32854334 0.11549085 -0.10491882
-0.29526544 0.027099524 -0.060319282
-0.00067580707 0.02184176 -0.019021263
-0.27050573 -0.016820569 -0.10974223
0.2473352 0.12913181 0.06702698
-0.17817974 -0.14827858 0.10432887
-0.21398753 -0.2027472 0.008930678
0.28538638 0.15935175 -0.025547277
0.12455806 0.028485222 -0.04609601
0.2579829 0.14468685 -0.018663712
-0.089470215 -0.045982067 -0.008770106
-0.086674705 -0.044372614 -0.008853362
0.1637965 0.25694978 0.00298276
0.28524396 0.14858113 -0.0045901146
-0.22162814 -0.25516963 -0.063519575
0.30265382 0.1691185 -0.00066459336
0.13277641 0.26396525 -0.0978979
-0.23535739 -0.14757298 0.026855063
0.16596065 0.10591809 0.122119285
0.22527795 0.15694773 -0.0045015574
-0.33631974 -0.15544868 -0.011299384
0.11244854 0.21015626 0.06547139
0.09526722 0.20192797 -0.03628731
-0.25405702 -0.030684147 0.046204906
-0.32349604 -0.011585016 -0.10516858
-0.28565866 -0.053462863 0.08337704
-0.103858925 -0.2764527 0.0010962348
-0.31158927 -0.19656408 0.040923525
-0.009393219 -0.040704824 -0.020816585
-0.13168725 -0.23484446 -0.038958352
-0.28214252 -0.091216594 -0.046087656
0.2523936 0.06315471 0.03650977
-0.17519146 -0.24683505 -0.16307805
-0.12073719 -0.26676214 0.07413172
-0.043415625 0.004692294 -0.025101388
-0.04311176 -0.006998742 -0.015744168
0.10973055 0.19842514 0.08235831
0.2537108 0.19266897 0.059932623
0.18859424 0.20477204 -0.035652112
0.15079015 0.05424212 -0.031729087
0.13655734 0.14447908 0.07599279
-0.26024178 -0.030199952 -0.07072645
0.11686682 0.1991461 0.08429187
0.22823349 -0.0042975903 0.0636488
-0.038716104 -0.043917984 -0.012268784
-0.29666308 0.00803101 0.017921925
0.14969157 0.1519306 0.042568635
-0.2396425 -0.050938852 0.08295494
0.22314811 0.17211552 -0.021625271
-0.18319033 -0.12402798 -0.0040415856
0.20326799 0.03617218 0.06644918
-0.31272396 -0.13575888 0.037604135
-0.14059643 -0.20737998 0.122576095
-0.06627374 -0.06338662 -0.012323604
-0.083527975 -0.021974312 -0.02099749
0.20148936 0.06578857 0.055117216
0.17359503 0.24681728 -0.08130034
-0.053780876 -0.021186307 -0.011771064
0.1525636 0.12013972 0.09400716
0.14632629 0.14437626 0.11363158
0.16952105 0.071256764 -0.17163403
0.2546934 0.049351647 0.052553453
0.10786038 0.017127123 -0.04690827
-0.308955 0.022748891 -0.044894416
-0.20011608 -0.12390593 0.15633652
-0.30802986 -0.0715062 -0.08531568
0.2687285 0.12960006 0.05315011
0.33094642 0.11027178 -0.10666749
0.26758066 0.024864 0.07606681
-0.29720455 0.027306734 0.04177858
0.21182631 0.20075089 -0.047539853
0.16367972 0.26915282 0.0119441245
0.24901691 -0.04310054 -0.0017047311
-0.2855401 -0.07614085 -0.09140547
-0.12748241 -0.08915555 -0.0068535204
0.11339131 0.20579374 0.030429553
-0.16635695 -0.2663286 0.018417705
0.19463365 0.03437735 -0.12724628
-0.28349507 -0.21078578 0.02835426
-0.03201394 -0.0028669706 -0.015052823
0.19682032 0.18503304 0.031749982
-0.27822855 -0.19995464 0.027172025
0.2022425 0.03122796 -0.014875506
0.32739794 -0.005560333 -0.03750228
-0.07287312 -0.00013510692 -0.042776495
-0.11151188 -0.10561593 -0.016625008
-0.16312987 -0.19315577 0.14275879
0.29497248 -0.0034559274 -0.12975489
0.14067627 0.11532377 -0.20157556
0.33079958 -0.0033092457 -0.039763913
0.19668518 0.19712052 -0.04828172
0.1412223 0.1542071 0.11054546
0.08201876 0.22687866 0.008029658
-0.17119484 -0.26725215 -0.067756
-0.31155887 -0.22284603 0.024240363
0.040414747 -0.02206384 -0.03912917
0.059005514 -0.0067648133 -0.0338359
0.15239447 0.09740449 -0.01966268
0.041353866 0.022340331 -0.014097818
-0.05445992 -0.04973529 -0.010366553
-0.21141486 -0.120936066 0.122055136
0.10846792 0.036987863 -0.024370562
-0.28461263 0.003380296 0.08730944
-0.3116293 -0.20518455 0.04557196
-0.35110238 -0.17991164 -0.019610174
0.19839141 0.25934333 0.018137611
0.18955272 0.059142046 0.07707196
0.19940512 0.029948706 -0.08702793
-0.10407456 -0.11513216 -0.037534006
-0.23879583 -0.13805664 0.13435452
0.27994022 0.18180376 0.052778054
0.3124247 0.10395441 -0.022176046
-0.14856477 -0.114429325 -0.008176974
0.25580865 0.03628764 0.06422846
-0.34808475 -0.16515404 -0.01074616
0.3013143 0.16777621 0.033457022
0.23414059 0.05251345 0.04245155
0.008536552 -0.016731048 -0.015939612
0.2148186 0.029312328 0.09935221
-0.10501732 -0.2811802 -0.0802005
0.28668675 0.04848035 0.05251387
-0.12005224 -0.25894785 -0.104896225
0.24246289 -0.006212164 -0.018280938
-0.24341546 -0.058959585 -0.0908996
0.0013644269 -0.019443829 -0.014523022
0.18120119 0.0549524 -0.14052722
-0.1279197 -0.095569625 -0.0066626766
0.0726363 0.031990826 -0.016841555
0.20075102 0.037874363 0.03741546
0.13598464 0.12941934 -0.055574372
-0.0136452 0.00273503 -0.013346622
-0.14173408 -0.21462478 0.010655861
0.094915055 0.026465952 -0.0245703
0.31438157 0.05799771 0.03438321
0.23315348 0.12861842 0.06724175
-0.120257884 -0.046364848 -0.017271418
-0.28034666 -0.20820104 0.028900595
0.114740655 0.057839856 -0.018953325
0.1880817 0.06392338 0.10678253
-0.0031035885 -0.0302659 -0.018254811
-0.3165612 -0.23818289 -0.048578974
-0.28620595 -0.06996625 0.057853125
-0.31436574 -0.13594122 -0.009903325
0.3186027 0.018260619 -0.14567235
0.10064728 0.012951079 -0.04605136
0.15910138 0.26067367 0.005104823
-0.3114626 -0.0026612836 -0.010679308
-0.1333635 -0.22709858 0.115829654
-0.19942798 -0.24267934 0.008868287
0.21138966 0.030505558 0.100733005
0.23957214 0.23366004 0.016650211
-0.20649578 -0.1097367 0.01677192
0.07988514 0.21869011 -0.13531138
0.23600131 0.12562203 0.075163886
-0.3333796 -0.09054729 -7.428025e-05
-0.017099515 0.02614103 -0.0324216
-0.3194144 -0.14041917 -0.0087548485
0.28181818 0.13865705 0.020834899
0.17232616 0.24037895 -0.007427404
-0.2887071 -0.09485568 -0.045646362
0.17239399 0.26513842 0.011129337
-0.23657933 -0.07806966 -0.19064482
0.19994251 0.034526672 -0.01991721
0.25516668 0.13778491 0.03587599
-0.27131298 -0.22275707 0.030235138
-0.09859269 -0.08549921 -0.011950851
-0.017547023 0.016345164 -0.021258807
0.03539097 0.017718885 -0.014033221
-0.32230955 -0.095910855 -0.015165317
0.23709406 0.00011313235 0.0732403
0.21157621 0.20973116 0.09105165
-0.30467492 0.0075099254 -0.020239744
0.24619006 -0.045974933 -0.093315616
0.0005768143 -0.021369485 -0.015356878
0.22928348 -0.0012416949 0.07675628
-0.19660603 -0.25336656 0.008757568
0.17714532 0.2680278 -0.07557037
-0.15562792 -0.27987748 -0.071101554
0.1314498 0.12324384 -0.048425492
-0.12286117 -0.26338392 0.07955763
0.31252992 0.04350044 0.051710516
0.29748788 0.00025530395 -0.024662463
0.2529271 0.16645984 -0.022338888
-0.11214323 -0.07661114 -0.0073254723
-0.121349186 -0.10749201 -0.013561431
0.07708354 0.25408134 -0.09578186
0.2415426 -0.0298529 0.013083537
0.04506587 -2.3763932e-05 -0.020587092
0.13452312 0.1384789 -0.038398143
0.19369712 0.14865269 -0.0025539887
-0.25790456 -0.21557605 0.03535956
-0.2902644 -0.04255301 0.10265451
0.20579854 0.1832445 0.023262188
0.16533358 0.23740174 -0.012228003
0.24865057 -0.01535206 -0.007998646
0.102744095 0.03342948 -0.024084456
-0.25941148 -0.032959096 0.12418044
0.16132694 0.253335 -0.085628584
0.2672825 -0.049616504 -0.060155105
0.17175747 0.2549307 0.0032769383
-0.160758 -0.20164053 0.13378197
0.32558692 0.00015949551 -0.039284524
-0.27393225 -0.038307574 -0.10163169
0.13144118 0.2801144 -0.09609725
-0.31785965 0.010215463 -0.0067666946
0.24206991 0.19124062 -0.05234138
0.19774613 0.045549534 0.07232496
-0.049455978 0.0045492556 -0.029015934
0.3394033 0.08418812 -0.02482335
-0.30073065 -0.17012817 0.031433325
0.2138526 0.012425164 -0.015962796
-0.06104892 -0.034567177 -0.008933309
-0.14575583 -0.20077196 0.10151242
-0.3342721 -0.14676711 -0.0037068205
0.16625145 0.24897215 -0.0024454168
0.1679359 0.07036381 -0.21414046
0.22112513 0.26156157 -0.040469136
0.29896283 0.021912029 -0.036111444
-0.27511653 -0.023557115 0.056672025
0.20795594 0.020050887 -0.039135747
-0.1339489 -0.22192505 0.07536405
-0.31231663 -0.18514664 0.03550871
-0.13924351 -0.24382111 0.04131124
0.13759193 0.17066649 0.10486233
0.15641774 0.14970118 0.02338696
0.11699586 0.25079596 -0.002428608
-0.30345258 -0.04561607 -0.018496094
0.114325896 0.1578258 -0.20124258
-0.32502046 -0.18138513 0.026836107
-0.31451768 -0.13462745 -0.047705013
-0.35467407 -0.17649546 -0.014351979
-0.17748442 -0.14773549 0.12483975
0.24641025 -0.008844597 0.027703444
0.25199723 -0.051648933 -0.047863457
0.12525973 0.19109477 0.0850648
0.12113701 0.19110392 0.09069222
-0.006009028 0.025248772 -0.023882696
-0.30557126 0.023467006 0.031194966
-0.19956379 -0.119687416 0.03185889
0.20165601 0.034575175 0.014725346
-0.07192455 -0.07272729 -0.014731758
-0.21431133 -0.11502606 0.13736126
0.21371636 0.11781023 0.091518395
0.062446408 0.03444693 -0.015409254
0.09623227 0.19012803 -0.16257681
0.2376399 0.24029145 -0.092227146
-0.08034408 -0.03735577 -0.010574924
-0.17125237 -0.22560644 0.124088965
-0.11501434 -0.2664067 -0.09673471
-0.15056899 -0.13299093 -0.017022552
0.24652101 0.06929649 0.030876735
0.19607094 0.19672069 0.054623436
-0.09410242 -0.07866459 -0.009716133
0.27745095 0.015861664 -0.026962208
-0.3135521 0.036707517 -0.012444982
0.05616139 0.0761007 -0.044126958
0.09412722 0.06385059 -0.016801583
-0.214793 -0.11925836 0.07561163
0.3113217 0.05355833 -0.05410154
0.12737833 0.16022041 0.08764549
0.31524473 0.14399052 -0.0963346
-0.12668328 -0.23708847 0.10825965
0.22497533 0.23028441 0.000660856
-0.30332866 -0.122759126 -0.04791642
0.20927776 0.20675534 -0.0339491
-0.28957433 -0.0030262067 0.022473136
-0.16119105 -0.19370593 -0.11810254
0.12055493 0.17250259 0.100087985
-0.2920396 -0.08534922 0.069181114
-0.16357964 -0.17846698 0.022298956
0.16477223 0.1548674 0.0019008421
-0.28892067 -0.07206337 0.07740719
0.15587261 0.18992749 0.060819067
0.14333299 0.12770677 0.0038690893
-0.25397116 -0.033118453 0.017898869
0.13953389 0.12598874 -0.09280805
-0.17483766 -0.15307651 0.11159198
0.10296841 0.20650433 0.073910706
0.041979924 -0.0028918753 -0.020675268
-0.026160054 0.0057806154 -0.017624367
-0.19000229 -0.23381166 0.0122132
-0.22598742 -0.22283277 0.060346153
-0.3616497 -0.16627519 -0.042252686
-0.18062533 -0.17182852 0.106502585
0.16779737 0.090496376 0.03129199
-0.21503527 -0.11330304 0.14421208
-0.24695522 -0.06251357 0.1360359
0.18965392 0.055130932 0.029633455
0.1278076 0.15157263 -0.0104317535
0.25772378 0.19044554 0.053186543
0.10271141 0.03049591 -0.025452964
-0.018192198 -0.042411715 -0.018207166
-0.24457158 -0.19083929 0.03839282
0.07995041 0.021795819 -0.022296954
0.18694554 0.04803946 -0.111602694
-0.2972488 0.035663974 0.024449892
-0.1291788 -0.04039225 -0.033029255
-0.2794186 -0.1424645 0.023804523
-0.28262404 -0.1629351 0.047434706
-0.26596895 -0.027192505 -0.14745566
-0.11302047 -0.2677541 -0.07371834
0.2754462 0.10837982 -0.0077517475
0.25670943 0.048031934 0.054721706
-0.15797721 -0.14439371 -0.027909556
0.3211399 0.1194636 0.03310173
-0.27866173 -0.2626643 -0.06305551
-0.19987778 -0.110216774 0.14236702
0.28006503 0.17941853 0.050601434
-0.14826903 -0.2804313 0.030188568
-0.33032873 -0.21276242 -0.0473003
0.28489584 0.04424877 0.056602858
0.28398743 0.1775505 -0.002462327
0.27688074 0.10599812 -0.007573085
-0.27271193 -0.17570777 0.020004125
0.34014338 0.06661694 -0.08613286
-0.24877015 -0.23428 0.0008087795
-0.1984698 -0.18193741 0.074193984
-0.14459392 -0.22532092 -0.17803061
-0.31658655 -0.20067972 0.04089344
0.20751171 0.11581802 0.088781334
-0.18932582 -0.13098294 0.0960526
-0.20365345 -0.22204705 0.078788
-0.21198216 -0.11756515 0.1523399
0.14784223 0.118470356 -0.020389961
0.2623681 0.05942085 0.03925048
-0.011432636 -0.013249987 -0.012167931
0.104293965 0.04520145 -0.019222545
-0.14018576 -0.29320383 -0.07313131
-0.26179734 -0.1429525 0.058107838
-0.16895278 -0.23709369 0.023970896
-0.35709915 -0.13762097 -0.005242971
-0.26861262 -0.24198712 0.03213187
0.26692036 0.046290748 0.057842072
-0.30260515 -0.23329253 0.024213057
0.0450286 0.05365258 -0.022890732
-0.24090868 -0.07241377 0.13414092
-0.06452692 -0.089056775 -0.036975447
0.015571066 -0.038164377 -0.039017614
0.10212605 0.21864781 -0.03496817
0.008104004 -0.0123512205 -0.013476133
0.13847561 0.26098713 -0.095752455
-0.2522813 -0.048480336 -0.13789417
-0.11479134 -0.10897192 -0.01726311
-0.35262713 -0.18526053 -0.06609274
0.22458415 -0.018289085 -0.18134522
-0.21125273 -0.2175732 0.00924729
0.25108612 -0.04776769 -0.018125221
0.20690084 0.03031263 0.06640763
0.31799325 0.12085372 0.03559943
-0.03814602 0.021136098 -0.043525133
0.09582285 0.1926464 -0.13966765
-0.25982526 -0.03659422 0.12639318
0.06521526 0.24526824 -0.099172555
0.20955418 0.03850298 0.10414327
-0.11573055 -0.11626548 -0.0268603
0.087588884 0.2049666 -0.1514083
-0.29882073 -0.20364267 0.022557404
0.17435226 0.15717348 -0.004615642
0.14008442 0.1341349 0.018558092
0.120974354 0.072534285 -0.017933566
0.20712397 0.019961884 -0.056763455
0.25570294 -0.04372346 0.0024090342
0.08864849 0.056131672 -0.01640731
0.1496506 0.10316978 -0.1730742
-0.31720185 -0.22816582 -0.0051328004
0.2711582 0.12890682 0.06564
-0.08383801 -0.029053552 -0.015152287
0.30184203 0.02866092 -0.04065989
0.17462243 0.20664127 -0.03401968
0.1725362 0.21215527 0.09322839
0.12182529 0.16844834 0.07873254
-0.11047301 -0.27553803 -0.11906102
-0.28314453 -0.013397295 0.022392571
0.16900174 0.25413826 -0.082189955
-0.18655162 -0.10511064 -0.0043827323
-0.3496928 -0.16374043 0.01690056
0.24236995 0.12534563 0.0755903
-0.2919158 -0.25971118 -0.0364261
0.18150578 0.08504678 0.12067037
0.170051 0.10187979 0.12313284
-0.31422034 -0.20193492 0.013593223
-0.1279817 -0.11114862 -0.0129493065
-0.18446892 -0.14559244 0.01246604
0.3106697 0.1377638 -0.14715122
-0.28385913 0.008832402 -0.058855575
0.067912854 0.06761804 -0.023937209
-0.106823646 -0.27052847 0.015214251
-0.099003725 -0.28363708 0.0090051
0.033090133 0.03359881 -0.01654805
-0.08601471 -0.04702261 -0.0077609895
-0.2624006 -0.14634408 0.06199048
0.22564882 -0.008756651 -0.04268239
0.1481377 0.14703286 0.11325348
0.15324512 0.25655973 -0.08886221
0.074504256 0.25615904 -0.041875735
0.23043653 -0.008283853 0.05828874
0.28068107 0.17860605 0.046192165
-0.32242784 -0.21116893 0.016424512
-0.16734974 -0.1941741 0.12570885
0.085858904 0.09137507 -0.04010332
0.1794503 0.2680814 0.015880853
0.3086024 0.03652621 0.06251014
-0.2805733 -0.019807661 -0.005535659
-0.17790698 -0.10015419 -0.004633298
-0.120873526 -0.26138747 -0.15128928
-0.19639064 -0.12476481 0.03231877
-0.022603564 0.022994742 -0.032458182
0.30853075 0.021636408 -0.13807154
0.017348498 0.0015745811 -0.014165856
-0.21722558 -0.1524432 0.0405045
-0.18530808 -0.14251181 0.033770476
0.09316617 0.23517744 -0.0092406925
0.040947754 0.052319545 -0.023834007
-0.1725774 -0.27350459 0.012489451
0.2446958 -0.012776293 -0.054826904
-0.3034042 -0.07765204 -0.08488943
-0.1502759 -0.29004437 0.019710533
0.23175131 -0.02270483 -0.093362875
0.23175916 -0.014000679 0.014093249
0.26037228 0.22754502 -0.11462857
0.32111394 0.13262288 -0.008299506
0.19836874 0.22560124 -0.014594219
-0.2323042 -0.15134749 0.026895275
0.21686955 0.010578223 0.02121574
-0.13236062 -0.060203806 -0.0122343
0.15523389 0.10698323 -0.015117014
0.11685165 0.19661659 -0.013943037
0.33431923 0.0052609295 -0.04394688
-0.25645614 -0.025703242 0.059936658
0.23668437 0.19858699 0.06819931
0.11137415 0.16272493 -0.19950555
0.23093571 -0.014430808 -0.0075751813
0.08305191 0.2255173 0.011782481
0.08936067 0.2113067 -0.038040504
-0.19678608 -0.11517284 0.14270768
-0.03671562 -0.046676762 -0.0148003455
-0.26181838 -0.08030229 0.008890919
-0.22052224 -0.0810074 0.09221725
-0.2310868 -0.08304776 -0.14286663
0.16667928 0.077993415 -0.14506043
0.19560204 0.0358609 -0.08972233
-0.31772044 -0.21879652 0.023502562
-0.2679346 -0.09857577 -0.009819498
-0.2754629 -0.14337577 -0.007106982
0.20741443 0.25447923 -0.13338044
0.2975065 0.035920437 -0.0410437
0.029065931 0.03878911 -0.019835418
0.24324682 -0.037404865 -0.046151567
-0.29297355 0.0059719845 0.06585712
0.13649736 0.12572442 -0.1564047
0.22790769 0.0262432 0.09461955
0.15347935 0.20267132 0.08433729
0.19323249 0.035505902 -0.14118136
-0.30491775 -0.23053238 0.00064419647
0.10976202 0.044005223 -0.022286067
0.15300128 0.2703598 0.011548629
-0.16828907 -0.2528697 -0.054776337
0.20411885 0.029832238 0.0051957546
-0.12938341 -0.2421685 -0.083465435
-0.18992649 -0.17244473 0.07579194
0.16674921 0.12933746 0.0517973
-0.27469927 -0.14933987 0.041343577
-0.04787382 -0.04934834 -0.011655466
0.057083752 -0.0021691404 -0.025805222
-0.10829539 -0.2676002 0.02207026
0.021172265 -0.00607585 -0.014863528
0.1280411 0.15404475 0.024682336
-0.28840265 -0.26436758 -0.053717583
-0.27014038 -0.077259935 -0.026939137
0.15508825 0.14468816 0.11414933
-0.109430104 -0.300608 -0.066298604
-0.19910643 -0.14047171 0.12581588
0.113074 0.2644111 0.0051020784
0.19128294 0.19690016 -0.04891418
0.27706525 0.15319215 -0.03073949
-0.24745439 -0.045895386 -0.010109643
-0.19912441 -0.21036474 0.081705265
0.22970213 -0.018018877 -0.07631577
-0.17076226 -0.17084195 0.1505849
0.02421393 0.05807209 -0.06315699
0.26808003 0.061000068 0.03884306
-0.2535461 -0.045833543 -0.13039814
0.21903074 0.2086476 -0.029815465
-0.26580045 -0.15157358 0.06254894
0.2525203 -0.052831907 -0.052052084
-0.256903 -0.122600846 0.019994918
0.22258255 0.1456374 0.0060296063
0.20430835 0.19211984 0.043784227
-0.2537657 -0.051204227 -0.20096791
-0.25653237 -0.037966624 -0.09275245
0.13168688 0.17942457 0.068913125
0.104296125 0.051866677 -0.01844164
-0.27336097 -0.011626876 -0.10245908
-0.31012633 -0.20445138 0.046497155
0.29212424 0.0123839155 -0.12372995
0.16999835 0.070116974 -0.17620318
-0.32990932 -0.18457115 0.027151855
0.029054426 -0.01164939 -0.020213695
0.19132358 0.049161423 -0.010772051
0.2467925 -0.038804587 0.0070551382
-0.32456765 -0.19149843 0.0315328
-0.21702296 -0.1111383 0.13140157
0.12614623 0.25335222 -0.0010056099
-0.26241794 -0.26633877 -0.017027074
0.11676488 0.23516294 -0.010321175
-0.07330251 -0.027930006 -0.013225251
-0.25008535 -0.099206306 0.02677833
0.26046228 0.19064352 0.05722206
0.16484638 0.2498927 -0.0021310274
-0.29116103 -0.008899268 -0.08145384
-0.31965214 -0.15291655 -0.021110876
0.15505767 0.08646706 -0.021081632
-0.2056347 -0.14275765 0.06618879
-0.30212602 -0.046579253 -0.019897519
-0.2965931 -0.029233357 -0.11081439
-0.24177802 -0.06158893 -0.09077262
-0.19348203 -0.12657234 0.067837566
-0.2706111 -0.008228929 0.1041949
0.08629957 0.22147486 0.026479153
-0.18292041 -0.21323651 0.1092527
-0.30934003 -0.122929655 0.035002906
-0.27961782 -0.12149407 -0.044383403
-0.18397747 -0.1452251 0.026758537
-0.2860107 -0.19038363 0.023590267
-0.17231111 -0.13515407 -0.009718113
0.24173255 0.2237562 9.767877e-05
-0.26742774 -0.062202215 -0.0057080872
0.1742801 0.0818735 0.053813547
0.07063109 0.23634301 -0.10158921
-0.10835795 -0.025636427 -0.036229096
0.123974524 0.059873246 -0.019316442
-0.1986661 -0.20011415 0.08224422
-0.09868285 -0.09593586 -0.016224956
0.11280872 0.18136923 0.05884087
-0.28875244 -0.22369808 0.026874647
0.31423917 0.04550801 0.049146928
0.10756246 0.17250504 -0.15468337
0.14273356 0.20531958 0.09031993
0.048234727 0.048056476 -0.019608548
-0.30740988 0.01929263 -0.056803048
0.25306064 0.21854685 -0.048348133
0.3064666 0.12663133 0.018250838
0.24728353 0.22046845 0.00087109616
0.16004397 0.19513144 0.069968626
-0.11121531 -0.2953588 -0.03706754
-0.04375525 -0.05032944 -0.0140117295
0.23863108 0.0076377867 0.079041645
-0.3582647 -0.14622025 -0.031043032
0.104943655 0.1794883 -0.120634876
-0.28504556 0.0045986203 -0.13461852
0.20858827 0.053730354 0.047533203
0.09347365 0.076588206 -0.022097107
0.14407198 0.10921631 -0.025205217
0.17994934 0.2494934 0.001220299
0.29396856 0.14812773 -0.012221156
-0.1985514 -0.13967015 0.14672486
-0.19163819 -0.18612798 0.0847732
-0.13986674 -0.21132009 0.088498704
-0.15524358 -0.19534187 -0.02007513
0.09095083 0.19657692 -0.18803151
0.24353763 0.18865575 0.037916657
0.19621444 0.061747905 0.11542751
-0.2363272 -0.08345236 0.08910392
0.027936947 -0.0089244265 -0.019283928
-0.0145788165 -0.03260725 -0.015709257
-0.29591224 -0.00399082 -0.11535623
0.29287526 0.036437098 0.06506509
0.2521823 0.2221584 0.009531833
-0.28598756 -0.09260631 0.020306809
0.11936363 0.1984042 0.058011603
0.014379731 0.013725678 -0.012770477
-0.21581933 -0.08598805 0.15152201
0.0953247 0.20804551 0.04026828
-0.3235467 -0.0077885697 -0.10829137
-0.043570384 -0.01247605 -0.013363816
0.07195965 0.054020174 -0.016827328
-0.3325486 -0.15716419 -0.046568345
-0.011772465 -0.023552947 -0.012506845
0.28983572 -0.027078407 -0.015512294
0.19260605 0.040818475 -0.08814204
-0.1432876 -0.28326732 0.033134807
0.10267117 0.21851695 -0.025748054
-0.083845206 -0.018696234 -0.025048101
-0.08810455 -0.0987314 -0.027596647
-0.2789459 -0.03120902 -0.113745235
-0.16599987 -0.24095638 0.024419146
0.20176359 0.03264176 -0.0069622505
0.03270303 0.022534898 -0.013622434
-0.07853889 -0.0767876 -0.014387809
0.092246875 0.21442935 0.057804205
-0.078292236 -0.07719267 -0.014542738
0.17474262 0.08079449 0.049702276
0.19840702 0.040679075 0.025416465
0.07569161 0.23195241 -0.055152677
0.14107925 0.2730501 0.012403254
-0.1386084 -0.24066731 0.09281372
-0.06926018 -0.006939788 -0.028952044
0.2640878 0.09539443 0.0037826146
-0.19075938 -0.19393231 0.08891257
-0.117804065 -0.2596117 0.08002237
-0.19164602 -0.1323595 0.032978144
0.23374589 0.0047570555 0.07942134
0.33352497 0.07542624 -0.006455485
0.20717233 0.012174644 -0.15180074
0.3080267 0.14318137 -0.013370499
-0.20318171 -0.1240097 0.15655142
-0.21859549 -0.16972408 0.04713797
0.19841498 0.25647447 -0.06402655
-0.15169351 -0.27128765 0.02716981
0.09353574 0.20360708 -0.049998645
0.24428242 0.13736819 0.025519684
-0.25936922 -0.26395518 -0.014244698
-0.28965923 -0.104230665 0.009826999
0.19553155 0.26137328 -0.064196475
0.29088324 0.06830765 0.028016936
0.119137265 0.16338582 -0.037094664
-0.06428016 -0.07896256 -0.020610997
-0.19612652 -0.124607295 0.03951024
-0.3439538 -0.17712927 -0.09640084
0.09654764 0.2007328 -0.025583904
-0.28797916 -0.16419579 -0.012306306
0.21178257 0.18897116 -0.051562343
-0.3144804 0.016697103 -0.010699822
-0.22084199 -0.081061386 0.08519927
0.30006018 0.119242795 -0.028165841
0.12860444 0.26257527 -0.09944781
0.124775246 0.19117118 0.07637968
-0.2859961 -0.14966257 0.027221432
0.2564718 0.11148555 -0.0055266237
-0.23960398 -0.17991515 0.037507456
-0.18495643 -0.13521907 0.13065992
-0.11455402 -0.2845928 0.029306596
0.2828584 0.10637618 -0.009558405
0.15566467 0.15279162 0.009791831
-0.31075335 -0.21630172 -0.011255271
-0.1995013 -0.24601555 0.008496616
-0.2522512 -0.19299528 0.0349678
0.23016933 0.22137074 -0.009094695
0.24947692 0.19070786 -0.047211673
-0.20262253 -0.111363135 0.07369462
-0.17918259 -0.2554132 0.014554286
-0.28247613 -0.21599285 0.027795658
0.23811531 0.096480615 0.0076222355
0.21407445 0.115109466 0.11915495
0.25033492 0.13895613 0.02404603
0.2286229 -0.011703703 -0.019906942
-0.24384136 -0.217772 0.04593012
-0.18246686 -0.24626973 0.01432524
-0.3105697 0.040261727 -0.033019636
0.17859727 0.21819496 -0.024347652
-0.25189948 -0.2371016 -0.0005666806
0.25324464 0.12664676 0.068271406
0.32449117 0.038460705 -0.054639664
0.14370945 0.25564995 0.0013607176
-0.15545808 -0.19559188 -0.027424537
0.26721954 0.12005797 0.09923976
0.13176562 0.14742966 0.017142417
-0.18093228 -0.14666872 0.06947649
0.24271616 0.10236354 0.0024339734
0.05031699 0.0037779934 -0.020712033
-0.33282083 -0.11654719 -0.06779713
-0.2784093 -0.0858192 0.014941126
-0.34158784 -0.197553 -0.04292884
0.14740129 0.25697845 0.0029540923
0.27143976 0.064709306 0.036173217
0.1856118 0.067694984 0.10420197
0.07339033 0.24769333 -0.115024224
-0.107246056 -0.27220184 -0.013815196
0.22658001 0.13253593 0.032406442
-0.22389643 -0.23537114 0.0026084476
-0.2847666 -0.05899415 0.077480294
0.11829133 0.07833645 -0.018003868
-0.22879949 -0.07400963 0.014005926
-0.28898436 -0.04070428 0.09803856
0.15510492 0.13284072 0.116367
0.25955164 0.21255997 -0.049080998
-0.022874821 -0.048533868 -0.01981308
0.15577255 0.15218632 0.04119894
-0.014773741 -0.055769145 -0.035472136
0.21914159 0.16978917 -0.018082945
0.18682139 0.17377634 -0.00044687963
0.25931805 0.1306117 0.051757853
0.080828734 0.2212703 -0.08475071
-0.26316333 -0.15329489 0.069267005
0.16891806 0.2512853 -0.00048790916
0.049772646 0.054812673 -0.022319805
0.09597528 0.19169804 -0.14833137
-0.29111242 -0.16366768 -0.013194709
0.17879635 0.28057393 -0.06831427
0.005173296 -0.041623913 -0.033547174
-0.2995602 -0.094650716 -0.151679
-0.115897894 -0.27746686 0.058360137
-0.32964996 -0.1802762 0.021173604
0.07607758 0.22950076 -0.077699326
0.14417614 0.13397357 0.09787875
0.10316909 0.047882363 -0.01829481
0.20417446 0.03464639 0.06565371
0.28306988 0.13863832 0.01404245
0.18359098 0.055892326 -0.081452146
-0.17556925 -0.1969489 0.111995906
0.10323057 0.18748125 -0.056140628
0.29162848 0.005109774 -0.12472992
-0.16128068 -0.20117232 0.12916772
0.19610325 0.043404013 0.013226012
-0.2181194 -0.17734078 0.052130748
0.04715786 0.045747574 -0.018809408
-0.13473666 -0.23486711 0.112358734
0.28295183 0.18485193 -0.13910745
-0.22057703 -0.1629741 0.03969311
-0.28728762 -0.11631632 -0.0115301
-0.1758004 -0.17408739 -0.1665556
0.08895881 0.20428742 -0.13255808
0.07553357 0.25870648 -0.05951963
-0.13410656 -0.22223578 0.068400815
-0.20541747 -0.25501576 0.0031390386
0.16981919 0.13478342 0.018667318
0.3134077 0.028848704 -0.045384977
0.20001271 0.042282056 0.0770799
0.12408687 0.21390468 -0.022016965
0.058673948 0.014231578 -0.018548435
0.03830851 -0.0041164514 -0.020221725
-0.30262768 -0.16166826 0.023065193
-0.19132581 -0.24348742 -0.16252068
0.19212279 0.048201676 -0.0067271753
-0.09164823 -0.016385835 -0.035764657
0.11927773 0.15949282 -0.08229724
0.1694038 0.08854889 0.0392073
0.11890082 0.24961564 -0.10245244
0.21998578 0.26692438 -0.037974987
0.12566876 0.22742194 -0.01600483
-0.2985239 -0.08391776 -0.085047536
0.20762923 0.21343589 -0.026763987
-0.24304108 -0.21342164 0.04601972
