# .PCD v0.7 - Point Cloud Data file format
VERSION 0.7
FIELDS x y z
SIZE 4 4 4
TYPE F F F
COUNT 1 1 1
WIDTH 1000
HEIGHT 1
VIEWPOINT 0 0 0 1 0 0 0
POINTS 1000
DATA ascii
0.14908023 -0.13257492 0.03772422
-0.044210453 -0.09553918 -0.01537987
-0.035139814 0.21750563 -0.14397451
0.16463211 0.041984208 0.074739285
-0.060480088 0.117491774 -0.10038575
0.10665493 -0.042502087 0.057588957
-0.11061627 -0.03944651 -0.027374627
0.19950089 -0.0023788805 0.06462951
0.10687084 -0.08877327 0.14268173
-0.18153484 -0.068937875 0.013697083
0.15377532 -0.05061459 0.10949022
-0.08048992 -0.098939404 -0.02154905
0.15341912 -0.032745454 0.103055894
-0.11438873 0.13084015 -0.08072242
0.058218688 -0.09084969 0.15405306
-0.016997583 -0.010265379 0.072066136
-0.07919797 0.23597944 -0.13034849
-0.12280379 -0.09928271 -0.010513926
0.13958214 -0.13925627 0.04410718
-0.062365983 -0.14287396 -0.25352675
0.10245575 0.059834734 0.096624784
-0.009427398 -0.028044945 0.096540414
-0.21239698 0.016036095 -3.5101064e-05
0.110698044 0.065114796 0.091252595
0.106639236 0.002940493 0.15328394
0.13009444 -0.053960603 0.09715276
-0.09236238 0.24471954 -0.12753825
-0.114520654 -0.076916374 -0.013529899
0.13396804 -0.04826974 0.08732576
-0.04007463 -0.108861215 -0.010202351
-0.076475285 -0.009161341 -0.052345254
-0.09568718 0.1994631 -0.111214824
0.11750707 0.060850672 0.08960194
0.19213483 -0.057743978 0.09473296
-0.09710923 0.19279274 -0.10842726
-0.19547668 -0.03225716 0.008045001
0.003834774 -0.03235525 0.13026583
-0.05509632 -0.035034254 -0.0525588
0.15635909 -0.12761113 0.032882504
-0.16748127 -0.010337831 -0.011489067
-0.09859183 -0.013914681 -0.04097294
-0.024697859 -0.11730546 0.0071083624
0.15288801 -0.084141664 0.120718814
-0.16002165 -0.044532668 -0.0037573297
0.01250075 0.02700967 0.10247391
0.07286643 0.06145966 0.10925943
-0.07154626 -0.14190538 -0.27248433
-0.10415424 0.107273676 -0.07765939
-0.12694861 -0.08195108 -0.006375897
-0.13599189 -0.19410957 -0.41763484
0.06791766 0.011338501 0.16779195
-0.034080837 -0.07299014 0.032747205
-0.22170748 -0.041222975 0.022608483
-0.040149026 0.21671157 -0.14148991
-0.029908622 0.11464365 -0.11306235
0.12742795 -0.0823757 0.13147153
0.108464874 -0.014863559 0.047852635
-0.1582759 -0.03624848 -0.0072108298
-0.2438806 0.0041813827 0.017798424
-0.074453674 -0.023582844 -0.04858412
-0.06926094 0.32603553 -0.16932282
0.17549929 -0.030083673 0.093193635
-0.08531873 -0.00052139553 -0.05120398
-0.08864267 0.14527246 -0.096837156
-0.12186571 0.14330313 -0.09801039
0.1513119 0.007508531 0.09180392
0.047671765 -0.11310819 0.113461286
-0.04292661 -0.07078532 0.012182529
0.041606914 0.024469072 0.13511604
-0.098165125 0.07243557 -0.06906548
-0.011531832 -0.041318182 0.09304114
-0.08586455 0.2196583 -0.122109495
0.027612526 -0.04622129 0.15502578
-0.18512183 -0.03471338 0.004233091
-0.096488506 -0.17164233 -0.3320919
0.054675613 -0.083284125 0.15709217
-0.08487985 0.29110548 -0.1456347
-0.014938392 -0.11736314 0.02434749
-0.03335206 0.22060119 -0.14576975
-0.010333909 -0.12858084 0.015067548
0.13666539 -0.055884946 0.11880281
0.18931584 -0.055715166 0.09533099
0.08454008 -0.13870458 0.07728495
0.024019593 0.027620498 0.13188587
0.19008245 -0.050537113 0.093316816
0.15713379 -0.10615608 0.11550817
-0.08542965 0.123413116 -0.091202565
0.045140907 -0.12626861 0.09427787
-0.12217877 0.08102291 -0.06726128
0.14695339 -0.098564014 0.12801845
-0.046999294 0.06148141 -0.08828252
-0.025744796 0.15020157 -0.1264044
-0.08379682 0.15760864 -0.1029785
0.07046981 -0.15498644 0.0039214278
0.003831723 -0.1406826 0.009068543
-0.15275526 -0.028319146 -0.0122283045
0.17848437 -0.016145853 0.087362416
-0.122930564 -0.09742967 -0.0063636266
-0.020840852 0.24233177 -0.15835625
0.14501628 -0.06303133 0.11739804
0.047439255 -0.09986318 0.13661735
-0.016574925 0.27180943 -0.16977894
0.124302976 -0.09336121 0.13641141
0.012265504 0.00082521787 0.13056694
-0.11406858 0.10678082 -0.073090516
-0.11259296 -0.02449278 -0.03132741
-0.026306836 -0.013289244 0.07718377
0.16145395 0.036482792 0.07793028
0.16929045 -0.070968404 0.10916663
-0.058211125 0.23758344 -0.14020102
0.08584286 -0.05263748 0.07012016
-0.027012736 -0.05866058 0.09215873
0.011653287 0.26380455 -0.24998413
-0.015014885 0.08385963 -0.10973894
0.024517035 -0.011174647 0.15177745
0.081274696 -0.12747584 0.10915313
-0.018791456 -0.0016370587 0.07007597
0.18135315 -0.06947846 0.10332017
0.13007654 -0.12114686 0.12203313
0.16781272 0.04750597 0.071540095
0.1834023 -0.08510239 0.007118892
0.048936624 -0.09671926 0.14295399
-0.034714825 -0.019945703 0.08307407
0.15532015 -0.0058703655 0.0943444
0.11524555 0.08018288 0.07432706
-0.031691983 -0.028403338 0.084462695
0.124653585 -0.0054171523 0.051067635
-0.1984067 -0.038749564 0.011446145
-0.053957682 0.077969484 -0.09051539
0.021259654 0.018602667 0.13602717
-0.046577543 0.30047414 -0.16569766
0.088659324 -0.15296198 -0.0064586014
-0.029398926 -0.011957794 0.025566582
-0.20808753 -0.0069789197 0.0054855826
-0.1022002 -0.092481166 -0.013979982
-0.04603654 0.17177239 -0.124349885
-0.106549814 -0.17970616 -0.35511273
-0.08546482 0.31578675 -0.1649591
-0.23338346 0.008147984 0.01184825
0.087266676 -0.06889388 0.07474004
-0.061411973 0.23990215 -0.13952681
-0.022001661 -0.08512007 0.05149444
-0.04378422 0.29582083 -0.16543613
0.092201695 -0.10921792 0.14577866
-0.0427825 0.28806093 -0.16337429
-0.10033319 -0.021462291 -0.037759375
-0.103163324 -0.08429079 -0.016198432
0.011719915 -0.13943884 0.024476752
-0.10678375 0.16443203 -0.09495968
0.11156872 0.009659892 0.06341967
0.08412057 0.0037582533 0.16303532
-0.042612743 -0.035736185 -0.0026551194
-0.06434766 -0.022721764 -0.05335736
-0.034606434 -0.032476082 0.08707503
-0.20967172 0.018955361 -0.002190137
0.07074322 -0.14653589 0.07707645
-0.1301279 -0.18233554 -0.40036732
-0.056645636 -0.08315626 -0.034782965
0.050154407 0.02386564 0.13150932
-0.06263062 0.14772184 -0.10919792
-0.017872484 -0.11084745 0.030821897
0.18661569 0.021598041 0.071549386
0.066083476 -0.13847962 0.080224775
-0.0875233 0.27940056 -0.14211623
-0.043035 -0.028390925 -0.010323884
-0.032835335 -0.13787898 -0.045291826
-0.094840705 0.005397015 -0.061669238
0.012746042 0.06437449 -0.11578972
-0.090385094 0.06282524 -0.06942029
0.042817485 0.056708798 0.11452875
-0.12086063 0.11630222 -0.07314648
0.11811249 -0.0804287 0.13498583
-0.058708616 0.083576255 -0.09021423
-0.034170896 -0.03564099 0.0879039
0.07265546 -0.096904516 0.15242036
0.16855937 -0.12244991 0.025788577
-0.041977044 -0.0554256 0.08438322
0.06291748 -0.15543352 0.0046358383
-0.00031166043 0.015935032 0.08173874
-0.053719882 0.31753734 -0.16803484
0.08664055 0.028298711 0.113849126
-0.06793909 0.13221985 -0.10182753
0.010042615 -0.0771634 0.11522352
-0.11551977 -0.049093023 -0.022076285
0.1192776 -0.13450114 0.07745343
0.182592 -0.04777034 0.09575426
-0.0943921 -0.16989723 -0.3309582
0.161741 0.027243571 -0.019550305
-0.028312676 0.048606526 -0.09243301
-0.09510787 -0.001547166 -0.04651883
-0.0037990569 0.27271643 -0.24599147
0.1592849 -0.078597434 0.116082
0.107858576 -0.10653724 0.14798291
-0.07287379 0.2833458 -0.14846718
-0.12467474 -0.04343097 -0.0198341
-0.023473019 -0.07584421 0.09613719
0.08637084 0.04097328 0.109873556
0.11826987 -0.008407692 0.15177847
-0.0034418209 -0.07409221 0.09743738
0.17674156 0.04346655 0.06887423
-0.017616544 0.038436275 0.056604024
-0.058052313 0.10676345 -0.09799866
0.008997074 0.07066207 0.024320232
-0.026784584 0.002019721 -0.015616391
0.04679955 -0.040757082 0.15388335
-0.028371107 0.057540547 -0.09529396
-0.05952948 0.14719611 -0.11040717
-0.009911518 0.036602635 0.053769726
-0.0088867545 -0.13096485 0.011138843
0.124142244 -0.038076967 0.048381373
-0.017116535 0.11162118 -0.1177751
0.17240533 0.031769715 0.07458244
-0.08655424 0.04544744 -0.07594244
0.15624057 -0.05812678 0.110821076
-0.09953209 -0.070169754 -0.022376463
0.19229034 -0.07422418 -0.00034956043
0.09168666 0.049652006 0.104704686
-0.060112454 -0.001478354 -0.06210557
-0.1031861 0.13900563 -0.08834392
0.0023414185 -0.0012587551 0.11065159
0.14628114 0.042151194 0.082846925
-0.027688317 0.0007441839 -0.018841147
-0.031472534 -0.072847545 0.039530136
0.19826958 -0.0477337 -0.011568804
0.055233616 -0.07639715 0.16139467
0.063624665 0.048426878 0.11758138
-0.0002722338 -0.14774467 -0.01132208
0.09776106 0.070333354 0.09532013
-0.04360971 0.19811282 -0.13394086
-0.13880391 -0.047401786 -0.0122667905
-0.17180276 -0.035798807 -0.0013397818
0.025513789 -0.060143795 0.14986676
-0.26131544 -0.0006006885 0.026487213
-0.25775427 0.007672665 0.0228408
0.11625569 -0.13715836 0.07163705
-0.12457595 -0.08637643 -0.006000882
-0.10280668 0.10805623 -0.078511566
-0.21019 -0.04499388 0.018704494
-0.061237108 -0.07180322 -0.038880598
0.10421159 -0.02798809 0.102785714
-0.022371525 -0.048028197 0.08665873
0.020002041 -0.14554474 0.08448964
0.1279115 -0.124593556 0.098386295
-0.085359864 0.21579477 -0.12108587
0.18175112 -0.02158363 0.087666474
-0.018877206 -0.113979466 0.023123408
0.075238936 -0.06648461 0.1495483
-0.064419694 -0.058384262 -0.041801427
-0.0032671837 -0.01580232 0.104021624
-0.011649968 0.043383952 -0.098156385
-0.04409297 0.24150681 -0.1477482
-0.043359 -0.11269242 -0.0226763
-0.01991651 0.012465449 0.024914177
0.020482725 -0.0259823 0.14880328
0.0016248144 -0.11151235 0.096500285
0.17904307 -0.0935357 0.011782819
0.06158865 0.07273348 0.06104828
0.15084244 0.0027743585 0.09354252
0.06512999 0.0779814 0.0070231655
0.10624499 0.0009081862 0.15411611
0.034953825 -0.01962986 0.15232475
0.14375156 -0.051248245 0.10411906
-0.10504225 -0.038189083 -0.030259911
-0.053745642 0.2484548 -0.14570022
-0.20727442 -0.055758603 0.02088641
-0.03456169 -0.001042867 0.076897755
-0.037242394 -0.14015366 -0.22882755
0.12118854 -0.035991702 0.049021155
0.15775524 -0.11744791 0.03814259
0.10906691 -0.16681124 0.05397616
0.07437175 0.03781869 0.11622948
-0.020230344 0.10135756 -0.11307371
0.095375344 -0.1416577 -0.08351221
0.006688284 -0.10782165 0.093055494
0.1484204 -0.13414492 0.0385247
0.11804011 -0.1438359 0.055168528
-0.16457807 -0.04797298 -0.0006192779
-0.03294852 -0.03651889 0.038590144
-0.070581324 -0.0009359031 -0.05762455
-0.03809673 -0.017298767 -0.018950209
0.061432816 -0.15324396 0.018624226
-0.1323877 -0.094159335 -0.0045018555
0.032257915 -0.072992444 0.14788224
0.06869332 -0.057772435 0.14964439
-0.01198822 -0.08796616 0.09494599
-0.047905806 -0.10347137 -0.027024116
-0.015458087 -0.12373352 0.015058935
-0.1001719 0.23357561 -0.13779584
-0.03196723 -0.0053581703 0.07713825
0.10491288 -0.13027573 -0.09113745
-0.056929752 0.21750759 -0.13428369
-0.07654971 0.1646743 -0.10848514
0.084722236 0.0047535524 0.16244614
-0.07349449 0.2926713 -0.22082438
-0.14020042 -0.081318066 -0.00068626984
-0.0019594782 -0.094298646 0.092532046
-0.020645741 0.024692526 0.06239258
0.1256112 0.048237603 0.090073414
-0.012181889 -0.106929444 -0.14143823
0.15025036 0.037926104 -0.017891694
-0.045701902 0.10142666 -0.1017674
-0.0073832525 -0.10514345 0.09844861
0.1498939 0.025200937 0.0867174
-0.08679345 -0.08770044 -0.02237734
-0.17881657 -0.016110705 -0.004582129
-0.0339241 -0.014101272 0.009399801
0.072590284 0.027724577 0.120283656
0.039906655 0.054293983 0.113279425
0.02210604 -0.05200404 0.14989497
-0.10818536 0.09873363 -0.07310669
-0.08120197 0.017474849 -0.06020404
0.023118919 0.06947843 0.028455716
-0.032892406 -0.09328741 0.016053544
-0.056886263 -0.059480246 -0.033623587
0.16429004 -0.09767747 0.12002106
-0.14628735 -0.039185185 -0.011593609
-0.17512761 -0.026648222 -0.0028179875
-0.16145733 -0.025248205 -0.0093504125
-0.22593845 -0.031215854 0.021256426
-0.031561438 -0.119605 -0.18298233
0.11735295 -0.018298829 0.13253804
-0.026451636 0.18273567 -0.136603
0.027749728 -0.10378607 0.111237794
-0.08892683 -0.020761104 -0.043059193
0.08069171 -0.045639794 0.14038718
-0.25515166 0.022684673 0.016832322
0.06660022 0.059819523 0.11257683
-0.042391352 -0.14270295 -0.27534354
-0.046505373 0.036376044 -0.08038952
0.12374461 -0.040205576 0.049246196
0.04025267 -0.07233393 0.15696506
0.10988439 -0.10720714 0.14729829
0.14048223 -0.10305973 0.13234933
-0.072250545 -0.0023504363 -0.056425307
-0.017454555 0.268526 -0.23856378
-0.038393322 0.075536855 -0.09665192
-0.031158937 -0.10278214 0.016880171
-0.09399072 0.12204491 -0.086952865
-0.043597776 0.26579848 -0.1643328
0.0057614096 -0.14356454 0.006691565
0.13333873 0.017771827 0.09159677
0.0950152 -0.16126813 0.071041904
-0.044775072 -0.031380445 -0.013821216
-0.063120365 0.23108411 -0.13591741
0.054907158 -0.028657887 0.14636762
0.1090109 -0.122968934 0.11840521
0.092427835 -0.15700313 0.070814356
-0.005007479 -0.010465089 0.1005064
0.106581844 -0.020235373 0.11682642
0.08610965 0.004625341 0.16187066
-0.21746795 -0.03981513 0.020268148
0.15054867 -0.027107304 0.088986024
-0.018248452 -0.09948549 0.049405873
-0.034647945 0.25316423 -0.15571576
0.14204898 -0.04301257 0.102215156
0.17000419 -0.015541634 0.09093888
-0.15192848 -0.024463568 -0.013841703
-0.1968114 0.0063047386 -0.0038221718
0.027314793 0.047499683 0.09233709
0.15682359 -0.07452984 0.11586218
0.08735445 -0.00082449464 0.16307777
-0.05796394 0.0486055 -0.079245046
0.14460698 0.021243138 0.09034753
0.0075509576 -0.07504914 0.11410029
0.025170274 0.043560214 0.09862637
0.13513468 -0.008020909 0.06584219
0.017748546 0.06987276 0.029090952
-0.14358267 -0.20215258 -0.43652582
-0.073780596 0.2747061 -0.14527212
-0.023155563 0.16700514 -0.13298577
0.08626861 -0.09054097 0.15241617
0.15353201 0.063192375 0.072822906
-0.1258492 -0.08928435 -0.0044949353
0.09890536 0.0656361 0.09632917
0.024604192 -0.13987437 0.09544474
-0.082225785 -0.17172658 -0.36437625
0.16068453 -0.013568915 0.094446085
-0.06750074 0.25308532 -0.14107881
-0.024363533 0.06605062 -0.09982645
-0.12952034 -0.17507195 -0.41956854
-0.12101794 0.10175671 -0.06837637
0.056626502 -0.053586617 0.15365818
0.17300163 -0.07981474 0.1103746
0.11759619 -0.11114858 0.14034317
0.058673885 0.0006081557 0.17225158
0.042703375 0.03618209 0.1308433
-0.067885265 0.12603079 -0.09985167
0.08339996 -0.08766616 0.15276279
0.072324134 0.038490027 0.11692323
0.04574266 -0.16488986 -0.04833573
0.18802965 -0.08432832 0.00481059
-0.123008005 -0.16879512 -0.41488594
0.092486665 0.013539554 0.07428621
-0.110914536 0.17121577 -0.109804794
0.18444599 -0.053029787 0.09662936
-0.14150642 -0.04897615 -0.0105562275
0.1248712 -0.14587264 0.052788254
-0.1800195 -0.0676206 0.012597581
-0.054641277 -0.07007375 -0.02370244
0.13618873 -0.068641685 0.12313718
0.04140249 -0.15746987 0.0796662
-0.09932007 0.16167098 -0.097387224
-0.034434836 -0.13188592 -0.20623973
-0.09788648 -0.11134917 -0.023285728
-0.0076751797 0.077730544 -0.111022785
0.08441467 -0.1544864 -0.018223405
-0.059518915 -0.12826477 -0.039156698
-0.17967482 0.0016229925 -0.00993087
-0.107893355 0.0712777 -0.064364605
-0.011130809 -0.011620751 0.08495579
-0.08836748 0.19676141 -0.11359763
-0.046930462 0.032425724 -0.07892408
0.092010975 0.05721375 0.1021167
0.19026433 -0.04852599 -0.0077526565
-0.19030584 -0.0056307768 -0.0028587198
0.10444 0.06979639 0.09252312
0.05036347 0.066423655 0.044342216
0.09031672 0.01791698 0.0839174
0.16786708 0.042019747 0.073288925
0.08835245 -0.16939516 0.05811308
0.09467492 -0.054110557 0.13690512
0.14755797 -0.07805856 0.12112346
0.105928786 -0.01820243 0.117609754
-0.07238701 -0.13630591 -0.27343184
-0.04820112 0.015185293 -0.07278802
-0.06362701 0.27404773 -0.1495756
-0.1955062 -0.011645485 0.0013979361
0.12508343 -0.16045775 0.047372818
-0.20897156 -0.031846926 0.013914181
0.074453995 0.06741121 0.10663066
-0.03612545 0.14010479 -0.11852505
-0.0178618 -0.0822663 0.09571681
-0.05307047 0.06817624 -0.08774559
-0.05038611 0.27187335 -0.17304657
-0.065855294 -0.11636509 -0.022426952
-0.16067934 -0.086125776 -0.0029229287
-0.16456807 -0.21528117 -0.487023
0.18112436 -0.0421284 0.09458407
-0.010519766 -0.12209043 -0.17069717
0.040624294 -0.14475869 0.08989803
-0.1170938 0.110299766 -0.07288209
0.16798468 -0.09753061 0.115585595
0.028825814 -0.1463916 0.085735634
0.1070627 0.04085827 0.10070779
-0.011729916 0.075402655 -0.10846738
-0.036171034 -0.14078985 -0.24456468
0.13102002 -0.1590076 0.045087375
0.028349372 -0.14385512 0.09168953
-0.07308033 -0.09894792 -0.024841808
0.11340546 0.02027804 0.0901744
0.15656917 -0.117113516 0.057743136
-0.04227436 -0.08296874 0.0019996853
-0.058678232 0.24146679 -0.1412481
-0.18092199 -0.025937103 -0.0004707464
0.08828477 0.025561709 0.11400232
-0.14448291 -0.06518816 -0.0039938632
0.17842829 -0.010665616 0.08561645
-0.10843022 -0.06714775 -0.019395323
-0.05762177 0.14850487 -0.111678675
-0.106061034 0.14983118 -0.09056328
-0.06556306 0.24377915 -0.13893358
-0.018743526 0.2206556 -0.1522847
0.10982898 -0.06135687 0.13250676
-0.11646508 -0.027709933 -0.028565729
-0.08299622 0.2879906 -0.14546582
-0.038532753 -0.12158717 -0.02537655
0.022614082 -0.12632638 0.091952026
-0.08513913 -0.14901583 -0.29428166
-0.017735578 -0.11132641 0.08867687
-0.12488878 0.12751423 -0.08000425
-0.08467156 0.08110519 -0.07786834
-0.16239 -0.06299746 0.0032627368
-0.025345566 0.096802875 -0.10932678
0.18959127 -0.07001057 -0.0005107139
-0.06608609 -0.1454509 -0.26170924
0.15340532 -0.11594863 0.10165011
-0.1027686 -0.08247571 -0.01696038
-0.22842422 -0.018111063 0.01812755
0.110779315 0.005343229 0.1406325
-0.014375398 -0.12715937 0.01211173
0.07405519 0.0067072213 0.09093979
0.10009274 -0.111548245 0.14302205
-0.06821071 0.11752256 -0.096957326
-0.10151505 -0.03627476 -0.032447238
-0.07751467 0.13294633 -0.09780363
-0.07750271 0.033388503 -0.06563778
-0.00711874 -0.13146867 0.011907387
0.12224939 -0.096714996 0.1384082
0.11317295 0.06282343 -0.009446411
0.034895364 -0.029202381 0.15544416
0.06970302 -0.080664635 0.15659231
-0.037110526 -0.0628622 0.030854354
0.10444118 -0.1264032 0.11070728
0.099989265 -0.16992249 0.052116986
-0.04676381 -0.12367587 -0.028555721
-0.22495724 -0.019313663 0.016974373
0.026821412 -0.027284473 0.15649126
0.18807514 -0.074515104 0.10195814
-0.05131963 0.20292065 -0.13206515
-0.060356587 0.028779611 -0.07177428
0.1407883 -0.042680323 0.09857417
0.14968392 -0.120064594 0.08845856
-0.017782822 -0.123128146 -0.1809037
-0.0750933 0.17144425 -0.11132026
0.18921477 -0.0129163135 -0.02882657
-0.1073126 -0.04502105 -0.027042268
0.17319731 -0.09862543 0.05643961
0.013037231 0.0047897263 0.13202061
0.011301284 -0.07178523 0.12179273
0.014490843 -0.12140338 0.093974136
-0.08754486 -0.08430476 -0.023140369
0.17056096 -0.10203728 0.024679746
-0.09383379 0.1701972 -0.10258228
0.09079533 -0.09990369 0.15342858
0.052145403 -0.14963341 0.086349115
-0.027065128 0.10384716 -0.11083838
-0.023625564 0.24698547 -0.15862156
-0.04885832 -0.028251847 -0.04499547
-0.102623306 -0.06644241 -0.022206133
0.03160219 0.051383544 0.093018666
-0.03997251 0.28333735 -0.16309772
-0.13575678 -0.19917822 -0.42284688
-0.101196595 0.118594654 -0.08263299
-0.107114844 0.12427028 -0.08183487
-0.038193997 -0.028493714 0.007436464
0.18108873 0.0052031125 0.07930534
-0.03956004 -0.01608058 -0.062658064
-0.057618294 0.18798582 -0.12443789
0.05435901 -0.063998945 0.15803154
0.18776493 -0.018112924 0.08387015
-0.14000575 -0.06052029 -0.0074932836
-0.027312433 0.21263967 -0.14588359
0.11483245 -0.13900258 0.06779307
-0.021960204 0.28440106 -0.17145258
0.16979352 0.0015722099 0.08550229
0.009932684 -0.057331275 0.12773266
-0.10118316 0.19411945 -0.11011968
-0.051725466 0.31212628 -0.16717309
0.10267957 -0.07507904 0.14012079
0.07169369 0.07364184 0.09581111
-0.044661954 -0.022328474 -0.060546275
0.12199725 -0.06533756 0.12838152
0.19504403 -0.01571421 0.079857744
-0.045038626 0.16403992 -0.12229492
-0.025578646 0.21674918 -0.14798227
-0.011662783 0.06923081 -0.10650295
-0.072361246 -0.15083475 -0.2692756
0.08189843 0.05507364 0.107306324
-0.152724 -0.19691874 -0.44927567
-0.22887842 0.0040372517 -0.003210733
0.13474576 0.037626475 0.089439504
0.14459611 -0.035333563 0.07762265
-0.041525573 -0.018133147 -0.054290943
-0.15782759 -0.05838042 -0.0002586434
0.017276293 -0.036955066 0.144694
-0.027674833 -0.006753065 0.075680055
0.015463839 -0.014073535 0.14442517
0.19715771 -0.06952304 -0.0040336195
-0.12586616 -0.20725031 -0.427926
0.17355262 -0.05267708 0.101360194
-0.098592445 -0.03136084 -0.03533501
0.1214142 0.035461966 0.09606824
-0.09975337 -0.11105264 -0.023714162
0.1482656 -0.14783837 0.034280628
-0.027608119 -0.11309492 -0.17818947
0.11037547 -0.12133067 0.12235132
0.06354843 -0.036627885 0.14509982
-0.035349682 0.1965854 -0.13712081
-0.07273821 -0.1653355 -0.3398112
-0.16030833 -0.056386743 0.00020076432
0.17559965 -0.090854116 0.11278639
0.101200014 0.022820784 0.09910999
-0.18974742 -0.0663948 0.016527917
-0.039058987 0.2650138 -0.16002479
0.14167494 -0.12572633 0.05416369
0.09042821 0.005225803 0.15975568
0.10814029 -0.005157001 0.15398583
0.02221705 -0.10810963 0.099354535
0.1758707 -0.09549027 0.04177869
-0.09670421 -0.029084068 -0.036910497
0.0867224 -0.0958123 0.1539175
0.16922738 -0.06549644 0.10742651
0.080275215 0.0011887451 0.055203274
-0.056993134 -0.04066558 -0.050829925
0.16097517 -0.08677939 0.11797398
0.07881036 -0.07744599 0.15150173
-0.16463451 -0.062293142 0.004033333
-0.06535844 0.3043374 -0.15859284
-0.22538474 0.0071262703 0.0010962659
0.048316818 0.074049704 0.015771331
0.10530709 -0.08668759 0.14270338
0.06315041 -0.042945605 0.077081345
0.06669148 -0.16188346 0.07659844
0.15059702 -0.10754418 0.124275595
-0.03847575 -0.051388178 0.027850475
0.13453707 0.0033644573 0.0743327
-0.025736962 0.26079544 -0.16214487
0.076656446 -0.08588202 0.15518562
-0.2361257 0.0065735723 0.013576442
-0.06449619 0.14261368 -0.10671752
-0.13359296 -0.21186687 -0.44306538
-0.15162447 -0.044451363 -0.0075183255
-0.11487819 -0.08571073 -0.010528992
-0.030527767 0.12154585 -0.11501737
-0.013072769 0.020015394 0.004365189
0.05567368 -0.004475168 0.13821235
-0.013185084 0.019369785 -0.0064218654
-0.12644942 -0.0857886 -0.005357552
-0.017439475 -0.049247958 0.084859386
0.1775313 0.029126853 0.07315695
0.08330269 -0.04681412 0.1396052
-0.006377973 0.084683076 -0.113846734
0.062494114 0.008853214 0.13087188
-0.0039818757 -0.10040055 0.09540341
-0.0668922 0.0036149803 -0.060736135
0.006840561 -0.111257985 -0.1342363
-0.0042558266 -0.110382125 0.054175816
-0.03923986 -0.13814472 -0.22832052
0.07619383 -0.14145775 0.07301171
-0.09837328 0.20081215 -0.11045629
-0.056081265 -0.10098099 -0.03174528
-0.20440957 -0.006720127 0.0037662974
-0.011021901 -0.14026901 -0.012702044
-0.09681431 0.18008639 -0.10445234
0.026742505 0.008517868 0.14688139
-0.08504887 0.2693854 -0.13854107
0.18273962 -0.1065748 0.014352218
-0.14175113 -0.030485772 -0.016422527
0.11595298 0.06849049 -0.019121127
-0.19855654 -0.07300415 0.004586555
0.12998436 -0.1486655 0.051416714
0.1033391 0.060061038 0.096158534
-0.022467256 0.22682989 -0.15262373
0.10072567 0.07429625 -0.007617468
-0.023135588 0.053050976 -0.096171744
-0.065881066 0.15429577 -0.10987649
-0.25341126 -0.03862824 0.031234592
0.053573336 -0.08124253 0.15785298
-0.024532882 -0.004325704 0.028355904
-0.10577211 -0.0056940885 -0.043849163
-0.21077327 -0.0032468874 0.0018597752
0.14603703 -0.0059515885 0.08190202
-0.11937005 -0.018258257 -0.038274784
-0.18444112 -0.0032580937 -0.006233811
-0.016513508 -0.12893954 0.0058620437
0.010726884 0.053242873 0.03921344
0.19996548 -0.0038695412 0.06832575
-0.0056954497 -0.10224757 0.09676234
-0.06802562 0.17787626 -0.11654233
0.05224933 0.017688727 0.13257325
0.044910364 -0.06487138 0.16251585
-0.08811996 0.24987794 -0.13087158
0.021525923 -0.09067411 0.118824735
-0.12930106 -0.21047194 -0.44094747
0.08970116 0.04481922 0.10714957
-0.05576292 -0.08785036 -0.036129944
-0.09448344 0.10036185 -0.079727076
0.0105787795 -0.13258588 0.03581312
0.10711643 0.04565295 0.09913429
-0.03154116 -0.014372757 0.019726364
0.10321312 -0.019576982 0.10764647
0.14564851 0.004418958 0.087065205
-0.07790936 0.12442531 -0.09487436
-0.08487956 0.30887127 -0.15748519
-0.23521335 0.004548647 0.013824869
-0.024294702 0.18424028 -0.13804872
0.053053673 0.06792137 0.06506583
0.100821026 -0.0054613925 0.1543894
0.12027023 0.06696161 -0.015720718
-0.051545158 0.25388476 -0.14843374
0.04050675 -0.12532282 0.090708524
-0.12013549 0.1494936 -0.10312269
0.114058144 -0.12094594 0.12176655
-0.025822898 0.24154769 -0.15588711
0.16030622 -0.104416884 0.11179801
0.15742204 -0.095282085 0.12230193
0.056325797 -0.14449598 0.082829766
-0.14257807 -0.18765293 -0.42899224
0.052536767 -0.076151624 0.16044505
0.13924341 0.0044866093 0.08341783
0.09719568 -0.032400396 0.088000804
-0.02088585 -0.1266767 0.00090977177
-0.25873753 -0.008246257 0.028422268
-0.15470126 -0.054496568 -0.002904121
-0.18371837 -0.034012273 0.0033826216
0.053683255 -0.1493487 0.040089358
-0.06343304 0.25542405 -0.14364351
-0.059458226 0.18280381 -0.12194499
-0.037377175 0.17259113 -0.12846586
-0.07239344 0.11934482 -0.095685944
-0.07970127 0.23986062 -0.13137867
0.12798038 -0.008383459 0.12738383
0.10272545 -0.02766963 0.054543514
-0.031092407 -0.014875482 0.022173079
-0.0014155017 0.2563793 -0.25743297
0.1452677 -0.11732662 0.11476339
0.02227558 -0.06621724 0.14207472
-0.04085392 0.2787422 -0.16122064
-0.01965388 -0.07364326 0.09372737
0.11039774 -0.040346432 0.055227537
-0.021310069 0.2269235 -0.15316859
-0.04703454 0.2707237 -0.17068912
0.09262744 -0.13591515 0.0861891
-0.07528309 0.020200143 -0.062363524
0.08909396 -0.115086876 0.13828099
0.03674948 0.021667035 -0.11266492
-0.011893965 -0.11460353 0.03372879
-0.17707889 -0.027431872 -0.0016967673
0.008009104 0.02440412 0.09350182
-0.03345166 0.0629071 -0.09476855
0.12309857 0.027226917 0.09798029
-0.0073571024 0.09239782 -0.115903944
-0.21555334 -0.03362542 0.017416429
-0.0772942 -0.11194016 -0.018769447
0.16487017 0.014552364 0.08349756
0.08758586 -0.0030013984 0.16006437
-0.06314353 0.07274106 -0.08474057
-0.16155258 -0.027306525 -0.008642856
0.18193053 -0.043491367 0.09466583
0.073608 -0.082305506 0.15538575
-0.083537884 0.22134086 -0.12368798
-0.106470086 0.06953609 -0.06502165
0.02725623 0.014407227 0.14280115
0.14916217 0.034108743 0.08416455
0.0012219966 -0.025616208 0.11661111
0.037784442 -0.15130763 0.08338296
-0.12740457 -0.045003187 -0.018111944
0.18861139 -0.07137199 0.1007039
0.07278342 -0.15904808 -0.06557749
0.08953433 -0.15305322 -0.013409267
-0.02422732 0.032601703 0.059611663
0.073426075 -0.02539619 0.1370771
-0.18327452 -0.070961386 0.015124476
-0.02538474 0.23220845 -0.15306398
-0.19638462 -0.029066438 0.0074178497
-0.015316775 0.045139525 0.040572375
0.019505255 -0.046550315 0.14643587
0.055276047 -0.084648594 0.15652846
-0.25831363 -0.016446773 0.027612068
0.07122987 -0.05258543 0.102520786
-0.13562284 -0.082817405 -0.0022376794
0.13204677 -0.057692535 0.12144121
0.15876618 0.029377157 -0.01891669
0.15358695 -0.11196038 0.11768467
0.075620174 -0.04252657 0.1416366
0.05083436 0.032821685 0.12831268
0.06394267 -0.15359129 0.08238113
-0.090609595 0.23361187 -0.12450777
-0.0732235 0.23521563 -0.13275917
0.11507063 -0.06766802 0.13221495
0.10333655 -0.15119319 0.06408527
-0.108531855 0.10868561 -0.076168574
0.15134254 0.013710181 0.089786164
-0.060221497 0.08495446 -0.08998684
-0.015526495 -0.14517692 -0.051691666
-0.18273047 -0.07434983 0.010882218
0.054604944 -0.08243229 0.15756759
0.11915564 -0.10784291 0.14338015
-0.035390504 -0.13194592 -0.03327439
0.02006847 -0.099231236 0.104837924
0.15443297 -0.035555508 0.10433135
-0.046121504 0.13851729 -0.11356599
-0.0045550657 0.056066226 -0.10541012
-0.22137165 0.014283311 0.0045227944
-0.07249728 0.05493384 -0.07482615
0.118659124 0.06703758 0.08709031
-0.08900652 0.22571611 -0.12266967
0.0035094558 -0.051132105 0.11761934
-0.22128804 -0.06402755 0.011605812
0.15784347 -0.09775511 0.122913614
-0.037527375 0.2684021 -0.15935893
0.18794757 -0.052395828 0.09486715
-0.04686464 0.1620334 -0.120834365
-0.10108014 -0.033974137 -0.03338428
0.040960804 -0.06818906 0.15599486
0.14018774 -0.024524895 0.06109229
-0.19970292 0.024203857 -0.008320052
0.079595424 -0.14000426 0.072700284
-0.13569923 -0.08203694 -0.0024560075
0.031893402 -0.06537352 0.15407847
0.08215264 -0.060468085 0.07429176
-0.07056447 -0.16303265 -0.33958575
-0.11877808 -0.19904372 -0.40362877
-0.0022388324 -0.10794812 0.09706683
0.13202631 -0.14364448 0.048885826
0.009564264 -0.13449484 0.030457828
-0.15624975 -0.19435637 -0.4805422
-0.0052015833 0.004757914 0.092657074
-0.10216181 0.13126831 -0.086299054
0.15452084 0.030775893 -0.017480567
0.050322197 0.06494042 0.06631369
-0.105152406 0.1018897 -0.075475544
-0.11239988 -0.04254824 -0.025578987
0.10886583 0.069998205 -0.009849357
-0.00827598 -0.10812967 0.09981086
0.17958993 0.008450748 0.078922465
-0.09306139 0.094966106 -0.07861605
0.07188024 0.041931517 0.11600881
-0.07189143 0.26834086 -0.14405568
-0.03349694 0.26239696 -0.15921116
0.17057349 -0.12200143 0.02474808
0.20086856 -0.014269285 0.07449592
-0.09063479 0.307047 -0.19273938
0.046666473 -0.106573515 0.1259974
0.093256816 -0.063593306 0.14060026
0.20272793 -0.050106805 0.07366318
0.044628933 -0.029108385 0.15108478
-0.048408262 -0.07070662 -0.0046355496
-0.070592545 0.32221588 -0.16204222
-0.12621419 -0.031891517 -0.022878682
0.16764386 -0.0062750117 0.08899392
0.014645001 -0.082833596 0.113232955
-0.05009418 0.2880413 -0.16011582
-0.012999433 -0.03970854 0.08939047
-0.069074266 0.23134597 -0.13335443
-0.062274113 0.31445292 -0.16323343
-0.056805518 0.22151873 -0.13563508
0.09169337 -0.103258595 0.15223722
0.07054629 0.020159708 0.12363719
-0.07718707 0.22047175 -0.12623216
-0.22330987 0.009774255 0.006842105
-0.011795523 0.08156498 -0.11042952
-0.037153635 -0.061179135 0.030895839
-0.0566437 -0.13167237 -0.23983565
-0.14225328 -0.03469476 -0.014838994
-0.04337022 -0.04593709 0.081387915
0.12420611 -0.04375593 0.0501878
-0.07639847 -0.13451445 -0.31288916
-0.25591984 -0.021443142 0.0314335
0.10985058 -0.14053799 0.06350685
-0.013993709 0.08059677 -0.10913885
-0.040340118 0.035698317 -0.082912676
-0.010164424 -0.14944543 -0.030916493
0.06879552 -0.08896731 0.15946113
0.0781155 0.05928837 0.107626766
-0.03097902 -0.13816775 -0.044851057
0.1377233 -0.10208952 0.1332628
0.18508928 -0.034249015 -0.010064063
0.09351425 0.00079645676 0.15981439
-0.08383721 0.20417115 -0.11800669
0.028918268 0.05286643 0.038630348
0.041717853 0.061174534 0.05157409
0.0769508 -0.11815713 0.12727824
-0.08009854 0.11900638 -0.09214962
0.16350734 0.02201089 0.081693575
0.13590463 -0.115364514 0.118293814
0.06852111 -0.09794847 0.1526695
-0.06900364 0.22515477 -0.13138475
-0.22508538 -0.056282364 0.027020419
0.14934292 0.045103565 -0.019807642
0.012436717 0.005125292 0.13080376
0.068360984 -0.04670793 0.14621647
0.07778166 0.021343159 0.120036714
-0.14082958 -0.06515457 -0.0056294324
0.030555172 -0.040927604 0.1611631
0.07455338 0.05639079 0.110147275
0.119211994 -0.09382726 0.13882597
0.14322491 -0.036449496 0.075309895
-0.010621515 -0.054593164 0.09593329
-0.08815936 -0.17048895 -0.3298047
-0.012098186 -0.052980144 0.09465842
0.0034016345 -0.025482848 0.12335241
0.007073072 0.044102773 0.043792006
-0.0035756156 0.0601712 -0.10717214
-0.049579334 -0.12137611 -0.21649362
0.09577418 -0.10893174 0.14495158
0.06402425 0.060906254 0.11337143
0.13522871 -0.045970194 0.08124598
0.16341908 -0.110527836 0.047205675
-0.015674148 -0.031510703 0.08249893
-0.05034284 0.2821484 -0.15810129
0.15405127 -0.1462946 0.021464521
0.08703095 -0.110889114 0.14742811
-0.16270551 -0.23107445 -0.5105816
-0.08844889 0.14877541 -0.09805524
-0.0006684129 0.05334598 0.044248525
-0.12074064 -0.018774552 -0.047810227
-0.04174187 0.19501837 -0.13377163
-0.16886081 -0.2049961 -0.49937797
-0.02220803 -0.0130840875 0.07529433
0.043776408 -0.09440053 0.14140853
-0.2500506 0.018787652 0.015822928
-0.058868863 0.13535203 -0.10687393
0.028086087 -0.12124909 0.08787782
0.13497482 -0.15803872 0.04219216
-0.075491354 0.28166834 -0.24690041
-0.17777087 -0.06594437 0.011055712
-0.058523204 -0.026501944 -0.05472643
-0.08055286 0.15614435 -0.10394816
-0.0795402 0.073754445 -0.07777515
0.09900012 0.04833056 0.10187915
-0.051251303 0.11066155 -0.102283105
-0.11123526 0.08867224 -0.06849924
-0.04132582 0.056715354 -0.08926568
-0.04155144 -0.020603662 -0.030983977
0.15203711 -0.124391034 0.035203297
0.017893292 0.032404862 -0.107748345
0.15584579 0.02471565 0.08422694
-0.21932144 -0.020303076 0.014787349
-0.040229827 0.06740185 -0.09320628
0.054244775 -0.05304067 0.15454148
-0.096249126 -0.1828924 -0.38961095
-0.019870745 0.11476286 -0.11756525
0.11910194 0.06360929 0.088001356
-0.06951037 0.071162336 -0.08139869
-0.06350855 0.28724888 -0.22626095
-0.0068565975 -0.015460665 0.09919583
-0.046008978 -0.03470533 -0.014840445
-0.087610126 -0.006031132 -0.048404474
-0.020469062 -0.041262325 0.08362622
-0.10256956 0.09512293 -0.074437745
-0.09884323 0.117584415 -0.083353356
0.08299099 0.07213803 0.10130603
0.04294558 -0.14662729 0.03922286
-0.09159539 -0.069803424 -0.026024755
-0.036159344 -0.01617014 0.00040665525
0.072083004 0.060511045 0.109914556
0.06433863 0.024670137 0.124940716
-0.19217923 -0.000275968 -0.0037557776
-0.017125526 -0.11500209 -0.15902704
-0.083400026 0.3216202 -0.16846657
0.06999396 -0.08440724 0.1576723
0.05056591 0.078967966 0.013181926
-0.12127379 0.1317062 -0.077940345
0.049922798 -0.021991378 0.14643036
-0.04501306 -0.05867401 0.0070303357
-0.06349073 0.31156415 -0.16175894
-0.028580807 0.00067148113 0.0032743432
-0.12687075 -0.08812175 -0.0044162753
-0.039565552 0.08216051 -0.09827095
-0.09244464 0.19715092 -0.111910045
0.12732884 0.015974225 0.08179475
-0.08780613 0.22896652 -0.12425375
0.14456227 -0.0596037 0.11649241
0.15950753 -0.060130235 0.11001552
0.14764021 0.0012385868 0.08779455
-0.050557494 -0.09528102 -0.03128669
-0.034869634 0.17956914 -0.1318357
-0.08556683 0.2344055 -0.12700719
-0.11326572 -0.10346809 -0.014414313
-0.008031862 -0.11277956 0.043444242
0.1626382 0.03716989 0.07718157
-0.013968517 0.24002615 -0.16066778
0.02894103 0.07231915 0.024948215
-0.08120139 0.25150073 -0.13447304
-0.023587614 0.006790858 0.001306883
-0.05125046 0.11915276 -0.10502752
-0.054683667 0.08051945 -0.09101673
-0.047365967 0.15988572 -0.1199175
0.1492306 -0.012598254 0.081602246
-0.04033805 -0.1290372 -0.20712964
0.019064922 -0.020866394 0.14797926
-0.26988953 0.018647365 0.015158143
0.10119516 0.071724445 0.09334325
-0.008203998 -0.1427908 -0.014847673
-0.10258423 0.08949179 -0.07261152
0.08803447 0.07346006 -0.0017029663
-0.011662426 -0.059400193 0.09216562
0.10458353 -0.018878529 0.11264391
-0.15858965 -0.22811806 -0.49586463
0.0010434731 0.07403647 -0.11370675
0.18186979 0.03721165 0.058580697
-0.090128675 0.15822086 -0.100360185
-0.09143367 0.29804915 -0.21886545
0.061701927 0.071834095 0.010534315
-0.03598216 0.25237966 -0.15486893
0.14889193 -0.11039334 0.122117385
-0.16854373 -0.07698185 0.010518374
0.14551273 -0.033682473 0.077653065
0.1455703 -0.1178989 0.1045441
-0.19218306 0.013114297 -0.008081074
0.11069275 -0.06819423 0.13433222
-0.023541981 -0.08791062 0.0448082
-0.17252588 -0.033327702 -0.001816665
0.074387714 -0.07443005 0.15249427
0.10605309 0.037009493 0.10240034
0.13324659 -0.015505728 0.0527659
0.09832133 0.07962556 0.084041774
-0.039141066 -0.0063894233 0.07276081
0.1878061 0.027720032 0.059704676
-0.069493905 -0.042565502 -0.04465635
0.17671235 -0.088659756 0.11158237
-0.088085525 0.2765578 -0.14125745
0.08911418 -0.1355598 0.0856389
-0.07490669 -0.042979706 -0.04211507
0.12814665 -0.11388769 0.12717958
-0.028411794 0.01270816 -0.08078889
-0.019395005 0.23691674 -0.15724955
0.18252853 0.02719943 0.071557224
0.09309461 0.076367535 -0.004892917
-0.07008461 0.31832805 -0.16101182
-0.02131275 0.007332975 -0.047463574
0.17055413 -0.10172513 0.07091943
-0.027695963 0.29415026 -0.17205188
-0.26731914 0.02187741 0.021362806
-0.0570011 0.1322723 -0.1067093
0.15878548 -0.12072992 0.02958004
-0.040684205 0.26423815 -0.16309409
-0.005752387 -0.056503337 0.101781495
-0.033108227 -0.0075334124 -0.07215927
