# .PCD v0.7 - Point Cloud Data file format
VERSION 0.7
FIELDS x y z
SIZE 4 4 4
TYPE F F F
COUNT 1 1 1
WIDTH 1000
HEIGHT 1
VIEWPOINT 0 0 0 1 0 0 0
POINTS 1000
DATA ascii
-0.12706122 -0.2721964 -0.47529742
0.2915283 -0.0008611224 -0.1460599
-0.001089084 0.1628811 -0.1740535
-0.047644876 0.11505545 -0.14309005
0.021300375 0.05469856 0.12307604
0.24240819 0.04127355 -0.15778118
-0.06459131 0.039668817 -0.10402529
-0.13453548 -0.0931776 -0.04311535
-0.14177872 0.041326653 0.062477257
-0.02871961 0.058535725 0.15976535
-0.14073358 0.001912094 0.10253418
0.063448556 0.021062223 0.13192657
-0.13187377 -0.042520873 0.09663636
-0.059597023 0.18994132 -0.17692775
0.21224555 -0.019360708 -0.12419783
-0.07067897 0.16036074 -0.16083433
0.039392654 -0.09703453 0.08600354
-0.08457397 -0.049690016 0.15853234
-0.07085129 0.110470526 -0.13688695
0.042866737 -0.059991267 -0.0747944
-0.02433948 0.09405268 0.11208669
-0.056203675 0.0066536064 0.08972915
0.08563847 0.020182082 0.025046106
0.011452501 -0.09172167 0.095317565
-0.13292137 -0.073788516 0.11163847
0.025189126 0.10945233 0.096155666
0.069402926 -0.06406934 -0.07741943
0.05125203 -0.012749691 -0.09888957
-0.091359615 0.058265857 0.14081044
0.07565073 -0.05896698 0.05856919
-0.042401273 0.10882336 0.108122766
-0.025830025 -0.09459439 0.11299911
-0.08303873 0.15733038 -0.15724829
-0.10189047 0.11301509 -0.14511196
-0.04407777 0.0852236 0.11972585
-0.002881113 0.071834266 0.10986658
-0.077880904 0.1191518 0.10929501
0.034270376 0.07295305 0.012433614
-0.13479295 -0.09959556 -0.013895397
0.27173382 0.04921405 -0.16664912
-0.15991054 -0.03863487 0.089478746
-0.11316738 0.06760097 -0.120908156
-0.1189419 -0.1835148 -0.31558388
-0.044824693 0.19178738 -0.18036254
0.05116698 0.010753083 -0.11014206
0.07233916 -0.056495152 0.0679211
0.008759556 -0.06145939 0.15987207
-0.13898411 -0.088512585 -0.04696752
0.0196817 0.10021046 0.10153652
-0.0697279 0.051048912 0.14053653
-0.045420773 0.0961533 0.11471823
-0.06903398 0.010134326 0.090274714
-0.03367004 0.09129853 0.11501755
-0.019590542 0.14608529 -0.1628084
0.12882051 0.020289667 -0.12811658
-0.076460704 -0.028449213 0.1798102
-0.023820335 0.121696964 0.1351983
-0.064242244 0.114869945 -0.14013678
-0.14623557 -0.040300947 0.033365045
0.08599435 -0.011294543 -0.105583355
0.32500842 -0.055069897 -0.19560689
-0.093062036 0.09500793 0.044602312
0.22726646 0.005098294 -0.13782531
-0.09528365 -0.025051061 0.17437777
-0.050044756 0.1394929 -0.1543915
0.2971011 0.023919143 -0.15890111
-0.09812329 0.010759288 0.16475259
-0.086873315 -0.018558018 0.17686567
0.038808078 -0.08834175 -0.068795994
-0.005531687 -0.08898495 0.11579919
0.16549754 0.044704948 -0.14615163
0.07247395 -0.04476754 -0.0872027
-0.041153554 -0.108109005 0.11225326
-0.11030177 0.031759467 0.1567871
0.08349177 -0.022584746 -0.09973891
-0.09097529 -0.13274181 -0.00919844
0.24954198 -0.030767638 -0.13606156
-0.072433196 -0.042971022 0.17731026
-0.1431719 -0.008808707 0.09275803
-0.0994162 -0.005235774 0.17264378
-0.13799939 0.047208723 0.08187206
0.0754725 0.02139118 -0.11943705
-0.012380508 0.20639922 -0.19296722
0.020418474 0.09642601 0.103223935
0.2050333 -0.0038997568 -0.12967403
0.2135797 0.031056536 -0.14790721
-0.031182775 0.1688743 -0.17173284
0.31164852 -0.024120852 -0.1409237
-0.0025441654 0.06378579 0.10149878
0.12397603 -0.0020054716 -0.11659224
0.009548679 -0.116238035 -0.026622137
-0.09058161 0.111670665 0.10088934
0.0006703457 0.046033118 -0.118340045
-0.14864746 -0.011765223 -0.028289186
-0.12407368 -0.19734591 -0.3683285
-0.036632042 0.067243874 -0.12207039
-0.025059711 -0.08660896 0.12698539
-0.124839105 -0.012303154 0.14072384
0.087286755 -0.045479428 -0.08941826
-0.03446618 0.17310981 -0.17319648
-0.044690207 0.12880619 -0.15019254
-0.080351554 0.072324485 0.1321704
-0.01217362 0.12809142 0.13352974
0.026644021 0.10790809 0.096645005
0.07552731 0.0057489974 -0.11194772
0.22316384 0.023512643 -0.14594495
0.25520712 0.048662253 -0.163532
-0.15518634 -0.05537001 0.09272064
-0.078103215 0.042497177 0.14608194
-0.10666365 -0.10839415 0.0279655
0.29088393 0.024856577 -0.15827751
-0.080558375 -0.041324906 0.17398947
-0.018186146 0.042478155 0.14193128
-0.0038824603 -0.11962281 0.097166926
0.116790645 -0.008291886 -0.11233815
-0.16653486 -0.022873208 0.08306594
0.0023532242 -0.0741884 0.1394188
-0.009528942 0.06795948 0.11207409
-0.14926577 0.031711597 0.06388257
-0.051140264 -0.1060348 0.11298238
-0.009049157 0.15112802 -0.16704506
-0.07082769 -0.041503616 0.1778617
0.0039890083 -0.0841746 0.116861045
0.2613238 0.046276767 -0.1634445
-0.10087551 -0.1306041 -0.2243657
-0.039199043 0.07265894 -0.12422314
-0.08233389 -0.16280372 -0.27383527
0.322434 -0.07271399 -0.18670394
-0.16483565 -0.009162676 0.08550317
-0.06855318 -0.052692495 0.17181899
0.23576619 0.0029251392 -0.13825049
0.024892498 -0.09715346 -0.02021088
0.16940188 0.050526187 -0.14961615
-0.14347024 -0.00068230665 0.09292051
-0.15005487 0.04017257 0.059962638
0.13531286 -0.01856763 -0.11060874
-0.04499456 -0.05333271 0.17634337
-0.13635917 0.01324703 0.118935674
-0.047552545 0.08215344 -0.12733299
0.03512618 0.04178382 0.12688087
-0.08716359 0.04402135 -0.10221565
0.023104988 -0.09233671 0.093601316
0.16967449 -0.013662203 -0.12516917
0.30609477 0.035017572 -0.16577394
-0.07462926 -0.0456334 0.17501199
0.31817418 -0.04383109 -0.19956076
0.028774826 0.08279952 0.10831421
0.03757922 0.03554105 0.12945038
0.079411335 -0.0066306423 -0.10668318
-0.06352271 -0.06561303 0.15782474
-0.09748883 0.06559842 0.13835308
-0.076297015 0.025069792 0.12123657
-0.12541075 0.0327578 0.15101582
-0.07964915 -0.12270896 -0.16098993
-0.12173772 0.03680944 -0.030028326
-0.04004949 -0.048384435 0.18215784
0.16053788 0.041324828 -0.14367533
-0.08948481 0.13174453 -0.14386953
-0.100829154 -0.039981097 0.15324186
0.15498103 0.072522104 -0.15767221
-0.011211585 -0.09576511 0.105711214
-0.05826424 0.102038175 -0.13501689
0.033945404 -0.07298542 0.092567876
-0.1183228 -0.17864244 -0.33887488
-0.032512553 -0.021381073 0.16883647
-0.120317996 0.037573107 -0.09773637
-0.1034419 -0.0014233191 0.17151076
0.252363 0.0052580154 -0.14223354
-0.040426273 -0.12806007 0.016706951
-0.06601344 -0.12910354 0.01182441
-0.021947352 0.078903034 0.11625638
0.062364664 0.040446803 0.12282071
0.15631871 0.07566821 -0.15941136
-0.07798378 0.051614232 0.14169063
-0.13473243 0.0067629437 0.12349376
0.036291547 -0.04954037 0.14087152
-0.025404347 0.22749057 -0.20083086
-0.044241585 -0.11807121 0.11640911
-0.014532738 -0.053907648 0.17562294
0.11363132 0.03175977 -0.13099387
-0.0043122475 0.048098482 0.08968278
-0.058981147 -0.037587803 0.18117432
-0.0028794706 -0.11649431 0.019149013
-0.07440994 -0.13818598 -0.01643288
-0.036350302 0.03387538 0.1200378
-0.09684744 -0.12330961 -0.21715957
-0.07523005 0.018982492 0.15685901
-0.14712675 -0.0034255872 1.8213837e-05
0.036833093 0.08192788 0.0076889796
0.13096209 0.037054155 -0.13652329
-0.054875456 -0.017335497 0.17075688
0.04965796 0.06724797 0.11216527
0.08429307 0.0009954753 0.038296685
-0.15821268 0.03312822 0.0647478
-0.08105056 -0.12768525 -0.17084761
-0.13701862 0.00793247 0.115943916
-0.04778221 0.1702835 -0.169543
-0.14473054 -0.26065224 -0.46936297
-0.048029806 0.11099639 0.108052716
-0.026934199 0.11019641 0.005142815
-0.105893895 -0.21451533 -0.35371816
0.046626247 -0.042960014 0.13621199
-0.054402348 0.123942584 0.073524356
-0.07190057 -0.122234315 0.033170152
-0.047087394 0.16783987 -0.16849156
-0.0015839062 0.1575052 -0.17139082
0.06528016 -0.027156698 0.055999327
0.07404154 -0.015550694 0.047998656
0.05993056 0.07652859 0.105943136
-0.12072784 -0.09447877 0.022787018
0.018411433 0.05307567 0.12435236
-0.045387477 0.071366355 0.110599756
0.017047534 -0.037485324 0.16800305
0.3122427 -0.0030831965 -0.14856936
-0.07945695 -0.14050162 -0.20983908
-0.09108046 -0.006696809 0.17190532
0.31743824 -0.071189575 -0.18657233
0.03098308 -0.030959912 0.16246958
0.053803075 0.014269606 0.13684791
-0.08519202 0.022842577 0.15672784
-0.14242473 0.010361018 0.085045606
-0.11121402 0.09404037 0.110057786
-0.10893743 0.035233818 -0.09424465
0.066517755 -0.038323436 -0.08926412
0.07630729 -0.058416806 -0.08132079
-0.10728426 -0.10052505 0.046948824
0.25557944 -0.020204335 -0.13058168
0.09967671 -0.042123586 -0.0931656
-0.06226843 0.21690479 -0.18939343
-0.14483155 -0.2546133 -0.4648473
0.22793034 0.03253197 -0.15109167
-0.10805994 -0.050198853 0.13378058
-0.114955984 -0.22638519 -0.3757685
-0.026520193 0.173608 -0.17480662
0.19744755 0.021279054 -0.14043541
0.028332062 0.027113149 0.13508682
-0.16657415 -0.029619256 0.081698306
-0.0974688 0.031901106 0.154504
-0.06180873 0.21094368 -0.18661474
-0.13562846 -0.2559797 -0.44968727
0.0027689429 0.03042379 0.07156359
-0.12805548 -0.086635366 0.09943709
-0.10112823 0.056460958 0.1433615
-0.0014722341 -0.08243507 0.12605251
0.057483617 0.05337113 0.11746703
0.3214694 -0.010445303 -0.14663236
-0.15235373 -0.026807977 0.008077785
-0.010514689 0.069159836 0.11166912
-0.0013684153 -0.08329098 0.12448741
-0.08306287 0.057696275 0.13965118
-0.1511292 -0.024029639 -0.0064680963
0.27626044 0.04544068 -0.1656216
0.30579638 -0.007096674 -0.14553283
0.29110286 0.030777529 -0.16115375
-0.021482438 0.13041517 0.12883061
0.1166397 0.083253235 -0.15619922
0.15567018 0.01907131 -0.13216676
0.012243747 -0.049604997 0.16467722
-0.04066357 -0.12655672 0.020820668
-0.040320694 -0.07541534 0.15029241
-0.07096753 -0.025149602 0.1772802
-0.09762153 0.012800909 0.16368698
0.31246012 -0.072374165 -0.18514524
-0.1370426 -0.075994216 0.103442095
-0.04340333 -0.10653631 0.11188772
-0.08823611 0.032317348 0.15271094
-0.096812315 0.07877429 0.13191968
-0.09035148 0.04679782 0.14613405
-0.056402933 0.09210435 0.1185549
-0.15711465 0.05016867 0.052005228
0.2917601 -0.0268693 -0.13363098
0.32371983 -0.017833075 -0.20035069
-0.08464964 0.054938447 0.14124745
-0.1231232 -0.24470687 -0.4148693
0.3305884 -0.0048164064 -0.15090498
-0.11361954 0.08693264 0.03125727
0.27437338 0.00031912926 -0.14366448
0.023836246 -0.079755574 0.09394165
0.3422738 0.02409184 -0.16678046
-0.018061621 0.030129211 0.12660508
0.22038116 0.042825367 -0.15472326
-0.101877786 -0.01531963 0.1742172
0.060476135 -0.044453528 -0.08528255
0.08233997 -0.0117720915 -0.10472389
-0.07410195 0.00900726 0.091689706
-0.08355892 -0.112948425 0.04623255
-0.13927644 -0.06193359 0.042411767
-0.10845099 -0.17814572 -0.28846088
0.33106685 -0.043775525 -0.18393746
0.14236507 0.08097519 -0.15954728
0.078108996 -0.0421421 0.060044307
-0.0134050865 0.12736046 0.13409267
0.31001034 0.019440303 -0.15898213
-0.0856028 -0.1594627 -0.2413165
-0.022189142 -0.098642625 0.10447547
-0.047443274 -0.030665334 0.17586406
-0.068582535 -0.046152446 0.17697223
0.25432143 0.0026751796 -0.14133303
-0.013153716 0.049876828 0.14873166
-0.09618057 0.08324049 0.1296695
0.11100188 0.01734365 -0.12362894
-0.026009284 -0.09284099 0.116194256
-0.014537414 -0.023915257 0.16694902
-0.117531165 -0.028386408 0.1452676
-0.012878749 0.11707274 0.09907257
-0.0028987115 0.066085376 0.10675813
-0.049455266 0.21390526 -0.1901668
0.054055482 0.017767917 0.13512723
-0.14749515 -0.047481842 0.013014958
0.02800397 0.002281446 0.14704767
0.3209822 0.028068336 -0.16501199
-0.05993746 -0.13805084 -0.038350113
-0.11729516 0.085805155 0.11706444
-0.096740015 -0.012543648 0.175685
-0.071603924 0.18978871 -0.17478243
0.004090421 0.0037776374 0.15045787
-0.013089018 0.12751453 0.13396387
-0.084197074 -0.11243077 0.11178889
-0.041567113 0.082123555 0.120778866
-0.05466435 -0.14035091 -0.01941241
-0.029234787 -0.093427196 0.11719593
-0.10966016 -0.21340975 -0.3515164
0.010354047 -0.00834066 0.15518619
0.0034895292 0.111579835 0.09888079
0.26599258 0.032468453 -0.15763049
-0.009102893 0.07086397 0.15046947
0.20454143 0.04514064 -0.15309958
-0.028360676 0.08833495 0.11552182
0.08107633 -0.037618987 -0.09211458
0.13323115 0.003313319 -0.12073928
-0.010172013 0.1114203 0.1013151
0.010657363 -0.08897323 0.09413719
-0.06899476 0.060023375 0.13610749
-0.08614618 -0.08549821 0.10988561
0.31142953 -0.091987625 -0.17556459
0.013807721 0.04062701 0.12114972
-0.12637867 -0.0021612106 0.14519462
-0.012267734 0.06672316 -0.12602587
-0.011640512 -0.055188783 0.1745093
0.20891298 -0.004191563 -0.13020375
0.036898922 0.07451885 0.011229246
-0.13202609 0.0075825364 0.14237964
-0.034105822 -0.10844169 0.111196354
-0.10179749 0.11286894 -0.14200437
0.047898035 -0.049918987 -0.08049158
0.05662299 -0.03642445 0.12035568
-0.00911856 0.20214874 -0.19149268
-0.049895637 -0.08132104 0.13029791
-0.14549595 0.049481217 0.054712944
0.01804639 0.089903936 0.10675997
0.30098113 -0.0021314614 -0.14708194
-0.06118381 -0.12928393 0.0121267615
-0.08350531 -0.02801797 0.1808195
-0.07310423 -0.037471555 0.18030658
-0.028145937 -0.026170397 0.17037886
0.05644254 -0.02463809 0.13857171
-0.0074114283 -0.116137244 0.10362554
-0.043990668 0.08973684 0.117547065
0.20601827 0.0437322 -0.15267907
0.06945185 0.054643072 0.10854235
-0.064190164 -0.1306001 0.0077221743
-0.082341224 -0.13335726 -0.18344316
0.20267226 0.044005394 -0.15223245
0.07299478 0.03219844 0.11923852
0.03921165 0.08478566 0.10556063
-0.0012049071 -0.12021556 -0.0014586258
-0.0049291393 -0.002040695 0.13981017
-0.09860257 -0.13082986 -0.20664318
0.26965514 0.005259942 -0.14521891
-0.020396978 -0.07182083 0.15324664
-0.0900904 0.03359148 0.15242004
-0.13785607 0.04135891 0.09470924
-0.09912802 -0.13655318 -0.22735232
-0.11256014 -0.04147836 0.1309184
-0.0408774 0.11570088 -0.14456795
0.069518656 -0.021926766 0.05183577
-0.09605797 0.033711057 0.1533929
-0.09652716 0.025580658 0.15737179
0.31149188 0.026359232 -0.16255471
-0.050569687 0.083380505 0.12173007
-0.12722401 0.009822315 -0.08330345
-0.15898463 0.04526751 0.050844636
-0.118013725 -0.17321311 -0.30167028
0.014447122 0.04096951 0.120875366
0.19032986 0.05153696 -0.153713
-0.13948219 -0.078521706 0.005578684
-0.019442577 0.02983526 0.13327767
0.16452667 0.03875443 -0.14313126
-0.04558508 -0.11543569 0.05076771
-0.16700879 0.024334213 0.06051629
0.06543614 0.054533727 0.11480812
0.23934716 -0.00835602 -0.13346015
0.26132026 -0.018614907 -0.13233441
0.059401747 -0.08166157 0.07529099
-0.032766666 -0.034920048 0.17537108
0.062447395 0.061869007 0.012883881
0.05624851 -0.052662604 -0.080617376
-0.05166679 0.21677954 -0.19116314
0.0047637257 -0.0012930097 0.08301589
-0.06554637 -0.04273787 0.17688121
-0.13675 -0.096551426 -0.018534185
0.24161622 0.040417902 -0.15723422
-0.12785167 0.058371667 0.13709274
-0.115119666 -0.17033212 -0.3032404
0.013439643 -0.10473822 0.024620129
0.07652178 -0.015274648 -0.102040395
-0.020119337 0.08812384 0.15406165
-0.10208834 -0.021076981 0.17299418
-0.06456301 0.13924374 -0.15176627
-0.14180663 -0.023657609 0.08994775
0.065134265 -0.07401835 0.07420201
0.050886173 0.070638925 0.110327736
0.09244701 0.09647547 -0.15836225
-0.103004314 -0.02200873 0.17251359
0.1316656 -0.023535699 -0.11252
0.042884115 0.07351445 0.1103302
0.17436446 0.020071829 -0.13587289
-0.03193676 0.17252581 -0.17335312
-0.051408537 -0.043200266 0.18255818
0.3132638 -0.11543857 -0.16463874
-0.029673958 -0.052188918 0.17979842
-0.09550825 0.019245036 0.16023295
-0.107601695 -0.0023236047 0.17266035
-0.09575063 -0.19176808 -0.3171754
-0.09051417 -0.15081346 -0.22061306
-0.024248771 0.20891559 -0.1921253
0.026625087 0.03290349 0.13260546
-0.110970296 0.077139415 -0.13000968
-0.020523978 0.03914649 0.11856036
0.19431879 0.060355358 -0.15862882
-0.107523754 -0.11648807 0.0053822966
-0.117159344 0.05275459 -0.12015668
0.32336953 -0.06181807 -0.19208884
-0.10447064 -0.1243847 -0.032378905
-0.117824726 -0.18561284 -0.3129834
-0.088057615 -0.10093902 -0.1747011
-0.02275955 0.038285594 0.15283456
-0.094584465 0.027327586 0.15619853
-0.009433697 -0.052481357 0.17488208
-0.13647537 0.036876578 0.11500769
-0.15241173 -0.043456536 -0.036684856
0.21301974 -0.026074814 -0.13728344
-0.026772197 0.092430025 0.13751565
-0.06711001 -0.012741153 0.170666
0.018310292 0.10821357 0.097936705
0.25400952 0.02896038 -0.15388013
-0.09297549 0.13507752 -0.14486524
-0.05398871 -0.108281665 0.114551276
0.02794539 0.0737736 0.11278443
-0.04978766 0.14987043 -0.1594107
-0.014076917 -0.04064401 0.17488922
0.28441823 0.019760016 -0.15727134
-0.062735215 0.0035209833 0.16211464
0.07835265 -0.0054044677 0.042390265
-0.030253017 -0.016809251 0.16625468
0.28870466 -0.030400379 -0.13671617
0.07114661 0.033898745 0.024791874
0.18867323 -0.015517563 -0.12337244
-0.120992154 -0.1761431 -0.32964733
-0.13335799 0.0563204 0.085413106
-0.10583022 -0.01922802 0.16830067
-0.09761943 -0.10638387 0.10848735
-0.07358085 -0.035862777 0.18136038
-0.08456165 -0.06203528 0.1440158
-0.04557448 -0.06291571 0.1656052
0.06721047 -0.06812407 -0.08097866
0.07884502 0.03845011 0.020860566
-0.052100968 0.08907394 -0.1298659
-0.024898315 0.08039301 -0.13039935
-0.11954622 -0.054392144 0.100853674
0.036089625 0.09381797 0.101769306
0.024169995 -0.07282936 0.11215873
-0.08153945 0.107353784 0.015930457
0.02162659 0.08965855 0.034500416
0.07197209 -0.0021278209 0.088358425
0.068579786 0.023454793 0.06730604
-0.109595545 -0.054132402 0.12757152
0.23499969 -0.01933229 -0.1274478
0.064068966 -0.07821626 0.0628978
-0.0231001 -0.12921277 0.0016380643
0.1679537 0.03420364 -0.14154106
0.01213619 0.08859218 0.108408876
0.1894376 0.053842995 -0.15466443
-0.12306104 -0.07774406 0.052423432
0.22068845 0.008682889 -0.13840841
0.08310416 0.053432006 -0.13611454
-0.097826354 0.09819705 0.02313104
-0.016723009 0.05605426 0.16307363
-0.07805466 -0.031185683 0.18139715
0.08520075 -0.03513507 -0.094017275
-0.08427492 -0.10914563 -0.19866912
-0.16264428 -0.031141933 0.086358584
0.30039218 0.023307068 -0.15917546
-0.03596131 -0.1258953 0.02297864
0.060162406 0.008733501 0.13840409
-0.12025595 0.02147198 0.16343687
-0.15194383 -0.032175373 -0.0141193895
-0.09263406 0.015815588 0.1613811
-0.016489701 0.11752187 0.13934161
-0.116626926 -0.19587223 -0.3278378
-0.08824162 0.055860948 0.14142527
-0.075925276 -0.04777632 0.16984044
-0.11625364 -0.08419147 0.11374915
0.06851789 0.040787533 -0.12753537
0.07350827 -0.046084467 -0.0867501
0.08125525 -0.02016893 -0.10051102
0.013924899 -0.108472675 0.0008102056
-0.12436715 0.018775007 -0.083691105
-0.0912598 0.1095189 0.11622227
0.06363034 0.031241357 0.027363222
-0.1251256 0.028759714 0.15083644
-0.06086428 -0.063104644 0.16540581
0.045576368 0.04272894 0.12462411
-0.04803502 -0.018583102 0.170174
0.021117082 0.0894528 0.006794075
-0.062570825 0.12606597 -0.14579268
-0.07257929 0.10234677 0.016784022
-0.1301909 0.016128046 0.14045969
-0.056531727 0.06322525 -0.11670905
0.032288622 -0.096059635 0.093800984
-0.11503805 0.075661585 0.036905188
0.059493437 -0.033648886 0.09946571
-0.015901938 0.08139089 0.116700426
0.3120435 -0.11320297 -0.1655
-0.14432515 -0.008243034 0.08894568
-0.089568265 -0.07848553 0.11950651
0.27742177 -0.028232945 -0.13050266
-0.13483474 -0.28681418 -0.499212
0.007482753 -0.009410833 0.15619494
-0.121800326 -0.05926812 0.102757834
-0.15426897 -0.05557856 0.09361395
-0.13768455 0.033646274 0.11148873
0.067996666 0.049753092 0.010581024
-0.0016250741 0.20852093 -0.19584098
0.0036261647 0.033859186 0.078221686
0.2149896 0.02779353 -0.1465866
-0.08382925 -0.15650034 -0.23917694
-0.04811465 -0.03209659 0.17666629
-0.13860306 -0.031486027 0.09233908
0.03259055 0.090830445 0.10380547
-0.07868364 -0.028960947 0.1804393
-0.015735548 0.07747961 -0.13058405
-0.04905896 0.11765178 0.10503952
-0.10274904 0.10908145 -0.14024137
0.021224793 0.03346685 0.1332675
-0.05434041 -0.105565496 0.11330998
-0.06972367 0.014753064 0.13066036
-0.119935006 -0.23082097 -0.3883279
0.07622006 0.026134547 0.11263509
-0.0010112323 0.1781998 -0.1814108
-0.025928639 0.11640234 0.14019948
0.18759143 0.021862589 -0.1390145
0.07861737 0.033069786 -0.12557866
-0.120530106 -0.022744076 0.14519167
0.062121674 -0.03083005 -0.09209777
-0.16195434 0.03925455 0.06184438
-0.02837192 0.15752715 -0.1667779
0.19395298 0.036993105 -0.14736591
-0.018664563 -1.03689545e-05 0.08644492
-0.0488937 -0.03890409 0.1800642
-0.08288344 0.05822218 0.13936843
-0.05347782 0.08883964 0.11961496
-0.07276921 0.07038243 0.13179293
0.08854043 -0.019186469 -0.102239475
-0.017047646 -0.086647846 0.124067135
-0.11736484 -0.11644396 -0.03689599
0.021699443 -0.024335394 0.1608961
-0.13112944 0.012789561 0.13938583
-0.12351732 -0.004915235 0.15434413
-0.10147029 -0.026140312 0.17036341
-0.019540735 0.07960779 -0.13094756
-0.03849676 0.073801115 0.10702237
0.018705994 -0.10334141 0.0050687543
0.045735054 0.028735656 0.13130523
-0.13264193 -0.2292877 -0.40287232
0.16069545 -0.006961441 -0.12055387
-0.061795164 -0.1364864 -0.034139674
-0.06793174 0.11680716 -0.1404285
-0.066956654 -0.0066449107 0.1038725
-0.06307419 -0.100273035 0.11227979
-0.019986238 0.20817454 -0.19250582
-0.053627037 0.096791826 0.115828246
-0.047767457 -0.071217105 0.14935398
0.31499815 -0.09692216 -0.1738147
0.15125689 0.014472515 -0.1292002
-0.020967418 -0.068185054 0.16192211
0.060650453 0.05103074 0.118042596
-0.10010449 -0.12978852 -0.013702521
-0.036862906 0.19996843 -0.18565889
0.17084737 0.01477171 -0.13272502
-0.14108934 -0.2628906 -0.46808076
-0.102050014 -0.11054247 0.031853195
0.12729773 0.08764537 -0.16014434
-0.03154621 0.2217433 -0.19701551
-0.049042545 -0.05263732 0.1774522
-0.013992629 0.10747718 0.14372614
-0.0782431 0.10056743 -0.13086371
0.23160791 0.021124784 -0.1462576
0.06747135 0.0559781 0.07820698
0.0083293915 -0.0018028643 0.15240152
-0.13523568 -0.019021904 0.11603358
0.021978302 0.00629095 0.1461657
-0.07692208 0.092236914 0.122032434
0.05285013 0.03508629 0.12703258
0.014497338 0.022644447 0.13209127
0.1382809 0.061301127 -0.14941032
-0.0037547657 0.05188089 0.08597262
0.059875824 -0.028331082 0.11292906
0.061940804 0.023092398 -0.11791701
-0.12805863 -0.2616317 -0.4506099
-0.09000765 0.023958117 0.1570242
-0.039808195 -0.0943165 0.11255137
0.032997016 -0.06870659 0.10312883
0.031190034 -0.03280618 0.16331902
0.08671556 -0.01461622 0.035397626
0.19189745 0.039031755 -0.14798835
-0.047452524 0.20058508 -0.1841267
0.018554065 0.028292209 0.13130459
-0.023186423 -0.11514848 0.050196823
-0.15246752 -0.040939566 -0.028748935
0.029580772 0.06618271 0.11614108
-0.12147016 0.040568728 0.15449132
0.020899886 -0.104966424 0.10003664
0.1447401 0.0047548516 -0.12341668
-0.056765255 -0.12777905 0.019661909
-0.07422072 0.10010674 0.117793545
0.26582932 0.03108989 -0.15694144
-0.12327962 -0.08678267 0.03401598
-0.05632102 -0.118969016 0.11176159
-0.15643926 0.0053143217 0.07777546
0.0019581718 0.121719666 0.08431897
-0.028122548 0.09118812 -0.13764608
-0.070240125 -0.043465182 0.17691167
-0.07510482 0.010246473 0.091268755
-0.0051544327 -0.078451484 0.13447505
0.025543397 0.025038999 -0.11256828
-0.13136894 0.026453946 0.13768561
0.04743734 -0.013091415 -0.09806726
-0.016496222 -0.12164742 0.097592846
0.18832314 0.00504632 -0.13107888
0.0055223503 0.17731272 -0.182113
-0.13217045 -0.07281583 0.03733224
0.22171253 0.021788042 -0.14486775
-0.039896224 0.20829248 -0.18912584
0.20015025 0.059400868 -0.15917781
0.29989025 -0.024709865 -0.13606955
0.2115668 -0.0025679169 -0.13144028
-0.09805068 -0.04987788 0.14445153
-0.082808316 -0.102911465 0.06749833
-0.14571857 0.061383992 0.049045343
0.070890315 0.06390642 -0.13902812
-0.09258152 -0.12904648 -0.18846178
-0.05447911 -0.111410804 0.06644883
-0.010848417 -0.0422144 0.17508473
0.28273225 -0.037364326 -0.14625414
-0.11302875 0.07477289 0.13663676
0.031279888 -0.06926627 0.1040827
-0.11923143 -0.24686249 -0.41972888
0.0499083 0.077292524 0.107306674
-0.006965836 0.05937951 0.09341696
-0.023414107 -0.048069384 0.17967449
0.012179374 -0.05991725 0.15743132
0.08447227 0.022967452 0.022373432
0.08141834 0.0089353975 0.034986466
-0.00083130656 -0.029147565 0.16709162
0.07718412 0.07158569 -0.14379598
-0.124858804 -0.059370622 0.1033352
0.02472106 0.097202085 0.0024567598
0.06519546 0.028176337 0.12821427
0.3118406 -0.07903018 -0.1818475
0.1386024 0.02663738 -0.13284807
-0.0751016 0.05512018 0.13951214
-0.018227981 0.08864008 0.11362633
0.08104904 0.014437589 0.03241246
-0.042578403 -0.007379801 0.094104916
0.17130567 0.032374553 -0.14124288
-0.13211308 -0.24944985 -0.43450794
-0.11892537 -0.24887882 -0.43054605
-0.030139528 0.08933261 0.1153505
0.2968125 0.023006164 -0.15841345
-0.07703546 0.17113303 -0.16490155
-0.016547859 0.10426645 0.0061931033
0.027220521 -0.08939707 0.09148157
-0.050257687 -0.11190015 0.073804975
0.07435356 0.039339814 0.10884997
0.31075558 0.014221526 -0.15660834
0.015688408 -0.08731296 0.09247298
-0.13932507 0.012960924 0.105384566
-0.07221406 0.19459626 -0.17698196
0.041850574 0.010586431 0.14067642
0.20177063 0.0546093 -0.15716067
0.021324642 -0.056363292 0.14587726
-0.10125266 -0.12663467 -0.03168169
-0.07139335 0.11910308 0.108198665
-0.1693143 0.0197458 0.060127087
-0.118685104 -0.194482 -0.3810452
0.0032516895 -0.024914883 0.16435792
-0.109832875 -0.095862806 0.10902041
0.0061985007 -0.11351004 -0.06069948
0.038968474 0.04073268 0.12672164
0.042522203 -0.0856554 -0.07026089
0.24969944 -0.024662131 -0.12742974
0.02040676 0.00650997 0.1463317
-0.01658095 0.15282433 -0.16655843
-0.07620916 0.030957574 0.151287
-0.099995345 -0.07926754 0.1085826
-0.005576824 -0.12879618 -0.031062527
-0.036472324 0.028581223 0.11891702
-0.025939811 0.09370501 0.14267322
-0.11281129 -0.021177052 0.16282451
-0.0044386056 -0.035794728 0.17090091
-0.106682576 -0.050962433 0.13429834
-0.051989343 0.12635696 0.08144169
-0.052994344 -0.044646677 0.18352512
0.10743113 -0.02492746 -0.10274776
0.22744983 0.056165285 -0.16233844
-0.11418522 0.06172431 -0.10742733
0.010297634 -0.046822984 0.16836093
-0.055426504 -0.13502836 -0.00483538
-0.08968815 0.029717091 0.15420812
-0.043373846 -0.114059284 0.11548923
0.27659667 -0.019404113 -0.13459271
-0.05782297 0.102317736 0.014251015
0.10960701 -0.0068151713 -0.11180618
-0.008337157 0.10930006 -0.007602252
0.26249647 0.04003021 -0.16065203
0.03449984 -0.07501026 0.085884355
-0.10025547 -0.18590873 -0.29343638
0.15345617 0.05063493 -0.14691627
0.12516852 0.06679531 -0.14978112
-0.050267085 -0.05599192 0.17130622
-0.07544623 -0.10908647 -0.13351281
0.0589997 -0.05917609 0.07150872
0.31115893 -0.009353709 -0.14537625
0.04809185 -0.00875739 -0.10025785
-0.024232225 0.078809835 0.15527104
0.017329272 0.01524001 0.1426777
-0.021938803 -0.12143723 0.10669141
-0.14598365 -0.009886068 -0.048851542
-0.12931907 -0.05078872 0.09999078
-0.043376166 -0.0024527018 0.15167208
0.08044865 0.010174641 0.034559693
0.32321322 -0.0223192 -0.19372028
-0.096089385 -0.12160173 -0.1827701
-0.05953239 -0.017846016 0.17180523
0.03520368 -0.053019352 0.13464217
-0.076922946 -0.060921963 0.15318151
-0.10848925 -0.025294635 0.16232708
-0.14193444 -0.2752895 -0.48910144
-0.075239 0.20114143 -0.1795975
-0.13134342 -0.057390448 0.10350476
0.014572987 -0.10257142 0.03075979
-0.14368074 -0.053444255 0.10374264
-0.07080288 0.09955208 -0.13166109
-0.11805378 0.04051275 -0.095201895
0.28570586 0.04070027 -0.16497898
0.32993865 0.023849228 -0.16453499
0.050676998 -0.09449396 0.07197567
0.051756773 0.06862407 0.058801915
-0.12932284 0.006233542 0.14389479
-0.1454475 0.0198367 0.07509539
-0.10020115 0.010956404 0.16501658
0.081812285 -0.003584589 0.040920705
0.07307303 -0.014327455 0.047579233
-0.07938617 -0.010315061 0.17162156
0.11514611 -0.021180192 -0.10587568
-0.120033324 0.03948505 -0.10321027
-0.065426864 0.05528632 -0.111367784
-0.031362988 0.04637238 0.14331736
-0.08198233 0.18003224 -0.16831395
-0.016285496 -0.09360124 0.11137892
0.09644135 0.08292828 -0.15255721
0.031243362 0.076742955 0.011139218
-0.05073066 0.073966324 -0.122859426
-0.07099113 0.108503304 0.11321087
-0.07057628 -0.06630497 0.14727542
0.27069625 0.0018824734 -0.14377908
0.00049819803 -0.084526144 0.1205188
-0.07228158 0.027101573 0.15245782
-0.12881729 0.028464885 -0.03341907
-0.11162282 0.08895666 0.08211668
-0.06993286 0.07690505 -0.12095396
0.2723532 -0.012819117 -0.1370172
-0.15085737 -0.029153809 -0.025493607
-0.05257365 0.113394916 -0.14144361
0.26135007 -0.011862692 -0.13557655
-0.07136376 0.0645878 0.13432819
0.32791555 -0.04919629 -0.18913414
-0.074305065 -0.09987888 -0.11721515
-0.13585396 -0.08752201 -0.0016761988
-0.06787254 0.010171485 0.12962297
-0.038181912 -0.007356396 0.16309159
0.20298776 0.035409633 -0.14816618
-0.123615794 -0.098564036 0.009939423
-0.15832962 -0.013788658 0.087259546
-0.13973054 0.00537949 0.10642041
-0.043365713 0.10456952 0.010676439
-0.08645409 -0.00906783 0.17224349
0.010620514 -0.006421455 0.15422025
-0.04571401 -0.020279212 0.10083027
-0.0896581 0.09335784 0.03366384
-0.062453695 -0.10919296 0.11644918
-0.09067632 0.09198913 0.031021798
-0.080769576 0.064785644 0.13585688
-0.08191781 -0.042550124 0.17020419
-0.06842896 -0.057031337 0.16649565
-0.04479441 -0.11044028 0.064681
0.3374746 -0.025811266 -0.15800707
-0.13593885 -0.0733885 0.107942164
0.026250575 -0.032078177 0.16382231
-0.08360559 0.18581514 -0.1790431
-0.14892368 -0.020917296 0.089053966
0.18521321 0.04267883 -0.14858304
0.27949804 0.042932436 -0.16497797
0.34076604 0.0070173563 -0.15833445
-0.061780162 0.18228264 -0.17287946
-0.027385326 0.082934655 0.14288409
-0.08505313 -0.0811862 0.12097153
-0.12796673 -0.009170823 0.14156316
-0.061999127 0.13868538 -0.15194102
-0.07682171 -0.11397356 -0.14319308
0.011945019 -0.1118867 0.09929852
-0.14849819 -0.06554928 -0.02595727
0.067913145 -0.010555959 -0.10281662
-0.08400109 -0.015056028 0.17469081
0.13761038 0.032216817 -0.13535166
-0.15013531 -0.27608243 -0.501348
0.076663174 -0.05570533 -0.08268224
0.05035877 -0.08087807 -0.07603505
-0.13518116 0.08126689 0.026634995
0.33758906 0.008785594 -0.15863404
0.26312512 0.008773865 -0.14577644
-0.012409262 -0.018155096 0.16381998
0.058072463 0.034181666 0.12656485
-0.071461864 -0.008994226 0.16962056
-0.048572775 0.10702022 0.11005243
0.02882011 0.038014058 0.12977646
0.18532482 0.058182217 -0.15603505
-0.10509497 0.08898618 -0.120677285
-0.04798926 0.09551848 -0.13366497
0.14678323 0.08029024 -0.1599813
-0.05694992 -0.03799454 0.18101878
0.0028397492 -0.010374053 0.08770157
-0.15078515 -0.041730635 0.09935329
0.24398059 0.019066224 -0.14740628
0.18024199 0.04381108 -0.14826784
0.03881016 0.044807054 -0.1243348
0.052479345 0.074453354 0.008571458
0.08248052 -0.0068345545 0.04236347
-0.11956815 -0.11312351 -0.010542662
-0.0037229431 -0.114680946 0.1021089
-0.11963608 -0.26900265 -0.5045991
0.03899403 -0.05560945 0.1221772
-0.02517448 0.10554306 0.0070697702
-0.12749884 0.07479743 0.03947041
-0.08849407 -0.11078756 0.109964706
0.05575479 0.082606904 0.08381927
0.26704025 -0.017017597 -0.13408764
-0.12299472 0.06006654 0.13915849
-0.07512419 0.08606495 -0.124449395
-0.1250138 -0.0076872883 0.14789508
-0.08207057 -0.106632024 -0.13843994
0.16302946 -0.0038637342 -0.12244171
0.035034373 -0.026764918 0.1597592
0.14096163 0.07231793 -0.15515473
-0.002183861 0.22658855 -0.20440601
0.0028457956 0.06194532 0.11282169
-0.13480876 0.05320489 0.07660573
0.024332069 0.012742258 0.14266641
-0.06304764 -0.0007757234 0.16422853
-0.021298626 0.052665446 0.16264814
-0.0959471 0.105256125 0.09172591
-0.12114868 -0.051855218 0.10277931
0.02697094 0.05639521 0.121283785
0.067180105 0.038876113 0.023089994
-0.027015066 0.075795785 -0.12782994
0.32101107 0.03406558 -0.16789185
-0.15199806 -0.27492508 -0.50478315
-0.107331574 -0.18557438 -0.2988793
-0.105849616 -0.010045279 0.17400268
-0.15091428 -0.038698345 -0.050726064
-0.10675401 0.051034734 0.1469339
-0.024789032 0.02522964 0.12917492
-0.040120486 0.09234261 -0.1335007
-0.11121684 0.049348753 -0.10061807
0.0969131 0.045982707 -0.1349269
-0.090114325 -0.069248416 0.12981623
0.10627518 0.0052997335 -0.11703913
0.09864462 0.056827452 -0.14042473
-0.061742265 0.0034294042 0.16198719
0.0247299 -0.068735935 0.12142343
-0.042217676 0.21174562 -0.19038056
0.21896987 -0.022654252 -0.12878898
0.0339439 0.07088796 0.013480178
-0.087509066 -0.13087487 -0.18460716
0.32445368 0.019005548 -0.16126633
-0.011271297 0.08320548 0.15489216
0.11720106 0.024940334 -0.12834084
-0.13090242 0.058870036 0.10934053
-0.14109358 -0.02015257 0.08862844
0.0004586329 0.19934322 -0.21014737
-0.072367154 -0.008123531 0.16935955
-0.019845203 -0.07563185 0.14473371
-0.1393884 0.040173147 0.08445686
-0.0031211057 0.07476065 0.114239976
-0.14588422 0.01615523 0.075955406
-0.07460793 -0.1367319 -0.012175143
0.2555836 -0.008399164 -0.13624169
0.26906338 -0.022162333 -0.13197026
0.20349006 0.05756416 -0.15887402
-0.15023328 -0.0137521215 0.0055828835
-0.089347064 0.038841493 -0.07122491
-0.086186886 -0.0055938493 0.17053214
-0.11398703 0.08914357 0.030260533
0.007498944 -0.0072654253 0.15516353
-0.1479582 -0.26507762 -0.48078147
0.070341356 -0.0032253105 -0.10675019
-0.079284206 -0.06724625 0.14331043
-0.092036255 -0.1414945 -0.20770104
-0.059305333 -0.076657005 0.13450289
-0.079962365 -0.1308963 -0.030592144
0.07841169 -0.042188108 -0.089464165
-0.055060595 -0.014049424 0.10791385
-0.13332494 0.0244998 0.13080059
-0.02347431 0.07638099 0.15823086
0.025932912 0.0878207 0.10639731
-0.05801558 -0.022768147 0.17390327
0.2201518 0.017756337 -0.14266539
0.3264934 -0.025536494 -0.16079997
0.033707663 0.080021046 0.03457155
0.03936002 0.095681764 0.09888587
-0.012910162 0.09927917 0.14746936
0.009360732 -0.0732047 0.13180032
0.03939184 0.085093305 0.10538209
-0.12266643 0.04098029 0.15450054
0.16646801 0.05064127 -0.14916503
-0.12973723 -0.04239515 0.103026465
-0.15019804 -0.038821407 0.00032349434
0.28723037 0.01873836 -0.1628822
-0.14719354 -0.041574087 0.024467338
-0.044167373 0.10269357 0.11136649
-0.016938103 0.06679044 0.16373967
-0.07569093 0.023676379 0.15468812
-0.06631482 -0.06627424 0.15302739
-0.07209094 0.059847534 0.13672622
-0.077444434 -0.006681617 0.16954447
-0.037514027 0.22282462 -0.19650398
0.013793701 0.06540475 0.11923893
-0.060949244 -0.11349223 0.1146472
-0.13347809 -0.22296378 -0.4345942
-0.14466584 -0.2673405 -0.4800055
-0.0004782388 -0.0085906815 0.15717587
-0.12615258 -0.07873238 0.11284065
-0.08586063 -0.09553773 -0.12571484
0.18156259 0.0059176777 -0.1303298
-0.0798492 -0.086555436 0.10859913
-0.14408895 -0.24330199 -0.47283876
-0.093824625 0.11680262 -0.13595726
-0.052615494 0.11962334 0.10470816
0.009721476 0.10660108 0.10019201
-0.13153921 -0.08907517 0.015843255
-0.07436885 0.10724987 0.014742293
-0.02883885 -0.12800618 0.013202231
-0.065385856 0.1085755 0.012556296
-0.12985513 0.048076067 0.13583805
-0.09579181 -0.1242334 -0.18503705
0.036586855 -0.08312151 -0.028721582
0.13349442 -0.011700757 -0.11358691
-0.10095863 0.088432215 -0.121125326
0.042954955 -0.08855107 -0.08009698
0.1838077 0.06480395 -0.15894751
-0.05638246 0.10246647 0.113583386
0.16583137 0.00204124 -0.12575623
0.23858435 0.036693513 -0.15492508
0.042789903 -0.044437 0.14144567
0.27900794 -0.0025695993 -0.14307961
0.2634511 0.021463739 -0.15191574
0.006230896 0.09586656 0.10594056
0.05313834 0.04740563 -0.12805384
0.027865766 -0.042152807 0.16388156
-0.02410995 0.069451004 -0.12528943
-0.15439898 0.019100763 0.07081389
-0.12801102 0.06305511 0.08375268
0.07529023 -0.0031079114 0.041817743
-0.103844054 -0.098280944 0.113155626
-0.039905336 0.1859947 -0.17843449
0.006516327 0.097837776 0.10494631
0.17180127 -0.0144344345 -0.12608717
-0.008812707 -0.07448928 0.14285159
-0.10211987 -0.15137103 -0.294954
0.016772551 -0.049380742 0.16378814
-0.038075674 -0.13600467 -0.042345688
-0.11106096 -0.109444305 0.016288288
0.08025086 -0.040218737 0.0587527
-0.0799297 0.07218808 -0.116967425
0.029180143 0.010007914 0.14314082
-0.023066081 0.15312967 -0.16558549
-0.04730981 -0.03767812 0.17920321
0.040547896 -0.012971783 0.15219508
-0.095525205 0.04009495 0.15024045
