# .PCD v0.7 - Point Cloud Data file format
VERSION 0.7
FIELDS x y z
SIZE 4 4 4
TYPE F F F
COUNT 1 1 1
WIDTH 1000
HEIGHT 1
VIEWPOINT 0 0 0 1 0 0 0
POINTS 1000
DATA ascii
-0.018040925 0.10960719 -0.054764915
-0.02636037 -0.15985645 -0.0013348091
0.17604023 -0.06365022 -0.09475097
0.20119755 0.11516289 0.35717246
0.24052829 -0.0331384 -0.15716828
-0.13232006 -0.113033734 0.041642617
0.0663569 0.2825104 -0.17662993
-0.1087528 -0.01193799 0.06801531
-0.21514152 -0.13491546 -0.04845306
-0.011372133 0.36676753 -0.059380557
-0.13334595 -0.20423855 -0.06559567
0.037178393 0.1546835 -0.09452523
0.025353393 0.23919277 -0.12564503
-0.18420748 0.014913576 -0.049690187
0.076479234 0.2329891 -0.16077128
-0.06724599 -0.21256557 -0.029293532
0.07217711 0.27599338 -0.17788388
-0.14200285 -0.1762491 0.009197931
0.008262115 0.22745727 -0.122737505
-0.024352424 -0.0339279 0.050549187
0.07600305 0.22739312 -0.15777297
0.04057815 0.007233114 -0.027401147
-0.056703456 -0.20123728 -0.042492658
0.07648005 0.2557607 -0.17152904
-0.039167464 0.06918149 0.0026951467
0.011041021 0.06637249 -0.03335198
0.015387542 0.037177827 -0.022795914
-0.0535081 -0.0723346 0.0802215
-0.08621412 -0.20593585 -0.018634899
0.06419034 -0.0057759304 -0.03883211
0.18493846 -0.04881556 -0.10838243
-0.22158854 -0.16152292 -0.07525395
0.20686187 -0.044695057 -0.12664804
0.14809732 0.08389042 0.28731164
-0.1670142 -0.14482181 0.012969691
0.012091046 0.01675569 -0.010694488
-0.18959513 -0.14446276 -0.0243101
0.2536027 0.11766726 0.39421093
0.060796313 0.22706127 -0.14629675
-0.010898115 -0.0225196 0.07036784
0.060893774 0.3449409 -0.15157261
0.049080823 0.3511843 -0.12202375
0.12185679 0.062542446 0.2492065
-0.09544648 -0.1776203 -0.011201091
-0.006091608 -0.14429992 -0.10706356
-0.18368827 -0.07677913 0.0025400366
-0.03135896 -0.051490366 0.053887516
-0.15929829 -0.034872413 0.015439009
0.1399415 0.07101913 0.27167812
0.026673058 0.050193846 -0.037345003
0.05496698 0.35168475 -0.118717104
0.2265735 -0.09321115 -0.11840223
0.02088878 0.19050764 -0.10219074
0.20861201 0.121783055 0.36829707
0.056705903 0.0020438414 0.13597775
0.059861545 0.15513706 -0.11162457
-0.039915986 -0.061600372 0.06503334
-0.09808456 0.0026476257 0.05318392
0.018632876 -0.055284504 0.018467221
0.18654577 0.10736281 0.3383999
0.07455353 0.36229602 -0.12122903
0.03277381 -0.0030167608 0.12404588
0.02752676 0.13602689 -0.07852776
0.02915715 0.0076303906 -0.019087274
-0.051561568 -0.17264381 -0.016075693
-0.18992236 -0.055829577 -0.012017306
0.061345957 0.33358276 -0.18677339
0.0854128 0.3592021 -0.1402499
-0.061520502 -0.19643512 -0.04117534
-0.11943884 -0.001807248 0.050028834
0.06548737 -0.10285017 0.0060596773
0.17870337 -0.030306797 -0.11248469
-0.059340093 -0.096191876 0.07764651
-0.026169457 -0.12553628 0.060205553
0.054710425 0.16925468 -0.11445879
0.033826884 -0.04363142 0.0016523293
0.048586793 0.1291954 -0.09097711
0.057417806 0.12856245 -0.09725156
-0.1048613 -0.21336645 -0.10668986
0.027928771 0.103730775 -0.06357052
0.031576794 0.00666316 -0.020431561
-0.018292792 -0.044158604 0.04373583
-0.018609745 -0.14598106 0.023491528
-0.21967818 -0.044016596 -0.100454524
-0.10955753 -0.05146822 0.07867121
0.06956194 -0.10036998 0.001855013
0.08420635 -0.10628093 -0.006253742
-0.04729857 -0.07842195 0.07847512
-0.12711722 0.022698576 -0.024828888
-0.045242865 -0.07118731 0.073527314
-0.10962353 -0.0408332 0.0774517
-0.19345449 0.013527458 -0.05455117
0.04800137 -0.030117156 -0.015282868
-0.0016419332 -0.006405491 0.074962676
-0.07372502 -0.14606985 0.035769008
0.06542436 0.17756304 -0.12635893
-0.21035087 -0.16984694 -0.06955084
0.06913557 -0.046815716 -0.02312625
-0.23413497 -0.113061935 -0.07188051
0.007081741 0.22824271 -0.124445364
0.028768424 0.17203327 -0.09646148
-0.039910205 -0.085940205 0.076526985
0.14419802 0.086499795 0.27182895
-0.09320965 -0.076032214 0.085758254
-0.061540972 -0.040688075 0.0712513
0.039903294 -0.06932863 0.009268445
-0.12166186 0.0097100595 0.02948084
0.016953891 -0.11908441 -0.069776684
0.07225385 -0.0057166014 -0.04486221
0.114960134 0.077599876 -0.11601005
0.16094245 -0.06469968 -0.08301685
-0.17015938 -0.076329395 0.01941613
-0.13389736 -0.15914437 0.007931751
-0.20195654 -0.1048819 0.013547202
0.0080935545 -0.088867806 0.04217705
0.15170926 -0.046821643 -0.08458952
-0.2214511 -0.048620023 -0.08483697
0.11850756 -0.09073531 -0.03913018
0.12605712 0.04378462 0.202928
0.10039575 0.025655659 0.191216
-0.11951625 -0.060796484 0.06911471
0.020356668 0.17585784 -0.10176526
0.20720516 -0.06861681 -0.11560317
-0.009500288 0.115461715 -0.045154557
-0.009590281 -0.15576957 -0.05966724
-0.022823982 -0.06580091 0.05429466
-0.15125734 -0.14551708 0.0018093602
-0.02352088 0.067488015 -0.00815168
0.06805138 0.11879679 -0.100554116
0.24620464 -0.060937755 -0.14826083
0.006890668 0.28233108 -0.13227999
-0.04962616 -0.1260989 0.065076336
0.038160153 -0.049165085 0.0010406552
-0.095749535 -0.18014057 -0.015072777
0.09090058 0.027740559 0.19840783
-0.12853344 -0.14701253 0.017138783
-0.20678426 -0.11027162 0.008913618
0.073267 0.03315662 0.18481186
0.22196391 -0.051185407 -0.14596018
0.002060727 0.12949021 -0.058306765
-0.111430876 -0.19292194 -0.0056828354
-0.15575783 -0.036801375 0.02026018
0.05060162 0.24426113 -0.14683297
0.21314552 -0.08919183 -0.110305525
0.06538627 0.0072338576 -0.045868225
-0.21140447 -0.0793566 0.003844517
-0.12380445 -0.08224389 0.061416633
0.03575908 0.3242375 -0.17356499
-0.04739906 -0.036893036 0.05893136
0.22243851 -0.07348078 -0.124644555
-0.077119455 0.015833177 0.05614713
0.0632605 -0.0664106 -0.009496708
-0.043730978 -0.0027430379 0.04006911
0.19254628 -0.061571565 -0.10801958
-0.16676903 -0.14210154 0.011502049
0.07676007 0.29433304 -0.1899589
0.022721687 0.030871578 -0.025276039
-0.18650568 -0.0011857039 -0.04037433
-0.15318829 -0.19393013 -0.054281637
0.06967125 -0.10691438 0.004865178
0.012459174 0.31157917 -0.15024188
0.070162535 -0.05274953 -0.021087714
-0.1656094 -0.21159986 -0.09727167
-0.049115047 0.03178721 0.02776486
-0.15769015 -0.095883794 0.029135186
-0.17055544 -0.026856406 -0.0054437667
0.119151115 0.1129473 -0.13582751
0.15936539 0.07774742 0.2943698
-0.015247279 -0.16384372 -0.09101606
0.047123756 0.008313882 -0.032784052
-0.04415486 0.077221915 -0.022066059
0.061994232 0.1262466 -0.09956405
0.06965034 0.24421684 -0.16099194
0.09036373 -0.08914661 -0.01893122
-0.0009347813 0.2733014 -0.13921154
0.17545179 0.07879552 0.29988104
-0.10252627 -0.20387143 -0.066263735
-0.030440778 -0.19654463 -0.06425847
0.016069628 0.097356476 -0.05173154
-0.072960265 -0.1589913 0.01771856
0.24010049 -0.06501073 -0.14179304
0.042387053 0.14981477 -0.096102424
-0.08122979 -0.1760414 -0.008337754
0.074402176 0.05971601 -0.077371694
-0.12973703 -0.092653766 0.052578643
0.13595802 0.049633145 0.25354207
-0.2087419 -0.124572426 -0.03850138
-0.04999816 -0.13155183 0.05859431
-0.21021616 -0.08636547 0.007330755
-0.044689287 -0.13356112 0.05715913
-0.1282756 -0.13028775 0.028615693
0.07312287 0.05948208 -0.076308966
0.039140657 0.12860128 -0.0836651
0.01622419 0.34600404 -0.15785123
-0.110988796 -0.05490099 0.077499256
-0.119024515 -0.08334248 0.06429384
0.053289983 0.33615077 -0.173316
-0.008180163 -0.17246255 -0.09220512
-0.057574403 -0.12279656 0.067369476
0.14294809 0.05266018 0.23663096
0.21883923 0.10350422 0.36478332
0.0059559154 -0.055658408 0.0280804
0.06574836 0.14499947 -0.11121723
-0.077039704 -0.09879739 0.085440904
-0.12735882 -0.118539736 0.038932905
-0.08834361 -0.055217758 0.0838507
-0.08004354 0.009206819 0.06145436
-0.18217441 -0.004610893 -0.041980427
-0.06741888 -0.00036615346 0.056578826
0.057122536 0.34656116 -0.14691691
-0.15503395 -0.06902607 0.033343293
-0.18875219 -0.12716378 0.01926773
-0.09494629 -0.21397437 -0.12864067
-0.06378244 -0.025895286 0.06593184
0.11294113 0.122298196 -0.13562275
-0.084181726 -0.11707319 0.06551379
-0.16508147 -0.12894943 0.011432829
0.07083626 0.10402899 -0.09565055
-0.13848701 -0.0981004 0.043975297
8.982066e-05 -0.16981435 -0.099611916
-0.1435725 -0.089948945 0.04403706
-0.1175218 -0.06410197 0.07152666
0.14650735 -0.068362854 -0.07054114
0.12417942 0.08845908 -0.1280027
0.20062487 0.120294586 0.3580106
0.20104468 -0.088546574 -0.10160316
0.014727912 0.17439918 -0.1094952
0.04781035 0.032850128 -0.044886097
0.16593519 0.07314298 0.29786298
-0.18421127 -0.060056325 -0.007924135
0.020402046 0.35840285 -0.079081185
0.10545528 0.061913077 0.19784169
0.046409275 -0.08134999 0.0101042865
-0.14616169 -0.15626217 0.0028520317
0.025764704 -0.023987174 -0.0016263901
0.058847975 0.18819931 -0.12648834
-0.12083268 -0.110218845 0.05028295
-0.15981342 -0.13090938 0.014269309
-0.010923233 -0.15404265 -0.028518932
-0.115537375 0.00024465768 0.054033067
0.059219 0.026079513 -0.050180316
0.1864106 -0.025691409 -0.120402105
-0.15694974 -0.10037746 0.029944293
0.1287931 -0.0748428 -0.054293808
-0.085266784 -0.17770085 -0.011172449
-0.21743646 -0.063362524 -0.007815578
-0.073200144 -0.07731868 0.08990754
-0.12228151 -0.07806882 0.064357124
0.09290217 -0.11210828 -0.02307531
-0.020113938 -0.14298536 0.030382989
0.038645647 -0.008024317 0.08546281
-0.009230114 -0.13444623 0.04375891
-0.12917586 -0.18623112 0.0043654977
0.1490826 -0.11175284 -0.0742099
-0.08941491 -0.2143838 -0.03299953
0.153298 0.08804436 0.2915552
0.026724378 -0.05036973 0.01012199
0.10455932 0.044949573 0.22194839
-0.17545736 -0.18884137 -0.05650734
-0.19840379 -0.009598955 -0.027543224
-0.18657841 -0.011788756 -0.13275707
0.016926218 -0.13291872 -0.012626318
-0.13262089 0.033668544 -0.09694974
-0.19675614 -0.1699033 -0.05537555
0.056117054 0.0030632813 0.10890449
-0.025279867 0.35502362 -0.076239385
-0.07010302 0.037384156 0.040743865
-0.06499523 -0.18373023 -0.16489184
0.031181876 0.012714151 0.1180185
0.17092171 -0.07029851 -0.08780027
0.083271354 0.35877937 -0.12605746
-0.17935023 -0.18881766 -0.05832011
0.058148343 -0.09986977 0.010114822
-0.20922661 -0.041123893 -0.05835082
0.06421966 -0.0836434 -0.0020699198
-0.091784135 -0.19401634 -0.019790262
0.070253074 -0.052393977 -0.021322966
0.16057268 -0.046070307 -0.09154214
-0.100103684 -0.14180681 0.036446344
-0.0110538 -0.13357183 0.046231296
0.15862809 -0.06665095 -0.08037222
0.016450709 0.019572083 -0.015270118
-0.1610913 -0.17284888 0.009401836
0.17310521 -0.0829129 -0.08346723
0.21639112 -0.10162319 -0.10684886
0.02748243 0.36550552 -0.087706886
0.057933904 0.08497837 -0.077046975
0.041278917 0.037344225 -0.04214718
0.06617421 0.04274442 -0.06322979
-0.019029906 -0.11818387 0.055696495
-0.07616734 -0.04966064 0.08637769
0.013977474 -0.040763326 0.015072875
-0.046425868 -0.023515528 0.05188792
-0.07126337 0.012102648 0.05355055
0.08666657 0.21517044 -0.15993713
0.1156106 0.093198955 -0.12386316
0.02299298 0.0026271737 0.11810915
0.05848848 0.34396678 -0.15205303
-0.14732952 -0.21544018 -0.09801465
-0.21884531 -0.119797 -0.047266535
-0.14196241 -0.13787834 0.01342174
-0.07358662 -0.19491133 -0.15236187
0.05838909 -0.016137172 -0.029619105
-0.114774816 0.030559873 -0.038010485
0.11355946 0.06295599 0.23912309
-0.14700904 0.03043687 -0.084712684
0.05243602 0.03432179 -0.04902444
0.05657099 -0.05800097 -0.008489796
-0.039365012 -0.03197475 0.05062799
0.06809312 0.08377996 -0.08404346
-0.095274545 0.010223088 0.04751407
0.02398354 0.15221736 -0.08353853
-0.05299574 -0.19137323 -0.0499122
0.10014076 0.11713161 -0.12365368
-0.07820916 -0.20917152 -0.023552088
0.00080905424 0.29520032 -0.14723575
-0.096508265 -0.18333903 -0.019991634
-0.09471684 -0.20829819 -0.08923176
-0.21871862 -0.10369858 -0.05142531
-0.07143292 -0.18954375 -0.037052147
-0.074624345 -0.021868415 0.072099924
-0.06580539 -0.024662761 0.06685554
-0.101520404 -0.06900089 0.083045885
0.044205163 -0.004366583 0.13417372
0.2127192 -0.08906062 -0.110050425
-0.040060066 0.07905266 -0.013274341
0.14081478 -0.08154373 -0.060077507
-0.19246508 -0.09107353 0.006524657
-0.18307644 -0.009322623 -0.1321414
-0.12057485 0.0090927 0.031304974
0.009607216 -0.12636591 0.033966083
0.015874881 -0.06360735 0.024451904
0.075534545 -0.023249222 -0.03902231
0.09920187 0.038170733 0.21269703
0.0041216216 -0.12775558 -0.101997994
-0.06449933 -0.07237149 0.0884206
-0.053529806 -0.09705141 0.08268848
-0.21677876 -0.048088 -0.066722
-0.06418829 -0.04892773 0.07711454
-0.065140374 0.036161862 0.037627164
-0.17078798 -0.13313459 0.010257989
0.020616198 -0.0012563795 -0.008531654
-0.14792326 0.01287714 -0.037699066
0.0042663584 -0.13760097 0.012890382
-0.09676303 -0.21072783 -0.107243426
-0.021460107 -0.16552748 -0.05909464
0.026398413 -0.12365661 -0.0071575013
-0.16925745 0.011826371 -0.05936017
-0.10963548 -0.09284498 0.066661045
0.0030073102 -0.13473491 0.042832576
-0.045629993 -0.12782861 0.06402774
-0.08654561 0.042620793 -0.007614661
-0.13956001 -0.1800748 0.009186628
0.08341659 0.18118928 -0.14146529
0.0768357 0.07397138 -0.08591755
-0.03895138 -0.1748639 -0.03329075
0.09041921 0.08762872 -0.10248056
0.0981607 -0.00460681 -0.06467117
-0.18031725 -0.007261789 -0.04211054
0.076796606 0.16319709 -0.12803794
0.016642809 0.32715517 -0.16071393
0.023220902 0.31389788 -0.15934779
0.19630103 0.094506435 0.3399284
0.03611517 -0.069164544 0.012010966
0.10691265 -0.097649544 -0.027233023
0.04205999 0.1401697 -0.09130305
0.092188515 0.059001405 -0.095165364
-0.09376323 -0.0504892 0.07506889
-0.014990497 0.018823544 0.0084875645
-0.12734772 -0.022628399 0.050865497
0.015479465 -0.1391853 -0.12553684
0.0022867469 -0.12204516 0.037374046
0.039802413 0.13121828 -0.08539413
0.054072 0.015790552 0.15587401
0.0009035907 -0.033180997 0.061126936
-0.2049876 -0.02744351 -0.08400248
0.009188511 -0.14931786 -0.116067395
0.07229325 0.044736754 -0.06872567
-0.07661927 0.021063326 0.05330419
0.07995314 0.04564628 0.18976408
-0.16748507 -0.1332544 0.007855844
0.24215616 -0.05200416 -0.14946775
0.21894167 0.11393925 0.37342247
-0.017426427 -0.12898229 0.055325475
0.068824135 0.19985017 -0.13941804
0.10745409 0.1358401 -0.13793536
0.029008443 0.35553592 -0.084133014
-0.20841162 -0.15848336 -0.05864533
-0.2218325 -0.058463443 -0.06919128
-0.082942225 -0.040504947 0.08709573
-0.083809584 -0.21451427 -0.037127234
-0.11237653 -0.011939614 0.06611599
0.12783504 0.0760976 0.23238808
-0.053992774 0.040593244 0.027235717
-0.064231604 -0.1919495 -0.04127639
-0.02361834 -0.11006022 0.07579398
0.089050464 0.12184808 -0.11762619
0.06006624 0.0879951 -0.08005922
0.05953565 0.3291768 -0.19359767
0.06275826 -0.09123923 0.0026064399
0.10436623 -0.01814272 -0.062896304
0.040067386 0.014326876 -0.030372007
-0.16072382 -0.0788444 0.027594361
0.113487616 0.112175524 -0.13124755
-0.0004870338 -0.044884857 0.027786545
0.04396368 -0.07741118 0.010064084
-0.043686036 0.024322884 0.027249912
-0.10376439 0.035182104 -0.025317343
0.11367251 0.051678203 0.23476504
-0.13506107 -0.163183 0.004517322
0.1956287 -0.08180412 -0.10075627
0.1930629 -0.046467595 -0.1155391
0.16114727 0.06720045 0.28848812
-0.036580805 -0.17261878 -0.028888395
0.007452567 0.09090726 -0.042270765
-0.22407426 -0.16233408 -0.07812747
0.2759042 0.15944618 0.4198693
0.036195476 0.002090512 -0.021709643
-0.0042891786 -0.149069 -0.020563068
-0.21349502 -0.03029723 -0.018930731
-0.05723845 0.05302073 0.023781069
-0.21661952 -0.16166814 -0.07058343
0.019511178 -0.020167561 0.09286723
0.075025916 0.14213805 -0.11677182
-0.05096445 -0.04425173 0.06506201
0.040869754 -0.011495181 0.112582505
0.18008395 -0.078798376 -0.09060479
0.027950488 -0.08628891 0.026177943
-0.022492642 -0.18096237 -0.07753609
0.13602562 0.055496916 0.2584935
-0.031317502 0.059198976 0.0015676762
0.24416049 0.14511502 0.41477352
0.10394178 0.12637754 -0.13085067
0.232232 -0.025648337 -0.15453115
0.05063062 0.053062193 -0.05653371
-0.055856496 -0.15040697 0.031145219
0.017946674 0.21568403 -0.10902602
-0.03481969 0.061974064 0.0028633762
-0.04714418 -0.03427625 0.0575055
0.068033054 -0.050687443 -0.02047671
0.21374162 -0.07840609 -0.11584427
0.047620814 0.0016587849 -0.030010657
-0.21228662 -0.0865453 0.0067408313
0.023907406 -0.10072071 0.036004823
-0.21554638 -0.06218004 -0.005265478
-0.0914408 -0.18908803 -0.022374213
-0.095680386 0.01604061 0.045067623
0.071823634 -0.010730067 -0.042174052
-0.11742899 0.0259826 -0.005650409
0.1828683 0.11104069 0.31950173
0.061756343 0.03755786 -0.05749088
0.034442075 0.112576194 -0.07259717
0.022152798 -0.04580104 0.011367092
0.015671961 0.15067457 -0.093799666
0.22561088 -0.05953042 -0.1349605
0.013939494 -0.11994984 0.027710082
-0.14527117 -0.0047569782 0.007531068
-0.05828977 -0.0015096131 0.050323863
0.18046674 0.109516755 0.30769444
0.021885127 0.022935504 -0.02090417
0.08580838 0.020353282 0.17497686
-0.089627 -0.0782681 0.08511242
-0.09288076 -0.16194436 0.0124725355
0.11143687 -0.02373661 -0.06551674
-0.022074925 -0.047421798 0.045054745
0.22378126 0.13272713 0.3894759
0.09115635 0.35797307 -0.16112095
0.1377228 -0.062220667 -0.06690351
-0.09367269 0.036040876 0.020865137
0.17163557 0.07536407 0.29811126
-0.038055703 -0.04337556 0.055038914
-0.17630392 -0.15587947 0.013736911
-0.20717326 -0.10794311 0.007764233
-0.121047966 -0.12481553 0.037402038
0.0024306837 -0.13218908 0.042059008
0.10969958 0.10958876 -0.12720579
-0.049640737 0.025611226 0.031073773
-0.20112519 -0.17007321 -0.058730133
-0.20205003 -0.14723812 -0.041922588
0.03674147 -0.05166015 0.0032758745
-0.042334765 -0.04843965 0.060616754
0.0356955 0.18904956 -0.10965544
-0.03441533 -0.04573057 0.053441625
-0.16460012 -0.21379742 -0.10126398
-0.0004668979 -0.14123356 0.011995584
-0.04080964 0.06511385 0.005839298
-0.19001403 -0.004337393 -0.036273997
0.19616751 -0.09630981 -0.094304994
0.007140921 -0.020621182 0.010646712
-0.074772045 -0.048754513 0.08491104
-0.13366088 -0.18413171 0.0067121685
0.073666364 0.017601622 -0.056929614
0.04318179 0.09077001 -0.06880206
0.07530716 0.055834994 -0.07621197
0.004181016 -0.10788074 0.05407118
0.25052974 -0.06929919 -0.14753063
-0.021870762 -0.10779896 0.07342478
0.06938034 -0.0018414512 -0.04455419
0.09622569 0.056055713 0.21187857
-0.04560864 -0.021685423 0.05041477
0.035831247 0.34312108 -0.13004707
0.023531873 -0.037959084 0.0066359704
0.025290046 0.35043138 -0.094573714
-0.21008347 -0.12810007 -0.036828004
-0.15699722 -0.14007221 0.006438267
-0.09810915 -0.1742106 -0.006009447
0.043030858 0.021157397 -0.035804648
0.013533009 -0.07904345 0.033487014
-0.1732663 -0.023530757 -0.01601903
0.06385909 0.1513535 -0.11281248
-0.07895798 -0.0024865677 0.0661701
0.05237627 0.16426598 -0.11036486
0.026919479 -0.122497216 -0.025728978
0.15183295 0.06380656 0.27277207
0.023601076 -0.00089527236 -0.010924191
0.18261546 0.09686865 0.3282576
0.012888512 -0.14058185 -0.13190755
-0.026603967 -0.0294288 0.05112761
-0.2079262 -0.181142 -0.07419174
-0.22692846 -0.051003654 -0.10402785
0.030284645 0.05640282 -0.042966496
0.055755787 0.26927984 -0.16248883
-0.22924435 -0.08384796 -0.06350498
0.0016105287 0.2451027 -0.13341613
-0.1739916 -0.08458189 0.014218681
0.03733936 0.32295555 -0.17413582
0.115090944 0.038537227 0.21671605
0.19274041 -0.0904763 -0.09450989
0.09917466 0.09329111 -0.11167261
0.09065872 -0.08289243 -0.02210512
-0.107058376 -0.06489804 0.08097785
0.22764659 -0.030844728 -0.14866279
0.059883308 0.0513742 -0.06262372
0.120782085 0.07072681 0.25034517
0.14597362 0.06183994 0.27187604
0.030004734 0.10591164 -0.06614595
-0.03026352 0.08221802 -0.0100911455
0.08751745 0.35369205 -0.14781661
0.057635654 0.14525749 -0.105300486
-0.054726273 0.00709478 0.043606635
0.09342643 0.021232774 0.17033888
0.025896756 -0.0074658496 0.114755884
0.08300463 0.11567239 -0.11020874
-0.13757502 -0.20393457 -0.06615071
-0.0026126099 0.092084534 -0.035334602
0.23524909 -0.08627466 -0.12813695
0.06292014 0.18858941 -0.12970395
0.1246874 -0.09931694 -0.03967662
-0.06442994 -0.1724857 -0.0036998687
-0.020922258 -0.071975715 0.055796053
-0.20848589 -0.16842449 -0.066553116
0.23080365 -0.06165007 -0.13646038
-0.17505246 -0.0563377 0.0021741572
0.25458175 0.150907 0.4300232
0.04355503 0.058611616 -0.053888474
0.043599967 -0.06960049 0.0066451263
0.24885733 0.15291853 0.4081109
0.21050991 0.10476728 0.3597729
0.21971777 -0.020709231 -0.14754869
-0.14319478 -0.020358603 0.02925209
0.09203224 -0.010850692 -0.057159826
0.036098424 -0.022607677 -0.009970242
-0.015925214 0.34808898 -0.061744776
-0.016931014 -0.18953581 -0.07762592
-0.01395275 0.11137022 -0.045709316
0.071254045 0.30361313 -0.1902441
0.24440284 -0.097548835 -0.1296252
0.036825832 0.12062471 -0.07817366
0.02963827 0.11980271 -0.072435565
-0.05551185 0.031752083 0.032542814
0.124570996 -0.09043065 -0.04378775
-0.16563135 -0.119974524 0.015059781
-0.035274934 -0.15323004 0.019131262
-0.20549147 -0.17761374 -0.06961753
-0.1807786 -0.12503779 0.013869942
-0.030409005 -0.09676794 0.07456934
-0.1991827 -0.017867599 -0.02305735
0.0049468507 0.30379665 -0.14505361
0.07946489 0.24746597 -0.16983244
0.11312933 -0.020254556 -0.06842155
-0.069820784 -0.12183595 0.06575091
-0.20212553 -0.11064452 0.013344152
0.05529949 0.36790422 -0.109546445
-0.16953151 -0.2064665 -0.08817596
0.110218056 0.13757427 -0.1408115
-0.13178691 -0.111083254 0.042890802
-0.059227552 -0.0049705254 0.052656233
0.09446203 0.10151432 -0.11204904
-0.1911244 -0.12271774 0.019698076
0.024034705 0.22464591 -0.11779163
-0.046416216 -0.014937019 0.04782814
0.031118989 0.14583498 -0.08583516
-0.15664124 -0.0070505477 -0.0060019554
-0.20421252 -0.09544054 0.0137456255
0.17772667 0.09789059 0.32419682
-0.027106067 -0.070847094 0.059865743
0.060578663 0.35518044 -0.11318473
0.08178786 0.020186296 0.18508892
0.05422619 0.19916178 -0.12822635
-0.09415698 -0.03981673 0.078565456
-0.07404596 -0.2007105 -0.10389207
-0.1644168 -0.14809823 0.012584265
0.12771636 -0.07302771 -0.05434985
-0.0074478528 0.089709066 -0.030613387
-0.20502634 -0.030038645 -0.01295785
-0.17914769 -0.12912439 0.014586249
0.06647316 0.21116151 -0.14301124
0.11034503 -0.08890017 -0.033921216
-0.021221511 -0.098902136 0.06873854
-0.07617217 -0.16943453 0.0016465508
0.17127378 0.06705492 0.28101903
0.049665872 0.07054003 -0.064071804
0.06721203 0.05975784 -0.07203915
0.056675002 0.34191158 -0.15734825
-0.089826815 -0.1967562 -0.019953055
0.2447684 -0.06282436 -0.1463006
0.0081795715 -0.02062872 0.089787684
0.13221243 0.08613954 -0.13288678
0.009191599 0.24565862 -0.1228923
0.070288874 -0.036286943 -0.028958727
0.07712504 0.01088747 0.15752336
-0.13612026 -0.13901839 0.017625075
0.034920674 0.3644384 -0.09273942
0.012195673 0.115148365 -0.05725264
0.080411434 -0.005675055 -0.050954483
0.09826006 0.15510152 -0.14019042
0.09146915 0.35610488 -0.16251081
0.076385744 0.27868977 -0.18229035
-0.0211877 -0.19361424 -0.07253054
0.08143405 0.34075686 -0.1774088
0.075926274 0.17915319 -0.13492751
-0.052301414 0.04653037 0.023172133
-0.16753474 -0.04965815 0.009474611
-0.17241356 0.028772898 -0.07257531
-0.22894107 -0.14072932 -0.06965746
0.019249713 0.02834392 -0.021497352
-0.11079516 -0.20090175 -0.0023863362
-0.1057629 -0.10998985 0.057678103
-0.06405247 -0.19538364 -0.039787315
0.21241584 0.1117684 0.36585328
-0.15017127 -0.13413393 0.015069627
0.25517786 0.14204319 0.42520684
0.043000013 0.36754814 -0.10022272
0.045312863 0.13467245 -0.09112764
0.029133575 0.12700565 -0.07546215
-0.21099238 -0.081693485 0.005030936
0.017671973 0.1398601 -0.07300278
0.21014522 -0.02391827 -0.1389069
0.14525732 -0.09817151 -0.055529278
-0.20224811 -0.126969 -0.026231715
-0.01734312 0.36013117 -0.0655942
0.22566429 0.13007298 0.38966635
0.22882502 -0.089984745 -0.12160233
0.049512763 0.2979203 -0.1713708
-0.06934075 -0.20642795 -0.030633463
-0.18463042 -0.07226659 -0.00094043167
0.10798692 -0.09945687 -0.027178954
0.05355599 0.14219274 -0.10081605
0.024715317 0.2683913 -0.13896304
0.21431871 0.11872534 0.37190413
0.1444646 -0.050728735 -0.07735091
0.06645681 -0.10883029 0.008162947
0.033951595 0.3473194 -0.14007425
-0.06878164 -0.15775521 0.019677656
-0.188956 -0.19022062 -0.06506584
-0.14501156 -0.023538146 0.028752124
-0.123630315 -0.15364026 0.017629985
-0.14299162 -0.1466312 0.008015658
-0.15037286 -0.12977467 0.020129323
-0.09372087 -0.050478082 0.07503207
-0.21178076 -0.08104719 0.0037671458
-0.024183562 -0.045364458 0.04565252
0.11588173 -0.034335364 -0.063818835
0.011418464 0.014044285 -0.008913013
-0.23874997 -0.11831352 -0.07949217
0.09789413 -0.09813807 -0.02028904
0.038217913 -0.08500356 0.017927844
-0.06281081 -0.013725548 0.05945967
0.031610873 0.06611645 -0.04854252
0.0594577 0.31021506 -0.18458174
-0.19161613 0.008314928 -0.041721612
0.14629047 -0.08703158 -0.0615609
0.037177894 -0.035999674 -0.0044473275
0.1694053 0.06945047 0.28413618
-0.14877732 -0.031350706 0.02724333
-0.07728412 -0.17362261 -0.0038375547
-0.025026228 -0.19714025 -0.092676334
-0.061619665 -0.105323546 0.07704562
0.10051124 0.073863015 -0.10348949
0.059385218 0.08445894 -0.07788196
-0.050842263 -0.07071349 0.07747135
0.12396129 -0.0384084 -0.06790896
0.044438884 0.11979026 -0.08344658
0.050432615 -0.07765213 0.0053625894
-0.11181259 -0.045959186 0.07577365
0.016465077 0.2982504 -0.14692701
-0.1894209 -0.0117651 -0.033206414
0.01591813 0.31008995 -0.15211281
-0.057745516 -0.17782521 -0.023018679
0.049451668 0.025124183 -0.042458147
0.06840404 0.18133114 -0.1303572
-0.12925795 -0.023676286 0.04883337
0.20918193 -0.0319213 -0.13440956
0.0793241 0.115804955 -0.10753171
-0.069084555 0.032534312 0.04227662
0.060244314 0.05898993 -0.06648992
-0.06492133 -0.19078207 -0.04131463
0.24171983 0.14838904 0.398503
0.06386031 0.14619596 -0.11037714
-0.18455106 -0.08557157 0.0051385937
-0.1953886 -0.10808543 0.0167368
0.22754253 0.12112412 0.38602644
0.073979974 0.35497504 -0.1275207
0.036022 0.21758744 -0.12338005
-0.035421398 0.05042444 0.00876755
-0.21816412 -0.16774316 -0.075754926
-0.065867625 0.043512385 0.034193512
0.09301528 -0.06578745 -0.031939797
0.079090625 -0.02603023 -0.040355813
0.055877447 0.011738472 -0.040917978
0.14678729 -0.083891116 -0.06341417
0.013584823 0.2218163 -0.11486765
-0.012981063 -0.15253264 -0.0061038625
-0.09081676 0.025901498 0.03678875
0.059134964 0.12998979 -0.09920388
-0.1354363 -0.037243735 0.04503384
-0.080641225 -0.057289846 0.093311556
0.050428875 0.31580102 -0.18049994
0.13402039 0.06305444 0.26116687
-0.0214258 0.06632621 -0.009162271
0.0976224 0.15238713 -0.1384334
0.02777799 -0.083236255 0.024864303
0.20293124 0.10519496 0.35277495
0.21051154 0.10795616 0.36171284
-0.018770501 0.09798555 -0.026094628
-0.21979843 -0.059389494 -0.0641015
-0.12203219 -0.03609001 0.06168294
-0.03483803 -0.036516055 0.049403764
0.013565456 0.24646984 -0.12030792
0.012538541 0.34486735 -0.099518254
-0.03492128 -0.05185477 0.056711562
-0.108679034 -0.21009685 -0.08568592
-0.04102771 0.050667275 0.012825968
0.030102637 0.36624902 -0.09000872
-0.20125899 -0.042412896 -0.009916554
0.03765681 0.13486548 -0.085519746
-0.21626085 -0.1416561 -0.05513971
-0.116012804 -0.05209453 0.07195519
-0.10964325 -0.008618228 0.067109704
0.029831786 0.23667139 -0.12778737
-0.08349538 -0.109175675 0.075649776
-0.2230897 -0.1082722 -0.05839136
-0.0057338206 -0.13828862 0.037510186
-0.11531364 -0.07736771 0.06958186
0.27560005 0.14127053 0.42868146
0.038682748 0.010763628 -0.027658297
0.056103252 0.28354603 -0.16948651
0.06392061 0.013562725 -0.047766965
0.034758642 0.017047597 0.115950435
-0.037007034 -0.18940565 -0.06274333
-0.23483476 -0.11578911 -0.074208006
0.22937134 0.1364909 0.39342478
-0.09095502 -0.12303521 0.056007657
-0.021946244 0.07763067 -0.014115316
0.15142144 0.05803767 0.25824973
0.27196944 0.14004721 0.43064386
0.19511326 0.08322662 0.3176292
0.029015768 -0.012809681 0.11449526
0.050523013 0.13202797 -0.093756534
0.11979265 0.043677807 0.2357641
0.19125663 -0.017844412 -0.12771638
-0.1631144 -0.13724619 0.008252257
-0.20267925 -0.00010547009 -0.04124406
0.06879757 0.10261375 -0.09346446
0.09691743 -0.06334724 -0.03599728
0.0014618904 -0.09628986 0.050619666
0.25069913 0.12226892 0.40659735
0.16595814 0.08614023 0.3057843
0.27201653 0.13798614 0.42480388
-0.19330703 -0.17489655 -0.056297306
0.26356047 0.15902431 0.42925686
0.02025823 -0.0518621 0.015640713
-0.05578611 0.05379839 0.022332352
0.01073049 -0.082045145 0.036991198
0.043047305 -0.04049778 -0.0066914777
-0.11244639 -0.058344446 0.07630041
-0.0031612231 -0.009885261 0.013243945
0.06098698 -0.08597869 0.0014396318
-0.03120308 -0.20106028 -0.07218214
-0.13320889 -0.16616613 0.0015493424
0.09681801 0.15693577 -0.13998334
0.0027481522 -0.14612037 -0.05566515
-0.20593983 -0.056904588 0.0004131084
-0.2299508 -0.08218029 -0.06605515
-0.06249912 -0.09493597 0.07538425
-0.060456306 0.010532023 0.046247892
-0.18962409 -0.14337994 0.008577238
0.27584982 0.15449218 0.4222502
0.00901995 0.36726028 -0.07479248
-0.20006958 -0.12554188 0.009415257
0.052831504 0.0069386037 0.14930606
0.26988015 0.14906377 0.4292578
-0.10571919 -0.10882355 0.058322016
0.09752783 -0.07879061 -0.02915609
0.09425643 0.04496405 0.21208988
-0.105788544 0.0019140926 0.059265107
0.0078433715 -0.022571856 0.08828511
-0.21416347 -0.081244804 -0.041772388
-0.06757758 0.036568347 0.039249286
0.04864702 0.058080632 -0.057427693
-0.17859147 -0.08865409 0.008995868
-0.0136068445 -0.173132 -0.08784929
0.03811222 0.35905367 -0.09257125
0.043274567 0.017730037 -0.034367047
0.15926288 0.09606044 0.27490374
0.04476292 0.121151514 -0.084330864
0.051199373 0.24972767 -0.14986019
-0.017953718 -0.04394333 0.04709444
-0.18821365 -0.1452303 -0.02320207
-0.033955824 -0.013689448 0.03796381
0.10312495 0.055565994 0.22699694
0.03148666 -0.018032238 -0.008698656
0.089948535 0.1652435 -0.13879453
-0.03470862 -0.03521281 0.048691474
0.089177266 0.15485282 -0.13331199
0.26477823 0.12997597 0.40098676
-0.036988903 -0.09387993 0.07810277
0.2150367 0.116157405 0.3710311
-0.22536263 -0.14147641 -0.06627464
-0.24006818 -0.06325407 -0.105984285
0.23835091 -0.0886212 -0.12933733
0.07412898 0.025687007 0.18109743
0.044064987 0.09631507 -0.07207864
-0.053798847 -0.12712109 0.062856436
-0.19213761 -0.16808726 -0.049884476
-0.15000583 -0.1823531 0.008768918
0.02655738 -0.111028045 -0.049950033
-0.061981197 0.032704502 0.03690874
0.07202381 0.028382076 0.18071952
-0.16894083 -0.15109862 0.01736875
-0.05509153 -0.04175551 0.066954754
-0.14138019 -0.06579522 0.04664446
-0.11973265 -0.10474403 0.054221988
-0.06128811 -0.21141288 -0.03427292
-0.20787027 -0.10467825 -0.034835078
0.027487163 -0.12410112 0.019586315
0.2406326 0.12827465 0.4029086
-0.0052724485 0.08854854 -0.031684216
-0.051961593 -0.044568334 0.06595398
0.07349628 -0.0072332914 -0.04507118
0.06445409 0.2583468 -0.16379873
0.13565096 -0.1065532 -0.044418864
-0.14624567 -0.07381137 0.04230836
0.055689458 -0.1022241 0.013057347
0.069864094 0.05049304 -0.069636755
-0.20098476 -0.026271544 -0.017745733
-0.029489491 -0.10633035 0.07840204
0.056371935 0.36610556 -0.10949511
0.02610163 0.3635975 -0.08577739
-0.13219999 -0.075351134 0.054020565
-0.1039597 -0.1630071 0.013111854
0.25529903 -0.041764535 -0.16408795
0.1795314 -0.06441289 -0.09698932
0.13540441 -0.106998414 -0.04439661
0.08803886 0.17163096 -0.14039028
-0.13140118 -0.17060539 -0.0013596358
0.03290748 -0.06378268 0.011856042
0.21336268 -0.048256226 -0.15241735
-0.14017324 -0.19582139 -0.007530309
-0.029485604 -0.16588634 -0.0156007
0.020936325 -0.12901016 -0.026801942
0.09420516 0.19028687 -0.1537936
-0.11083617 -0.13789208 0.033691365
0.068901405 -0.03281879 -0.029564144
0.07275017 0.16200499 -0.12446254
0.028176686 -0.014668077 0.110937096
0.1230252 -0.09683589 -0.03961107
-0.014667639 -0.14753546 0.021155315
0.20236866 0.090369545 0.31554672
-0.20956285 -0.07172769 0.004668884
0.23731971 0.13675313 0.40488887
-0.07970923 -0.010334437 0.07043657
-0.08568689 -0.18057369 -0.014359142
-0.034612417 -0.15191469 0.021599734
-0.059402786 0.02908703 0.036698315
-0.15631172 -0.16898789 0.016419334
-0.15246752 0.009191282 -0.031658683
0.19103108 0.08813921 0.31834716
0.0458914 0.18793416 -0.11671833
0.03023891 -0.12040887 -0.008636728
0.26551774 0.15674289 0.42887786
-0.028685799 -0.055641934 0.053858846
-0.017173743 -0.0721366 0.05308166
-0.088674635 -0.044808023 0.08082145
0.15780322 0.08896224 0.29968965
0.11332142 -0.066892765 -0.046533115
0.026863245 -0.0015435837 0.1192809
-0.0271694 0.09642538 -0.035357423
0.20121807 -0.10754104 -0.10773898
0.06118896 0.3308425 -0.19533227
-0.0848587 -0.2067681 -0.11039204
-0.07092039 -0.022000518 0.06940556
0.035686687 0.012128709 0.12627059
-0.06643867 -0.091715656 0.07784847
-0.14351939 -0.0014973362 0.00777404
0.045436617 0.09965704 -0.074678615
-0.17779788 -0.0057975356 -0.1345794
-0.17511757 -0.01203248 -0.028295279
-0.19725445 -0.018861601 -0.024023268
0.12575246 0.0696819 0.25626534
-0.1956654 -0.014096081 -0.10617688
0.06830915 0.3183644 -0.19502027
0.033642426 0.31090084 -0.16568962
0.007359398 0.23269744 -0.12441339
-0.030860333 -0.17355497 -0.074806355
-0.16671517 0.032018162 -0.070791155
-0.11892468 -0.21684048 -0.10440144
0.08653547 0.08773855 -0.09964124
0.20254509 -0.09748373 -0.098497815
0.028989032 -0.029397909 -0.0014705433
0.045566734 0.043146703 -0.04807988
-0.073977806 0.048329588 0.002448354
0.075658455 0.040857337 0.19098184
0.08448937 0.2099111 -0.15583162
0.23681626 0.11223072 0.36808816
0.17146829 -0.07301531 -0.0869237
0.06779401 0.028687676 0.17685442
0.017650897 0.06281235 -0.036590252
0.023728587 -0.08885671 0.030533545
-0.163145 -0.17028844 -0.024610193
0.07176002 -0.10896619 0.004279727
-0.14838319 -0.0051823393 0.003698844
0.109937795 0.07716756 -0.1120678
0.15476441 -0.075737245 -0.073203996
0.071330085 -0.0036147975 -0.045167845
0.246202 0.13941717 0.41501477
-0.06135918 0.010882026 0.046755034
-0.031241274 -0.1692846 -0.03497074
-0.034879945 -0.15516908 0.014437648
0.27010837 0.15535074 0.42611802
-0.12900095 0.0006755663 0.027894534
0.14596212 -0.065690465 -0.07139769
-0.103408895 -0.07231626 0.08023208
-0.20848621 -0.028427605 -0.100216664
0.06552555 0.15494461 -0.11574941
0.034344435 0.00649905 0.13133334
0.20932457 -0.06732398 -0.11779168
0.018071165 -0.014702322 0.10286311
-0.099704124 -0.12748562 0.04781708
0.033526078 0.09640548 -0.064276464
0.039203364 0.35466668 -0.09245378
-0.1944103 -0.058076553 -0.00761533
0.14313486 -0.09608399 -0.05493541
-0.18726958 -0.11108678 0.012111221
-0.003017514 -0.150109 -0.05270376
-0.1537911 -0.20135906 -0.062663764
-0.14353704 0.0026868468 0.0029506325
-0.046325706 -0.199486 -0.05104459
-0.16439718 -0.042801198 0.011412743
-0.20428766 -0.07271509 0.0066527366
0.09551167 0.0061620176 -0.06778652
0.25221878 -0.066660576 -0.15003459
0.13536046 -0.076077275 -0.058599733
-0.059423186 -0.032056116 0.06559746
-0.041160773 -0.046449058 0.058802236
-0.16522242 -0.07853924 0.022842497
0.034659706 0.36175308 -0.09127654
-0.0021626814 0.3673359 -0.06650425
0.18245277 -0.062420793 -0.10010537
0.11342178 -0.01760494 -0.06989127
0.25142065 -0.07363489 -0.14614561
-0.008806865 -0.12292205 0.04604611
0.028295506 0.32705936 -0.1693428
-0.01227022 -0.16369124 -0.09330429
-0.13282514 -0.17258458 0.0006351592
0.05983385 -8.5673644e-05 0.13139813
0.24681412 -0.08874217 -0.13557997
0.01793468 -0.05527924 0.018984599
0.16839956 0.07025886 0.294044
0.049443096 0.33933738 -0.16069247
0.09529806 0.05472251 0.20816001
0.042084005 0.31287825 -0.17290737
0.04552809 -0.10285484 0.020919064
-0.18882652 -0.12520127 0.019937655
-0.040989053 -0.14308286 0.04260544
-0.11420652 -0.004674258 0.05964702
0.0381913 -0.11175436 -0.007190067
0.15087122 -0.068481974 -0.07373327
0.24761286 0.15212885 0.41870925
-0.23321518 -0.12140214 -0.07484728
-0.084861934 -0.15626831 0.02108873
-0.1998039 -0.010462995 -0.026092904
-0.024080884 -0.16481514 -0.04314017
-0.10962055 0.034048956 -0.045622513
-0.106049314 -0.16289996 0.013905417
0.17079505 -0.06953497 -0.088066824
-0.005565628 0.2807808 -0.1462631
-0.01659735 0.07030417 -0.014635758
0.105410084 -0.054298837 -0.046593204
0.18360591 0.07961531 0.31550172
