# .PCD v0.7 - Point Cloud Data file format
VERSION 0.7
FIELDS x y z
SIZE 4 4 4
TYPE F F F
COUNT 1 1 1
WIDTH 1000
HEIGHT 1
VIEWPOINT 0 0 0 1 0 0 0
POINTS 1000
DATA ascii
0.054162756 0.07067812 0.11978457
0.11616274 -0.027236355 0.017739957
0.05861321 0.026905637 0.106703155
0.015665868 0.027479243 0.12568496
0.0938116 0.017700892 0.0710151
-0.059056595 0.058675215 0.07293685
0.0586634 -0.080481626 0.032554448
0.028364893 0.11890053 0.13343623
0.044296805 0.14759392 -0.0011459026
0.04604144 -0.10591992 -0.05887502
0.037045516 -0.2627157 -0.10848157
-0.04630118 0.008266646 0.05447648
0.03284742 0.15436368 0.047461588
-0.030375386 -0.0023786067 -0.12142103
-0.019228369 0.076009065 -0.31940544
0.12316807 0.12713501 0.0772667
-0.045932464 -0.039023954 0.026370216
-0.2414712 -0.037668567 -0.032288622
0.10188312 0.032508988 0.092549935
0.026686355 -0.48907098 -0.19874956
-0.05714405 0.1486328 0.0781047
0.003685069 0.12964964 0.12605049
0.012444862 0.055999752 0.11440782
0.03724004 -0.21285316 -0.08900941
0.045183692 0.035774894 -0.38935015
0.07081752 0.14680451 0.0827223
0.09942296 0.013348653 0.06439138
0.06647359 0.10110429 0.12482892
0.032923352 0.0033231946 0.09082932
-0.038441524 0.18438235 0.05866704
0.009832134 0.031606033 0.12594959
0.1296059 0.09841169 -0.027426135
-0.05474357 0.038969044 -0.22585274
0.07632641 0.12875293 0.12147462
0.021542935 -0.16996175 -0.07600707
0.12485544 0.10257306 0.07073882
-0.0672805 0.004052716 -0.0007394165
-0.07147041 0.03244699 -0.00040772877
0.07817924 0.053006604 0.10237871
0.033316743 -0.17123479 -0.0725105
-0.030019287 0.082840934 0.10619608
0.011645918 0.042578906 0.1135912
-0.07434296 0.020431016 -0.22550593
-0.06507997 0.07186513 -0.30893883
0.05939685 0.057483837 0.111615255
0.07357899 0.16061094 0.031558152
0.017604891 -0.09937625 -0.057167538
0.029589556 -0.34851435 -0.14373483
-0.05763983 0.008116639 0.032690536
-0.101637326 0.05278906 -0.30578864
-0.020966478 0.07745876 0.1081594
0.040290717 -0.4113646 -0.1718355
0.02019977 0.07373211 0.12190547
0.02115024 -0.03126296 0.072437555
-0.22803628 -0.014329217 -0.09123682
-0.090009816 0.06613051 0.042809535
-0.041262574 -0.003807543 -0.117811404
-0.06410665 0.12736481 0.0640744
0.10051887 0.095197774 0.10065141
-0.08890052 0.095334105 -0.36821488
-0.031814698 -0.037926458 0.04533753
-0.056985185 0.1884592 0.03935585
-0.014818027 -0.06448748 0.030649818
-0.08730148 -0.02131615 -0.0735897
0.10429273 0.039771903 0.10410061
0.041283257 -0.15136905 -0.070272066
0.07494259 -0.06462432 0.041238148
-0.20122062 -0.047504153 -0.014852516
-0.08017324 0.053636268 -0.42061308
0.0034270808 0.0031327552 0.08596638
-0.087224275 0.09285003 -0.3948417
0.029688006 -0.13445885 -0.060977254
0.10919699 -0.04996345 -0.046048533
0.013783461 -0.02391329 0.07494392
-0.042797927 -0.06766008 0.021554206
0.029786507 -0.17195347 -0.07574036
-0.034789592 -0.047592428 0.0362004
-0.09543014 0.0767047 -0.34089842
-0.038206305 0.13685235 0.10656276
-0.056987748 0.04517481 0.095024906
-0.070426 0.118928485 0.00053908426
-0.01068274 0.18904817 0.058876544
0.1288898 0.1279266 0.0539364
-0.06461977 0.032025155 0.034321807
-0.013316906 0.16848938 0.027952379
0.11023543 0.011973556 0.0550311
0.110770695 0.041548777 0.10247131
0.031186271 -0.3655553 -0.14968616
-0.026390629 0.13424823 0.11443556
0.016428769 -0.28222817 -0.13054495
0.023963053 -0.11421327 -0.051915675
-0.08549674 0.07442879 -0.3618886
0.040412016 -0.3989675 -0.16709538
0.079332076 -0.055914223 -0.03268024
-0.13642365 -0.031638216 -0.047519356
0.015662964 0.020008205 0.10030582
0.11284312 0.1280411 0.09124206
-0.080152415 -0.0033288628 -0.121126674
0.03797181 -0.059238475 0.05704654
-0.07492807 0.073736936 0.034895375
0.030555561 -0.07014885 0.049747836
0.0026896466 -0.040718548 0.06300377
-0.21438174 -0.028800702 -0.054685898
0.017045759 -0.4969182 -0.21503183
-0.0012313771 -0.054778297 0.057070144
-0.06433894 0.07749149 0.058734734
0.05944135 0.036521938 0.12434547
-0.08665107 0.052757505 0.048190303
0.0789324 0.17607886 0.008783404
0.041177057 -0.12921853 -0.061354797
-0.0057363543 0.19698574 0.048929017
0.13367312 0.0978364 -0.0075975396
0.032854218 -0.25553852 -0.10359384
0.027911311 0.03732943 0.1268503
0.020965494 0.14196566 0.0949436
0.0044398983 0.022531746 0.12525155
-0.24631716 -0.020691114 -0.07516855
0.045529176 -0.2424037 -0.11501179
0.037544627 -0.17081434 -0.07278735
0.09193885 -0.023585605 0.051093888
-0.054838832 -0.010054803 0.031113937
0.056167386 0.12211938 0.1313979
-0.069725476 0.02344944 0.0048989705
0.040898673 0.16223292 0.0039242622
0.07459468 0.0394224 0.12156411
0.02021145 -0.16868518 -0.08243448
-0.048111945 0.17968506 0.054741047
0.032693118 -0.14966972 -0.064492695
-0.054180384 0.111088336 0.08853287
-0.25928652 -0.052039236 -0.042467058
-0.03708289 -0.041210704 0.03657435
-0.05205672 0.038135935 0.07833817
-0.25514168 -0.053071063 -0.033502024
0.028576724 0.09265081 0.12582405
-0.05844951 0.183591 0.037220016
0.009909995 0.12551928 0.13230371
-0.057760626 -0.06565127 0.018157193
0.07042591 0.09314189 0.12122768
-0.08919732 0.075790286 -0.31885287
0.0034096388 0.06839863 0.11662975
0.0032444254 -0.05043201 0.05845132
0.062346537 0.023761302 0.12362879
-0.002924927 -0.03240593 0.067460105
-0.047786646 0.061711572 -0.4071947
0.075985126 -0.06459358 0.04086443
0.024154684 0.04584868 0.10938748
0.10019689 0.10409589 0.10264507
-0.193838 -0.060119327 -0.017778821
-0.023557698 -0.037910648 0.049492855
0.050112277 0.0447583 -0.403137
0.12661655 0.01825823 -0.017150793
0.03989408 -0.19878358 -0.087118864
-0.08141415 0.070301466 -0.30498952
-0.08023619 -0.04814544 -0.0058266064
0.10928542 -0.00582092 0.04371119
-0.10990213 0.0022753342 -0.1796496
-0.22014587 -0.014271934 -0.09138119
-0.01876093 0.055222426 0.10117379
0.02921499 0.17900579 0.062255044
0.09786244 -0.0066317115 0.05377824
0.04111293 0.10907628 0.1315377
-0.12586433 -0.031014552 -0.04909478
-0.020988423 0.04410409 -0.40844095
0.034123704 0.049231112 0.11259137
-0.25075212 -0.056112405 -0.031571142
-0.07768753 0.056813415 -0.4166622
-0.041955687 0.079722665 0.092134885
0.01972956 -0.2714464 -0.11770043
-0.03876118 0.18234086 -0.007032197
-0.02215831 0.070161745 0.1048654
0.088724636 0.099279284 0.11329637
0.01791868 -0.30165198 -0.13237838
0.09117934 0.041377496 0.11662603
0.0062977504 0.020935098 0.124366574
0.06001014 0.07426799 0.11626836
-0.011957734 0.13213818 0.11976533
-0.08784288 -0.059898596 0.012006411
-0.23342027 -0.013417609 -0.09353899
0.041255284 0.04685144 0.113120764
-0.021055631 0.13953587 0.10108071
0.036595147 0.14943162 -0.0020638157
-0.025774587 0.06829652 0.10110999
-0.039867356 0.10616398 0.10434576
0.12416384 0.03961176 0.053440567
-0.011223208 0.15032579 0.03191487
0.058109805 -0.023703206 0.071765125
-0.011516992 0.056552667 0.107442185
0.0062726396 -0.064575925 0.05151376
0.029023945 0.11936854 0.13337374
0.07254116 0.09101892 0.11784535
0.076449834 0.04168019 0.11586112
0.0062753637 0.094786346 0.12597486
0.00024406021 0.039798483 0.12061397
0.114431515 0.043673724 0.100669324
0.0362231 -0.19565584 -0.080790415
0.004014768 0.0015590291 0.08536288
0.03790674 -0.42300403 -0.17313834
0.03231555 0.10482136 0.13063894
0.0839167 0.058398988 0.10225256
-0.11284952 -0.04989148 -0.0014167642
-0.0007821835 0.19139928 0.06121752
-0.016158257 0.002870639 -0.13467892
-0.13572285 -0.06044427 -0.0016247791
-0.25185993 -0.01914899 -0.07906335
-0.27965224 -0.020587087 -0.08598183
0.01615598 0.14356148 0.0909129
0.032428503 -0.25990158 -0.10636273
0.12216082 -0.02005249 -0.03053291
-0.052311264 0.113860816 0.091189556
-0.010557677 0.16350558 0.036210213
-0.24962541 -0.013149001 -0.09421761
-0.012665883 0.055864915 0.10630154
0.109925136 0.0060728 0.051269833
-0.048804224 0.0972339 0.08781994
-0.009030939 0.09207012 0.11956638
0.02100632 0.102140605 0.13149036
-0.21759887 -0.025893616 -0.062028445
-0.01695935 0.050660476 0.10122961
-0.09425612 -0.022201175 -0.07135428
-0.13001814 -0.034822296 -0.03947732
-0.0679793 0.008337326 -0.018565344
-0.18991308 -0.018251302 -0.08133085
-0.037127268 0.052074485 0.08960848
-0.077455305 -0.04412761 -0.015974106
-0.26464996 -0.018433817 -0.080869585
0.021179643 0.0046650227 0.09284253
0.03984702 -0.064093456 0.054214407
0.0803182 0.15544249 0.060905576
0.028863136 0.13065025 0.12352284
0.056855172 0.09410503 0.12541443
-0.053436294 0.15120973 0.07159583
0.03812011 -0.21685864 -0.09181508
-0.03371848 0.16238368 0.04337365
0.025325142 0.09607295 0.12627895
0.04570223 0.1299828 0.12520888
-0.27074 -0.015087502 -0.089321904
0.021472123 -0.18057634 -0.08609047
-0.029241176 0.038820487 0.11565704
0.021116255 -0.17143568 -0.0769464
-0.098485224 -0.027583413 -0.057760462
0.022027781 -0.028359646 0.07428422
0.02031829 -0.19138883 -0.08551261
0.09827777 0.12175276 0.10894802
0.15615892 0.079062015 0.006626079
0.09651816 0.033534285 0.10712114
-0.04267635 0.10830506 0.102849975
0.008531165 0.029085292 0.124673694
-0.029786248 0.062068336 -0.40320796
0.03522539 -0.09983103 -0.0426476
-0.09808247 0.0142637165 -0.16345425
-0.024368687 -0.011023875 0.06280072
0.018402971 -0.1788166 -0.08795473
0.022730332 0.14654544 0.03565723
0.08856323 0.10796251 0.11695839
0.11310447 0.13901666 0.0930252
0.046090484 -0.020930618 0.0761402
0.04101463 0.12943368 0.12659596
0.083753556 0.02811676 0.11764537
-0.08121103 0.07826334 0.023463037
-0.039699446 -0.01694831 0.04687838
0.036963746 -0.2559202 -0.10567785
0.022901518 0.17485382 0.055826716
0.040927578 -0.08040169 0.036916822
0.074455276 0.14281708 0.026476752
0.032205563 -0.44867134 -0.17932338
-0.08096278 0.10662799 -0.39673993
0.12739557 0.024586812 -0.016505187
0.08118017 -0.0096922945 0.06753305
0.023032485 -0.19519833 -0.08475612
0.043168727 0.07276188 0.12054873
0.12123535 -0.026572833 -0.0267208
0.11511597 0.032534394 0.0924858
-0.10105936 -0.062917 0.007108541
0.033604693 -0.32722756 -0.13343014
-0.038370527 0.121206366 0.10741864
0.06609517 0.14370738 0.090544365
0.045243356 -0.23098752 -0.10728626
0.057905253 0.02925687 0.12400172
-0.0058952025 0.16425215 0.015417033
0.072190896 0.1739909 0.014057212
0.056500163 0.0020842745 0.0860421
0.05097962 0.1770548 0.006318692
-0.041702986 0.1051983 0.102431975
0.10521063 0.08196235 0.09228101
-0.067239955 0.039598938 0.08426408
0.15321107 0.087190405 0.000915661
0.005892509 0.1877287 0.059729133
-0.1821419 -0.06240253 -0.01540571
0.12976806 0.04159231 0.07858047
-0.020694718 0.04421019 0.10947129
-0.083243825 0.062554084 0.05970584
0.033553965 -0.21958476 -0.09008855
0.04284603 -0.39083168 -0.16724916
-0.04994228 0.13860025 0.09380939
-0.20997965 -0.015608911 -0.08800461
-0.03710886 -0.030320859 0.042870898
0.0596555 0.097598314 0.12291471
-0.03856515 0.04146069 0.10892359
0.03797639 -0.057581976 0.05792139
-0.047947284 0.037593536 0.102945685
-0.018519733 0.057309944 0.10200996
-0.035111587 0.058080744 0.09270474
0.039387178 -0.22603725 -0.09720644
0.0323085 -0.16971648 -0.072750404
0.026340976 -0.43200222 -0.1757535
-0.048091598 0.14714213 0.081869334
0.073944844 0.011886559 0.08693481
0.07155217 -0.05592256 -0.03265883
-0.06643607 0.03146876 0.02921011
0.062392376 0.11591529 0.12812097
0.02842655 0.1820328 -0.006254261
-0.0412854 0.17003861 0.024039438
-0.063244164 -0.05557893 0.012948075
0.10675987 0.1106338 0.09538647
0.07088682 0.14546944 0.08609396
-0.059989072 0.020726888 0.03696694
0.07224208 0.17647938 0.0077720387
-0.2783828 -0.017404437 -0.083469436
-0.16202356 -0.05238885 -0.005804311
0.019111462 0.040792864 0.11810285
0.02686098 0.0006122461 0.09182662
-0.07937324 0.056884307 -0.41702816
0.1329371 0.11763248 0.04424887
0.10772131 0.09363209 0.091132656
0.034959942 -0.079733215 0.03689664
0.0005654059 -0.05638084 0.05608253
-0.013674846 -0.01568599 0.06958793
-0.011866776 0.013172944 0.08734507
0.0043621184 -0.056983523 0.05527734
0.041158147 -0.38772926 -0.1807942
0.11996064 0.11244481 -0.0628697
-0.05106182 0.026695129 -0.42175835
-0.016823847 -0.07674555 0.025234576
-0.053984217 0.12123733 0.09191271
-0.04775332 -0.02507003 0.032898184
0.093911976 0.017859565 0.070955805
0.10107368 0.18113926 -0.0039974153
0.0346736 -0.19262207 -0.0798463
0.050427634 0.0692343 0.11855059
0.094371594 -0.06987383 0.008471799
-0.09267157 0.043470427 -0.23722172
0.06944662 0.05386758 0.10703572
0.05175569 0.040047348 -0.3912385
-0.056822844 0.05640651 -0.41164607
-0.03997247 0.045439668 0.106366165
0.004927078 0.12499464 0.12976846
0.02331671 0.1451411 0.0869237
-0.00239895 0.03636906 0.12522213
-0.007708042 -0.059059527 0.049922224
0.110439226 0.16129619 0.04612045
0.048957508 0.18839838 -0.022332057
0.0010688165 -0.009734002 0.077505015
-0.15821137 -0.047601167 -0.007201224
-0.063663185 0.14208949 0.06361
0.019387266 -0.45588043 -0.19683054
0.035058025 -0.4689133 -0.18891706
0.036741506 -0.3693758 -0.15028973
-0.04772789 -0.03146414 0.028698707
0.050482187 0.056244344 0.114693485
-0.18496381 -0.027767994 -0.05729442
-0.10997015 -0.029539764 -0.052819107
0.010076696 -0.005024847 0.08464653
0.004200049 0.12279405 0.12974878
0.056466393 -0.06741579 -0.0036300381
0.12343539 0.087364994 0.060450245
0.022329872 -0.23347217 -0.09544324
0.044968836 -0.14847308 -0.074235864
-0.006593138 -0.030190706 0.06751517
-0.019006811 0.021022925 0.085981995
-0.053233042 -0.056078445 0.014209604
0.021604529 -0.13318497 -0.06139462
0.09157347 -0.041365348 0.041871008
-0.022646632 -0.036839116 0.05046747
-0.06437082 0.03947662 0.08660914
0.061464924 0.059370372 0.112546794
-0.0006678556 0.066678725 0.115207836
0.08714662 0.13472007 0.11324413
-0.028443132 0.042742442 -0.23538345
0.05994571 -0.075646155 0.034007397
0.03378567 -0.1302665 -0.055899106
-0.10311905 -0.07017643 0.003657063
-0.054483093 0.07807692 0.075210124
0.023687508 -0.17947139 -0.07798311
0.024060428 0.06449844 0.11554925
0.028024934 -0.21200086 -0.09090568
0.029208347 0.12089304 0.1334047
0.040096074 -0.15202458 -0.068885684
-0.11625701 -0.06799894 0.00083820074
0.09548037 -0.066039234 0.008452917
0.09309102 0.13260889 0.11058779
-0.15868568 -0.05254313 -0.004930355
0.12273155 0.111710526 0.07508674
-0.047696453 0.07240796 -0.40294054
-0.045477886 0.10537662 -0.3935794
0.04608769 -0.034423158 0.06900938
0.00065010175 0.056568608 0.11213219
-0.077299714 0.097208805 -0.37294978
-0.07212116 -0.064160705 0.014723798
-0.027945673 0.020112116 0.07754328
-0.10269056 -0.04087259 -0.02419547
0.05677054 0.13151436 0.12134077
-0.024272291 0.10366861 0.11636803
-0.24039407 -0.05294669 -0.02798315
0.10231259 0.10537313 0.100157425
0.02227084 0.028030492 0.12719142
-0.045343343 0.14559543 0.08577604
-0.06749023 0.035340514 -0.21668811
0.02449456 -0.15815486 -0.0688698
0.028878033 -0.31226218 -0.1279394
-0.044879243 -0.045443006 0.023689022
-0.050493244 0.111145794 0.091631375
-0.069395445 0.13193233 0.018506613
0.0060339533 0.10946849 0.1307964
0.08368968 0.066132896 0.10507271
0.036896475 -0.47722542 -0.19320518
0.03277114 -0.28343165 -0.117387354
-0.08327893 0.03398516 -0.21326496
0.11039697 0.092023686 0.08741434
-0.0056714485 -0.07475293 0.029148076
-0.029302722 0.069681674 -0.30342415
0.10973293 0.16546638 0.03558769
0.070498645 0.05451043 0.10583176
-0.082820326 0.020507 -0.22569785
0.034100793 0.027012639 -0.39665934
0.03331203 -0.34161177 -0.13845412
-0.034244183 0.076593615 -0.32088152
0.06494682 0.0067910426 0.08769829
0.024075584 -0.4051931 -0.1670287
0.119862325 -0.025148628 0.0054025655
-0.27451926 -0.028404808 -0.068938695
0.08240169 -0.05851385 0.04153195
0.03389967 -0.34434313 -0.13940996
0.012827324 0.10521588 0.13080095
0.062208034 -0.032938287 0.06498525
0.035204127 -0.47181672 -0.18975095
0.09513352 0.13339011 0.10948245
0.0065072444 0.19194683 0.059925806
0.1127835 0.09681337 0.08520329
-0.016985506 0.08485209 0.11193721
0.029506622 -0.07379405 0.038083006
-0.09419937 0.06643639 -0.29522744
0.031292666 -0.2893961 -0.116857916
-0.02453764 -0.04830692 0.043884
0.07298225 -0.056084137 0.04682939
0.13270953 0.11776082 0.044614878
-0.04807303 0.031535987 -0.41843984
0.0031829632 0.13350101 0.11632274
-0.050850723 -0.041765038 0.01720778
0.029322248 -0.16513138 -0.07342638
-0.0753111 -0.019351704 -0.12502626
-0.037026793 0.09573616 -0.36923015
0.060108513 0.061947957 0.112964705
-0.05598207 -0.051208224 0.0019087581
-0.23280089 -0.019027766 -0.08817054
-0.2485155 -0.011373428 -0.098702036
-0.07125154 0.08815986 0.03460434
0.055505116 0.027019165 0.100137256
-0.079598114 0.059990317 -0.41467246
0.067458786 0.18071276 -0.0029202483
0.10481527 -0.00839175 0.04874697
-0.08208454 -0.04253501 -0.019997053
-0.07430614 -0.05344794 0.007566043
0.10464078 -0.03622315 0.029023316
-0.047961783 0.1916076 0.054580707
-0.12056453 -0.050032906 -0.0010599559
-0.07008412 0.11280798 0.054767095
0.033405475 -0.10091097 -0.044593174
0.04278831 -0.20093714 -0.091984525
0.021589972 -0.18960729 -0.089568034
-0.009671278 -0.02303306 0.06890676
0.054003768 0.030048 -0.40631706
0.11239518 -0.04329365 0.012005825
0.019314822 -0.024516039 0.07585274
0.0021263217 -0.036013555 -0.08294342
0.10481138 0.14172055 0.095563084
0.05016085 0.15246502 -0.00015855083
0.029542893 0.17596787 0.0027411038
0.005892885 0.06557927 0.11621438
-0.0033822642 0.14998841 0.07468081
0.033164192 -0.0033954023 0.087244
-0.027952315 0.00036965968 0.06622992
0.038320564 -0.2837961 -0.11859584
-0.07864384 -0.024299217 -0.066055275
0.046758216 -0.4231589 -0.18547285
-0.0040403064 0.021734256 0.1211783
0.01848067 -0.39749792 -0.16914804
0.033972796 -0.2992727 -0.121549845
0.0771214 -0.03550207 0.055242043
0.021253653 -0.42549035 -0.18324134
0.041035645 0.02319984 0.12509255
0.007963888 0.10102235 0.12839456
-0.046967242 0.18188696 -0.0058860644
0.1029587 0.11121817 0.10036696
-0.04637806 0.057899307 0.079804786
-0.0053023957 0.01381472 -0.16232058
0.024594173 -0.13773714 -0.060702845
0.022208512 -0.22227192 -0.096162826
-0.08182557 0.06690844 -0.42363566
-0.096767396 0.07460331 -0.31585446
-0.19998075 -0.03948129 -0.02771007
-0.1744393 -0.056247286 -0.010810558
0.07907576 0.0053613065 0.08111302
-0.12703426 0.025074577 -0.1907593
-0.056097463 -0.025710827 0.009013784
0.021318983 0.13605604 0.1098695
0.022705596 -0.1681919 -0.074336186
-0.13150004 0.014528967 -0.17139341
0.115808554 0.06995235 0.076550655
0.11387844 0.1566549 0.057843003
0.019833587 -0.096365616 -0.05411607
0.098399915 -0.05727213 0.023511516
0.06222687 0.1529779 0.012603035
0.004441365 0.14920512 -0.06530402
0.0017400235 -0.07403301 0.031509753
0.035592552 -0.28741518 -0.11661078
0.044398844 -0.11750455 -0.06118423
-0.053074297 0.11727764 0.09190586
-0.14844516 -0.034627497 -0.039969057
-0.039577436 0.06339608 0.08851811
-0.03228013 0.18920152 0.061492637
0.14372833 0.091978304 -0.011177133
0.110442124 0.13724367 0.0982146
0.01011768 -0.02010829 0.07605669
0.07813833 0.16633923 0.033382975
0.0374053 0.06393738 0.11815146
-0.18898126 -0.059472196 -0.016161973
0.054226626 -0.06776413 0.039187726
-0.24066308 -0.04479469 -0.024830937
-0.21464397 -0.013354727 -0.09369786
0.014723079 -0.001596468 0.08782695
-0.0057813195 0.19002041 -0.026428483
-0.051433533 -0.020087015 -0.076693974
0.085784785 0.10280703 0.11732058
-0.054022714 0.03292847 -0.41987497
-0.12569621 -0.053948358 0.0037563988
0.024764054 -0.47778815 -0.19519685
-0.21558319 -0.029624674 -0.052605048
0.066251576 -0.027806988 -0.10367084
0.015985023 -0.047649954 0.06196508
0.025696969 -0.10244533 -0.045809794
0.08867917 0.09740157 0.11261577
-0.08880551 -0.0635797 -0.013318875
-0.20328763 -0.05677863 -0.019103814
-0.09825938 -0.044041432 -0.062667206
0.01907408 -0.06359697 -0.013275552
-0.058351714 0.024594544 0.044868868
-0.043453038 0.08148939 -0.36252078
0.018473083 0.04820942 0.113085315
-0.05723404 0.05979862 -0.27846235
0.0347974 -0.12875874 -0.054457832
-0.02230659 -0.0014759254 0.070118435
0.04396242 -0.09818971 -0.052931868
-0.014796881 0.03339434 0.118262954
-0.002289028 0.06158323 0.113180205
0.032413576 -0.05702247 0.059007388
-0.06756712 0.013339076 0.011500346
-0.013150581 0.18969516 0.058781266
0.061015733 0.00029969853 0.086050086
0.111599945 0.17729953 0.005700351
-0.027427707 0.08181113 0.105081744
0.02240762 -0.1415855 -0.06405081
-0.018106136 0.09682912 0.11643992
0.08581738 0.02967952 0.099696696
0.023495452 0.15403381 0.04807898
-0.024635993 0.07634285 0.10524576
0.12825844 0.09999223 0.046603497
-0.25829765 -0.027216401 -0.058687564
0.089160204 0.18080378 -0.003149934
-0.06844025 0.11947853 0.05814603
0.12244084 0.14175919 0.07222753
0.055328656 0.1400541 0.09977198
-0.00636757 0.0039518652 0.08413294
0.017168846 0.105577804 0.13182776
-0.039062146 0.040754646 -0.4117818
0.013755574 -0.059845373 0.05453672
-0.06495346 -0.020717546 -0.018247923
0.10557085 0.0885867 0.092995346
-0.067199804 0.15650679 0.03378221
-0.08479616 0.031968605 -0.20817174
-0.037028294 0.0135350805 0.06721634
-0.03720684 -0.06749023 0.023188077
0.08688044 0.060029704 0.100313395
0.040074747 -0.032873206 0.07068266
0.0010207201 -0.014937135 0.0751143
0.12697469 0.1303816 0.0575636
0.026476515 -0.42313057 -0.17235063
0.032288674 -0.26561734 -0.10720352
0.040819082 0.06657168 0.119022794
0.04422165 -0.3030313 -0.13439384
0.0777561 0.12563562 0.12004616
0.12295831 0.025134636 0.041056916
0.014652968 0.10612397 0.13148308
0.016362477 0.09263785 0.12737028
0.01447818 -0.49196336 -0.2094049
0.02153685 0.1606636 0.038572587
0.018577276 0.11530217 0.1338313
-0.13842146 -0.0376686 -0.032288067
0.052209824 0.053558487 0.11370197
0.037822124 -0.31067693 -0.12854747
-0.018013546 0.031987317 0.11710519
0.026285779 -0.060667224 -0.028777301
0.117073104 0.0361165 0.09401462
-0.0054289605 0.13624762 0.10938612
0.08906913 0.114134654 0.11870036
0.017029868 -0.1960047 -0.0959054
-0.08505418 0.038232967 -0.22399369
-0.014919104 0.07994665 0.11187676
0.035491537 -0.20305024 -0.083292864
-0.032963768 0.1350092 0.11040944
-0.002347291 0.13115187 0.12225656
-0.07772269 0.064083815 -0.33576053
0.06765703 0.11434259 0.12678306
-0.006154953 0.11450944 0.12765148
-0.036548886 0.014086737 0.0679151
0.0010924776 0.029547963 0.09987422
-0.0741903 0.0501717 0.07509469
0.065133505 0.14074802 0.0980193
0.051194873 0.11498218 0.12927295
0.0473282 -0.38504043 -0.17117104
-0.06981832 0.14067447 0.05344976
-0.026595442 0.13393669 0.11486085
-0.055515286 -0.0053627193 0.032726623
-0.25295392 -0.023321921 -0.068523884
-0.038827725 -0.05807332 0.024226617
0.044293746 -0.36999992 -0.16100843
-0.023815481 0.06574439 -0.29347986
0.019356525 -0.06769494 -0.043162618
0.06556169 0.18443936 -0.012332835
-0.049967963 0.03875266 -0.22530633
-0.009220943 0.0027486596 0.082929075
0.124243885 0.026032472 0.031184163
0.073387966 -0.04993173 0.050624464
-0.0063649095 -0.0044737887 0.08009467
-0.03792962 -0.05564958 0.026943501
0.034661252 -0.33451852 -0.13603744
0.13130352 0.046353348 0.03062399
0.03925506 -0.14819655 -0.06620419
0.024866762 0.01078817 0.0971529
-0.08849671 0.007813796 -0.14716364
-0.0008776791 0.142605 0.008202396
-0.07383005 -0.049168177 -0.0032437127
0.051481903 -0.04758975 0.059820108
0.060521692 0.05072445 0.11002161
-0.08744305 0.046062794 -0.2437694
0.080901325 0.010196403 0.082248956
-0.004084083 0.075932704 0.11721579
0.03835979 0.02743731 0.10280149
-0.14267625 -0.06413413 -0.005033939
-0.118409544 -0.02764631 -0.057601396
0.021805184 0.15483452 0.036865782
-0.012613718 0.09527154 0.118449815
0.020975484 -0.025453586 0.07569605
-0.25031933 -0.015261189 -0.08888283
0.09742328 0.1734634 0.015389644
0.07909793 -0.036726955 0.0537436
0.013612841 0.13893731 0.10259201
0.025271595 -0.2591158 -0.10819476
0.061862417 0.021461517 0.12289244
-0.050228707 0.07581334 0.07934712
0.050483234 -0.043471463 0.06250986
-0.06707142 0.118692756 0.059011996
-0.02052286 0.027621211 -0.19719169
-0.009887757 -0.014286827 0.073746145
0.021145968 -0.03942081 0.06780477
0.043112732 -0.26142648 -0.11638393
-0.020563032 -0.02963683 0.055464145
0.022873485 -0.39630187 -0.16451132
0.009122877 0.13909122 0.10220383
-0.04037772 0.100354835 0.10161998
-0.05130149 0.026390657 0.060473878
0.04067318 0.16814461 0.005585635
0.031830296 -0.23427382 -0.093418576
-0.02974105 0.031898707 0.11249932
-0.23642983 -0.021272581 -0.084027626
-0.035242055 -0.053302243 0.032220785
0.0390055 -0.03828657 0.06797341
-0.09375899 0.044225745 -0.23912987
0.022676358 0.029727407 0.1279497
0.07197969 0.10415349 0.12343306
0.04168959 0.06607169 0.11876018
0.032771517 -0.47884843 -0.1912392
0.05083206 0.03757574 -0.38729194
0.12388992 0.070997715 0.053339995
-0.10861098 -0.058194693 0.006862349
0.028749626 -0.3174526 -0.13366133
-0.016781837 0.02201055 -0.41539532
0.026685117 -0.4456135 -0.18154164
0.03716582 0.14864182 -0.0022544453
-0.079479024 -0.029257806 -0.053531356
0.10744782 -0.026326118 0.03181091
0.061088417 -0.02777214 0.06881109
-0.044182517 -0.035410173 0.03122909
-0.038167596 0.051154096 0.09193295
0.09622095 0.13257936 0.10876999
-0.13249525 -0.054649685 0.0015735136
0.027523708 -0.20131822 -0.08598127
0.004574325 0.11362587 0.13213062
-0.10357229 0.06030479 -0.279741
0.0073897764 -0.05641913 0.055117022
-0.07095007 -0.07009961 0.0127004655
0.024064163 -0.46781498 -0.1918322
0.06342696 0.112647556 0.12668681
-0.07783946 0.047028393 0.06993254
0.072831064 0.027361866 0.096496366
-0.05412817 0.14589575 0.08501747
0.13470489 0.1250136 0.029709006
0.083591074 0.007991199 0.076523766
0.029516263 0.016776282 -0.40143597
-0.05060808 0.16357158 0.040373355
0.13326013 0.041465797 0.07368793
0.031333014 -0.1441467 -0.0634406
-0.05021435 0.13694894 0.0927831
0.02878743 -0.16828345 -0.07465376
-0.087632135 0.03461344 -0.261327
-0.032958303 -0.003567014 -0.118419215
-0.03238943 0.031805914 -0.41435263
-0.038020633 0.0033334426 0.061118856
0.026939888 -0.2878759 -0.11886969
0.075215764 0.11836216 0.12684965
-0.05493552 0.19014023 0.054476667
-0.008773345 0.19223142 0.060408816
0.11416899 0.123482354 0.08816304
0.030386265 -0.18792748 -0.081564486
-0.08472857 0.0726562 -0.31093666
0.09367791 0.16189691 0.044603076
-0.050279014 0.017337192 -0.17121735
-0.087815955 -0.061207652 0.011495553
0.051216334 0.12700526 0.13272922
-0.07181963 0.10009237 -0.38023308
-0.058732063 0.050073113 0.09466314
-0.06767737 0.09932493 -0.029732695
0.12752092 0.08612129 0.054293364
0.041060902 0.060350344 0.11714706
0.046712037 -0.46158698 -0.20289975
0.109805346 0.062148057 0.08286618
-0.07326303 0.049679723 0.049182244
0.054209042 -0.023993535 0.07201745
0.046884324 -0.06738928 -0.0036969113
0.02377002 -0.3648101 -0.15129492
-0.09797521 -0.046567813 -0.009810987
0.11243307 0.038822643 0.07093389
-0.017124929 0.092357606 0.11487897
0.12862524 0.09464394 0.044844106
0.06101173 -0.0029676459 0.084194355
-0.023536488 0.011837711 0.07668765
0.08238246 0.01666868 0.08461767
4.9215178e-05 -0.03514432 0.06593902
0.037935097 -0.44265562 -0.1809583
0.047758766 -0.24330018 -0.11621698
-0.12794557 -0.029675888 -0.05247554
-0.024511972 -0.043221764 0.046405487
0.034011923 -0.059152268 -0.027554134
0.05336108 0.12274512 0.13205208
0.15686491 0.07712892 0.020800248
-0.05171309 -0.035290755 0.02021064
-0.06522508 0.083973244 0.05848991
0.08456957 0.09919186 0.116471134
-0.053688057 -0.032021835 0.01850818
0.1280676 0.015011868 -0.0035751958
0.026060618 -0.25632238 -0.106430404
0.05674699 0.090829946 0.12426792
-0.06793598 -0.07255579 0.012572705
-0.0437401 -0.030285813 0.034568474
0.017429674 0.0028208748 0.09094716
-0.045915384 -0.009439824 -0.10358608
-0.13076375 0.0061345235 -0.17410275
-0.04207741 0.10290812 -0.3873448
-0.015446552 0.007990643 0.08163817
0.021380607 -0.1340571 -0.067748874
-0.06882774 0.15321024 0.021946771
-0.063747555 0.15107246 0.05708674
0.06502675 0.0031628276 0.08521068
-0.16293745 -0.036131587 -0.03617042
0.026899228 -0.15140572 -0.06535334
-0.030595634 -0.024247691 0.052790232
-0.16161622 -0.04255222 -0.019953396
-0.015668334 -0.075634934 0.025997864
0.10436351 0.07920833 0.09287835
0.13298693 0.09370942 0.034707543
0.11602644 0.11439393 0.08416578
0.05890713 0.16358522 0.011540986
-0.052095786 0.15104537 0.07201108
-0.004304655 0.052500807 0.109748766
0.045756247 -0.4662519 -0.20114543
-0.04183885 0.13124354 0.10361975
0.030508718 0.16373627 0.05441556
0.03146304 -0.06688935 0.04123469
0.055002194 0.118329704 0.13008107
0.02484718 -0.010448181 0.08509142
0.09391462 0.023407409 0.07399623
-0.06517128 0.15960218 0.033422098
0.115032755 0.1760128 0.008950431
-0.001546863 0.09960655 0.1251265
0.14890589 0.0681464 0.047343478
0.053448875 -0.035748158 0.065713726
0.06940533 0.08469622 0.11929891
0.03985383 -0.06246199 0.05507571
-0.2713519 -0.043455064 -0.05198733
-0.07206405 0.126444 0.036589112
0.05104827 0.03862267 0.12358389
0.09282285 0.117783085 0.11282343
-0.0038320825 0.08336061 0.11945007
0.11454243 0.1314761 0.090245895
0.05913347 -0.010258934 0.07962998
0.040797625 -0.26812476 -0.11582566
0.065066084 -0.02759033 0.067044474
-0.027921412 0.034730587 0.11492599
0.016017035 -0.44273853 -0.19443895
-0.25342697 -0.051158316 -0.03131419
0.034519866 -0.26880682 -0.11013828
0.13180327 0.13143119 0.021640632
0.024556858 0.08886443 0.123729184
-0.006427022 -0.0046126246 0.08001436
0.06508802 0.037924297 0.123105645
0.04368706 -0.11298708 -0.058408696
0.049454436 -0.005679655 0.08372288
-0.010666277 0.10224533 0.121724464
-0.018682566 0.056247722 0.10155213
-0.051147707 0.04200517 0.098641805
0.1175124 -0.03754137 -0.0326099
0.086982116 -0.066044025 0.020001335
0.025288774 -0.0029521282 0.08944717
-0.07003256 0.122546986 0.05600642
-0.0047230315 -0.040066123 -0.07270761
0.034878608 -0.48097542 -0.19384237
-0.07434483 0.050369333 -0.4332555
-0.22405095 -0.042614594 -0.019795872
0.042768307 0.0038190861 0.08969274
-0.061789595 0.04410375 0.09059489
-0.048419688 0.011367858 0.054384492
-0.03359393 -0.05673925 0.032620642
0.11516938 0.12045282 0.08634162
0.059670936 0.0704471 0.11516822
0.11071845 0.0008056241 0.046265136
0.08715445 -0.067400634 -0.0036686156
0.021252476 0.049761627 0.112190306
0.05457966 0.07295353 0.120195225
0.011425997 0.11342745 0.13351582
0.0218323 0.14725536 0.033925686
0.118421525 0.11648319 0.08146408
-0.24118888 -0.027756343 -0.10379888
0.07420584 0.18029079 -0.0018543408
0.03624215 0.025160726 0.12484486
-0.06127082 0.05352289 -0.41580293
-0.034289595 0.044028744 0.10992957
-0.06140092 -0.06079092 0.019061673
0.10211758 0.0034799604 0.05783107
0.037581824 -0.27164587 -0.11276078
0.0691624 0.10334453 0.12598304
0.049552716 -0.013762855 0.079436645
-0.030906683 0.13733129 0.10664904
0.0033993947 0.05142039 0.111000255
-0.03153167 0.030972939 0.11063893
0.035534594 -0.32177997 -0.13026537
-0.059277304 0.026257355 0.04330984
0.0894024 0.017898249 0.07742028
0.03644038 0.02394781 0.10123013
-0.004781654 -0.033891078 0.06634008
0.080507115 0.094560884 0.11627263
0.051321402 0.028089184 -0.3910789
-0.057329018 -0.0016728236 -0.12320313
0.059922755 0.083304934 0.11868816
-0.03531903 -0.012693752 0.05524229
0.09315139 -0.017061232 0.052904602
0.10884414 0.06624195 0.08482657
-0.15381312 -0.057245683 -0.0054269647
-0.13338481 0.020666555 -0.17962602
-0.033298083 0.11234926 0.11260903
0.02402742 -0.24844773 -0.104095064
0.010263368 0.08958713 0.12508492
0.0011977936 0.09587184 0.1252737
0.016823942 -0.430515 -0.18892634
0.03055907 0.026177963 0.12403348
0.047733597 -0.003589315 0.08507223
0.119447865 0.030590525 0.054221448
0.02333588 -0.36108416 -0.14493164
0.12747614 0.1379125 0.059849445
0.05918148 0.01031303 0.09132021
-0.02753503 0.17302218 0.016504226
-0.0016414135 0.06338117 0.11391154
0.120165996 -0.033023145 -0.008928682
-0.0073116757 0.023469932 0.120316476
-0.04779887 -0.015532115 0.039151303
0.016972221 0.032529432 0.12784043
-0.028085418 0.020375652 -0.17889139
0.02261191 -0.25409675 -0.10842641
-0.14778584 -0.043499775 -0.017560316
-0.11641712 0.005892506 -0.16222976
-0.05885844 -0.029642718 -0.0012785883
0.036736034 -0.48592824 -0.19642897
0.11538518 0.05397807 0.08480014
0.053803798 0.027549157 -0.4043137
0.13389006 0.07543278 0.030612256
-0.10769894 -0.059821423 -0.02281108
0.065132916 0.15075141 0.017475419
-0.013938561 0.026542496 0.11886622
-0.0703212 0.1092774 0.010730134
-0.021695461 0.11005201 0.12090832
0.107838325 -0.045906443 0.017144615
-0.24744132 -0.012045469 -0.097004585
0.024818402 -0.044733472 0.06561925
0.0023631342 0.111956514 0.13067468
-0.102697946 -0.03678617 -0.03451677
-0.023747817 0.025201123 0.11484749
0.08317557 -0.019036412 0.061135042
-0.03882424 0.12522082 0.10799125
0.078127645 0.13924715 0.101810105
0.11767641 0.15541482 0.06097505
-0.0038937202 0.14281255 0.09280473
0.098127864 0.02796706 0.07308373
-0.03127082 0.04422126 0.109443225
-0.048128337 -0.037494313 0.024104392
0.100622416 0.15027559 0.07395549
0.03817416 -0.5014878 -0.20458297
0.039152816 -0.07987068 0.037368335
0.018462526 -0.2650308 -0.12203918
-0.01415555 0.13766916 0.10579551
-0.13204956 -0.04082891 -0.024306135
0.04135565 -0.09813093 -0.049294263
0.07974077 0.13018884 0.12157941
0.07304845 -0.026720313 0.064492434
0.02961163 -0.06667859 0.04098258
-0.026379272 0.09013413 0.10925171
-0.027171953 0.105375096 0.114624664
0.003407748 0.12056662 0.129702
-0.056383893 0.054230265 0.084163286
-0.04599463 -0.008169719 0.045293447
0.084872164 -0.016545208 0.061756622
-0.014536445 0.08161554 0.11269908
0.08254118 0.046299048 0.1041955
0.03820466 -0.17100708 -0.0737787
-0.034324408 0.05665616 -0.27052507
-0.012529005 0.045998085 0.104955524
0.035205323 0.14954472 -0.0023158588
0.0026656948 0.12370636 0.12942484
0.026182385 -0.11116768 -0.048858084
0.12170727 0.04402548 0.06039328
-0.06029859 0.02985255 -0.24930218
0.04210431 0.03238595 0.12731406
-0.059247866 0.04370629 0.09255777
-0.05679062 0.027987145 -0.056991894
0.011181271 0.07918987 0.12183051
0.015947057 -0.44796175 -0.19656527
-0.051270958 -0.02902444 0.025024101
-0.06303667 0.10268096 0.06790257
0.08697386 0.04491134 0.1077005
0.038347613 0.025743743 0.10190814
-0.05730248 0.041007318 0.0710858
-0.020793004 0.0054496895 0.07544273
-0.040591948 -0.009173367 0.05010179
0.041668314 -0.3640511 -0.15501279
-0.059100363 0.09091214 0.07330976
0.018587818 -0.1241552 -0.06615818
-0.033499453 -0.07079248 0.02291931
0.016521184 0.042756297 0.11314327
0.019341176 0.011399057 0.09624971
0.14430916 0.07142431 0.040736273
-0.2307122 -0.025771149 -0.08964065
-0.07008639 0.09235439 0.043931756
-0.021325495 0.16842349 0.028119134
0.063791305 0.065229245 0.11460299
-0.04359288 0.08836019 -0.35991725
0.008103815 0.031193284 0.12541698
0.11134287 0.03631355 0.10203814
-0.19446559 -0.016010972 -0.08698937
0.045646217 0.1301867 0.124693856
0.017071096 -0.101625904 -0.058503643
0.09381118 -0.059917495 0.028426653
-0.016542776 0.07618068 0.10940665
-0.1378784 -0.059681688 -0.0019268428
-0.04421883 0.054257546 0.08409489
-0.089570045 0.065348424 0.046243235
0.044509776 -0.41801536 -0.1803188
0.041767534 -0.37131765 -0.1580275
0.12259378 0.09384587 0.07208992
-0.0016388857 0.18422967 0.05911647
-0.056003492 0.025425253 -0.056625817
-0.12218531 0.036446184 -0.21948066
-0.026150962 0.025907947 0.082466066
-0.10984597 0.013521343 -0.1615792
0.028626667 -0.3600875 -0.14744869
-0.038988285 -0.06098643 0.025263997
-0.06688926 0.02407222 0.022006068
-0.06866944 0.029107807 0.021554852
-0.057133544 -0.04268286 -0.007507239
0.09544033 0.085180335 0.098402366
0.039457288 0.0875812 0.12542814
-0.15935548 -0.045930937 -0.011419898
-0.08151202 0.09039542 -0.41902912
-0.06293285 0.1034085 0.06830865
0.13078363 0.031821873 0.020985771
-0.031560853 -0.00803676 0.060316283
0.027317947 0.16848011 0.0034961915
0.11303274 -0.030998494 0.01985641
-0.03752202 0.1205381 0.10905574
0.1263451 0.006098578 0.00934157
-0.039834186 -0.048476424 0.028343812
0.020556912 0.1927132 -0.033230208
0.0003631015 0.14504807 0.009434934
-0.011552021 0.14191729 0.09506598
