# .PCD v0.7 - Point Cloud Data file format
VERSION 0.7
FIELDS x y z
SIZE 4 4 4
TYPE F F F
COUNT 1 1 1
WIDTH 1000
HEIGHT 1
VIEWPOINT 0 0 0 1 0 0 0
POINTS 1000
DATA ascii
0.24526638 -0.11120398 -0.26665998
0.00072169205 -0.037121445 -0.05640437
-0.025723323 0.20534289 0.0757764
-0.16597497 0.10356334 0.010886627
-0.0021912418 -0.01979557 -0.01793844
0.00060616335 -0.168663 0.025401201
-0.08689279 0.034508303 0.06025577
-0.18218118 -0.27576026 -0.083745606
-0.15696123 -0.31129116 -0.12663065
0.035022855 -0.024177162 -0.026260918
0.11573482 -0.15127335 0.14727671
-0.021864159 0.08999736 0.097817585
-0.0522856 0.2205054 0.042873587
-0.10716957 0.2099187 -0.009675907
-0.0085810805 -0.11413814 -0.021193584
0.035547838 0.07223812 0.055693403
-0.074477665 0.013211302 0.03787832
-0.18420397 -0.2764028 -0.08547833
0.052357897 0.18097092 0.034121647
0.09198719 0.07745301 -0.0050551477
0.03134626 -0.06528059 -0.016261056
-0.12931153 0.16956758 -0.0016864666
0.13091213 0.024588075 0.0027361356
0.0075568086 -0.12413453 0.0048632533
0.045543242 0.155168 0.051280424
-0.11043222 0.13587396 0.1079493
0.036608625 -0.061686613 -0.013308936
0.13585548 -0.09884874 0.1272689
-0.062465258 -0.17074959 -0.035395447
0.13726953 -0.059288524 0.0968388
0.061523046 0.13179737 0.05949726
0.016668996 0.092261985 0.07533356
-0.060619544 0.14406279 0.09543675
0.063359804 0.0887443 0.032244887
0.12884024 -0.014995389 -0.15722159
0.005546597 0.08158926 0.07742337
0.07003465 0.15125631 -0.057745486
0.03659155 0.055429894 0.048052967
0.12952717 -0.024700427 0.060235273
0.35822633 -0.18406416 -0.36198983
-0.013876169 -0.16497405 0.014036913
0.059242576 0.067288116 0.03015152
-0.10330199 0.15072793 0.044454385
-0.14424486 0.119657695 0.022062985
-0.03784641 0.1648461 0.103980884
0.078963146 0.083569035 0.011877524
-0.08321849 0.20818585 0.018395813
-0.067890145 0.09942495 0.11665233
-0.020184668 -0.1229586 -0.026978612
-0.045787387 -0.061182566 -0.105465695
0.058258105 0.1412505 0.058803678
-0.044151604 -0.1608835 -0.022984633
-0.050303895 0.08859575 0.10671873
-0.15855148 0.0780491 0.03979409
0.12001201 0.0018002028 0.028200626
-0.1406008 -0.28625536 -0.03872955
-0.056840345 0.1764911 0.07340994
0.10836687 0.024796449 -0.0033711758
-0.0118796425 -0.066392474 -0.06349378
-0.083840996 0.021445634 0.032859243
-0.08821762 0.11172829 0.121542335
-0.038713794 -0.20211297 -0.0010993179
-0.10766149 -0.2593104 -0.029927444
-0.15797698 0.08359949 0.03594346
0.0035493993 -0.092393175 -0.02527856
-0.023160832 0.13699509 0.10838933
-0.050182696 -0.11254479 -0.06880696
-0.003867918 -0.10190401 -0.025843346
-0.1147604 -0.21191801 -0.06032088
0.06302396 -0.024727436 -0.013795659
0.09446348 0.07898348 -0.0080669
-0.16913104 0.0914268 0.017190944
0.27508333 -0.11972235 -0.28367883
0.21054067 -0.075256 -0.23013173
0.10128113 0.018476382 -0.13171451
0.057515297 0.043204166 0.026208637
0.13044797 -0.11102838 0.11924716
-0.03212066 0.20230767 0.08004978
-0.14075296 0.047877125 0.012398133
0.09034965 -0.11991446 0.09363988
0.092864595 -0.1072512 0.086195685
-0.16600347 0.09174256 0.02041801
0.008731543 -0.15357462 0.02041426
-0.031395562 -0.15258484 -0.015494068
-0.14059025 -0.28464547 -0.037735987
-0.006433846 -0.18373108 0.011228869
-0.09807822 0.035515 0.051203344
0.021789469 0.21952753 -0.030927163
0.09649453 0.07384851 -0.01006472
-0.0449577 0.14367937 0.11318667
0.0053089447 0.17961712 0.06341042
0.0228598 0.18050572 0.04095814
-0.09940974 0.028553551 0.034916908
-0.026416434 -0.18990627 0.008736558
0.119849525 -0.12940846 0.1038723
-0.113932356 -0.20643319 -0.06383603
-0.11767809 -0.19314116 -0.07876073
-0.060145132 0.23348548 0.023620745
-0.0011429909 0.18260798 0.072912596
-0.13454726 -0.26575127 -0.038802
0.11706102 -0.030569384 0.051102057
0.043307863 0.07906192 0.049333677
0.07483569 0.14688408 -0.05846524
-0.096487574 -0.17143954 -0.07272151
-0.11790202 0.12344628 -0.0064548673
0.048448935 -0.038255326 -0.01908097
0.085393146 -0.03882478 0.022518318
-0.0033961877 0.078777984 0.08156655
-0.032996222 0.2191229 0.06547098
-0.08519657 0.030682793 0.056078967
-0.031702578 0.19395837 0.087270215
0.03960106 0.15032649 0.048580557
0.0025936824 -0.06528711 -0.048271943
-0.019757852 0.014094158 0.071096145
-0.13190246 0.0815754 0.06661574
-0.06531331 -0.013181501 0.03348061
-0.05861212 -0.21834251 -0.0135369
-0.042412918 0.17009866 0.09464673
-0.07819214 0.07732333 0.111395694
-0.15748784 0.05881769 0.009806562
-0.13999395 0.066395216 0.06988686
-0.051100463 0.21775948 0.04641464
-0.021952104 0.18236466 0.09323138
-0.0034836817 -0.0579497 -0.06097528
-0.051078483 -0.2013011 0.0019340416
-0.079634435 0.23280679 0.0024683287
-0.051642217 0.1734618 0.081649154
-0.09963377 0.10136377 0.08653837
0.078926064 -0.007421981 -0.010088468
0.0138610285 0.1131896 0.07933396
-0.15149459 -0.28961596 -0.17510603
0.05429709 0.020783223 0.014851123
0.026505096 0.16906933 0.04503718
-0.01145104 0.046112154 0.07604443
0.2696888 -0.09950883 -0.28702375
-0.14368242 0.099588074 0.03892594
-0.040452268 0.15158367 0.11180916
0.1347731 -0.052737918 0.08875946
-0.096667476 0.08805486 0.10060891
-0.12868725 0.17530301 -0.005630988
0.07682229 0.001866804 -0.011648221
0.10605752 0.101205975 -0.03927559
-0.1037312 0.06668351 0.096654154
0.03334912 0.05148907 0.048116505
-0.023561504 0.09201081 0.10050583
0.13051835 -0.10621334 0.12728405
-0.016263738 0.22379752 0.00794071
-0.13885988 -0.26925057 -0.040773105
0.22773165 -0.090515226 -0.24415265
0.05777969 0.16335976 -0.037648156
0.023617607 0.16730009 0.049237553
0.03212641 0.04927961 0.047729902
0.002571652 -0.038243987 -0.058578186
-0.16226391 -0.34515616 -0.07777562
-0.061912607 -0.13603207 -0.062866814
-0.015441342 -0.07936633 -0.056963876
0.16219658 -0.10408 0.15177765
-0.042763863 -0.07625874 -0.089902
0.29225186 -0.15683772 -0.32656625
0.39126095 -0.19421089 -0.3854847
0.12868454 -0.11710201 0.13405107
0.11931014 -0.13306235 0.13652512
0.33224273 -0.15405226 -0.33671162
0.008138613 0.1993532 0.032789312
0.10756534 0.06445276 -0.022328155
0.02661362 0.0977761 0.07663295
0.02098396 0.048961487 0.05545039
-0.0044849557 0.14577284 0.09061629
0.0028847985 -0.05272208 -0.058113057
-0.10509202 0.22520238 -0.019727057
-0.08865726 0.037300803 0.06314933
-0.010765735 -0.049976405 -0.07553443
0.13909203 -0.03513254 -0.17290404
-0.18113574 -0.31750515 -0.051352788
-0.17448491 -0.26112458 -0.08701634
0.0261963 0.14024687 0.062429458
-0.08108532 0.1825552 0.013263938
-0.03463696 0.15213464 0.112528004
0.043504708 -0.08024232 -0.010677227
0.35534933 -0.16825052 -0.35444352
0.08791029 0.11032391 -0.014923137
-0.1816097 -0.3198529 -0.049635086
0.10088643 0.0036295112 0.005423972
-0.1389288 0.13464324 0.0145169515
-0.14489971 0.12797716 0.014603239
-0.009301367 0.16709721 0.09315498
0.14130056 -0.007957839 0.039945744
0.10739784 -0.1024234 0.098473094
-0.11553041 -0.21382906 -0.059632108
-0.036828216 0.15884884 0.10996669
0.11300494 -0.037678853 0.05233715
-0.025570273 0.18298948 0.09457676
0.0100480225 0.060231768 0.08856076
-0.03872889 0.114093035 0.113381274
-0.15611778 0.124105915 0.0052434388
0.07726343 -0.049267508 0.021913687
-0.047611363 0.2279657 0.042042874
0.124710254 -0.009333894 0.042439632
-0.010404475 0.20665623 0.057520624
0.11503415 0.01961084 0.008248323
-0.10922694 0.07926448 0.0937347
0.14072761 -0.14749342 0.15241072
-0.014146769 0.030328274 0.085807994
-0.11749323 0.094849035 0.07192178
0.004748634 0.21531072 -0.042801686
-0.02822879 0.12995084 0.110544786
0.07270439 -0.0040853494 -0.014063275
0.119169 0.0076760477 -0.15654646
0.084317364 0.011764183 -0.010560438
-0.042775076 -0.09101634 -0.07797514
-0.11018976 0.05236109 0.07521711
-0.12890528 0.20608284 -0.03077557
0.0009502971 -0.0018806709 0.014644255
0.039768536 -0.0057758624 -0.0007556994
-0.015695091 0.05928832 0.080192804
0.021666072 0.16870017 0.050702147
0.00065108016 0.0634013 0.07553322
-0.14051607 0.08614813 0.053324975
-0.14423184 -0.21539928 -0.09032138
-0.030009743 0.22651513 0.039426487
0.04278484 -0.0301341 -0.03195826
0.389875 -0.18509395 -0.39414367
-0.030707842 -0.20153107 -0.001970027
0.06677611 -0.028565826 -0.006512294
0.032771874 -0.011496358 -0.0066842656
0.0045016278 -0.02852715 -0.03485302
-0.12230487 0.18795836 -0.008762895
-0.04107343 -0.06862511 -0.094195545
-0.11752523 -0.19262595 -0.07900698
0.15426919 -0.05029383 -0.19270243
-0.1065105 -0.25845572 -0.029720113
-0.081930585 0.08359201 0.10965383
-0.16715288 -0.24196693 -0.094351016
-0.001595941 -0.08632665 -0.035915636
-0.05249333 -0.00024281962 0.019289616
0.009224815 0.03946548 0.08522888
0.04407284 0.08933449 0.050986554
-0.13013335 0.011002612 -0.043373752
0.16347758 -0.05916071 -0.20421942
0.37315074 -0.17870724 -0.38128075
0.02010564 -0.089032926 -0.014966336
-0.17152096 0.09464577 0.0119254915
-0.002103991 -0.015832385 -0.010245385
0.097114064 0.03793377 -0.013626004
-0.14194103 0.19713359 -0.038051028
0.075574346 0.13901857 -0.024461329
-0.014901345 0.18466166 0.088462986
-0.1026111 -0.21750598 -0.04227166
-0.097342946 0.07156982 0.103246346
-0.146904 0.10424776 0.03156912
-0.12846805 -0.2343811 -0.057411544
-0.033467785 -0.124804996 -0.04027614
-0.10474385 -0.19623543 -0.061854906
0.021961104 -0.08523362 -0.0138109
0.009175964 0.076944925 0.07406884
-0.073719665 -0.1981176 -0.025786169
0.17585985 -0.06928984 -0.21702924
0.20924057 -0.060960013 -0.22815679
0.10952542 -0.08696173 0.08833319
0.04410197 0.0685498 0.046020795
0.008831641 0.054761942 0.089140795
0.04162307 0.17816183 -0.05637458
-0.010799714 -0.146046 0.0021497929
0.07335558 0.111946695 0.008054968
-0.1999948 -0.28440526 -0.09658731
-0.02917359 0.2149864 0.06583867
0.12200432 0.03513439 0.003150113
-0.1614159 -0.30683732 -0.12737207
0.036266197 0.025007507 0.028610762
-0.04264239 -0.013907017 -0.036301564
-0.16483231 0.11484282 0.0030334704
0.039936937 -0.023028642 -0.024654927
-0.039044645 -0.12984888 -0.042405684
0.06746148 0.024543198 0.008641282
0.048173264 0.09972557 0.08047681
-0.1549571 -0.290908 -0.041176528
0.028253546 0.014396139 0.021326616
0.047536552 -0.061023667 -0.0016769357
0.36627707 -0.19018453 -0.36908063
0.013809336 0.0023720057 0.014881519
-0.028562814 0.079325035 0.09529695
0.0051954486 0.10723095 0.08509555
-0.15079306 -0.2866999 -0.03994423
-0.0753672 0.11297961 0.10416201
-0.1295722 -0.27917507 -0.03687604
0.019385185 -0.021985801 -0.022084342
0.035812456 0.048775792 0.044830505
0.050647642 0.11860758 0.07481668
-0.14258316 0.16486652 -0.0126615
-0.013402996 0.098892026 0.09638142
-0.066235654 0.14788665 0.08608984
0.020426301 0.18015185 0.044814024
0.17793643 -0.07073563 -0.21880053
0.04580879 0.19734244 0.017455956
-0.12175279 -0.26451832 -0.029600427
0.06022344 -0.033878308 -0.009510625
-0.10977141 0.012954739 -0.006612445
0.13395038 -0.13093431 0.15110534
0.053071566 0.16350928 -0.001540401
0.06161534 0.14765604 -0.0024137713
-0.09987754 0.12098142 0.13175055
0.10638254 -0.0074825636 -0.13773252
0.014172141 0.20361929 -0.008155642
0.05921431 0.16808593 0.04071369
-0.14979027 -0.29091066 -0.176537
0.12210569 -0.1038883 0.11603568
-0.026443811 -0.014865531 -0.018525185
0.16282073 -0.09289543 0.1452582
-0.06753834 0.20302321 0.040033005
-0.06425849 0.14875922 0.0875854
0.33085808 -0.17358643 -0.34381935
-0.05537158 0.08055909 0.10371165
0.22550656 -0.096914 -0.24901369
-0.15286435 -0.277945 -0.049333632
-0.090338126 -0.21488163 -0.030728348
0.09162136 -0.051311206 0.039554786
-0.029382074 0.10707892 0.10939819
0.09031513 0.11675073 -0.021765132
-0.13243812 0.16037121 0.0015223062
-0.07968128 -0.0138134565 0.029866962
0.031937715 0.1152948 0.0683886
0.12753627 -0.02783083 0.060550697
-0.063455805 0.054803208 0.08641655
-0.04651249 0.11670435 0.11501103
-0.059015542 0.03265124 0.06619687
-0.047368005 0.16896129 0.09004926
0.14341395 -0.0904584 0.12889749
0.36427063 -0.17477702 -0.36677745
-0.04667293 0.1387313 0.11527989
0.09245737 0.027876953 -0.013363422
0.046163995 0.10294941 0.07927368
-0.13890164 0.14468466 0.007765369
0.11487075 0.06979237 -0.03127423
0.055221222 0.1063755 0.038587082
-0.03825988 -0.09115327 -0.07283685
-0.05798098 -0.21027744 -0.005685406
0.008963794 -0.0974602 -0.015150118
-0.11326556 0.20729144 -0.014338455
-0.046475172 0.018274486 0.059565548
-0.084289506 -0.2136272 -0.025008164
-0.017949354 0.02716124 0.08413998
0.02111914 0.13949445 0.06865236
0.006864434 -0.039347555 -0.05661353
0.1027202 -0.09177034 0.08464573
-0.13313045 -0.2138093 -0.079246074
0.046420153 0.17362592 -0.037475582
-0.10013233 -0.25616136 -0.030363858
-0.0037981353 -0.03520091 -0.05990959
-0.07060159 0.094663225 0.11390841
-0.13338253 0.11377439 0.038917862
-0.020182569 -0.15382132 -0.002007889
0.13612866 -0.13339122 0.15551871
-0.045137405 0.10719682 0.11553318
-0.022803802 -0.028089333 -0.08116159
0.18797162 -0.039032903 -0.21587914
-0.11177285 0.10010773 0.07403717
0.05524392 0.046353664 0.029292399
-0.13003312 -0.2417141 -0.053221706
-0.1320646 0.20637809 -0.034532484
0.09237065 0.06107954 -0.0026827045
0.022906922 0.1963031 -0.0056968792
-0.1349403 0.067619815 0.07452343
0.08175862 -0.030523913 0.01175565
-0.10398788 0.007989326 0.0038447555
0.020842606 -0.0058749705 0.0016183045
0.01941841 0.07731946 0.085170776
-0.09052231 0.0764711 0.104870915
-0.06866353 0.105895974 0.117357306
0.016691692 0.16194887 0.06277819
0.31361178 -0.15167324 -0.32191107
0.10580864 -0.041340284 0.04728636
0.045636293 -0.06635736 0.0005224851
-0.01905346 -0.12352316 -0.025262343
0.008219038 -0.016556202 -0.011600032
0.36056674 -0.18541205 -0.36427182
0.026602805 0.059400197 0.057387885
-0.1472977 -0.34166193 -0.08819394
-0.014017934 -0.16286436 0.012172468
-0.030173935 -0.18368872 0.01102948
-0.086668886 0.19002557 0.023371667
-0.08798376 -0.21594252 -0.027248815
0.09665742 0.1123103 -0.11281804
0.0639079 0.033622626 0.016312303
0.046910178 0.052413024 0.039024357
-0.13423365 0.08475076 0.06145083
-0.059689842 -0.2231307 -0.018232085
-0.04677277 0.14076847 0.1135205
0.22403042 -0.10182316 -0.25661236
-0.07715542 -0.1843848 -0.04072171
0.058772 0.13458668 0.0615628
-0.10253572 0.080651455 0.10006349
-0.10306061 0.22607341 -0.018169751
0.06830025 0.064534 0.020183079
0.020702215 0.06840572 0.09005292
0.07602468 0.09025608 0.0133538265
-0.15292189 0.13634047 -0.0010957477
-0.12682292 0.03646339 0.03099507
-0.08750793 0.21070428 0.011582167
0.16584581 -0.053641167 -0.1955442
-0.044028208 0.18107489 0.08396822
-0.009177106 0.0926568 0.09128608
-0.06287013 -0.009700982 0.039127838
-0.11441134 -0.0022299278 -0.00067875214
-0.16075096 0.079188496 0.036423247
-0.13321255 0.020900609 -0.039142396
0.09575759 0.036533993 -0.013469745
0.36580303 -0.17954685 -0.36434144
0.08250773 -0.003187199 -0.009526286
-0.025715105 0.12441478 0.107264325
-0.1638228 0.0905868 0.023781102
0.02462146 0.1832144 0.03135927
0.0565511 0.14740847 0.016946768
-0.09121863 0.13312894 0.11389221
-0.044562392 0.14515732 0.112431265
-0.028719056 0.17155907 0.10306138
0.0006700675 0.15353468 0.08743508
0.09944783 -0.042145032 0.04085417
0.0316802 0.18753497 -0.0431393
0.06909641 -0.0045812107 -0.0124652255
0.25849512 -0.12933327 -0.2912484
0.09330197 0.03492971 -0.012557385
-0.16893359 0.077196114 0.02257992
0.049874905 -0.0643568 0.003623549
-0.02487159 -0.13514845 -0.022336043
0.05616172 0.1423363 0.06091032
-0.10880463 0.15337181 0.084713794
-0.058604483 -0.007564826 0.043107618
0.007844295 0.020917542 0.036221348
-0.11610625 -0.23171133 -0.04580619
0.12592752 0.028536713 0.0066033914
0.2537851 -0.11442033 -0.26987472
-0.0034383908 0.08406422 0.08423891
-0.15629247 -0.26044628 -0.08982272
0.054650646 -0.052048277 -0.0010163782
0.05657495 0.11894159 0.031815775
-0.049979158 -0.14376327 -0.043324154
0.16174665 -0.095576994 0.1479953
-0.0034092923 -0.124947965 -0.0066896444
-0.16055605 -0.2374294 -0.09067593
-0.03520867 0.14955983 0.113432914
0.121144496 -0.13186373 0.13759789
-0.15521595 -0.30029175 -0.044064604
-0.08987923 0.08215113 0.10602634
0.017994812 0.00644612 0.019562155
-0.022413444 0.0027828256 0.025786592
-0.16173655 -0.3109593 -0.117129244
-0.030423624 0.22632241 -0.017126327
-0.035740994 0.0733795 0.09409464
0.06820655 0.14304715 -0.012190846
-0.01888676 0.16057123 0.101026684
-0.08440623 -0.179001 -0.05315147
-0.059439845 -0.2188803 -0.013918684
0.36632434 -0.19009545 -0.36918667
-0.15802915 -0.3058631 -0.12971318
-0.14847933 -0.29509702 -0.1720162
0.001137186 0.111797936 0.08845656
0.09095875 0.060634393 -0.00089645124
-0.055407863 0.055490546 0.08893836
-0.099767275 0.103396304 0.08474533
0.09556644 -0.050577193 0.043354113
-0.056056023 0.06524834 0.09502805
0.059963774 0.13776274 0.05842345
-0.012618052 0.09002388 0.09291936
-0.0028385145 -0.02412407 -0.026343146
-0.13879983 -0.23617047 -0.0674686
-0.026970673 0.14287257 0.11204906
0.07644056 -0.018872013 -0.003593006
-0.16309008 -0.3124528 -0.049783874
-0.072360255 -0.20074493 -0.022146925
-0.1293033 0.048192896 0.05011925
0.005287996 -0.10646799 -0.011955888
-0.08062099 0.23305719 0.0011669704
0.019446371 0.20490415 -0.018016428
-0.007526915 0.19564 0.067276746
-0.16636117 -0.23825058 -0.09647543
0.010324501 0.20661183 -0.026438534
0.17000057 -0.05549338 -0.19753495
-0.11239002 -0.0029083802 -0.02729081
0.016315062 -0.15148759 0.00971385
0.00055593625 0.1352674 0.089289196
0.023095785 0.13477997 0.06855565
-0.029289559 0.0763715 0.09238782
0.2857809 -0.11584967 -0.29726252
-0.07087529 0.109077 0.11232139
-0.1366178 0.034832798 -0.054205533
-0.06828642 -0.00033530564 0.05033385
0.38656074 -0.20135942 -0.38493544
-0.013059688 0.14093512 0.10140286
-0.09692246 0.1896584 0.0046379413
0.15166768 -0.13220422 0.14993156
-0.13417338 0.054850783 0.05727027
0.28492808 -0.11885326 -0.29464194
0.051651545 -0.056863457 -0.0004601249
0.09048703 -0.009703359 0.004630461
0.0059344578 0.09240006 0.08223381
0.010755958 -0.00764817 0.0046795346
-0.1351818 -0.25946206 -0.04459648
0.062087636 -0.07646424 0.002785573
0.07835683 -0.005234084 -0.012492503
-0.05584929 -0.14097673 -0.052114993
-0.109149456 -0.22066362 -0.04699746
-0.13787076 0.15819274 -0.0020149741
0.075280555 0.0850968 0.016971875
0.04838378 -0.06941719 0.006057
0.12963717 -0.1293568 0.14502631
0.029113773 -0.07223972 -0.013117043
-0.17067058 -0.25252777 -0.089723535
0.062969655 0.059143435 0.024384584
-0.15183698 -0.2929692 -0.04030869
-0.06539726 0.16737558 0.07125667
0.024335127 0.16758682 0.048274565
-0.059048455 0.083204836 0.10670544
0.35925913 -0.18610795 -0.36225513
0.23260172 -0.1009023 -0.25364494
-0.07121698 -0.1577784 -0.05563457
-0.008957644 0.13169749 0.09758859
0.3030359 -0.12773973 -0.30742165
-0.021831833 -0.08459532 -0.059849408
-0.10606044 0.007039539 0.0023054625
-0.16684937 -0.34245265 -0.0740722
0.12073592 -0.04307893 0.06531462
0.10518692 0.100126 -0.03738901
0.10043723 0.04360515 -0.012801556
0.18658009 -0.059874773 -0.20757577
-0.10659401 0.09710288 0.082235
-0.0002166967 0.22382526 -0.070557356
-0.091165274 -0.18002358 -0.059850488
0.1362244 -0.0066032363 0.04884862
-0.11106202 0.07634282 0.09405508
-0.061217356 0.15238144 -0.019329332
-0.13446032 0.16841507 -0.006487596
0.108245134 0.0025300183 0.014507338
-0.15488322 -0.31173298 -0.051218923
0.051435404 0.00048980565 -0.00035924691
-0.14530313 -0.31218168 -0.14765522
-0.04812523 -0.21536236 -0.012486773
-0.03570973 -0.1546457 -0.018630661
0.13677996 -0.038978335 -0.17907172
0.05157237 -0.015064217 -0.014193296
-0.13615638 0.17320095 -0.012248032
-0.1351626 0.06112436 0.06623744
0.12534638 -0.09796759 0.11485416
-0.034174137 0.067097835 0.087202996
0.019698262 0.15855926 0.06549065
0.13912371 -0.09250202 0.12577364
-0.048174612 -0.12394476 -0.057348076
-0.07807727 -0.221411 -0.012938999
-0.039571337 -0.0736262 -0.088477075
0.0511073 0.125074 0.07293951
0.26160076 -0.109209366 -0.27652007
-0.061662845 0.01824834 0.047810618
-0.1003048 0.15200213 0.04550575
-0.08489185 0.24043638 -0.011351215
-0.10484408 0.19014123 0.0039250967
0.14403015 -0.06763563 0.11111975
0.07846504 0.12033176 -0.004739488
-0.019829871 -0.18897833 0.008464262
0.0024264974 -0.046121504 -0.06396323
-0.10571119 0.14497836 -0.021963764
-0.10931 0.15788187 0.052685693
0.06160007 0.1749079 0.03083503
0.14260784 -0.067351595 0.10930616
0.01899787 0.11042584 0.075351045
0.16279797 -0.10356727 0.15075094
0.05359667 -0.03247977 -0.018021164
0.011954043 0.118623205 0.08121
0.087606184 0.081581704 -0.0002326175
0.019959508 0.100377046 0.07374604
-0.15131162 0.07631775 0.04925676
0.049992394 -0.0032793283 -0.0028002346
-0.1325181 0.13060185 0.008444583
-0.11175266 -0.002464793 0.0036565547
-0.036063634 0.004731214 0.06564301
0.014046885 0.18714105 0.045970075
-0.090122804 0.23494756 -0.010942966
-0.09708249 -0.22796853 -0.027650941
0.019422948 -0.067250036 -0.027944203
0.036265027 0.1543924 0.0417759
-0.14665665 0.16308352 -0.015755305
-0.11877695 0.08434182 0.078992866
-0.13247631 0.037675533 -0.017086333
-0.04555988 0.07595221 0.096750624
-0.16143636 -0.2842844 -0.05374988
-0.09425443 0.13292767 0.12154678
0.0306672 -0.08756033 -0.021116484
-0.057145514 0.103473745 0.11536975
-0.0013849438 0.008541516 0.023776788
0.015637198 -0.025239227 -0.028417313
-0.07889124 -0.2373826 -0.024334237
-0.004582322 0.20155287 0.05574325
-0.13752574 -0.22439282 -0.07557819
-0.017156534 0.21481867 0.054801293
-0.010282279 0.12213044 0.09768863
0.021616803 0.18333077 0.03763974
-0.006181647 0.15739001 0.0928971
0.02208492 0.096228436 0.07284231
0.3320061 -0.16717125 -0.33529413
-0.028268822 0.20825423 0.074248925
-0.038398754 -0.07420467 -0.08670324
-0.02781532 -0.18746278 0.011402631
0.058182064 0.14654325 -0.11155733
-0.15467693 -0.2883957 -0.16909179
-0.11973663 -0.2058961 -0.07073417
0.018190417 -0.11399362 -0.011865096
0.3350882 -0.16081911 -0.33700097
-0.019791663 0.010847035 0.0689675
-0.0013739038 0.062487975 0.0740172
0.37866816 -0.1811408 -0.38944843
-0.026474457 -0.025983883 -0.07660029
-0.103310585 -0.23816854 -0.026334144
-0.07991057 0.057067145 0.08988902
0.05140505 0.16045369 0.05353134
0.08628149 0.016898457 -0.00961996
-0.09483548 0.19364083 0.010967253
0.2116789 -0.08203871 -0.22939077
-0.024515864 -0.08496061 -0.06254272
-0.038705435 0.19406867 0.07938257
-0.08562545 0.06789145 0.10182231
-0.05161202 -0.21129954 -0.007844535
0.04117588 0.08874671 0.05382591
-0.017758578 -0.017596938 -0.013746194
0.03567674 0.068184935 0.054598108
-0.064211816 0.1647083 0.07473469
0.011613453 -0.1506922 0.01527813
0.13809036 -0.06849566 0.10520169
-0.020592634 -0.07044688 -0.06991604
0.12466778 -0.07091564 0.09221291
0.0674638 0.021069188 0.0066689095
0.36102086 -0.16915546 -0.36273465
-0.05847737 -0.15344867 -0.044951674
-0.11802024 0.101527005 0.06593249
0.05526191 0.079362 0.03711218
0.030028015 0.14261913 0.05847174
0.030906796 0.09328044 0.08505076
-0.108815745 0.014477146 -0.00677909
-0.12803484 -0.1974241 -0.08682796
0.074945465 0.042356893 0.008083092
0.060764536 0.13403143 0.059316937
-0.15802884 -0.34680796 -0.080638625
0.032667197 -0.007385471 0.00027881554
-0.013971056 0.018434806 0.039258577
-0.04086326 -0.050153993 -0.10890497
-0.16744198 0.108299844 0.005421186
-0.04148522 0.063143186 0.08929409
-0.13705005 -0.2507364 -0.05373618
-0.055577002 0.14709833 -0.008774141
-0.035793412 0.05026634 0.08019759
0.02294479 0.04795282 0.05348787
-0.15712714 -0.26888973 -0.0883361
-0.119616985 -0.21130075 -0.06622805
-0.054857887 0.24137607 0.0007167476
0.1331593 -0.026844058 -0.16164097
-0.0034031705 0.054574203 0.07815983
-0.17154545 -0.2586081 -0.19314925
-0.12491891 0.034991667 -0.008744431
0.10194234 -0.03167232 0.035159323
-0.16459776 -0.26564974 -0.084254295
-0.1574853 0.06726788 0.04253169
-0.03921568 -0.0780144 -0.084530696
0.3598959 -0.20327067 -0.38270822
0.044753503 0.16960618 0.038720366
0.050114263 0.14408556 0.06533636
-0.011450594 -0.18660505 0.009295806
0.32132047 -0.16298494 -0.3297755
0.028683485 0.2062516 -0.008820602
-0.19556858 -0.2921532 -0.08539042
0.118533336 -0.06695801 0.08218052
-0.038167737 0.103427246 0.114823096
-0.11033754 -0.22014025 -0.04874398
0.1553246 -0.13321924 0.1471667
0.023588134 0.062476773 0.08648305
-0.19355471 -0.2790618 -0.09373924
0.053169843 -0.04499717 -0.008369533
-0.013488597 0.21748994 0.028244771
-0.07999056 0.12592946 0.08853726
-0.058295876 -0.21535623 -0.0106445495
-0.016237222 0.08715225 0.093728125
-0.12812611 0.099119954 0.056626957
-0.07334798 -0.20232171 -0.021970967
-0.028823094 -0.08110363 -0.07045945
-0.102717 -0.17886315 -0.07365206
-0.099062644 0.09514801 0.09220283
0.013298829 -0.16293757 0.019407261
-0.091527745 0.152037 0.037134808
-0.14006996 0.1594048 -0.005444614
-0.14571257 -0.23498729 -0.0761231
-0.06635988 0.0013698048 0.004889309
-0.002330775 0.1714156 0.08358304
-0.1692777 -0.26946482 -0.18184076
-0.10459849 -0.22065563 -0.041936576
-0.05167152 0.20992273 0.05211897
0.026938563 0.13845047 0.06199604
0.037787158 -0.015644545 -0.013202827
0.21516468 -0.090212524 -0.24093793
-0.0012490258 0.060397882 0.075847015
-0.0905981 -0.18747845 -0.053188052
0.3488864 -0.19548947 -0.3731459
-0.026429882 0.04643112 0.07457242
0.16923615 -0.049324784 -0.19095008
-0.023581801 0.07521632 0.090599306
0.08552713 0.013954265 -0.11703444
-0.010750393 0.0049866093 0.026532287
0.16011328 -0.06231409 0.098799855
0.016474592 -0.06251476 -0.0350581
-0.1489129 0.0521945 0.0015193442
-0.011975049 0.13452952 0.10003704
0.08223462 -0.012959413 -0.0019246592
-0.11139099 -0.22481264 -0.046137214
-0.12956609 0.15882814 0.068072855
0.1450723 -0.020028874 0.053929422
-0.04663709 -0.18619172 -0.00527723
-0.1248948 0.14803424 0.06666843
0.11407125 -0.0352676 0.051573426
-0.0074661756 0.12787233 0.096159406
0.14171806 -0.1407904 0.15386745
0.13848595 -0.06790468 0.10516386
-0.1293626 0.02705164 -0.039831623
0.1418514 -0.07521549 0.114825815
-0.11976043 0.15974885 -0.0087613985
-0.08477644 -0.010965284 0.025233213
-0.0110263955 0.119651966 0.09800599
0.12957871 -0.054126505 0.08409882
0.007443899 -0.105439 -0.01038743
-0.055697 -0.12862484 -0.061938412
-0.01215757 0.123457305 0.0991713
0.33782822 -0.18201503 -0.3550984
-0.14248554 -0.3053796 -0.16633825
0.043502234 -0.035157695 -0.027095111
-0.14305829 0.13094908 0.014249258
0.12298614 -0.073480204 0.092415445
-0.14584742 0.18848485 -0.03540391
-0.037908282 -0.18415278 0.002792649
0.07319337 0.13956688 -0.019595763
0.08473662 0.07817753 0.0053093266
0.12670836 -0.06091186 0.08639199
0.06156023 0.16440627 0.042753812
0.09530782 -0.07036822 0.05907728
0.04619335 0.117364325 0.077969514
0.10756207 0.065259285 -0.02238414
0.037159804 0.12859869 0.06344046
0.108535685 -0.07774978 0.07977864
0.016647412 -0.16098228 0.014153743
-0.011933675 -0.049375426 -0.077321224
-0.1517861 0.17407529 -0.03035932
-0.08792278 0.21711315 0.005935214
0.09520243 0.01470479 -0.12298835
0.019944252 -0.07026953 -0.024920996
0.11444362 -0.0958247 0.1009803
-0.12310473 -0.19808379 -0.080804415
-0.17635217 -0.3009967 -0.05683816
0.01262212 0.01610525 0.030324237
-0.12580477 0.05267166 0.07164554
-0.00053004595 0.108795874 0.08939796
0.023497496 0.049998533 0.08397614
-0.1607686 -0.27460968 -0.06083324
0.09152882 0.01978126 -0.119996294
-0.13076138 0.017613284 -0.03375334
0.034397338 0.08507034 0.086450644
-0.15220469 0.05816268 0.047611266
-0.018148009 0.078555085 0.08906041
-0.12044415 0.0930482 0.070093095
0.24206793 -0.100006625 -0.25750065
-0.04196152 0.08962237 0.10758806
-0.016211117 0.070160374 0.084117405
-0.12628096 -0.23331366 -0.055839725
-0.043677468 0.17483877 0.08940387
-0.04912481 -0.16596447 -0.024411893
-0.03094247 0.049311787 0.07809306
0.08685394 -0.0012937672 -0.006218538
0.124783576 -0.0754569 0.09601603
-0.009247989 0.13588609 0.09817708
0.06353908 0.04320267 0.02001348
-0.043454815 -0.06743418 -0.09781069
0.3622014 -0.20920406 -0.39113185
0.055561297 0.18361408 0.02564391
-0.056590486 0.108096756 0.11587509
-0.1409257 0.050474573 0.049485296
0.005279814 0.058415797 0.08472068
0.16663468 -0.11019687 0.14742656
-0.104291655 0.14389516 0.04437456
-0.047819268 -0.1427277 -0.04175671
-0.14609577 0.06584711 0.06353566
0.062306702 0.07055093 0.027775364
-0.05907996 0.23284645 0.025323592
0.13745837 -0.025998365 -0.16253363
-0.16339925 0.08438051 0.029274154
0.027542666 0.21069375 -0.013684995
-0.05823827 0.036705937 0.071382575
0.09391871 -0.039791845 0.03279365
0.15955886 -0.06957716 0.11356946
-0.048738338 0.11677119 0.11586264
-0.02383582 0.16536947 0.10382033
0.09959442 0.028284553 -0.015961064
0.26868206 -0.12488721 -0.28272185
-0.0030086518 0.15984622 0.08887566
0.109179825 -0.070316404 0.07448183
0.05239975 0.11905406 0.073587105
-0.01804548 0.014355261 0.034859397
-0.06511917 -0.0013407992 -0.0022271227
-0.025951108 0.016306495 0.07197498
-0.056569714 0.04611747 0.07473835
-0.07479968 -0.21174932 -0.015960308
-0.0029438913 0.011986688 0.029460048
0.11111466 0.036977656 -0.010166226
0.018633503 0.034952264 0.045792755
-0.054449372 0.11562137 0.1169
0.00773328 0.12611407 0.08486044
-0.18145625 -0.3365233 -0.06404498
0.10460848 -0.013175255 0.02316373
-0.049383376 -0.06445433 -0.106822975
0.08115887 0.13934113 -0.043718692
-0.0030720376 0.122083575 0.09244362
0.064261064 0.0035885968 -0.0033717195
-0.012582353 -0.032427635 -0.06492001
0.045684736 0.1279835 0.07343099
0.0825479 0.05604677 0.0058964016
-0.14467147 -0.24549508 -0.0664633
0.0434482 -0.012680883 -0.008594018
-0.12319745 0.08864653 0.07058799
0.12360119 -0.0049132346 -0.14808603
0.16418573 -0.07587274 0.11487644
0.046755634 0.00014637382 0.0016843084
0.32469213 -0.15901944 -0.33222228
-0.053217668 -0.13865581 -0.051062323
0.0076060076 0.014287047 0.03108498
-0.041081376 -0.20103317 0.00039432527
0.010227018 -0.13734737 0.010206002
-0.053685926 0.0074543273 0.060290117
-0.04945278 0.039369762 0.06814006
0.31172246 -0.13637418 -0.3197012
-0.111840636 0.14707813 0.03601477
-0.13601318 -0.33315077 -0.13222489
0.019401332 0.10667734 0.07471989
-0.028355695 0.042166106 0.07336946
0.0089719985 -0.14142457 0.013887712
-0.0033625858 0.15558289 0.09068514
-0.16568924 -0.34204817 -0.074290745
0.0416598 -0.016109873 -0.013591857
0.093064524 -0.09519617 0.076665595
0.020057304 0.1476567 0.06711435
0.07427583 0.091391265 0.015578865
-0.117619835 0.20983978 -0.021248322
-0.008642609 -0.03384188 -0.066603996
-0.124580204 0.14977714 -0.0038111927
-0.17733166 -0.26435906 -0.19493964
-0.15579474 -0.23873281 -0.08431955
-0.16173027 -0.34878314 -0.0803927
0.07227531 0.060283836 0.015085985
0.012104012 -0.110380456 -0.00598524
-0.057083536 0.23370942 0.026848588
-0.017924108 0.22011875 0.032281674
0.013344259 -0.03598602 -0.050240416
0.09041537 -0.016117299 0.009739675
-0.06502813 0.1954484 0.04895607
-0.018564807 -0.09879143 -0.044726767
0.03738657 0.15374033 0.04335292
0.11259262 -0.07627724 0.0831049
-0.06842787 0.001729947 0.048505466
-0.021943606 0.20675376 0.072446495
-0.031180123 -0.14035754 -0.025146184
-0.06216044 0.11002088 0.11749416
-0.09400707 0.064890936 0.09578729
0.089084096 -0.04922326 0.03504081
0.10503854 -0.072284095 0.071462736
-0.1912093 -0.3212699 -0.056980547
0.050651375 0.026052004 0.021416834
-0.02713194 -0.18103176 0.0122671835
-0.13271977 0.04133593 -0.003708393
0.06623236 0.15188523 -0.019443568
-0.084118225 0.02184062 0.0455875
-0.0552349 0.18361112 0.06943753
-0.04317238 0.0046859835 0.06425436
-0.053129077 0.025785316 0.059537485
0.06440806 -0.024517247 -0.012424338
0.2558798 -0.1186877 -0.27585196
0.10400224 -0.023459187 0.030808622
0.048872504 0.18397567 0.031681783
-0.104940385 -0.1921433 -0.06538402
0.37694076 -0.18915148 -0.37484634
0.11800976 -0.15643267 0.15398395
0.10155101 -0.08910438 0.08118728
0.05716721 0.058630396 0.030229699
0.02149337 0.10569917 0.073111065
0.052896537 0.12161145 0.072643034
0.13012151 0.03426222 -0.013495018
-0.057094473 0.057948492 0.0922918
-0.018144635 0.09544528 0.09886132
0.03003025 0.112260826 0.06871911
0.011087776 0.110644646 0.08112011
-0.042099915 -0.08503917 -0.08205895
0.09642387 0.002006864 0.0017671665
0.11086296 0.07779777 -0.02846726
0.3508692 -0.16452105 -0.3550079
-0.1361045 0.095537804 0.05064064
0.08718331 -0.054520454 0.037209548
-0.053608302 0.19075885 0.06546601
0.058471806 0.16437928 -0.024059234
0.06903787 -0.05754584 0.019451862
-0.17237836 0.12887836 -0.01672364
-0.15491432 -0.24714169 -0.07653637
0.079375975 -0.0730537 0.01512823
-0.07039582 0.010976471 0.038833782
-0.08373499 -0.19965445 -0.035694882
0.028502598 0.18744598 0.013910347
-0.06372864 0.046220474 0.07833022
0.08748039 -0.037831586 0.024038875
0.1481017 -0.068592526 0.11642771
0.10473815 -0.040765855 0.045628842
-0.020614127 0.0017142082 0.023721565
-0.055030126 0.029389288 0.063383214
-0.017911693 0.1296811 0.10391448
0.027086277 0.19809274 -0.0039982838
0.25131574 -0.10237501 -0.26803303
-0.03532086 0.15392548 0.11297242
-0.02181271 0.06748615 0.08465036
-0.12554139 0.13232005 -0.0012963252
-0.15481217 -0.27769914 -0.18887769
-0.05803205 -0.16077407 -0.038529545
-0.098001115 0.21277428 -0.0017769878
0.05795767 0.010304193 0.005386499
-0.14492254 -0.21441634 -0.09188592
0.12839416 -0.1315053 0.14538036
0.113207415 0.07638366 -0.053844772
0.051600058 0.020279681 0.015780045
-0.1537807 0.14685993 -0.010562639
-0.1323072 0.15819022 0.0011370208
0.007597064 -0.16006546 0.025178459
-0.004044903 -0.005784069 0.009248559
0.20493165 -0.08349541 -0.23281898
-0.05743496 0.010017477 0.054041605
0.029694164 0.15139842 0.057489496
-0.005543525 -0.024819536 -0.03325011
0.11906487 0.025982184 0.0075820526
-0.023151891 0.02794849 0.07770982
-0.117883384 0.07204102 0.08993943
-0.03297562 0.07895053 0.09555022
-0.06277665 -0.0015858726 0.05125233
0.08493827 0.108244576 -0.00924376
-0.10107778 0.124371044 0.12767167
-0.013334692 0.14551637 0.10168348
-0.10976049 -0.22643726 -0.04300677
-0.04129578 -0.08848382 -0.07837716
0.10383593 0.047738712 -0.016370026
0.009221651 0.0937641 0.08015594
0.015281426 0.040311728 0.0509264
-0.034535844 0.13016807 0.114098184
0.012996705 0.16119039 0.071672395
0.080785975 0.13882938 -0.040730838
-0.18978687 -0.3038626 -0.06947928
-0.057481736 -0.010043521 -0.071917266
-0.03934393 0.15037978 0.114017084
-0.0029815189 -0.13134642 -0.0010367234
-0.06003174 0.1285592 0.10863414
0.015494108 -0.10573117 -0.012671157
0.1503393 -0.08180506 0.1296084
-0.07191927 0.20763747 0.03142125
-0.07558869 0.08009075 0.11136983
0.021108754 0.050794434 0.05640191
0.012261789 -0.1490798 0.013629271
0.08272064 0.028907038 -0.0031063785
0.0025811095 -0.014383566 -0.007410835
0.012020887 -0.031818688 -0.04120579
0.1507132 -0.047138907 0.09170478
-0.010314502 -0.030555818 -0.043475524
-0.16980086 -0.31428277 -0.049378343
-0.044721216 0.17545235 0.08774541
-0.0027704493 0.21195759 0.016742613
-0.022670671 -0.19159873 0.006389057
0.065829 0.07456618 0.027081722
0.090034544 0.106177084 -0.01631603
0.04708233 0.17262928 -0.045197774
-0.17436554 -0.33081326 -0.06324485
-0.120605625 0.06785876 0.09029167
-0.026658665 -0.08007927 -0.068877704
-0.0733381 0.05622477 0.08744923
0.12521696 0.0053361114 0.031135395
0.0141823385 0.15966877 0.070870824
0.15843463 -0.106773295 0.15446563
0.071705684 0.084967315 0.02199471
0.009782286 0.042056885 0.055554625
0.18472117 -0.042710096 -0.20974016
-0.13375032 0.07864039 0.06693254
0.023249488 0.15711665 0.056923892
0.048048675 0.19108358 0.025013842
-0.12959783 0.21064487 -0.050576188
-0.018602435 0.14281137 0.10560095
0.102106035 -0.036334075 0.03911313
-0.0025457302 0.10931687 0.09075569
0.11258116 0.053575926 -0.021961285
-0.054017093 0.14489947 0.10211205
-0.05642303 -0.10531912 -0.08160153
-0.09236909 0.11401201 0.115072146
-0.09938652 0.12841672 0.12628204
0.28570724 -0.1134385 -0.3025289
-0.008794556 -0.078505345 -0.050259136
-0.17636088 -0.25417334 -0.09472862
0.013620053 0.060222983 0.090302
-0.14332315 0.048188504 -0.00341787
0.009155363 -0.010079221 0.0009762052
-0.023618836 -0.075269505 -0.069384
