# .PCD v0.7 - Point Cloud Data file format
VERSION 0.7
FIELDS x y z
SIZE 4 4 4
TYPE F F F
COUNT 1 1 1
WIDTH 1000
HEIGHT 1
VIEWPOINT 0 0 0 1 0 0 0
POINTS 1000
DATA ascii
-0.15361075 -0.24108835 -0.051912643
0.12091176 -0.10147295 0.06900759
0.043402318 -0.11071999 0.031919938
-0.15089723 -0.20849685 -0.044763893
-0.18232436 0.1545785 0.18286248
0.14394742 0.11488657 -0.13355045
-0.09899507 0.14143597 -0.15715066
0.12325015 -0.0024194273 -0.12111486
-0.15238273 -0.09373286 -0.07057007
-0.006626292 -0.07685192 -0.00071583275
-0.1602247 -0.07445029 -0.078736655
-0.026035415 0.08337346 -0.04549118
-0.0004376573 0.18517715 -0.21962218
0.06930943 -0.12245322 0.047552872
0.073879346 0.1679947 -0.11923856
0.03703202 0.18561427 -0.10856671
0.26755956 -0.15448529 0.13384256
-0.122229554 -0.19184682 -0.03710939
0.10302547 0.12573446 -0.10767322
-0.074302 0.05059707 -0.06268784
-0.0471826 0.14574957 -0.0697793
0.10467778 0.11307189 -0.10412239
-0.14346515 0.0019630205 -0.0869644
0.1299853 -0.011127596 -0.13409364
-0.10448112 0.12937656 0.093621485
-0.08561428 -0.02549772 -0.051780704
-0.0720072 -0.006293672 -0.04910835
-0.14888357 -0.12777327 -0.06137266
-0.15999022 -0.018944131 -0.09073732
-0.03244742 -0.026775738 -0.024677208
-0.09294766 -0.023331618 -0.055953875
0.23884642 -0.13187551 0.13514829
-0.11351964 -0.019112462 -0.06725447
0.22297178 -0.11910769 0.20789593
0.05108119 0.012903377 0.008803374
-0.005822831 -0.13518545 0.012425669
0.152518 -0.09852462 0.08431039
0.012225706 0.11240962 -0.032526724
0.06440463 -0.13483544 0.047781754
-0.15065108 0.1647798 0.1906558
0.05978951 -0.08426736 0.034412708
0.0034409743 -0.082652375 0.005629965
-0.16224705 0.17467926 0.20063661
0.047924206 0.13673991 -0.042086165
-0.07357813 0.09149082 -0.07125076
-0.27065986 0.19036326 0.4091866
0.23144047 -0.1250863 0.12992913
0.12820357 -0.1290899 0.0787163
-0.07358813 0.123411685 0.041158363
-0.07438818 0.11878114 0.0330616
-0.0929519 0.06888601 -0.076090105
0.025375286 0.073009945 -0.017289558
-0.07510226 0.040970895 -0.06098952
0.107237756 -0.14870967 0.072421946
0.01506359 0.041841008 -0.015687328
-0.03661152 0.02585621 -0.03826944
0.04310197 0.020165306 0.0031917964
0.25044218 -0.15873139 0.1725479
-0.11986274 -0.10531574 -0.05163367
-0.14557469 0.1606977 0.18135592
0.1101098 -0.0748057 0.057735298
0.18328655 -0.19127673 0.12008527
-0.15851276 0.17282884 0.20202115
-0.08799858 0.11092 -0.2497104
0.109704904 0.16474056 -0.16171163
0.08714735 -0.102922775 0.052288927
0.20709121 -0.12816636 0.11831683
0.08866025 -0.029458698 0.03701241
-0.00018487404 -0.05725229 -0.1686873
-0.015396342 -0.025786107 -0.13037078
0.11651644 0.16250668 -0.15778719
-0.1317145 -0.1864727 -0.03989421
-0.12573782 0.15723227 0.13997015
-0.07151378 0.08429087 -0.06863726
-0.11303622 -0.06629097 -0.056709986
0.023309158 0.06512131 -0.016609807
-0.24029101 0.18835884 0.37447122
-0.28180695 0.20109473 0.37849107
0.020282796 -0.059382007 0.009046527
0.035913773 -0.11683756 0.029477423
0.09734456 -0.082833394 0.053047452
0.012013977 -0.10660191 0.015184307
-0.12980244 -0.1274062 -0.051825635
-0.18152468 0.16108353 0.25311422
-0.16650455 0.1522124 0.2259069
-0.08306324 0.079278916 -0.07336978
0.12071916 -0.08931338 0.066255696
0.019215599 -0.030255215 0.0021485784
-0.26470476 0.193973 0.34415692
0.13083784 0.10210259 -0.13737352
-0.09754267 0.15507142 -0.09722342
0.023054462 -0.048257977 0.008016155
0.17921525 -0.1406773 0.10698378
-0.09912906 0.13059446 0.086464114
-0.11859751 -0.18763857 -0.037305404
0.14612994 -0.16619183 0.095861435
-0.0123257255 0.017929643 -0.024285892
-0.10269271 -0.05077359 -0.054879215
0.06279742 -0.017428486 0.021336999
0.15866381 -0.18358737 0.10598331
-0.075425304 0.102974325 0.010781483
-0.07407441 0.14318648 -0.20141509
-0.19849011 -0.19782609 -0.07110599
-0.1647375 -0.20719913 -0.05203015
0.119112246 0.01136107 -0.12347777
-0.06129599 0.08697311 -0.06406768
-0.1555112 0.15522821 0.20499977
-0.11919147 -0.14923339 -0.0417062
0.012189021 0.0777051 -0.024968117
0.07556897 0.0197964 -0.08436954
-0.09150677 0.114207454 -0.085256204
0.0040069595 -0.15557007 0.0033082284
-0.11604263 0.04754277 -0.08308034
-0.010046234 0.026229948 -0.024947742
-0.105640866 0.14374398 0.1020748
0.15518714 -0.17247106 0.101802
0.24960072 -0.15430905 0.17614348
0.07185571 -0.020361107 0.02654756
-0.1104836 -0.16359563 -0.045483153
-0.019113231 0.025180506 -0.02929343
0.18081108 -0.12962928 0.10537682
-0.12827533 -0.102404505 -0.056513526
-0.20700827 0.16748995 0.30144992
-0.1642722 0.1389144 0.17698798
-0.16916613 -0.17901562 -0.06041781
-0.1042919 0.031838465 -0.07372294
-0.11626109 -0.1212639 -0.050133336
0.21872453 -0.20877478 0.19152214
0.13269395 0.13077025 -0.14269614
0.115391955 -0.1242361 0.0711926
0.066974275 0.012016256 -0.08628333
-0.06649842 0.10382168 -0.07037078
-0.116039015 -0.03252864 -0.06559594
-0.018897934 -0.03132335 -0.25614166
0.03798868 0.044893507 -0.0047871075
-0.054908413 0.18540953 -0.14496976
-0.01122748 -0.015696961 -0.016389633
-0.24098413 0.20396267 0.36965922
-0.11647137 0.049606394 -0.083747335
-0.05131614 -0.017468309 -0.16356947
-0.126479 -0.03824601 -0.069615
0.06838275 0.10030612 -0.040078264
-0.07166089 0.055289324 -0.062379383
-0.16152515 -0.23459505 -0.04442795
0.06964843 0.046623245 0.0035163618
-0.09979006 -0.055650894 -0.052349467
0.12865262 0.15132332 -0.24469851
-0.018729322 0.16207124 -0.058987435
-0.045407183 0.12464316 -0.06427562
-0.0043213894 -0.041027855 -0.007374391
0.20109464 -0.19426744 0.12972319
-0.13217089 0.061153978 -0.09418977
0.07827847 -0.100534186 0.04729257
-0.10143214 0.1422219 0.08185233
-0.12710553 -0.12936366 -0.05003737
0.070601895 0.036512386 0.013238788
0.09657962 -0.12834057 0.06259725
-0.049553152 0.0971188 -0.019437384
-0.024000948 -0.04919973 -0.015519631
-0.17480384 0.1522333 0.2324139
-0.115593724 0.14410195 0.12339728
-0.0046765916 0.020435035 -0.020973323
0.060495157 -0.09835212 0.037843708
-0.068981305 0.019781852 -0.05327472
0.061544273 -0.106611826 0.040176567
0.0791285 -0.04748195 -0.21560262
-0.049699176 -0.033282798 -0.031960458
-0.15731202 -0.111926466 -0.06908504
0.15566052 -0.12415888 0.09149289
0.06891957 -0.100040205 0.042462565
-0.17526653 -0.11529799 -0.07740755
-0.086693324 0.12614675 -0.2523765
-0.07822857 0.16598246 -0.08986108
-0.09799387 -0.054649055 -0.051662005
0.08348338 -0.0009034603 -0.11491386
-0.013990087 -0.03134141 -0.14744508
-0.056098137 -0.0142408665 -0.18329623
0.015247378 0.1601616 -0.041428134
0.21514812 -0.19609968 0.20697996
-0.13505395 0.04767332 -0.09270079
0.13867049 0.13899057 -0.21733737
-0.1296612 -0.1787225 -0.04055035
0.13236213 -0.07648395 0.064486556
-0.26893207 0.20485097 0.42607608
-0.001295359 0.06214543 -0.028374426
0.14838111 0.11306148 -0.13091524
0.14755194 0.059166078 -0.11956606
0.07014514 0.16817342 -0.11060824
0.0042958474 0.19404587 -0.22129324
0.006184178 0.04085327 -0.019951455
0.07677881 0.116033204 -0.059591584
0.045445338 0.18842147 -0.14790282
-0.119860955 0.12550212 0.11186251
0.124563485 -0.11937838 0.074759595
-0.082621254 0.12737772 0.0002391254
0.1551651 -0.1420143 0.09514131
-0.16505797 0.15325676 0.22638813
0.10433484 -0.14116712 0.069310546
-0.008545032 -0.06899848 -0.0033986252
0.077549264 0.114230394 -0.060188606
-0.08842194 0.11074987 0.04502473
-0.06824135 0.12435689 0.02924352
-0.007052461 -0.03821402 -0.17630866
0.040581618 0.12921607 -0.0227057
-0.12565313 0.023475688 -0.0826747
-0.060117908 -0.00049499236 -0.044375762
0.06953979 -0.1379306 0.051048327
0.010895325 -0.060717657 0.0046018083
-0.014749959 0.17831814 -0.06052713
-0.10161583 -0.031661823 -0.058508623
-0.2112451 0.16147465 0.2558008
0.014620008 0.10647011 -0.030021874
-0.010143577 0.16956165 -0.056291014
-0.28331688 0.19918507 0.42266363
0.0996366 0.11490163 -0.09655185
-0.112841725 -0.011061507 -0.06867017
-0.0062947646 0.0007429184 -0.017490176
-0.10689017 -0.022169203 -0.06324199
0.0076302234 0.19352646 -0.077048674
0.047515262 -0.13360098 0.038990907
-0.039165314 0.16496098 -0.2344744
0.029461628 -0.021651246 0.005439604
0.014639016 -0.05013684 -0.220145
-0.0027336702 0.06490819 -0.029703062
-0.094496876 0.1324154 -0.09074022
0.09412765 -0.11715028 0.058916923
0.07920008 -0.047721114 0.03622694
-0.10467704 0.115451984 0.068046205
0.11460281 0.07061179 -0.10473567
0.039022807 -0.11073936 0.029714653
0.04421318 0.120177515 -0.020963112
0.03525143 0.1461241 -0.033843856
-0.0048675817 -0.011646208 -0.014065262
-0.023727149 -0.006243861 -0.02475993
-0.1456795 -0.057624534 -0.07507167
0.048836526 0.07846529 -0.0066437405
-0.24450588 0.20340972 0.37747833
0.16616307 -0.14039797 0.10033746
0.09921311 -0.112469785 0.060460836
0.03913877 -0.0981145 0.027016552
0.23811136 -0.21151164 0.16938621
0.24164425 -0.09492972 0.21752915
0.08033012 -0.1413149 0.05723151
0.08652593 -0.04539554 -0.21960996
0.015878472 0.07339235 -0.022164883
-0.09611201 -0.04305155 -0.053244982
-0.17132992 -0.17189923 -0.06306369
0.023400234 -0.08650855 0.01654203
0.05610478 -0.14146383 0.045041252
0.025335442 -0.062299535 0.012232715
-0.18044756 0.16827449 0.25351152
-0.17401043 -0.16344295 -0.066262014
0.2358838 -0.08074724 0.21152613
0.022050288 -0.10183066 0.01920621
0.02741537 0.0073096943 -0.0019158466
0.13057488 0.0017579285 -0.12672676
-0.011726815 -0.01708148 -0.016339296
0.15299031 -0.13287547 0.09204872
0.2525588 -0.10592696 0.19548532
0.2080817 -0.14633352 0.10283237
0.18743232 -0.1268774 0.10811682
0.15382785 0.12018024 -0.14897484
-0.13463672 0.052471504 -0.09353811
-0.16426583 -0.21507627 -0.050072275
-0.05228882 0.16648306 -0.07688273
0.13565628 -0.16523007 0.09036707
-0.0935776 0.071768954 -0.077035375
-0.038300324 0.08965608 -0.051966686
-0.15455541 -0.13135518 -0.06345238
0.09072589 0.15254894 -0.123213656
0.019366948 0.0015824974 -0.004726047
0.083154686 -0.0018382696 0.027774429
0.062075395 -0.14179805 0.048126563
0.033131808 0.1928317 -0.13643147
-0.16953667 -0.21196117 -0.05341177
0.026687846 -0.07744178 0.016221248
-0.03908447 0.16665715 -0.07025884
0.005257202 0.019424183 -0.015740456
-0.15658791 0.1717639 0.19536309
-0.031807024 0.11840774 -0.05605238
-0.15273553 -0.1278219 -0.063305534
-0.22744998 0.19011174 0.3460656
0.26337838 -0.06892404 0.1959981
0.1356808 0.06328146 -0.12645413
0.07671716 0.09119649 -0.05035612
0.08312801 0.014683165 0.008059029
0.23186605 -0.1822993 0.19774377
-0.14788769 -0.14206645 -0.057749256
0.1556504 0.08049501 -0.1301886
-0.14019014 -0.14959751 -0.05222156
-0.19232178 -0.1944307 -0.06873533
0.051470906 -0.05503716 0.0238333
-0.14515933 0.011129261 -0.08982047
-0.0684209 0.15517233 -0.08255258
-0.15609764 -0.20533521 -0.04807784
0.08237537 0.174857 -0.17770942
0.079248376 -0.13996074 0.056389976
-0.03798636 0.06377868 -0.047242817
-0.10209562 0.06406884 -0.079651795
-0.15265425 -0.10114605 -0.06908852
-0.03807133 0.006098108 -0.03469228
-0.068405144 0.09005269 -0.0683268
-0.042388674 0.15054837 -0.06840886
-0.057901993 -0.013456283 -0.16171674
0.17295556 -0.1613002 0.108328074
0.026006714 0.13142976 -0.029726231
-0.002848573 -0.031720348 -0.1287102
-0.27886185 0.19466414 0.4258987
-0.019319098 0.19767366 -0.24512959
0.053494845 -0.04603353 -0.1440531
0.24797356 -0.1644701 0.1742083
0.0019012095 -0.04386933 -0.0036148436
-0.13090059 -0.02024367 -0.07577674
-0.18184197 -0.12673402 -0.07822821
-0.03690489 0.13233666 -0.061665494
-0.26566437 0.20354988 0.35271126
0.10409007 0.033784937 -0.10592977
-0.23644467 0.16828823 0.31270742
0.054780915 0.009251983 0.011466834
0.074870095 0.117240034 -0.056914728
0.0031746686 -0.005335473 -0.011385443
-0.040417343 -0.016894657 -0.030855458
-0.2749107 0.21806057 0.42278403
0.25164983 -0.1805176 0.16005588
0.23948881 -0.22303566 0.1390404
0.082584426 -0.04964224 0.038353607
0.02968612 -0.06638299 0.015319557
0.055947226 0.07396396 -0.0020734686
-0.018168824 -0.04613318 -0.18018842
0.019499093 -0.06612516 0.01012352
0.08909911 -0.028822858 0.037095014
-0.047747657 -0.045671042 -0.195213
-0.13702917 0.0033013334 -0.08400951
-0.21296078 0.15984 0.2729218
0.010378708 -0.10341801 0.013664136
0.067901365 0.06827073 -0.039954834
-0.061939675 0.094314724 -0.02708351
0.026809502 0.21217622 -0.21389279
-0.19616188 0.1763644 0.28413603
-0.07163146 0.14409693 -0.08175422
-0.07347501 0.10378775 0.013451747
0.038306296 -0.051505648 -0.23206076
-0.088766865 -0.021917712 -0.05415295
0.08986131 0.13432215 -0.09317102
-0.04735404 -0.05039964 -0.027040066
0.22727962 -0.11990275 0.21573399
-0.20397882 0.17924266 0.2998338
0.12078732 -0.1679724 0.083463706
0.08036795 -0.088931344 0.04581346
0.06338944 -0.0032809193 0.018546682
0.04918223 0.093045086 -0.009652506
-0.17669284 0.15150894 0.23007827
-0.059954245 0.006817006 -0.045889832
-0.098963015 0.09062576 -0.25081107
-0.12922177 0.1550147 0.14838089
0.082597405 0.105723515 -0.06531435
-0.15803695 -0.18415953 -0.07571958
-0.025188763 0.12562348 -0.05428871
-0.28059208 0.221303 0.41920963
-0.21914084 0.19016962 0.32811978
-0.089885496 0.04948812 -0.07030766
0.052992478 -0.04180971 0.021713177
-0.034849852 -0.035250895 -0.024038443
-0.02194433 0.096723504 -0.046341933
-0.15315007 -0.21896197 -0.043615554
0.19959128 -0.18540028 0.12702855
-0.07835964 0.10564753 0.02213216
-0.008457081 0.08193611 -0.036308527
0.16742261 -0.13387768 0.099549435
0.057202153 0.06398425 0.000738692
0.22122295 -0.19024417 0.13900025
0.07047198 0.05545105 -0.009113096
-0.13899006 -0.21924816 -0.045875296
-0.054542582 0.13985817 -0.07220683
-0.086929336 -0.025328161 -0.052481487
0.07484181 0.04615439 -0.06322485
-0.0804102 0.1246169 -0.08193031
-0.098642856 0.12189007 -0.09053423
0.035648063 0.11348124 -0.020943025
-0.022744512 0.043572135 -0.035141148
0.041071746 -0.09258349 0.02678446
-0.15514667 -0.21495251 -0.04549843
-0.090536304 0.097726345 -0.08116814
-0.068000995 -0.021524295 -0.043761827
0.1029181 0.1967229 -0.18324842
-0.16665104 -0.055692412 -0.086074665
0.23030978 -0.20982887 0.18404521
-0.029474482 0.07618694 -0.04565733
-0.035007205 -0.03428172 -0.024329783
0.06617922 -0.052437402 -0.24007471
0.14126666 -0.13756512 0.08715759
0.101161405 -0.16661625 0.062231075
-0.16405259 -0.10802569 -0.07333746
-0.25753322 0.18894963 0.39973888
-0.13330413 -0.06727922 -0.06671999
-0.17866471 -0.09088103 -0.08445299
-0.025035108 0.060512964 -0.03999539
-0.121139675 0.077519804 -0.09219704
0.028672753 0.14680542 -0.031738274
0.094101794 -0.13824143 0.063508645
0.11010105 0.16981025 -0.16261889
0.048768036 -0.1209374 0.03685811
0.061275695 0.100935355 -0.028688366
-0.17873083 -0.18380713 -0.064197786
-0.24350694 0.1980378 0.37749538
0.1298152 -0.0065948362 -0.19209173
0.1734866 -0.1656214 0.10953942
-0.077113196 0.036026172 -0.06092437
0.047651578 0.124198906 -0.034375012
-0.15111907 -0.029450303 -0.08396747
-0.11174028 0.07462573 -0.08682269
0.11060822 -0.03855594 -0.22775283
-0.012965301 -0.026674878 -0.1333397
-0.060126275 0.010779478 -0.046841677
-0.11313811 -0.030777417 -0.06451486
0.08085172 -0.12767616 0.0545167
-0.016801259 -0.016968347 -0.018924493
0.05479818 0.13819456 -0.038935557
0.17707632 -0.111566104 0.099548854
0.059640914 0.013951095 0.01289311
-0.10227092 0.0066947304 -0.06721365
-0.0076209963 0.072789945 -0.03388954
-0.059226833 -0.041679323 -0.03493429
0.005221931 0.006177576 -0.012866265
0.009294097 -0.13727479 0.020508887
-0.12636164 -0.07890889 -0.06067832
0.026732752 0.010207378 -0.0028928036
0.09361531 -0.0052486267 -0.13083534
-0.11177363 -0.1665143 -0.041521203
0.15107346 0.07946324 -0.17992947
-0.14217424 -0.20321204 -0.041516505
0.088612035 -0.09958233 0.052298486
0.21977217 -0.19309568 0.21679722
0.09131003 0.029108984 -0.09156702
0.2425797 -0.09891281 0.21887031
0.23933125 -0.10264298 0.21804604
0.06633898 -0.15441844 0.053033497
-0.04603175 0.105831236 -0.069972314
-0.039389938 -0.047830015 -0.023582773
-0.042265754 0.050103337 -0.046416
-0.17941846 0.1710581 0.25016657
0.18803442 -0.15007088 0.11348405
0.26513377 -0.15779065 0.14689578
0.059056435 0.11832443 -0.032449048
0.07939753 0.046314888 -0.06898668
-0.086686224 0.006197661 -0.22618371
-0.19917572 0.18914807 0.27992064
-0.12075843 0.03754077 -0.08327585
-0.014883319 0.14482653 -0.053281922
-0.149926 -0.16519691 -0.07179648
-0.23351416 0.17774326 0.34918615
-0.0412565 0.17949603 -0.07415782
0.11851902 0.1204834 -0.12971476
0.23268904 -0.12591705 0.21977636
-0.0032061406 -0.012982044 -0.0129352175
-0.06796798 0.048147593 -0.058956698
0.145156 0.12325009 -0.13476667
0.10404751 -0.14563267 0.070140816
-0.26099882 0.2041621 0.34380192
-0.12408495 0.10374522 -0.12166802
-0.17241614 -0.18207817 -0.061388817
-0.17021956 -0.1434414 -0.06871646
-0.027808614 0.01286915 -0.030992432
-0.109977886 -0.14209978 -0.05526326
0.03453589 0.034672897 -0.0042977263
-0.026337288 0.11242188 -0.051986158
0.08103175 -0.16386105 0.052906852
-0.11146118 -0.18051109 -0.036536872
0.26021904 -0.059002608 0.20632678
-0.16420524 0.17523026 0.209754
-0.11855651 -0.08211259 -0.06100726
0.20004627 -0.10245446 0.10914845
0.017365366 -0.024245756 -9.715024e-05
0.122696 0.10445914 -0.13041772
0.1019559 -0.06397185 0.05125599
-0.20745686 0.19578363 0.2947389
0.08242717 -0.05195922 0.03878025
-0.0197638 0.20155075 -0.09626995
-0.10148472 0.124988124 -0.0926445
0.032050468 0.097297885 -0.019224707
0.06908497 -0.009057619 0.022681642
0.043400012 -0.03865068 0.0161837
0.10742359 -0.0819414 0.05793811
0.1687173 -0.13971289 0.10147662
-0.11192552 -0.1257479 -0.057671886
0.24887906 -0.15032502 0.14423835
-0.100197986 0.03267274 -0.23878117
0.15756582 0.11188361 -0.22811122
0.14042369 -0.17291023 0.09444928
0.010921925 -0.14039022 0.022010418
0.10632819 -0.056332562 0.035086658
-0.075595476 0.117871515 0.035967667
0.06892295 0.01771141 0.016755307
0.060760755 -0.07708481 0.03333432
0.10535698 -0.021205327 -0.12518099
0.22310188 -0.1311937 0.21609138
0.03191769 -0.045841005 0.011960306
0.23757999 -0.15082712 0.20683835
0.14955322 -0.122346275 0.08801583
0.03387544 0.011176673 0.0004990721
-0.13930528 -0.20140038 -0.040464602
-0.04027606 -0.037204143 -0.02634984
0.067549154 0.004442007 0.018959288
-0.26878643 0.19046438 0.40906948
-0.20373188 0.1696035 0.2954187
-0.13606282 0.025490513 -0.088366546
0.03611185 0.09973777 -0.017708322
-0.10996267 -0.07816038 -0.057720467
-0.024559272 -0.04706091 -0.18320999
-0.11744905 -0.11470747 -0.05022135
-0.021258716 -0.05930965 -0.17887045
-0.16816926 -0.19346306 -0.056760374
-0.054955885 0.12774467 -0.012541745
0.1238042 0.08220734 -0.12404566
-0.13374256 0.030409683 -0.08827013
0.012709768 0.05995434 -0.020829463
0.20303819 -0.20687972 0.11274419
0.03733862 -0.10976183 0.028651582
0.07610229 -0.11132323 0.0485503
-0.10845164 -0.16273367 -0.050214544
-0.001926527 -0.042584617 -0.0058264793
-0.11938147 -0.19648334 -0.046878338
0.047821935 -0.11071912 0.034149807
-0.08714952 0.075541526 -0.074615635
-0.16123629 -0.10418362 -0.07275546
-0.12253935 -0.11791072 -0.05023393
0.07306246 0.08940572 -0.043721694
0.15945327 0.074083604 -0.19756952
0.10848461 0.18394433 -0.16652016
-0.19265933 -0.20458029 -0.066689454
0.08469955 -0.11166002 0.0529613
-0.27268174 0.20171866 0.42717567
-0.13617519 -0.10122029 -0.06075822
0.024451695 0.014050146 -0.004883108
0.08830507 -0.13612293 0.06012148
-0.035908677 -0.027296549 -0.16865316
-0.08025093 0.17185101 -0.09216298
0.1759043 -0.107497506 0.098069064
-0.14041296 0.14790009 0.17539583
0.024177909 0.021773875 -0.0067073037
0.14821544 -0.18203916 0.10037358
-0.12449852 0.06855376 -0.11602248
-0.21725602 0.17107116 0.31839594
0.008718291 0.05837255 -0.022498032
0.0716038 -0.13598745 0.051665545
0.1488811 -0.17936297 0.10012493
0.09627536 -0.15443046 0.06813992
-0.156181 -0.17180009 -0.061199445
0.17755006 -0.16187459 0.110771514
0.07271092 0.013510985 0.019583473
0.22896059 -0.21505585 0.18361795
0.02377131 -0.15506218 0.02377025
-0.19049352 -0.20004638 -0.06658681
0.13844198 -0.17844932 0.09465892
-0.095027365 0.13803877 -0.0922354
0.23848985 -0.14774396 0.20595676
-0.0030808023 0.10104039 -0.03776716
-0.14781103 0.019877447 -0.09306851
0.016770363 -0.14568625 0.026117377
-0.08118975 0.016405618 -0.2256393
0.018763721 0.19613501 -0.13140085
0.17208908 -0.0956732 0.09356228
0.0029076901 -0.07743407 0.004221634
0.12697668 -0.13551886 0.07950108
0.13054806 0.120347895 -0.14150327
-0.048579298 -0.01992448 -0.19619107
-0.17459916 -0.20143397 -0.05826438
0.09456729 -0.064154476 0.047567844
0.16904105 0.05940471 -0.22007045
-0.019439772 -0.03263551 -0.18199785
0.06387291 0.032845873 -0.056506135
0.041233692 -0.110523924 0.030782983
0.026022635 0.06607932 -0.015449856
0.0640737 0.078123845 -0.02026437
-0.13564594 0.03032672 -0.08921218
-0.013249483 0.08360464 -0.03909089
0.022848167 0.20915896 -0.21523274
-0.056879852 0.15699449 -0.077127375
-0.00865869 0.0498966 -0.029414948
-0.013907735 -0.012829574 -0.018368116
0.14098468 0.055551704 -0.122090384
0.046610348 0.20614246 -0.20258506
0.0032796578 0.20712203 -0.22466134
-0.026495334 0.08016009 -0.04502175
-0.2841951 0.21352036 0.41909114
0.1429559 -0.109558314 0.081894994
0.019692667 -0.14827031 0.028155966
-0.035171464 -0.05662112 -0.1934825
-0.107286826 -0.16932242 -0.05006346
-0.0027705748 0.019349925 -0.019774938
-0.22674601 0.16880697 0.3120809
0.11601233 0.18658806 -0.174429
0.042622145 0.043955557 -0.0022442327
-0.13449302 -0.084793694 -0.06349571
0.11321626 0.18361433 -0.16560715
0.14856847 0.10351802 -0.18789233
0.22011094 -0.15555741 0.19388409
-0.15500952 0.1683032 0.19863267
0.07027904 -0.057012666 0.03375431
0.0074850917 -0.039810207 -0.16862556
0.011069515 -0.103923164 0.014123163
0.027139166 0.015017623 -0.0037381006
-0.038935397 -0.010130186 -0.031584673
-0.008863145 -0.033384215 -0.2669144
0.037213575 0.04202787 -0.004552397
0.24093924 -0.0979626 0.21783514
-0.114108615 0.02552453 -0.07729732
0.02988371 -0.15652113 0.022243027
0.09979791 0.07878715 -0.08353396
0.08419216 0.19454347 -0.18109114
-0.25918198 0.18766543 0.39538637
0.03607472 0.185061 -0.10586187
-0.13659763 0.14604193 0.16791703
-0.07943901 0.17461264 -0.09235597
-0.13172558 0.1383616 0.16051334
-0.030547779 0.015770214 -0.033007722
0.15374333 -0.15401106 0.09704325
0.08089097 -0.04869093 0.037291594
0.19342323 -0.19926202 0.12694287
-0.25520617 0.18507847 0.3840902
0.15084048 0.06475141 -0.12307453
-0.04481713 -0.023158427 -0.19019051
0.037612997 0.1127254 -0.019786708
0.24403082 -0.08507517 0.21658128
-0.08292728 0.13074328 -0.08453793
0.07837166 0.03150165 -0.07411762
-0.0007798251 -0.07006181 0.00075122045
0.034491766 -0.12335466 0.030182652
-0.09786068 -0.07377371 -0.04828486
0.11080168 0.1667529 -0.1615977
0.06717584 -0.06610491 0.034173783
-0.01582568 0.11197009 -0.046583712
0.24540511 -0.1297258 0.19694398
0.12227031 0.17193034 -0.15694183
-0.12505467 0.08145974 -0.11729172
0.24298495 -0.14138272 0.20044397
-0.06960222 0.16379462 -0.08503106
-0.101540625 -0.016495282 -0.061781876
-0.06343565 -0.038709607 -0.037706353
-0.0979152 -0.038489286 -0.055151056
0.103253685 0.03088514 -0.10609533
0.13405019 0.14567299 -0.21940222
0.2316423 -0.21862413 0.14290306
0.24197143 -0.18981008 0.17283611
0.26169258 -0.062357713 0.20021172
0.24776347 -0.2006888 0.1573798
-0.056350682 0.0023971193 -0.043106675
-0.16069646 -0.20576873 -0.05030373
-0.009299046 0.013122552 -0.02170915
0.0013877188 -0.03273529 -0.00630447
0.06785717 0.14682269 -0.06649803
0.01672505 0.10382391 -0.02838206
0.2538966 -0.16455932 0.16364343
-0.014643648 0.1900215 -0.18166828
-0.116426446 -0.044050436 -0.06327588
0.005995032 0.10870224 -0.034860846
-0.049289484 -0.037839543 -0.030759193
0.124146655 0.14937963 -0.15107162
0.06155387 -0.050307166 0.027888142
-0.003807338 0.055477563 -0.02818578
-0.010034853 -0.021702984 -0.014476636
-0.07248411 0.045829307 -0.0607292
0.15434976 0.07554967 -0.12538405
-0.13586324 -0.014754538 -0.0794791
0.15572296 -0.14601874 0.09629712
0.24032101 -0.10598102 0.21927415
-0.0809033 0.13997181 -0.08553151
-0.030954424 0.19153814 -0.07158899
-0.17922883 -0.10585785 -0.081467465
0.15786304 0.114356086 -0.22994156
-0.15305746 -0.14495265 -0.059727784
0.16472578 -0.17797065 0.10781543
-0.076534376 0.18150923 -0.1146555
-0.071022764 0.13276714 -0.07897329
-0.17837657 -0.18390061 -0.06399844
0.14622551 0.11573181 -0.20072156
-0.0044891234 -0.022835141 -0.011431246
0.088139504 0.16460842 -0.1418476
0.25524724 -0.099936664 0.19488889
0.035705097 0.02569695 -0.0017480542
0.26360166 -0.07066601 0.19544291
-0.077347636 0.1787117 -0.11445473
0.047560204 -0.07537757 0.026301423
0.043801256 -0.04001499 0.016683936
0.20134129 -0.1737084 0.12535883
-0.057704926 0.1139833 0.00954583
-0.16952488 0.17786795 0.22292198
-0.15086809 -0.08765812 -0.07113207
-0.057679888 0.1542506 -0.076932065
0.1310663 0.13133384 -0.14364038
-0.14099236 0.16259933 0.16857655
-0.14940675 -0.09666364 -0.06842846
0.07354946 0.20948306 -0.19254896
0.23786373 -0.17923784 0.19006327
0.22566204 -0.110760145 0.20677516
0.063179724 -0.015038814 0.021008067
-0.06920195 0.027496092 -0.055070702
-0.12788509 -0.06534373 -0.06440865
0.1268112 -0.09074412 0.06964175
0.011119108 0.17033108 -0.045731027
0.09769079 0.17450592 -0.16990572
-0.062990285 0.111789934 0.011237521
-0.016324585 0.01982352 -0.026716424
0.12352821 -0.09745187 0.06944968
-0.19585337 -0.171252 -0.07557751
-0.22531217 0.19217998 0.34061855
-0.15101753 -0.12187125 -0.06373771
-0.036362417 -0.02549986 -0.026930837
0.09799702 0.12976894 -0.10267082
-0.070328556 0.15149225 -0.08271145
-0.095038794 -0.045559343 -0.052155815
0.074617624 0.17288883 -0.13980596
-0.21866618 0.17728645 0.3323037
0.06543489 -0.123609304 0.045850568
0.08102997 -0.049397346 -0.23131208
-0.142906 0.15485522 0.17796098
0.14513174 0.12390077 -0.21683829
0.03563861 0.14855275 -0.04040013
0.018262133 -0.015012876 -0.0016602064
-0.12622817 -0.14005563 -0.04726026
0.2374153 -0.17707 0.19165064
0.015439239 0.10529453 -0.02935194
0.01870185 0.18846935 -0.074934185
0.22181289 -0.116850324 0.21230929
-0.1431196 -0.08957068 -0.066805385
0.018252127 0.15868245 -0.039589006
0.14528733 0.05610276 -0.12003999
-0.27620366 0.18840033 0.4029729
-0.006031824 -0.11272207 0.0074158153
0.05553902 -0.013294447 -0.11024886
0.073498785 -0.032592025 0.030046932
-0.116183504 0.12768745 0.11946668
-0.10891277 -0.15819454 -0.051055066
-0.26824844 0.18099815 0.37158984
0.030731255 0.14798732 -0.030957479
0.03733214 0.1881027 -0.110043906
-0.006088414 -0.05362026 -0.0055169095
-0.08461705 0.011071325 -0.059261993
-0.034301072 0.15344046 -0.06495955
-0.12532476 -0.07696452 -0.060579505
-0.10381593 0.07693169 -0.17369974
-0.18351746 -0.1736328 -0.06883398
-0.12141805 -0.016715242 -0.07176276
0.023580194 -0.020768452 0.0022795647
0.0056002964 -0.012995164 -0.008489497
-0.13748631 0.12923929 0.13145466
0.040362746 -0.07032281 0.021566454
0.23876089 -0.08436272 0.21376705
-0.016744077 0.08381606 -0.04090037
0.17716596 -0.14456642 0.1067989
0.060465988 0.1360996 -0.043378804
0.047273695 0.16645104 -0.060490087
0.1493912 0.032033686 -0.13233724
0.11531683 -0.09126179 0.06395544
0.17398348 -0.16305323 0.10922962
-0.15397285 -0.11385919 -0.066978306
0.0663638 -0.08424601 0.037724923
0.06466272 -0.112907 0.04312449
0.025341839 0.03622751 -0.009275929
0.03956141 0.2101718 -0.20702158
-0.010352907 -0.06166176 -0.17917098
0.08934923 0.08684079 -0.06941009
0.00011405953 0.0708852 -0.029571034
0.10980785 0.14055657 -0.13440177
-0.013845882 -0.0445863 -0.17834485
-0.03306817 0.02573081 -0.036454327
0.049870834 -0.051765654 0.02231195
-0.15436932 -0.23361711 -0.04103111
0.13891666 -0.14189497 0.08691739
-0.27747822 0.19777381 0.37027055
-0.034421112 0.1718437 -0.0690382
0.032267928 0.054787066 -0.009833337
-0.18545423 -0.1735341 -0.06983283
0.14904517 0.041719463 -0.1253861
-0.10969556 0.048219 -0.080025494
0.22016865 -0.12529406 0.21332283
0.08561897 0.12981527 -0.08123026
0.22027282 -0.1598331 0.22091694
0.04083256 0.03818892 -0.0018884898
0.04085827 -0.05228635 -0.21605411
-0.14605987 -0.19749424 -0.044725355
-0.1780036 -0.17903848 -0.06487175
0.15553845 -0.094116114 0.084872074
0.19345653 -0.13873206 0.11374458
0.0103172455 -0.08161579 0.008873074
0.083517276 0.07913923 -0.06024787
-0.12562652 -0.13909593 -0.04716648
-0.07270238 0.069846936 -0.066083185
-0.15427026 -0.16473942 -0.0681749
0.1498353 -0.0883105 0.08072708
-0.10390288 0.032272972 -0.07362128
0.23840258 -0.08669029 0.21409419
-0.16395992 0.16097498 0.22089979
-0.10718855 0.015558592 -0.07162983
0.11408624 0.13835058 -0.13882907
0.14918207 -0.13236383 0.090015665
-0.15432599 -0.19377041 -0.06980947
0.004332757 -0.052986972 -0.16733927
0.025024824 -0.15349147 0.031986214
0.14357558 0.10297392 -0.13113706
0.012035068 0.05580868 -0.02026481
0.01790479 -0.12891547 0.023028163
0.096308134 -0.0808424 0.052089855
0.0011723669 0.16949132 -0.05056633
-0.051436286 -0.020445839 -0.03563957
-0.25274116 0.2134536 0.39045745
-0.021680905 0.15393157 -0.05869932
0.19805877 -0.20653659 0.12827761
-0.023577696 0.1761399 -0.06450542
-0.11469054 0.11552974 -0.097242005
-0.22199962 0.17714055 0.3376623
0.028270133 0.12232974 -0.026597565
0.033213582 -0.1505805 0.035482466
0.009758814 0.02753889 -0.015240881
0.15778689 0.04447358 -0.19593315
-0.10866674 0.017044516 -0.072700135
-0.14120685 0.1368986 0.16268545
-0.027690288 0.13908082 -0.058488715
-0.13051032 -0.19530004 -0.037359145
0.13592419 0.038535103 -0.12092825
-0.17499222 -0.21456386 -0.055596195
0.14375933 0.04710807 -0.118846916
0.032953415 -0.1079829 0.026050663
-0.06802602 0.04194723 -0.05763224
-0.0879916 0.06114917 -0.07189801
-0.04942978 0.119705305 -0.06522696
-0.13506906 0.13719545 0.16216561
-0.0397044 0.0939897 -0.034489322
0.07616367 0.20869917 -0.19936195
0.01198663 -0.060984354 -0.16173129
0.21218741 -0.15245743 0.21224423
0.04795662 0.019845726 0.0057111555
-0.115913145 -0.15365346 -0.03908716
-0.075434685 -0.0084673185 -0.21730517
-0.12634058 -0.0992664 -0.056222476
-0.14020714 -0.17301069 -0.06551871
-0.20345646 -0.18778946 -0.07580303
0.062465776 0.062392127 0.0025928367
-0.18314704 -0.10589915 -0.08343556
-0.08648969 -0.054311793 -0.045931477
-0.28111145 0.19263647 0.38068858
0.14096132 0.12831835 -0.13798943
-0.1035779 0.12991509 0.09145571
0.23631787 -0.1730463 0.19412541
0.06612967 -0.002310068 0.019717326
0.16242963 -0.17352799 0.10568707
0.0795972 -0.047955446 -0.21948382
0.1238065 -0.13887145 0.07863347
0.13165149 -0.09604886 0.07324191
0.027528284 0.05262138 -0.011751953
0.10898691 -0.063443385 0.03695381
-0.002567365 -0.022297157 -0.105460614
0.17143045 -0.09312089 0.092673026
-0.07651908 0.13997301 -0.08331974
0.038223177 0.14776146 -0.046252426
0.06711818 -0.106072254 0.042871024
-0.113415465 0.14110664 0.11991014
-0.079135925 -0.069169104 -0.04363164
-0.12697075 -0.0024943277 -0.07766926
-0.04546675 0.1335 -0.06623936
0.19411124 -0.1821416 0.12355219
-0.1173351 0.060202736 -0.08649672
0.21398781 -0.21232364 0.13109389
0.14749078 0.113201454 -0.13139464
0.041830707 0.18146853 -0.097177625
-0.038639233 0.15342425 -0.067145035
0.03924644 0.17186233 -0.054133076
-0.17114824 -0.21812439 -0.05287927
-0.108611345 0.007182099 -0.070518866
-0.017951906 -0.008522464 -0.021348953
-0.18045235 0.17665437 0.24988173
-0.20401952 0.17099942 0.30325302
0.07890059 -0.11845531 0.051519208
-0.08822844 -0.03240323 -0.051592026
0.24193318 -0.17640401 0.17927054
0.22129142 -0.17757577 0.13626893
0.13166098 0.11183938 -0.13908406
-0.11143375 -0.070161276 -0.055056468
-0.070291385 0.047141634 -0.05990934
-0.12355684 0.13312866 0.14009167
0.17699714 -0.16901587 0.11205158
-0.06758532 0.14439711 -0.24672034
0.027110001 -0.14958727 0.032185726
-0.1976402 0.15717933 0.25820887
-0.0012065547 0.13970047 -0.045262076
0.0043995003 -0.027483795 -0.005931561
-0.06316261 0.026530638 -0.051812347
0.16011149 -0.117796786 0.09234929
0.19442609 -0.19218768 0.12590468
-0.21696176 0.192304 0.3225568
-0.10611812 0.015879177 -0.07115971
-0.05754426 -0.013611105 -0.1660274
-0.009059209 0.06105793 -0.032053865
0.17661984 -0.1585358 0.109573446
-0.055924006 -0.046679005 -0.03217645
0.014556834 -0.11948589 0.01928037
-0.06331708 0.1198386 -0.07226325
0.2487848 -0.051115286 0.20043616
-0.060775876 -0.015900105 -0.20828623
0.22333793 -0.17388624 0.1840731
-0.05233966 0.005279535 -0.04171236
-0.01204028 0.15822755 -0.054773174
0.20172961 -0.1431493 0.11713975
0.1270815 -0.1321021 0.07880798
0.21689558 -0.16416685 0.11884436
0.12398612 0.14625172 -0.15046954
0.22017686 -0.13748723 0.2159897
-0.14428604 -0.030516524 -0.080287546
0.21953218 -0.17522289 0.13486765
-0.1155353 -0.05845141 -0.05968262
-0.099022634 0.15015227 -0.119155444
0.013532272 0.17397612 -0.046297256
-0.10796045 -0.03517118 -0.060943563
0.03891834 0.008287095 0.0036744282
-0.020109145 -0.015908899 -0.020824216
0.04414915 -0.049938977 0.019026099
-0.17201185 -0.10129681 -0.07882226
-0.2816556 0.20325977 0.42261258
0.16688 -0.11837176 0.095889784
0.22726573 -0.2038698 0.1450241
0.21600564 -0.115630925 0.12007749
-0.025216533 -0.04586734 -0.016860183
-0.09779687 0.073430605 -0.07952689
0.08138206 0.16761713 -0.13650689
-0.1429469 -0.12237726 -0.05955562
0.12639862 0.1684101 -0.15409021
-4.9695136e-05 0.058377765 -0.026923055
-0.0035126666 0.11214885 -0.040410448
0.09095116 -0.054469164 0.0436287
0.0012600009 0.052596334 -0.024999978
0.11028265 -0.035622947 -0.22372471
-0.013655903 0.04454851 -0.030768463
-0.100201 -0.017908314 -0.060797367
-0.054053664 0.059191123 -0.05434773
-0.08441214 0.051037733 -0.06788465
0.063188545 -0.028334005 0.023915203
0.06006188 -0.03419166 0.023616752
0.14884105 0.088539094 -0.12532866
0.10891357 0.19064549 -0.17889632
0.08371356 -0.116748944 0.053574987
0.13688014 0.02300963 -0.117056526
-0.015172709 -0.010257798 -0.01956788
0.019714503 -0.10977523 0.019762155
-0.1347094 0.14079058 0.16596733
0.049303178 0.07284323 -0.00518098
-0.16683114 0.16685762 0.22471526
-0.015385052 0.041977666 -0.031079618
0.032661844 0.18055254 -0.06448708
-0.22832699 0.1771941 0.3455925
0.060379118 0.016656872 0.012674987
-0.06547235 0.133653 -0.07636643
-0.17615761 -0.13905361 -0.07267025
-0.16495694 -0.07742916 -0.08047403
-0.050132956 0.047643952 -0.049848285
0.1799178 -0.11525599 0.10178784
0.21657369 -0.1832718 0.21303837
0.004432426 -0.122184575 0.014761454
0.10136048 0.032259185 -0.10308653
-0.13235007 0.04864407 -0.091548696
-0.0143907 0.09205564 -0.041511774
0.014695012 -0.046840157 0.0034889982
0.11756474 -0.16829038 0.08190734
-0.16929772 0.16521513 0.23069856
0.16296831 0.052037243 -0.20251822
0.20571016 -0.14296506 0.11677058
0.13353841 0.01618205 -0.1172514
0.001044049 0.1418706 -0.04460055
-0.20316751 -0.18490927 -0.07628604
-0.016871834 0.0024366768 -0.023196576
0.22297305 -0.1679431 0.22133143
0.029869907 -0.10929751 0.024781955
-0.11892031 0.121525764 0.095921256
0.13892071 0.10296835 -0.13348429
0.24720703 -0.08491254 0.21814854
-0.13954547 -0.030321823 -0.07793794
0.14968348 0.07557846 -0.12207396
-0.0003250025 0.03332466 -0.021591876
-0.1131132 -0.11034131 -0.06133813
0.09446896 -0.0023069964 -0.13065457
-0.094440475 0.08235151 -0.079781026
-0.15437773 -0.11869241 -0.06612714
-0.15277502 -0.1935931 -0.048965327
0.05077891 -0.07469836 0.027777188
0.12499971 -0.1763402 0.067862555
0.03127763 0.08821087 -0.017630683
-0.11458507 -0.14884599 -0.04259905
0.03127927 -0.010074975 0.0038292457
-0.03316695 0.119908854 -0.057065994
0.124005504 0.16814011 -0.15523882
-0.061204728 0.19166335 -0.109137625
-0.096058495 0.11520208 0.06468639
0.23100643 -0.2152762 0.15658027
-0.06705992 0.06408697 -0.061979078
0.021379124 -0.06677025 0.011212799
0.2170699 -0.18700807 0.21410444
-0.13829799 -0.17898673 -0.044850156
0.22976017 -0.10945925 0.21470527
0.04866706 0.07572417 -0.006130901
0.061555732 -0.06926799 0.0320287
-0.1142552 -0.1628454 -0.037651535
