# .PCD v0.7 - Point Cloud Data file format
VERSION 0.7
FIELDS x y z
SIZE 4 4 4
TYPE F F F
COUNT 1 1 1
WIDTH 1000
HEIGHT 1
VIEWPOINT 0 0 0 1 0 0 0
POINTS 1000
DATA ascii
0.12996343 -0.10653488 0.06370635
0.019644706 0.35173237 0.005057993
-0.024700565 -0.121448986 0.040440433
-0.02752642 -0.1351957 0.03171319
-0.06463654 0.10899509 0.031100264
-0.03580602 0.2354121 0.08137587
0.1279458 -0.11746617 0.008230498
0.017528253 0.30312473 0.0749313
-0.08112423 0.08981061 0.034138914
0.12827641 -0.05451187 0.08301052
-0.026391875 0.25992298 0.08775552
-0.053792525 0.112234816 0.023488728
0.020268835 0.32703036 0.08682674
0.018697232 -0.12689935 0.053407423
-0.22406214 -0.049451433 0.07667534
-0.09550178 -0.011510471 -0.013844465
-0.02401668 0.23970503 0.07356176
-0.0015277665 0.06383865 -0.051511534
-0.08986152 0.122348934 0.05418848
-0.12406671 -0.094453394 -0.038332105
0.003987606 0.31117776 0.09167749
0.19762416 -0.105214216 0.004904221
0.0022845746 0.20121396 0.027357832
0.017892508 -0.0380215 0.0598194
-0.050405264 0.1041275 0.015652534
0.03390508 -0.08682346 0.06562627
0.15559894 -0.16189095 0.06127484
0.011331817 0.036238994 -0.071517535
-0.026718616 -0.025166461 -0.020500803
-0.065276995 -0.08616216 -0.070553415
-0.14106673 -0.054156564 0.0007608101
-0.19709013 -0.027917761 0.05830234
0.1580171 -0.0466749 0.068878286
0.1301611 -0.024497982 0.04550934
-0.028453702 0.2602044 0.08851658
0.14183827 -0.13992487 0.06024555
-0.056265093 0.11003778 0.024351416
0.058467135 -0.053024758 0.06728993
0.0020360947 0.30389288 0.08903618
0.17846994 -0.06520654 0.045721307
-0.12614495 -0.054019377 -0.012299728
0.05475595 -0.05543647 0.066676676
0.17868243 -0.13218312 0.0028380638
-0.27673388 0.16311795 -0.4541069
0.11097242 -0.008493 0.021257106
0.09114932 -0.036171544 0.06377472
0.090550795 0.01220263 -0.010623436
-0.03315402 0.25115618 0.08445749
0.021436244 -0.10903487 0.056208257
0.20492929 -0.058458347 0.022001948
-0.20499063 -0.07663007 0.043610055
-0.31277874 0.15833683 -0.47309706
0.049913004 -0.1396021 0.08670749
-0.031049216 0.196976 0.05418006
0.011399352 0.28522152 0.06546026
0.14750889 -0.14324391 0.06467607
0.18199278 -0.09230308 0.026399478
0.072463326 -0.10586275 0.10184771
-0.31114066 0.17939465 -0.47350925
0.14234723 -0.2263428 -0.018913157
-0.095159076 0.08548073 0.043908495
0.11181405 -0.19174214 0.028689513
0.08332439 -0.12139465 0.09588898
-0.06224464 -0.07242396 -0.05188971
0.073605314 -0.18545946 0.06610264
-0.021841513 0.23568656 0.06924071
0.17613553 -0.08531967 0.03573821
-0.0057970923 0.21675178 0.043776184
0.10898213 -0.010863039 0.026102042
-0.10159705 -0.07556466 -0.046816297
0.15663928 -0.14872131 0.06824132
-0.059959013 -0.0102563035 -0.1787214
0.008662147 0.3021024 0.082128175
0.08490863 -0.11453722 0.09859854
0.1898627 -0.040901028 -0.08296728
0.026938902 -0.17822765 0.03161169
-0.012668264 0.28315905 0.08957645
0.006657262 0.21873754 0.033995524
-0.28998968 0.14830957 -0.43827897
-0.029020311 -0.05913177 -0.0075820703
0.054626483 -0.15489647 0.084507085
0.13338755 -0.07926308 0.07701403
-0.2988501 0.17714015 -0.48773712
0.07934544 0.02100702 -0.043703806
-0.17472933 -0.06707592 0.022676066
-0.008427356 0.084928274 -0.032811385
0.06691069 0.02742589 -0.06743277
0.04821291 -0.17877762 0.06464161
-0.2126947 -0.08268887 0.046768893
-0.015076241 0.12470317 -0.0031477024
-0.024100682 -0.12685993 0.03935923
-0.017442163 -0.029152514 -0.008194814
0.019736536 0.31289172 0.07883243
0.03886289 0.014392094 -0.018311322
0.009362119 0.012908394 -0.03112558
0.12344412 -0.23130676 -0.005234972
0.06985733 -0.050581485 0.07183582
0.039026935 -0.0042220047 0.008963446
0.01459572 0.028478712 -0.05446815
-0.017735912 0.31671104 0.09765737
-0.035343498 -0.08140091 -0.012307438
-0.2009719 -0.08519862 0.02926708
0.041396227 -0.06590075 0.06542396
-0.066295326 0.03228013 -0.017945038
-0.0861363 0.111712225 0.05166269
-0.014870149 -0.11415901 0.047023732
0.06721571 0.02211836 -0.033519346
-0.06631688 -0.10478085 -0.09275073
-0.17788836 -0.060620647 0.029322205
0.15019593 0.0039049208 -0.021211872
0.18201758 -0.098718315 0.022538045
-0.034714 0.26408145 0.08305947
-0.19495884 0.0032351362 0.072667226
0.07120757 -0.039030537 0.058888182
-0.042718615 0.35488847 0.04595942
-0.008685415 0.026761975 -0.05959832
-0.017155128 0.17265156 0.027383085
-0.17972174 -0.02650902 0.05135496
-0.09683255 -0.021762311 -0.018808726
-0.09914536 -0.023418391 -0.01776318
0.12327983 -0.18868564 0.020420851
0.010102247 0.025829248 -0.05069695
-0.20499216 -0.07504183 0.044562086
-0.21457672 -0.029436398 0.08030108
0.04583923 0.054075003 -0.099074066
0.028443651 -0.19352844 -0.0045760204
0.0060061603 -0.18036193 -0.004511166
0.08560406 -0.033368215 0.05941848
0.13920419 -0.021050602 0.042577114
0.1159496 0.008689599 -0.029218836
-0.20253997 -0.026237037 0.052523203
0.08916396 -0.20683184 -0.073283404
0.016388161 -0.21399096 -0.040508285
0.14812307 -0.19277544 -0.0039078593
-0.024791107 0.26601678 0.08999303
-0.005781614 -0.071237706 0.057867974
0.015806194 0.28725556 0.06307523
0.031147668 -0.054953486 0.054277353
-0.042604268 -0.10126769 -0.027763529
0.028484695 -0.00993386 0.0071412963
0.009938691 0.18013431 0.007998952
-0.1250169 0.029701415 -0.2822175
-0.011757623 -0.040275257 0.005203699
-0.009421057 0.3232408 0.1048568
0.034428477 -0.013523412 0.014673518
-0.052862406 -0.034391884 -0.04167865
-0.07843174 0.0032635082 -0.19722395
0.13469382 -0.048600297 0.08209013
0.02034682 0.07160932 -0.06612634
-0.09635344 0.13082767 0.04551156
-0.19645952 0.08825139 -0.3344372
0.026813785 0.08421745 -0.06427548
-0.078779005 0.13896278 0.059017718
-0.042345684 -0.07257717 -0.021331403
-0.0138198 0.32388827 0.099005625
0.010580035 0.2945452 0.07591578
-0.16215833 -0.06388507 0.01351401
-0.0519278 0.07897331 0.0019371561
0.10161033 -0.16244625 -0.00060091214
0.0019850319 0.3261084 0.10237837
-0.015390478 -0.12271912 0.012339464
0.21696152 -0.10465764 -0.011793874
0.0029015867 0.20348918 0.028176313
0.007942571 0.009560689 -0.024356958
0.015043874 0.23871389 0.038565952
-0.070666604 0.097886086 0.029761765
0.03778497 0.264854 0.034183245
-0.26940975 0.12105523 -0.4207
0.15099303 -0.08257909 0.0595232
-0.027401995 0.2295731 0.07047892
0.1190496 -0.20449752 0.01468198
0.17329551 -0.10509315 0.025634347
-0.01553975 0.28323796 0.09215279
-0.002110931 -0.0511273 0.055027742
-0.0607769 -0.02018789 -0.04962262
0.06566018 -0.13080423 0.09710353
0.17105684 -0.18593946 -0.020015333
0.027306428 0.25046495 0.034799375
0.15872999 -0.035314944 0.05808908
-0.03322418 0.23687974 0.079980254
-0.21916777 -0.02290023 0.08825702
-0.0342264 -0.11087563 -0.017356401
-0.21577764 -0.012988876 0.09120366
0.08094466 0.017081978 0.02362288
-0.2354009 0.11829262 -0.38105193
0.040518425 0.29597017 0.050400686
-0.023177033 0.2301717 0.06711631
-0.24239294 -0.039230954 0.08657585
0.19886892 -0.049482353 0.010526037
-0.01978527 0.35245135 0.073788375
-0.24546893 -0.009448198 0.10092292
-0.3173057 0.17369877 -0.47387427
0.0283329 -0.04246837 0.058361907
-0.1030049 0.033294108 -0.23407146
0.08084987 5.838606e-05 0.03756247
-0.14165114 0.049532328 -0.27122098
0.052601647 -0.08036392 0.078950614
-0.055294175 0.0064367936 -0.18363696
-0.010317976 -0.16017166 -0.01908047
0.089675 -0.1577587 -0.001293242
0.02946024 0.0024713778 -0.007016112
0.008999285 -0.16760421 0.013237171
0.100550644 -0.054000773 0.08628445
0.049145076 -0.18286327 0.06401689
0.052434303 -0.19880405 0.048639525
-0.042256203 -0.082612015 -0.020931872
0.06949307 -0.10318329 0.10078053
-0.14022733 -0.08276932 -0.017104967
0.07488543 -0.029184798 0.051660933
0.15551883 -0.08086492 0.05656296
-0.010022868 -0.12584434 0.04223877
-0.016669491 0.23385856 0.06359125
0.057460457 -0.057039976 0.06892781
-0.29041293 0.1666714 -0.4508902
0.049270857 -0.0119555965 0.058184635
-0.013274996 0.03654554 -0.057501562
-0.00035697804 0.12615454 -0.015243062
0.042094197 -0.041000195 0.052415792
-0.04308058 0.0883358 -0.00025109085
-0.28561774 0.13245949 -0.43955982
-0.011594121 -0.15507558 0.026125828
-0.036173474 0.08406908 -0.0088881655
-0.04355242 0.19350518 0.06311457
0.14600831 -0.084367484 0.06284294
-0.07815876 0.15581687 0.054174807
-0.016828472 -0.024532884 -0.011715323
0.013526397 -0.03747758 0.056488488
0.029307606 -0.072757296 0.058097463
0.14065114 -0.14488511 0.07387302
-0.24736801 -0.02419354 0.08843619
-0.08860965 0.12801705 0.053516563
-0.021438561 0.051948965 -0.041091736
0.020401778 0.05262403 -0.07753844
0.038189404 0.32368678 0.06904171
0.007597082 0.009678789 -0.024724808
-0.05038173 -0.0078364825 -0.051385008
0.09690235 -0.010188841 0.028004821
0.07258034 -0.15370408 0.08601282
-0.024028495 -0.12329681 0.040713467
-0.014730802 -0.17050631 0.015574271
0.13354394 -0.06603963 0.084791206
0.19997354 -0.08822472 0.013004384
-0.009777818 0.10510944 -0.01954237
-0.06595732 -0.03595079 -0.05449509
0.027954865 -0.19041906 0.001235471
0.013461665 0.20948046 0.02246173
-0.056789774 0.1547737 0.051590603
0.20473854 -0.055658814 0.011142077
-0.07086832 0.14301722 0.056953218
-0.008935582 -0.10386019 0.054439753
0.08201329 -0.20050825 0.04968951
0.19143444 -0.19190511 -0.041533656
0.06625971 -0.002488094 0.04698994
0.04889867 -0.09420286 0.08076402
-0.12409127 -0.076296605 -0.027442567
0.09253277 0.019542407 0.028222663
-0.024062233 0.19714424 0.04812686
0.12437319 -0.1421407 0.08264459
0.09318695 -0.04752275 0.07499028
-0.066890605 -0.096084476 -0.08049826
0.16971903 -0.028587628 0.020662928
0.029890863 -0.013845696 0.05174367
0.041470908 -0.16448744 0.068996735
0.0428401 -0.2103725 -0.054915447
-0.18181716 0.0025171794 0.07057424
0.21355686 -0.074601814 0.00919486
-0.09374198 0.03010322 -0.22563727
-0.16017173 -0.07282861 0.006410984
0.12657876 0.008678387 0.002446216
0.0074832346 -0.1778757 -0.052035913
0.1249017 -0.03613822 0.068133086
-0.183746 0.007577509 0.068467274
0.08807036 0.01638406 0.032843806
-0.15305027 -0.079982325 -0.0041429987
0.019290052 0.35491052 -0.0062332684
0.040107593 -0.06610037 0.064868495
-0.034052536 0.35364568 0.026429793
0.16171491 -0.20772593 -0.02482776
-0.07566125 -0.0056756083 -0.027826553
-0.19650626 -0.011912663 0.0748746
0.01755229 -0.17375417 0.02039746
-0.032337435 -0.0069751567 -0.041957214
0.197905 -0.13372864 -0.012410703
0.07676309 -0.16600555 0.07496584
0.113412194 -0.18405347 0.0318843
-0.06245035 0.034863256 -0.015197136
0.09020052 -0.032431226 0.061279226
-0.012600019 -0.118771926 0.048741717
0.06076283 -0.0014836426 0.04655834
0.16294567 -0.029177384 0.025583182
-0.068365835 -0.0118995225 -0.037977252
0.058972683 0.03683129 -0.09206385
-0.0048123095 -0.008164137 -0.014886972
0.037736487 0.28216314 0.04458624
-0.06643645 0.08299127 0.017120581
0.042157713 -0.10470796 0.080375016
-0.0046340274 0.27911073 0.08007717
-0.09445938 0.09933923 0.051587418
-0.097442366 -0.093923524 -0.06146449
0.098430745 -0.15076344 -0.02823661
0.061552316 -0.21444212 -0.02809626
-0.017263148 -0.119340956 0.010204564
0.03448556 -0.011166112 0.012902021
0.1335734 -0.12559341 -0.042378757
-0.037288852 0.19887646 0.060813054
0.11753038 -0.1318444 0.0139592225
0.20871615 -0.06085161 0.013378022
0.046104524 -0.15895021 0.07955087
0.2138228 -0.12985888 -0.024113499
0.0943673 -0.037950143 0.0663843
0.022634722 0.34063706 0.045643527
-0.21103506 -0.04245904 0.06938714
0.17920893 -0.031692952 -0.01120821
0.2206762 -0.12507229 -0.03039047
0.032398492 -0.09438737 0.069679976
-0.039624948 0.13445559 0.024311088
-0.23885496 -0.07275492 0.058148526
0.006782762 -0.11406302 0.041287225
0.119990535 -0.13192123 0.01568175
-0.026149137 0.22166312 0.06464103
0.03560567 -0.20994733 -0.048289303
-0.050525684 0.2341613 0.06758653
-0.29751492 0.14577812 -0.4477497
-0.11627556 -0.021161344 -0.0067611625
0.07346736 -0.11177744 0.10028908
0.10525011 -0.1799609 0.04152268
0.17148231 -0.13626327 -0.008497831
0.20224135 -0.08893967 0.010579055
-0.015968358 -0.18000059 0.0017394017
-0.14835519 -0.04555217 0.012330219
0.017588256 -0.20831257 -0.031442072
0.0034742472 0.3007581 0.08589309
0.082863264 -0.12471965 0.09430517
-0.13019554 -0.052383035 -0.007752675
-0.071597636 0.15373233 0.060861435
-0.20281874 0.08632912 -0.33746698
0.08647334 0.01741037 -0.032737184
-0.066375226 -0.090164006 -0.07773591
-0.009297872 0.25390208 0.06909612
-0.051781237 -0.067087546 -0.034895446
-0.06264211 0.04274751 -0.011270744
0.11285951 -0.08512457 0.09158568
0.089295655 -0.17196831 0.06035865
0.025550336 -0.023669278 0.055388328
0.18527085 -0.028406873 -0.07144462
-0.048701484 0.16677994 0.05165323
-0.054816697 0.035184868 -0.021728035
0.030451126 -0.121253274 0.066962704
-0.050084606 -0.037742946 -0.037606202
0.07977481 -0.09940965 0.105231784
0.106756486 -0.029976431 0.06379713
-0.15822902 -0.034544274 0.027615495
0.07431647 -0.076221265 0.087892674
-0.12055833 0.04660334 -0.25492743
0.1870941 -0.029500531 -0.07370513
0.06341954 -0.14432712 0.09424919
-0.017754678 0.2802832 0.092334844
0.024683418 0.34203178 -0.0013242854
0.058416493 -0.20495757 0.04116882
0.019060517 0.25053182 0.042102087
-0.01794187 0.21885823 0.055733383
-0.015518236 -0.15623069 -0.08155581
0.06248278 -0.1619193 0.086107485
0.01356219 0.11352093 -0.035064515
-0.0018852745 0.1032295 -0.027618747
0.20899233 -0.13607228 -0.023578716
0.07609023 -0.049107976 0.06896825
0.03303981 -0.16454718 0.052381005
0.015485143 -0.11967625 0.04994783
0.062019568 -0.112581834 0.101462595
-0.032630958 0.00784217 -0.055386458
-0.012648765 -0.1497569 0.030238535
-0.026583258 0.36126766 0.0654097
0.19299874 -0.077771835 0.02540398
-0.062170163 -0.10402027 -0.07545078
-0.18302035 -0.024338955 0.055559114
-0.12623854 -0.026652355 -0.008335425
0.16659145 -0.084879935 0.04440754
-0.05560455 -0.064253025 -0.040411334
-0.049294546 -0.010747947 -0.054085013
-0.117836446 -0.05664562 -0.02118936
0.027815456 0.03548937 -0.06585521
-0.073287286 -0.010582567 -0.032854527
0.16853651 -0.068925545 0.052244168
0.10151183 -0.13406423 0.07228692
0.020125905 -0.1803473 0.008544238
-0.091263056 0.10688997 0.05329163
0.12031594 -0.10164865 0.07512801
-0.251158 0.12495299 -0.39622542
0.048888758 -0.20715486 0.015633695
-0.095417514 -0.064788215 -0.04580869
0.06085073 0.0032536238 0.046296563
-0.020570096 0.2840032 0.09529682
-0.03195763 0.1177674 0.0075690434
-0.19966276 -0.035681944 0.049158152
-0.10367371 -0.06478088 -0.03853234
-0.043423686 0.122757345 0.020654656
-0.035417207 -0.002508469 -0.04883306
0.07996995 -0.08582943 0.0962498
-0.08344537 0.068803206 0.023609009
0.078646004 -0.0676832 0.08553586
0.050042607 -0.19789918 0.039833907
0.12842606 -0.14195532 0.07847789
-0.30753097 0.16683343 -0.46262687
-0.13653687 -0.098471574 -0.029754175
-0.16658296 -0.07078166 0.013283018
-0.23004858 -0.061590828 0.07468185
-0.0624852 0.10416454 0.026314108
0.029751485 0.28641692 0.05416524
-0.18127634 0.07992522 -0.31853572
0.007619796 0.011101113 -0.026812756
-0.11799621 -0.07218217 -0.030348089
-0.31696787 0.17647466 -0.4755075
0.19908917 -0.0720246 0.023479674
0.11263234 -0.20485091 0.02012238
0.113103874 -0.15550847 0.102523014
-0.13020459 -0.045800157 -0.0038041146
0.04834756 0.04500828 -0.106710434
-0.024776433 -0.03121632 -0.013464019
0.11247999 -0.15587851 -0.02380269
-0.12393801 -0.054597583 -0.014589553
0.003831842 0.08311225 -0.04469555
0.20586684 -0.13567749 -0.020589607
-0.17790222 -0.044414964 0.03903484
-0.15421516 -0.07859209 -0.0022849685
-0.094574966 -0.022863947 -0.021456582
0.1528406 0.005469846 -0.022604328
-0.100181 0.012738666 -0.2309648
0.16899696 -0.1757515 -0.012102926
0.075036004 -0.085813686 0.093412325
-0.23332888 -0.07377468 0.07027827
-0.23161882 -0.030395739 0.09473686
-0.14822376 -0.09086885 -0.014910041
-0.037286885 -0.056936357 -0.018400203
-0.23310551 -0.06128424 0.077557676
0.08971229 -0.05974045 0.08535757
0.1514307 -0.145986 0.069417626
-0.045463618 0.24903506 0.072293475
0.025365874 -0.17727505 0.030024158
-0.054371968 -0.09786497 -0.05592803
-0.0942009 -0.10692206 -0.072099656
-0.039998423 -0.025852665 -0.03549549
-0.045151345 0.074505396 -0.006705121
-0.11799386 -0.07384475 -0.031344943
0.08934919 -0.18755671 0.050981138
-0.030131847 0.06521625 -0.02549384
0.013034884 0.3231873 0.09089795
0.0047730072 0.08556236 -0.044057876
-0.037839655 0.21653771 0.07186945
-0.0033695295 -0.179133 0.004482469
-0.1151813 0.04330817 -0.24906345
-0.21286434 0.00084693276 0.08131341
-0.038781025 0.08348885 -0.006938752
0.20261408 -0.16666183 -0.03627041
-0.05708696 0.13208823 0.0382737
0.087705374 0.020996459 0.018447757
0.07841494 -0.077348456 0.090605296
0.19066754 -0.041569848 -0.09739707
0.076836556 -0.18458135 0.06378253
0.16360725 -0.09775488 0.02100899
-0.0203028 0.0033629667 -0.03975844
-0.14851213 0.049347088 -0.27705616
-0.061917912 0.19671701 0.0572199
0.14060083 -0.098178275 0.046018757
0.050421193 -0.032106157 0.05192308
-0.14846958 -0.07945418 -0.007861334
0.011600402 0.07544618 -0.05612645
0.17069298 -0.029661123 -0.04784251
0.15436304 -0.075243935 0.060945787
0.03552267 -0.023414252 0.06199141
0.1610003 -0.09632422 0.015165632
-0.022508582 0.20544395 0.051726464
-0.08072557 0.02718587 -0.023978652
0.0066808965 0.20842488 0.027801823
-0.002540269 0.23389642 0.051169578
-0.022678565 -0.17013212 0.002022846
0.12938024 -0.11842825 0.009967009
0.12348579 -0.18778245 -0.112422965
-0.024293492 0.21749268 0.060510308
-0.032774214 0.005064416 -0.05305623
0.009890691 0.29757378 0.078335784
-0.04372841 -0.055973005 -0.02682794
-0.055628553 0.19054757 0.064468235
-0.025189104 -0.13856205 0.032739982
0.18260376 -0.0495434 -0.08174707
0.025139505 -0.17501825 0.032169808
-0.00898633 -0.070724554 0.051612083
0.03827031 -0.18496262 0.043189272
-0.19131848 0.07294072 -0.35843524
-0.031498693 0.16171613 0.033470776
-0.07533624 -0.10485694 -0.08747881
-0.0033408522 -0.118823335 0.040556207
-0.017387642 0.1867507 0.036027033
0.00079359947 -0.12835515 0.031208865
-0.2676217 0.15568884 -0.42818525
0.008002434 0.19349287 0.017700193
-0.16455667 -0.013322087 0.023823537
0.1767228 -0.024844998 -0.061784036
-0.0066404953 -0.03980966 0.011473489
0.008664774 0.29865906 0.080064625
-0.055139128 -0.11130472 -0.066455044
-0.06757956 -0.067855395 -0.059568837
0.08440516 -0.09143739 0.10302665
-0.14214239 -0.08009552 -0.01381804
0.21123719 -0.10587064 -0.0074784495
0.18651955 -0.10334834 0.01580168
-0.043187767 0.14072606 0.031202275
-0.086853325 0.004552917 -0.2164177
-0.032456983 0.14571537 0.024737274
0.004608357 -0.061039634 0.027393494
0.0024667 0.12402646 -0.019003721
0.17697869 -0.17782678 -0.020375084
0.18040185 -0.11923037 0.009276133
-0.11269302 -0.08900372 -0.045087676
0.044895474 0.00058342126 -0.0013860852
0.00991057 0.22566085 0.03527411
0.10497368 -0.010598749 0.026659315
-0.05243239 -0.09910981 -0.05220458
-0.00686038 0.12824012 -0.008266791
0.08113343 -0.040116306 0.06286739
-0.09415153 0.10918132 0.054482277
0.08374747 -0.21363291 -0.09289599
-0.12853834 0.048997696 -0.26195505
0.06681931 0.03316132 -0.08916378
-0.037655875 -0.09985493 -0.018510008
-0.042253595 0.24565889 0.076005846
-0.023951344 0.0045114467 -0.04422658
-0.08082224 0.014107163 -0.013649642
-0.0039341063 -0.06507159 0.059931647
0.12779793 0.02119265 -0.0020225192
-0.046422686 -0.09879178 -0.035061505
0.16308212 -0.15407173 -0.007237205
-0.039506108 0.10180526 0.004663213
0.11110954 -0.045926202 0.07927563
-0.05502161 0.018667875 -0.031434078
-0.083179794 0.072176605 0.02539414
-0.10791387 0.02192988 -0.23658302
-0.0127370125 0.057399377 -0.04549321
0.041675195 -0.018403249 0.061014812
0.058215786 -0.14557801 0.09007545
0.10880901 0.022544328 0.011494201
-0.025768481 0.22871377 0.068525866
-0.10793952 -0.036902517 -0.018088574
-0.003915619 -0.07142858 0.05611037
-0.03216028 0.15760048 0.03158998
0.04330937 -0.12331644 0.078610905
-0.026033565 0.16902648 0.03303292
0.14759119 -0.009473182 -0.0161161
0.039622568 0.32538787 0.060687397
0.14624473 -0.1728791 -0.0020345785
0.059964646 -0.2237389 -0.07799848
0.012594486 -0.12848645 0.044458434
-0.06505547 0.023165546 -0.019904645
-0.026447617 0.21043384 0.05818246
-0.040841617 0.04018097 -0.03104619
-0.19693567 -0.073592104 0.038334087
-0.006293491 0.2238293 0.04844952
0.116168045 -0.00610884 0.016900714
-0.06296045 -0.025693357 -0.050994497
-0.29269102 0.14705205 -0.45020074
0.1298356 -0.21470796 -0.00092940114
0.028292928 0.06259845 -0.07851855
-0.101671346 0.032483768 -0.23262142
0.14055526 -0.1561131 0.0779833
-0.108980425 -0.071624115 -0.03795468
0.017152518 -0.06342386 0.05566594
0.18182364 -0.053727288 0.049638674
0.04431149 -0.2043552 -0.004270464
-0.2975273 0.14314735 -0.47550464
-0.18786958 -0.072558396 0.030967878
-0.07697193 0.1050528 0.03960519
-0.19909126 -0.015220184 0.06957621
-0.032710712 0.008683128 -0.056207977
-0.043801922 -0.013996222 -0.046561297
-0.028828185 0.2715107 0.08815478
0.043908242 -0.20219927 0.01441022
0.02255987 0.07946904 -0.063371085
0.15289477 -0.13946389 -0.019944515
-0.035909053 0.07721069 -0.013226322
0.017286438 0.29661694 0.07124906
0.16861331 -0.08650113 0.041656647
-0.06655758 0.15343295 0.059390984
0.13840856 -0.15158604 0.08258361
-0.01939917 0.11079638 -0.0076644635
0.090287656 -0.1450084 0.07562181
-0.22594304 -0.074144825 0.063551776
0.07051871 0.003794265 0.04550109
-0.24252681 -0.019133111 0.09931244
0.14449847 -0.09411246 0.036240377
-0.0881965 0.018273585 -0.021351378
0.06390756 -0.13061048 0.09679474
0.054270755 -0.13581264 0.087716445
0.015447106 -0.18824756 -0.017546313
0.00036419308 0.081895925 -0.04236953
0.05877191 -0.10332655 0.093593806
0.07095924 -0.17822781 0.07276175
0.040727545 -0.21278137 -0.054496687
-0.07662142 -0.037853245 -0.04624085
0.14396526 -0.007763672 -0.017398532
-0.0096731335 -0.0004653452 -0.026313793
-0.03540921 -0.031117912 -0.027757078
0.017809063 -0.012292662 0.005028486
0.09268255 0.019470353 -0.088047065
-0.13423054 -0.050742358 -0.0032168468
-0.094523445 -0.06325503 -0.045678254
-0.14025155 -0.061442066 -0.004318144
-0.050392777 -0.07496898 -0.033163268
-0.033166677 0.15513453 0.031000532
0.095847875 -0.01618854 0.04050118
-0.26703894 0.12661728 -0.4433755
0.08475759 0.0026265497 0.03565792
-0.05380188 0.119003184 0.027548151
0.07532058 0.016452888 -0.019994672
-0.016212577 0.07560073 -0.031537432
0.15404098 -0.15971264 0.050630674
-0.05782445 -0.113389 -0.08196428
0.19414067 -0.071507156 -0.10505482
0.032373343 -0.092046425 0.06809166
0.035229024 -0.20054007 -0.0034973684
0.09579257 -0.22574419 0.02244852
-0.035105996 -0.017270697 -0.03543632
-0.045346867 0.13309777 0.02853784
-0.31403643 0.15652116 -0.47273216
-0.009553064 -0.070517346 0.017911116
-0.005155173 0.09263863 -0.031078134
-0.0453509 -0.05479793 -0.02895323
0.038074933 -0.03286323 0.055530768
0.099395685 -0.16452104 0.055920575
0.023479516 -0.14701125 0.055826627
0.16643873 -0.09540288 0.038243644
0.03986508 -0.15117425 0.07504083
0.094544426 0.0093719745 -0.003861068
-0.024843926 0.08064545 -0.020915959
0.14367096 -0.036485225 0.06389718
0.11080692 -0.19459064 0.027871588
0.12783045 -0.1588789 0.08753512
0.06422381 -0.21244185 -0.0749881
0.08034506 -0.095946826 0.10329522
-0.118641 0.032912217 -0.24443592
-0.0060551874 -0.11281585 0.046542343
-0.0061644074 0.05333894 -0.0537124
0.037885465 -0.1847871 0.04273667
0.04287026 -0.22173013 -0.06174049
0.18297483 -0.1628464 -0.01668939
-0.014443887 0.332222 0.09531634
-0.13089067 -0.07141322 -0.01853097
-0.013735272 0.16019924 0.016917765
0.093571275 -0.1387525 0.07647438
0.19466275 -0.153604 -0.021451471
-0.050457783 -0.12366757 -0.086856395
-0.28497997 0.14472023 -0.432467
0.08544408 -0.05782518 0.08117278
-0.089931324 -0.0035099888 -0.013962146
0.059538893 0.017852083 -0.02528239
-0.113895774 -0.08377952 -0.04090125
0.1555878 -0.16035053 0.062206753
-0.08779346 0.10926939 0.051660113
0.009856169 0.3479642 0.03934528
0.19266455 -0.12352235 -0.0016861749
-0.0062762713 -0.06817064 0.022190895
-0.031986237 -0.14120717 -0.13039902
-0.09023388 0.133505 0.05026449
0.028107325 0.2872218 0.056095537
-0.11560871 -0.090684146 -0.04352535
-0.13432711 0.04037508 -0.2623894
-0.093414314 -0.023971759 -0.023141937
0.14138405 -0.14420938 0.07238635
-0.08540538 -0.051500868 -0.04667354
0.08130755 -0.09804779 0.105358995
-0.17466122 0.07738043 -0.3123344
0.08808466 -0.15914078 0.11164346
0.091371514 -0.16491807 0.06275007
-0.1541096 -0.09564434 -0.012584699
0.09531742 -0.06338478 0.09161091
-0.052471314 0.16241314 0.05235976
-0.008349891 -0.029988278 0.0011403481
0.07888598 -0.09044405 0.09861075
0.10644465 -0.09724264 0.08998221
0.04963313 0.004760437 -0.0008275992
-0.029679224 0.22650217 0.07064644
-0.014870303 -0.025867147 -0.008680203
-0.028141135 0.17478158 0.03833405
0.103254005 -0.00082166336 0.01730323
0.17941403 -0.010448997 -0.055537026
0.056182817 0.32998323 -0.036279086
0.0047491766 0.30146733 0.0851946
-0.07230854 0.10047267 0.03275633
-0.23943843 -0.06952399 0.07236311
0.08488191 -0.10834831 0.10232638
0.092483275 -0.2072016 -0.09674117
-0.021537015 -0.03749658 -0.011717557
-0.0109888315 0.2460772 0.06590174
0.04510289 -0.054118194 0.061004933
-0.11852835 -0.09238351 -0.041971043
-0.11387837 -0.09869922 -0.049846854
0.029787626 -0.17481865 0.040236186
0.07903559 -0.14737053 0.08411855
0.06692996 -0.18061931 0.074879155
-0.22595191 -0.05342811 0.07595949
-0.1949905 -0.021300677 0.055287704
0.038862992 0.27234733 0.037719183
-0.10848674 0.03915888 -0.24173078
0.05169863 -0.14333715 0.088869214
-0.049624834 0.15800956 0.047216937
-0.024018874 0.23800357 0.07254526
0.045550767 0.019643525 -0.029646097
-0.012822789 0.24312569 0.06575049
0.04662924 -0.04539998 0.057109587
-0.06978534 -0.031768307 -0.048619773
-0.026072714 -0.15292828 0.01423699
0.023857618 -0.17766227 0.027045457
-0.19353636 -0.06328133 0.04151165
-0.117440835 -0.013506319 -0.013534053
-0.025599863 0.35778773 0.06756401
0.033007838 -0.012509596 0.052963953
-0.03657495 0.268417 0.080940686
0.023333983 0.034256574 -0.06476244
0.10307942 0.01426657 -0.040804885
-0.1759828 -0.0015262619 0.06301514
0.012280477 0.22156112 0.03073312
-0.042888045 -0.13346945 -0.08621446
0.0806955 -0.07541694 0.09074177
-0.04332678 0.20994301 0.07275478
-0.19853717 0.0054293144 0.069077685
0.12521408 -0.030703431 0.0581262
-0.07068588 0.106234476 0.03477572
0.16953857 -0.14258558 -0.006543895
0.20887744 -0.062438928 0.01636972
0.093557574 -0.19060567 0.045449264
0.09178238 -0.1879678 0.048591685
-0.02381506 0.1974468 0.04809062
0.121196076 -0.09089158 0.08079123
-0.19515744 -0.03203696 0.054288227
0.0027833034 0.04995187 -0.063620545
-0.022023866 -0.13806021 0.03267257
0.1523198 -0.14911982 0.07180741
0.13224623 -0.030431205 0.05580474
-0.00837069 0.32230523 0.103651665
-0.0965926 -0.10524691 -0.080451705
0.041727226 -0.12403489 0.0763522
0.042536996 -0.13560055 0.07901175
0.070248336 -0.19189861 0.06520529
0.010514401 -0.1316393 0.041586574
-0.14624602 0.03910088 -0.2851847
-0.01871372 0.2780308 0.091831684
0.14008255 -0.05108139 0.081795916
-0.23749149 0.12891518 -0.38960114
0.070797846 -0.0014486327 0.04551365
0.027875282 0.3351381 -0.008261675
-0.045110267 0.20166498 0.069370925
-0.14925177 -0.027395267 0.023987843
0.045634836 -0.059606973 0.064224854
-0.1700182 -0.08981681 0.004914953
0.18411806 -0.18274145 -0.029604686
0.15366666 -0.19311728 -0.008995293
0.07244037 -0.12223317 0.101086445
-0.16216516 -0.05573192 0.01840026
0.045521583 0.33631328 -0.023100352
-0.23754874 -0.061803143 0.081160456
0.1860515 -0.03670473 -0.0020809178
-0.0054608714 0.17279458 0.017168932
0.18530737 -0.034888953 -0.075356565
0.03794216 -0.07073446 0.06624265
0.15532264 -0.022614704 0.01694942
-0.048115794 -0.034270126 -0.03587277
-0.27485213 0.14412357 -0.4251865
-0.23987298 -0.012819415 0.10736373
-0.038699787 0.12161112 0.015808016
0.01775282 0.30710337 0.07711534
0.07435533 -0.0043557803 0.040640563
0.193415 -0.13454427 -0.008944107
0.050647076 -0.1793573 0.06765963
0.07163346 -0.07462931 0.08565835
-0.038835377 0.09827535 0.0019595053
-0.27433068 0.1360919 -0.41944215
-0.13506378 -0.0525791 -0.00358211
-0.104450814 0.10788239 0.045452934
0.06064411 -0.20466895 0.051471345
0.11857606 -0.084963515 0.0866476
-0.014918758 0.10020441 -0.017950343
0.053364526 -0.07603397 0.07701822
-0.001062721 0.009836314 -0.031789374
0.14558086 -0.18745038 0.0015185778
-0.058386106 0.08117396 0.008942565
-0.0748044 0.06082918 0.011225564
0.007469147 0.20974033 0.027895113
0.18485622 -0.03948943 -0.07771285
0.21359353 -0.084370986 0.003315018
-0.027302675 0.03671607 -0.045044743
0.041797526 -0.15942988 0.077235244
-0.19112213 0.087492205 -0.33030263
-0.17943968 -0.013515337 0.058883782
0.070512235 -0.15297954 0.0882684
-0.1575534 0.08095223 -0.30345663
0.1821246 -0.15883161 -0.013537683
-0.13556328 -0.040260915 -0.0044178944
-0.010387265 0.21774977 0.04841644
0.18884122 -0.12019033 0.0036757449
-0.110984825 -0.0030767843 -0.01797102
0.18669671 -0.14040697 -0.0065363403
-0.016169162 -0.097225174 0.051461816
-0.045862187 -0.096410796 -0.03145296
-0.07053013 0.02079119 -0.016503902
-0.004344209 0.21343563 0.040511545
0.07828878 -0.06568965 0.08428181
0.009077794 0.1100094 -0.03321638
-0.019017244 0.08995224 -0.02047718
0.036971003 0.008146267 -0.013590464
-0.105411 -0.022851033 -0.011904971
0.097170115 -0.011858482 0.03098473
0.0332699 0.24608643 0.026926573
-0.050570518 0.14521824 0.040393423
0.11053804 -0.029909682 0.058745053
-0.022544438 0.26900744 0.08980445
-0.15811792 -0.019856581 0.012886082
-0.03454071 0.14682803 0.02723881
-0.02362625 -0.09806792 0.045215987
0.0732868 -0.07299357 0.08563062
-0.0829937 -0.03970625 -0.04173778
-0.032231152 0.03880725 -0.039452355
0.09681146 0.0015391987 0.024390481
-0.03394834 -0.12020519 -0.029103687
-0.038692154 0.25261283 0.07951684
0.023519171 0.05180197 -0.08077617
-0.08999211 -0.10565579 -0.09124191
0.19165505 -0.084974006 0.022276409
-0.17562579 0.0703923 -0.30829948
-0.025775298 0.22159265 0.064269535
0.11060351 -0.22495577 0.00987571
-0.054186016 0.027049828 -0.027152741
-0.19194883 0.10324347 -0.34143555
-0.09191161 -0.00053501857 -0.010437272
-0.19520304 -0.016288167 0.071107864
-0.048023596 0.17085657 0.053496227
0.027590055 -0.16351323 0.04644542
-0.011415124 -0.1599366 -0.067195915
-0.007801089 0.33431306 0.10463565
0.08765845 -0.0113823665 0.038031653
0.042654738 -0.16415292 0.073367454
0.026399406 0.24399363 0.031725112
-0.08327439 0.12722465 0.05842706
-0.18429278 -0.076805174 0.025275527
0.14069141 0.016632352 -0.011759456
0.10144149 -0.08563474 0.10133638
0.10890926 -0.15262258 0.107944645
0.030995425 -0.10999512 0.067924075
-0.0012507461 -0.13393615 0.02966926
0.10515797 -0.016591726 0.037556782
0.03578188 0.29155293 0.051928785
-0.086097665 0.0069537405 -0.011111555
0.12120411 -0.16112037 0.09202929
0.1654595 -0.03143215 0.042366654
0.10781058 -0.037184536 0.07288222
-0.10077481 0.08508108 0.046968304
0.15031295 0.01054881 -0.017338287
0.0134887425 0.3193577 0.08820587
0.020467587 -0.18880922 -0.013809532
-0.009140211 0.009689755 -0.03815294
-0.1382167 -0.08357682 -0.01935914
-0.015206229 0.086171426 -0.02609666
-0.036491606 0.23722063 0.08159925
-0.042938918 0.018978778 -0.04188955
0.08034916 0.016178083 -0.019731369
0.2099193 -0.087054506 0.004945103
0.07420534 -0.22192 -0.0031515046
-0.061677206 0.06545412 0.0024320323
-0.30685467 0.15760109 -0.4584765
-0.021388886 0.029783262 -0.054402865
-0.1759606 -0.02577088 0.048483796
0.06496022 -0.017019026 0.0413353
0.057911217 -0.04578787 0.06311929
0.003911778 0.23303366 0.04497065
-0.03457052 0.12435056 0.013810652
0.12669623 -0.089483984 0.07678952
0.14470974 -0.042792108 0.07573004
-0.07679988 0.0063737263 -0.019611513
-0.09536431 -0.10144529 -0.06779674
0.033244297 0.279951 0.047218796
-0.11796735 -0.09370412 -0.043255486
-0.08218348 0.016303228 -0.016204625
0.057652503 0.004180487 0.045158572
0.14154439 -0.2058956 -0.0059666755
-0.0023852524 0.123636834 -0.01496347
0.014096034 -0.033200428 0.054004733
0.08669776 -0.031566452 0.059013255
0.07935292 -0.20370366 -0.083082505
-0.01736538 0.12030436 -0.003764386
0.03739004 0.04084692 -0.09549294
0.022897271 -0.15416345 0.048588343
0.06277177 -0.11264998 0.10233327
0.17873509 -0.034683194 0.030836657
0.03103104 0.26673448 0.041257262
0.036633525 0.052925993 -0.09165392
0.12619185 -0.22423571 -0.04132779
0.019920997 -0.011121262 0.0019113192
-0.00520961 0.024648808 -0.05509132
0.20671514 -0.07412919 0.015503389
0.06970167 0.023461515 -0.04277752
-0.076979555 0.110065855 0.04261247
0.0050153094 -0.117337726 0.037965965
0.024773093 0.09084185 -0.05851315
0.00021471124 0.14533046 -0.004268609
-0.16613986 -0.028123815 0.038425826
0.029658472 -0.029056052 0.061794527
0.019853933 -0.10799791 0.054589227
0.012628192 0.21995558 0.029465627
0.10153426 -0.03303894 0.06655419
-0.07384487 0.14318985 0.05967825
0.18640234 -0.0776195 0.031305123
0.037057925 0.2922806 0.051240116
-0.019592343 -0.07313348 0.0047881394
-0.10113266 0.019667046 -0.22365353
0.18238908 -0.17916663 -0.02594229
-0.08500342 -0.08402086 -0.06649242
-0.22027045 -0.051029574 0.072391145
-0.057937745 0.03542077 -0.01883771
0.18166554 -0.20043574 -0.03803573
0.0464053 -0.12200566 0.0829967
-0.0146153895 -0.069589004 0.0112878615
-0.060238134 0.15977696 0.057622246
0.034346737 -0.2021907 -0.042537883
0.014155303 0.023032168 -0.043773524
0.0022321714 -0.17277108 -0.049220227
0.054617614 -0.20910795 0.026461793
0.0057710023 -0.013877765 0.00018781688
0.2134556 -0.15603489 -0.039458368
-0.022825161 0.19252771 0.04427411
0.017747704 0.34505692 0.035167255
0.0335265 -0.0033386457 0.0060990728
-0.23207656 -0.056597017 0.079457015
0.049022086 0.04108985 -0.12330581
0.02654508 0.26890156 0.046505608
-0.035140622 -0.14035228 -0.08980981
0.006988837 0.27593464 0.043425057
0.041834224 0.34474114 -0.014808358
0.17511205 -0.15401284 -0.004476877
-0.17104678 -0.023545258 0.045488372
-0.292772 0.13934508 -0.46909806
-0.24439457 -0.003707629 0.09723329
0.19792713 -0.13278683 -0.011866304
0.041240603 -0.19864091 0.022905942
-0.016595041 -0.002772792 -0.03080848
-0.01605549 0.026655957 -0.06097217
0.20940207 -0.15844046 -0.0373278
0.022359759 -0.12219768 0.05630998
-0.0066405633 0.26021466 0.07053382
0.11346117 -0.23145348 0.00346946
-0.020625921 0.021941785 -0.056806315
-0.02911433 0.35926798 0.07058016
-0.09153474 0.09674629 0.047459416
-0.18903053 -0.085802585 0.009137269
-0.21645927 -0.07339578 0.055647153
0.020079853 0.28442067 0.061488688
0.014629271 -0.21330577 -0.057458814
0.16035959 -0.2162146 -0.028715229
-0.09615596 0.12218031 0.048469625
0.013605041 0.34648046 0.036705375
0.111171976 -0.009666546 0.023348425
0.18356438 -0.073274255 -0.096797355
-0.17738771 -0.008964305 0.059800617
-0.02369001 0.34172127 0.08493924
0.05063612 -0.118465275 0.08711966
0.02667594 0.2297452 0.022952856
0.06668783 0.03272221 -0.10959621
-0.11805013 -0.03088262 -0.0055803075
0.02714444 0.009503189 -0.021106077
-0.034635983 0.15824297 0.034155246
0.14580216 -0.13385865 -0.028524684
-0.21793504 0.09740273 -0.35556108
0.03216353 0.021968456 -0.035633583
-0.030541683 -0.059606336 -0.009570772
0.19939655 -0.099810496 0.0065778596
0.07563853 0.024488088 -0.06156794
0.0068421 0.25952566 0.058246598
0.038090583 -0.16201608 0.068503976
-0.054425187 0.041521624 -0.01828011
0.0090000015 0.34259403 0.062944725
-0.2205115 -0.052007455 0.07201828
0.033346705 -0.061112203 0.058714144
0.127933 -0.12877505 -0.041059412
0.11519702 -0.15778595 0.099316195
0.04602682 0.34011388 -0.02127051
-0.02340266 -0.14913332 -0.11053806
0.018016651 0.111190535 -0.040382393
-0.09317076 -0.1033474 -0.070867345
-0.0019104367 0.33118522 0.10884813
0.111521445 0.016199425 0.020209443
-0.14628062 -0.044261966 0.011275447
0.010209155 0.32138008 0.092304625
0.03580762 -0.13606398 0.07370246
-0.031589877 -0.14153866 -0.12746988
0.021715872 0.056741457 -0.07623157
0.0032497714 0.32080707 0.09809113
-0.03946117 -0.13391446 -0.124839485
-0.07074726 0.07410417 0.015598138
0.1422236 -0.06872653 0.07553844
-0.07837856 0.083439454 0.027907044
-0.11305552 -0.054674953 -0.024220368
-0.05377953 0.105509296 0.019451346
-0.088974215 -0.068037815 -0.053428695
