# .PCD v0.7 - Point Cloud Data file format
VERSION 0.7
FIELDS x y z
SIZE 4 4 4
TYPE F F F
COUNT 1 1 1
WIDTH 1000
HEIGHT 1
VIEWPOINT 0 0 0 1 0 0 0
POINTS 1000
DATA ascii
-0.020125737 -0.061110824 0.028753472
0.07886037 0.23466718 -0.040849723
0.14594153 -0.114882514 0.033256307
0.11113543 -0.057797864 0.06805107
0.06423269 -0.13905306 0.050516456
0.061064236 0.1330356 -0.0020693564
-0.050761465 -0.012385432 0.103289865
0.12450134 -0.024676023 0.04785789
0.024448205 0.009641008 0.031257734
0.045933235 -0.0757958 0.092959926
0.06041098 -0.036355965 0.08915467
-0.07152438 -0.016357953 -0.04261741
-0.14426215 0.044787712 0.2074136
0.19515495 -0.0086347945 -0.024870846
0.16768014 -0.18865588 -0.045069747
0.06332702 0.23173495 -0.053497836
-0.02066953 0.06540224 -0.040323995
0.14604805 -0.10074646 0.037512828
0.08461313 -0.0019084199 0.066324666
0.011360338 0.19200537 -0.07959379
0.06794251 -0.10356772 0.07936514
-0.3192422 0.14861077 0.37843442
0.17001644 -0.01482974 -0.019604025
0.12534194 -0.14112185 0.024895098
0.08449473 -0.20718889 -0.0068902923
-0.30706516 -0.02970149 -0.18390054
0.07512179 0.039622027 0.05427318
-0.1365658 0.06936188 0.20689632
0.1753343 -0.09361638 0.027978567
0.05538638 -0.08505525 0.08460703
-0.073459335 0.110163376 -0.112975165
-0.09253708 0.0058437516 -0.07391269
0.02735832 0.09612178 -0.012954331
-0.0047366493 -0.13803168 0.02176709
0.19081864 -0.072156064 0.02544943
0.07159495 -0.11021538 0.07154026
-0.0009017157 -0.14882424 -0.10363208
0.08509107 0.13026069 0.00048310848
0.0707078 0.012826192 -0.1256214
0.12762205 0.019131541 -0.017611858
-0.010506444 -0.03431482 0.061487585
-0.14587083 0.07658393 0.20762287
0.039554093 0.08924992 0.0019494114
0.16087675 -0.17340282 -0.01964081
-0.013365486 -0.10519425 0.058846902
-0.0060285176 0.053533208 -0.020470027
-0.090018354 0.058250725 -0.10001239
-0.13412382 0.08614853 -0.15556212
-0.06198844 -0.07191257 -0.003762295
0.08666418 -0.20567505 -0.100760534
-0.0124216005 -0.010143262 0.008187083
-0.010087859 -0.018433768 0.071513176
-0.21409672 0.09974968 0.29858425
-0.005846626 -0.112845786 0.058359057
0.20083322 -0.080427006 -0.017007101
-0.119045444 0.054827325 0.19132371
0.049640656 -0.11977891 0.07111116
0.028231397 0.16850859 -0.051392857
0.11378766 0.02256818 0.003641791
-0.11060435 0.071420796 -0.12602048
-0.08359836 0.05722819 -0.093573585
-0.14556022 0.04103771 0.20373766
-0.055006377 0.01917121 0.114919744
0.19274522 -0.099614486 0.024348257
-0.08816509 0.064429134 -0.10166259
0.1994264 -0.07854139 0.020007828
-0.11488593 0.023378698 0.15670192
-0.00637745 -0.10981458 0.067756474
-0.2953784 0.13051169 0.36817062
-0.07182415 0.05338912 -0.08070049
-0.24072567 0.01785618 -0.21625341
0.15477672 0.032556362 -0.06876001
0.07893451 -0.12935492 0.055707335
0.15566698 -0.17057188 -0.012427063
0.07252217 0.16486867 -0.008822917
-0.00516108 -0.14060564 0.007514581
0.062403116 -0.1362616 0.053432547
-0.08107835 0.0046089394 -0.062740006
0.05931326 -0.029220257 0.08428028
0.1792862 -0.019827366 -0.00839804
0.012848463 0.082994476 -0.019137591
0.07472685 -0.05810777 0.08772677
0.04296423 -0.06160052 0.086847425
0.21877427 -0.115288585 -0.03941317
0.015224497 -0.08994228 0.0767847
0.059676953 0.24337359 -0.06315239
-0.12231628 0.029700136 0.1810939
0.07703787 0.17766555 -0.011620702
0.029022455 0.11337496 -0.020781152
-0.23495197 0.012169424 -0.2078786
0.15726762 -0.033627752 0.016009824
-0.02790415 0.007123701 -0.015363775
-0.30260238 0.16463214 0.37556118
-0.30156568 0.1331413 0.3737606
0.036268335 0.012597159 0.040489364
0.06681348 0.18856283 -0.026899925
-0.170877 0.049054354 -0.16914205
0.16127461 -0.031193465 0.010624093
0.009581148 -0.16519764 -0.085147806
-0.21537882 0.110462494 0.2958172
0.22591922 -0.07008268 -0.06288992
0.09573707 -0.20240355 0.0054500443
-0.06418236 0.08454158 -0.09058269
-0.31911126 -0.01474557 -0.17580819
0.23144326 -0.12387582 -0.059787434
0.09332147 0.0049757147 0.063063115
-0.026493024 0.05704097 -0.041129503
0.08816225 0.2293374 -0.047718756
-0.07151599 0.078491695 -0.09402516
0.13953704 0.015193945 -0.04343793
-0.09077185 0.06686574 -0.105373144
-0.19823007 0.048105955 -0.19369975
0.07522334 -0.06291765 0.09078959
-0.20810041 0.0013125653 -0.19409978
-0.019059373 0.07615123 -0.044674907
0.047485642 -0.12975869 0.06272578
0.04726554 -0.10501538 0.084821336
0.19251655 -0.1769695 -0.044880364
0.14190398 -0.14761539 0.026607992
0.04619124 -0.2070608 -0.042068616
0.03040371 0.2651241 -0.10177449
0.16351883 0.027341055 -0.0508441
0.11782853 -0.09632836 0.056359686
0.018082846 0.022418538 0.018496627
0.13317792 -0.08224518 0.04814003
-0.0470352 -0.0070870663 0.10768025
0.22390945 -0.068558216 -0.060304537
0.20200023 -0.1637112 -0.037667587
-0.1627765 0.053737305 0.22535895
0.1943522 -0.11833475 -0.009758725
-0.141394 0.046667922 -0.14082465
0.0036643434 0.04374137 -0.0062777814
-0.005910791 -0.013516311 0.015983319
-0.20556834 0.0034644236 -0.18845692
-0.17444035 0.05971366 0.23704498
0.038348068 0.15926167 -0.037107375
-0.31538785 0.044960916 -0.21096905
0.030817451 0.23206201 -0.08347313
0.060044654 0.009469581 0.06397803
0.1422874 -0.050343152 0.040254083
-0.011525498 0.014739849 -0.0044797207
0.0885552 0.16046968 -0.017636286
0.12538035 -0.010701288 0.036990836
0.19249393 -0.11703132 -0.007503056
0.08421041 0.17934601 -0.020145066
0.04000773 -0.051981535 0.07892309
-0.037205245 0.02356672 -0.032802455
0.039196678 0.23965143 -0.07990687
-0.24604654 0.04111526 -0.24346758
-0.12553248 0.06667677 -0.13713212
0.12494003 -0.1794577 0.02388111
0.17160794 0.02171087 -0.060584486
0.10940412 -0.039501134 0.06888228
0.041571148 0.088059604 0.0044436078
0.10894804 -0.025811268 0.06394712
0.105007105 0.020959457 0.021821886
-0.058585178 0.004570181 -0.042102333
0.106137104 -0.029584868 0.06849673
0.117434464 -0.08386996 0.059704214
-0.09815831 0.100728005 -0.13049905
-0.16778363 0.012700609 -0.15693778
0.080794826 -0.16164348 0.017145347
-0.15446942 0.08785242 -0.17513448
-0.27589077 0.13229603 0.36191154
0.015648706 -0.05434815 0.057878934
0.011071625 -0.12305434 0.06458671
-0.13539465 0.03493096 -0.12896295
0.06873529 0.059692975 0.044719085
0.0770048 0.17861028 -0.012163134
-0.20183237 0.05873428 -0.20276314
0.041285463 0.125923 -0.01634308
0.078944296 -0.1742395 0.0036010088
0.038109567 -0.05106258 0.076685116
0.1729931 -0.095813066 0.027023267
-0.20344284 0.08194555 -0.21682146
-0.20607655 0.0749322 -0.21543358
0.11737674 -0.1742014 0.018537946
0.07528855 0.1374731 0.00856317
-0.07170501 0.041637495 -0.07422095
0.13467155 -0.081424 0.04696384
-0.10489828 -0.0064078937 -0.07860125
-0.27093002 0.03537778 -0.25343665
-0.31062365 0.023016375 -0.20420836
-0.03585619 -0.106869034 0.012799026
0.15800269 -0.07179178 0.029963486
0.11032778 -0.20098948 0.003082432
0.10664695 -0.14791286 0.03267258
0.1979975 -0.14049649 -0.019662276
0.01656123 -0.11812998 0.06694912
0.029551866 -0.11420765 0.07673017
0.097329326 -0.058305643 0.07914439
-0.25078762 0.11614806 0.3330567
-0.2337995 0.10470878 0.31295317
0.09050905 -0.20729867 -0.101903856
-0.06911658 0.07306542 -0.08888441
-0.11137846 0.022525275 0.15425164
-0.010317844 -0.086483166 0.0514977
0.16951784 -0.009709835 -0.022836668
-0.19325031 0.083787695 -0.20847751
0.10771082 -0.21122152 -0.09578364
0.2088007 -0.16210558 -0.04308328
0.067085125 -0.026140746 0.08973466
0.023681102 -0.07989579 0.07908989
0.17504671 -0.17692669 -0.033475317
-0.3148111 0.06728692 -0.21917959
-0.273091 0.12671454 0.35443228
-0.06090481 -0.004585184 -0.039265282
0.011141271 -0.040003445 0.045971237
-0.32608345 0.041495588 -0.20194426
0.12825963 -0.01789873 0.043117687
0.084734395 -0.20483832 -0.097273365
-0.1327347 0.085432835 -0.15390107
0.15259525 -0.15661083 0.03531792
0.02957695 -0.18251409 -0.057432976
0.111064844 -0.20466124 -0.055486333
0.07515692 0.18697326 -0.018390194
0.017070435 -0.023179194 0.042285968
-0.081187375 0.044931974 -0.084698126
-0.020948267 -0.09705348 0.047483504
0.012255143 0.055664416 -0.004866718
-0.20830835 0.08748222 0.28271782
0.1693095 -0.026087955 -0.0076508406
0.08373474 0.038954172 -0.014715013
-0.10448364 0.056040403 -0.11207309
0.056785136 -0.15312675 0.03112436
-0.26551178 0.10927001 0.33047694
-0.0034890892 0.01975455 0.0001680246
0.121930204 -0.050127152 0.060350087
0.15308167 0.016269334 -0.05198426
0.19124442 -0.09753748 -0.0048313364
-0.11196826 0.036415767 -0.108295284
0.069776095 -0.10059727 0.08174458
0.026279498 -0.1952677 -0.053541966
-0.21633434 0.07176598 -0.22311954
-0.28544876 0.15244058 0.37136275
0.1542324 -0.06533107 0.033891894
0.045682434 -0.15254535 0.029486714
0.15835357 0.0012814251 -0.030937823
0.15724431 -0.08606015 0.027998816
-0.17602095 0.07523438 -0.18804875
-0.17397666 0.08982849 0.25370318
0.19137277 -0.02107255 -0.06853907
0.13464849 -0.12950201 0.030390134
-0.2396004 0.106240295 0.3171412
0.13620417 -0.075596474 0.046105504
0.099228844 -0.08825868 0.07053685
0.017827692 0.07265384 -0.00896843
0.04172949 -0.042438388 0.075328365
0.12025253 0.03382976 -0.09159458
-0.14785428 0.029803641 -0.13760437
-0.22137748 0.01045904 -0.1945094
-0.08643307 0.028316462 -0.080499604
0.067184895 0.051298965 0.047848128
0.12502702 -0.18770777 0.014545599
0.050789703 0.25831112 -0.07939538
0.07419837 0.06115577 0.04595061
0.061644856 0.117001764 0.0071541537
0.047450963 0.24327734 -0.07430651
0.037225194 0.25877088 -0.09207802
-0.13549471 0.054255117 -0.13953003
0.15549298 -0.02982518 0.016674856
-0.18062681 0.08239273 0.2588774
0.18665235 -0.1281287 -0.0051150816
-0.20492034 0.08797659 0.28183746
0.2153057 -0.04713499 -0.06309196
0.13893406 -0.06213991 0.045761168
0.2080607 -0.14586096 -0.034201592
0.16178691 -0.12893537 0.034706496
0.14364481 0.00786074 -0.018078793
-0.02514742 -0.058821455 0.02291011
0.10813269 -0.14005792 0.036822192
0.010669842 -0.13439259 0.043330617
0.05451832 -0.009282154 0.06907731
0.17427953 -0.023170153 -0.01117541
0.19924313 -0.08466751 -0.013716997
0.08054422 0.037551343 0.028225046
-0.30786946 0.060465608 -0.22805655
-0.14616548 0.06549173 0.2182403
0.19019556 -0.15846637 -0.024568852
0.08813444 -0.09354543 0.07393552
0.07367089 0.040016662 0.05606182
0.2226037 -0.13684554 -0.051850036
-0.16251378 0.046559986 -0.1601245
0.1960513 -0.16539198 -0.03283057
0.08444198 -0.0659308 0.08584745
0.06975404 -0.12709038 0.0598787
0.036080148 -0.04216605 0.070002496
0.06978225 -0.082217805 0.09092311
-0.19874787 0.097240716 0.2796608
-0.19461423 0.034681376 -0.18310806
0.02126398 0.05057615 0.0061489614
0.15028632 -0.15370207 0.037590694
-0.081294365 0.026986456 0.14651257
0.19208327 -0.017099252 -0.10394805
0.037773196 0.04403862 0.024825163
0.14008565 -0.03992708 0.03780067
0.051447507 -0.12541129 0.06566948
0.04295285 -0.0388958 0.074529454
0.05964605 -0.12951 0.0600945
-0.16525725 0.088251196 -0.18523842
-0.057785835 -0.045650464 -0.01414603
0.094409764 -0.10317781 0.066349395
0.056428276 -0.041344568 0.08820852
0.079009995 0.13548023 0.0063957246
-0.011523915 0.0030934562 0.0018348853
0.12478654 -0.17556642 0.026069483
0.14354816 -0.024147369 0.028170245
0.09414354 0.010583041 0.05690805
-0.22018388 0.11407586 0.30356795
-0.24100295 0.12053983 0.32049188
-0.1134404 0.03220164 0.18014674
-0.075558916 0.0017614865 0.12975931
0.19051588 -0.14808732 -0.020631174
-0.04427004 0.0017056166 -0.027428
0.017921373 0.03419356 0.011965493
-0.14790487 0.09035213 -0.17047247
-0.10715089 0.0010397873 -0.08470332
-0.021077024 -0.10416623 0.051221274
0.04011043 0.26673228 -0.093749166
0.068301626 0.09934255 0.022828834
0.081109434 0.2291969 -0.038107634
0.0278326 -0.18649857 -0.05687202
0.11624919 -0.051796336 0.06424735
0.00104459 -0.1237497 0.055772934
-0.029844685 0.0032373865 -0.015035836
0.045895297 0.23460725 -0.07103249
0.1341511 0.014388774 -0.014292558
0.12677902 -0.17788382 0.024874646
0.079551205 0.20516035 -0.025312888
-0.12499695 0.051086023 0.20106679
-0.28634635 0.14540088 0.37214744
-0.06267824 3.3148022e-05 -0.043394323
0.003200271 0.075135134 -0.023720965
0.16478309 0.00015113149 -0.03252161
0.056888163 0.15102708 -0.015650054
0.07525426 -0.14412351 0.04341364
-0.07288227 0.03059882 -0.06931613
-0.15725143 0.06085078 0.23103185
0.19618316 -0.14491807 -0.023875747
0.18520811 -0.19491196 -0.061455347
-0.02332426 0.02200979 -0.019235583
0.13281637 -0.13720559 0.024819205
0.022501366 0.20822434 -0.07817384
0.16359833 0.008405646 -0.03808232
-0.23834024 0.06800914 -0.24125336
-0.3021201 0.033505667 -0.2236293
0.13666247 -0.12641825 0.03266501
-0.07580372 0.0032568155 -0.057172313
0.040020924 0.18699664 -0.05060834
-0.11903482 0.061710272 0.17443213
-0.01763777 0.036488593 -0.02187153
0.044177175 0.0637429 0.020013828
-0.026764076 0.0052374033 -0.013296408
-0.023817817 0.058364667 -0.039394718
-0.05642338 -0.0034939414 -0.03574918
-0.011924899 -0.037679546 0.058297377
0.01775988 0.094354495 -0.02079377
-0.06269073 0.03361653 -0.061610352
-0.10851641 0.0024158298 -0.0867009
-0.091084965 0.07479997 -0.10996102
0.12902398 -0.10622164 0.046499427
-0.32336256 0.07397541 -0.23022689
0.10058766 -0.06386659 0.07539564
0.18559241 -0.008406152 -0.008809213
0.0073772813 0.0883057 -0.027031561
0.12245123 -0.20218031 -0.057128295
-0.28041792 0.04064179 -0.25464472
-0.009737061 -0.038483355 0.04234944
0.12977818 0.020831263 -0.04926227
-0.16836917 0.092245035 -0.19025579
0.07326502 0.026724232 0.06252018
-0.075989865 0.046234462 -0.0806402
-0.07141221 0.01818409 -0.061239142
0.15574165 -0.1266243 0.02791282
0.124618635 -0.072261244 0.05590581
0.06969803 -0.0014656562 0.078753956
-0.3035971 0.048459418 -0.22750618
0.088483326 -0.2025475 -0.07390677
-0.031317446 -0.09185145 0.035159267
0.09768596 -0.01718967 0.073116176
0.13765104 -0.20460728 -0.061627753
-0.31100512 0.13532762 0.3800148
-0.20010984 0.06373481 -0.2038945
-0.28815648 0.07688899 -0.2568942
-0.062324535 -0.0056557576 -0.03998633
0.10525295 0.008488464 0.043750282
0.08080388 -0.17856213 -0.0006863672
0.19357929 -0.084462084 0.026569406
-0.081340194 0.091309726 -0.10997828
0.12178508 -0.067472115 0.058580726
0.12691492 -0.048771363 0.05491489
-0.03998098 -0.00019153582 0.10318517
0.14163244 0.0014401098 -0.003418352
-0.095751315 0.08480619 -0.11966218
-0.10637055 0.03313406 0.17819713
0.07321462 0.053187087 0.05082462
0.08821631 -0.016184393 0.07736582
-0.01241927 -0.02994758 0.067221984
0.0364301 -0.106722765 0.07897769
-0.11516429 0.03165964 -0.108646706
-0.19671029 0.005280029 -0.18187287
0.12983754 -0.013015856 0.033563115
0.16208903 -0.04948698 0.019010557
0.06682822 0.18537024 -0.025155444
-0.029320369 0.0038298916 0.07431239
-0.14949292 0.035143778 -0.14200112
-0.08642999 0.04935331 -0.09190011
0.17527011 -0.12970862 0.03610559
-0.09356532 0.049847294 -0.098708406
0.19378355 -0.013956406 -0.011462626
0.20404269 -0.08135996 -0.021330396
-0.15038367 0.04650554 -0.14897624
0.13512447 -0.06303568 0.047874723
-0.15633751 0.06978502 0.23321459
-0.11290145 0.028017286 -0.104598284
0.16392209 -0.14140733 0.036112975
-0.1348517 0.051101558 -0.13723138
0.120333165 -0.044140086 0.05974566
-0.20124926 0.0356995 -0.18974178
0.20072219 -0.023132373 -0.012234701
0.17674573 0.0043914095 -0.023855286
0.11937401 -0.10324583 0.05353539
-0.3059404 -0.0033212916 -0.19764529
0.038966745 0.12485387 -0.01788876
0.15356874 -0.04469889 0.025464553
0.024111906 -0.09746684 0.08852123
-0.0056659663 0.039432462 -0.012494036
0.021788878 -0.055237617 0.06398914
0.15444608 -0.05808395 0.031032482
-0.023448464 -0.10711312 0.050645273
0.21817948 -0.08461758 -0.040648047
-0.07297339 0.062090095 -0.08647024
0.023810308 -0.08504124 0.08199744
-0.03773334 -0.09998926 0.033689618
0.051392447 -0.08088639 0.08630218
-0.034373846 0.06397159 -0.052109897
0.17333572 -0.07754537 0.019268427
0.011837212 0.08120945 -0.019096881
-0.3089962 0.06254581 -0.22794646
0.03202033 -0.20048271 -0.045453373
0.03665316 0.26490924 -0.095929764
0.064253934 -0.076435946 0.088062845
0.06930185 0.101112075 0.022786325
-0.0066578463 0.026044901 -0.006145946
-0.015425339 -0.023920003 0.07529198
0.1767325 -0.006325229 -0.018058062
-0.078395985 0.04512268 -0.08224324
0.024759777 -0.055352315 0.06677431
0.029470297 -0.17763299 -0.0601767
-0.11970433 0.023761498 -0.10852656
0.03488499 0.082707435 0.001216226
0.017601369 -0.04158474 0.05274988
-0.0104387 -0.016398704 0.068843916
0.17155918 0.02303459 -0.046320464
0.018353432 0.23841949 -0.098343976
-0.2885391 0.14546423 0.37659952
-0.3098877 0.067647286 -0.22867106
0.07466956 0.02040224 -0.12609676
-0.22059706 0.1138501 0.30331168
-0.263912 0.13259587 0.3468993
0.06706692 0.123349816 0.008683395
0.0830043 -0.0635334 0.08737307
-0.11100053 0.08029547 -0.13119446
0.1508255 -0.16706711 0.026861891
-0.28817496 0.01951186 -0.239857
0.13983478 -0.18060753 0.016263902
-0.33097532 -0.012597907 -0.1771059
-0.017547112 -0.112338305 0.041997813
-0.014454718 0.039799254 -0.020748751
0.03986944 0.0015174056 0.049796294
0.05289846 0.072916605 0.023035076
0.076656215 -0.18694642 -0.011877644
0.041634675 -0.16300659 -0.0008124558
-0.32320225 0.059448704 -0.20903546
-0.07837089 0.016372453 -0.066635095
-0.08792021 0.061851982 -0.100041434
0.1311485 -0.07795828 0.050115354
-0.25584176 0.12486635 0.34405634
-0.1188321 0.04223156 -0.1177394
-0.11040355 0.07040147 -0.12528388
-0.14884904 0.05693358 0.2230506
0.039837513 -0.15949288 0.005695081
-0.0041320277 -0.12121711 0.049655233
0.045629084 0.08277011 0.011030523
0.12159378 -0.13535196 0.030289322
0.06029765 -0.20362735 -0.023377176
-0.070592344 -0.010069181 -0.045172013
0.05049948 0.1770213 -0.03559672
0.010334365 -0.07598101 0.064734384
-0.092672095 -0.0033641476 -0.06904515
0.17734024 -0.018670661 -0.010809013
-0.21812066 0.115721874 0.28267157
0.04827655 0.11738101 -0.005304631
-0.0042716847 -0.08718548 0.05742012
-0.06806309 0.07485167 -0.08888679
0.11271196 -0.03080329 0.062426213
-0.20361833 0.09723329 0.28334403
-0.11360925 0.040961307 0.1875049
-0.06145847 -0.007076112 0.1138137
0.07700779 0.14466566 0.005023252
0.04367697 0.21061371 -0.060059667
0.044480678 0.16515282 -0.034679968
0.005083373 0.07553064 -0.022209026
0.050358254 0.24349035 -0.07175701
0.071839646 0.08810377 0.03216379
0.1691683 -0.1640725 -0.019820515
0.079561055 0.18621933 -0.016905818
0.026242869 0.24589923 -0.09516732
-0.023413163 -0.12613569 0.02668498
-0.2516512 0.068549596 -0.25374728
0.060866274 0.11275731 0.008741456
0.003345802 -0.15162013 -0.02725401
0.22793245 -0.07160975 -0.065479934
-0.29619354 0.08277559 -0.24887885
0.17440368 -0.06896917 0.0152307665
0.11046312 -0.07441995 0.065786324
0.1412379 -0.020850701 0.027597511
0.16153987 -0.09360548 0.023924427
0.095987424 -0.17764018 0.0007966146
-0.1576653 0.07135868 0.23915556
0.0058345213 -0.08719346 0.066687725
-0.10029811 0.0075096297 -0.081929214
-0.010619878 0.07141046 -0.03436939
0.12257987 -0.12247972 0.039683256
0.088149555 -0.14182602 0.04243517
-0.12062796 0.09088258 -0.14575787
-0.042490996 -0.017946089 0.0793985
0.04987257 0.019867871 0.049017604
-0.006555117 0.05848962 -0.02363951
0.0018390863 -0.034061365 0.05653396
0.12390612 0.022888694 -0.06945567
0.03837222 -0.14607401 0.038212456
-0.12757474 0.013788791 -0.110334754
0.029693287 0.23673451 -0.087036595
0.045653906 -0.15347119 0.02671976
0.20459214 -0.11183078 -0.021797767
0.17490545 -0.04074109 -0.0010768715
-0.31206656 -0.039656915 -0.17338513
0.190789 -0.15878882 -0.025251497
0.13316257 -0.019794812 0.03837136
-0.122251876 0.06121202 0.17424484
0.046385687 0.17652099 -0.03909625
0.100895286 0.008611244 0.04945066
0.092790134 -0.046027537 0.08402322
0.020354796 -0.1039658 0.08042629
0.19518238 -0.14544457 -0.023884727
-0.032550838 -0.011423829 0.096644826
0.0018836102 0.093608975 -0.034942016
0.085194215 0.20865144 -0.034504812
0.19884264 -0.052407224 0.017362129
0.058815658 0.10922484 0.008776811
0.090045966 -0.19130918 0.0027600548
0.095569916 -0.15884742 0.025529873
0.14896236 -0.2099872 -0.063065425
0.011310721 -0.113952756 0.061258633
0.05226432 0.022003926 0.05005195
-0.14616449 0.09606125 -0.17197172
0.17751977 -0.09100633 0.028566748
0.14450024 -0.01102779 0.008242646
0.04329806 0.18844418 -0.048389263
-0.027441617 0.07790213 -0.05330715
0.22186321 -0.09014964 -0.04416613
-0.23957275 0.057613544 -0.23674823
0.018043563 -0.07599343 0.07180697
0.08491281 0.031291254 0.037345245
-0.009729204 -0.112680264 0.052917056
-0.32092553 0.030698162 -0.19492647
-0.08672399 0.030801697 -0.08211348
0.17751485 -0.10895695 0.038293004
0.11411881 -0.13174991 0.03630056
-0.23263846 0.0067025702 -0.2027947
0.076858886 -0.07140048 0.0894724
0.12534557 -0.13784666 0.026585335
0.12991774 -0.033480156 0.044948366
0.17002873 -0.06020482 0.016364424
0.17907985 -0.0748456 0.021236492
-0.20411813 0.027705435 -0.18803796
-0.042670727 0.017158827 -0.03433854
-0.05606167 0.0059149573 -0.04051777
-0.0049377396 -0.011066445 0.061342765
-0.11297131 0.04843681 -0.11573129
-0.108121194 0.030202711 -0.10140103
0.08410196 -0.086161084 0.08086115
-0.19994955 0.043570273 -0.19281718
0.076445065 0.02896207 -0.12910989
0.04318443 0.13344091 -0.018677572
-0.16594249 0.05304842 -0.16678438
0.023542445 -0.049204107 0.062325653
0.2183605 -0.15396768 -0.054238986
0.15384197 -0.032997858 0.019658793
-0.23620853 0.06988808 -0.2403182
0.025190582 -0.041064076 0.05942383
0.088170014 -0.15787241 0.02813455
-0.09645327 0.038191654 -0.09503703
0.019221274 -0.15459213 0.0029744469
-0.16430739 0.04039783 -0.15842831
0.078230724 0.07033328 0.03641139
-0.25693935 0.13734135 0.32448328
0.049978442 -0.09770693 0.0865083
-0.13807712 0.015566873 -0.1422811
0.04880858 -0.18500417 -0.038455836
-0.17035088 0.074673764 0.2506634
-0.2909764 0.05382183 -0.24546728
0.060737 -0.025440129 0.08353656
0.020937784 -0.025188858 0.046920206
0.06610805 0.003671946 0.07267843
0.062452015 -0.11168141 0.07531975
-0.23545465 0.12530613 0.31275946
-0.03317016 -0.05448333 0.013204956
-0.24882327 0.13052076 0.33183852
0.06682436 0.14924172 -0.0055745062
0.1322979 -0.21687886 -0.08409271
0.025155528 0.18290263 -0.062015057
0.18262409 -0.07936635 0.02693574
0.06970074 0.16881536 -0.01354845
-0.009030192 -0.10529051 0.06287289
0.17729105 -0.088506 0.027001755
-0.28965962 0.026960608 -0.23809832
0.00028726086 0.09679651 -0.038132653
-0.03253093 -0.07077646 0.022622777
0.101090394 -0.13081232 0.04415342
0.037381474 -0.053574625 0.0773796
0.16346765 -0.17599872 -0.02487396
0.145099 -0.20752451 -0.058650244
0.13594836 -0.021353254 0.035772987
0.18659866 -0.12129828 -0.0071305553
0.06755851 -0.08856464 0.09059916
0.1123521 -0.070376724 0.06563408
0.032933615 -0.13498808 0.05364217
0.14305052 -0.19779395 -0.046813007
-0.27892524 0.060911432 -0.26341403
-0.21819034 0.01595222 -0.19456556
0.019832583 -0.0043426175 0.03460696
0.1059675 -0.06315488 0.07194452
-0.11295207 0.10104068 -0.1442288
-0.2195596 0.026084077 -0.20131294
0.051086597 0.11348435 -0.00061650027
0.17292674 -0.089222245 0.023389941
-0.052559048 0.022941848 -0.046537116
0.05370096 -0.18740907 -0.03266767
0.19958378 -0.041546356 0.0031537686
-0.2876241 0.12691551 0.3608266
-0.17029883 0.08687878 0.24149817
-0.12870997 0.10464959 -0.1606285
0.047574744 -0.14883907 0.03525083
-0.18830003 0.101526365 0.24994716
0.18862024 -0.070072256 0.027393747
0.16416752 -0.020415299 -0.0080884425
-0.022808125 -0.013934723 0.00072229403
0.12716398 -0.103101835 0.048526503
-0.012785112 0.048149582 -0.023745146
0.1635037 -0.17730568 -0.026707143
0.0809397 0.0811229 0.02794726
0.0006095302 0.04214238 -0.008211299
-0.14113835 0.05778544 0.21663213
-0.07590531 0.07081871 -0.09388938
0.00682441 0.09326457 -0.030226577
-0.1248868 0.09797848 -0.1535081
0.10291773 -0.11862096 0.053039793
0.048295148 0.013121118 0.051229198
-0.053996034 0.018418921 -0.04540266
0.19544631 -0.009468595 -0.012371369
0.12916413 0.0019158393 0.017023513
-0.07199306 0.03559433 -0.071208924
0.038745068 -0.11045388 0.081975035
-0.092969686 0.0140134385 0.15095831
0.15009288 -0.17666163 -0.017342115
-0.14846133 0.026836263 -0.13655208
-0.23986213 0.11235786 0.32414752
0.076399334 0.12039551 0.01663612
-0.2081867 0.1124714 0.2759233
0.10852741 0.029806873 -0.048275154
-0.02514142 -0.09975096 0.045102205
-0.28256524 0.0286778 -0.24783434
-0.2606002 0.02994551 -0.24102356
0.14592554 -0.014657594 0.011373452
0.09771811 -0.043459035 0.08013306
0.21994483 -0.041162252 -0.099100016
0.075380884 0.054854225 0.047150664
0.10849482 -0.107904755 0.055766907
-0.14938875 0.044506524 -0.1469809
0.1766659 0.017655486 -0.03441228
0.11099929 -0.19626518 -0.04560071
0.051350463 0.06449656 0.026180604
-0.041286547 0.06998405 -0.061704736
-0.037579175 0.03769314 -0.04080278
-0.033622846 -0.119822696 0.009956983
0.12593512 -0.19672067 -0.03833899
0.07770209 0.18549344 -0.015255258
0.05453089 -0.17897286 -0.02753936
-0.23089798 -0.0055667143 -0.21612595
-0.019041559 -0.1326874 -0.008625334
-0.29782367 0.0628169 -0.23987392
0.08634881 -0.040163938 0.088652946
0.2045333 -0.10596677 -0.021253383
-0.012717543 -0.027977949 0.017583752
-0.28067106 0.010964138 -0.25267577
-0.031640653 -0.11127332 0.019050082
0.01529407 0.21146905 -0.08653925
0.034458276 -0.15174937 0.022019409
-0.24576366 0.03277389 -0.24290791
-0.19785982 0.023448685 -0.17999455
-0.19936794 0.06078258 -0.2016149
-0.1464134 0.04528533 0.20888758
0.113323286 0.0026881117 0.037494645
0.016674273 -0.052598886 0.057870623
0.19219351 -0.010680191 -0.014696215
0.15468524 0.029813716 -0.057856545
0.045995317 -0.11857773 0.07303662
0.20390733 -0.07249575 -0.024004323
0.09111006 0.0083414195 0.06267195
0.070840985 0.08633601 0.032206707
0.18246722 0.01099614 -0.040033706
0.08070181 0.24075855 -0.04246369
0.072257586 -0.123262 0.06270254
0.024176765 0.023605442 0.02343905
-0.050673425 0.019225223 -0.04279413
-0.08956658 0.10066543 -0.122590125
0.06052354 0.12040916 0.004279401
-0.15764405 0.048764396 -0.15685543
0.06789308 0.009571692 0.071116626
-0.1346936 0.054514915 0.20869702
0.03299013 -0.1358235 0.052255873
0.18508387 -0.027791202 0.0012324678
0.16218239 -0.007691246 -0.023210151
-0.111901805 0.11617627 -0.15147059
0.18302917 -0.058006294 0.015728151
-0.094389714 0.03971666 0.16247176
0.009175893 0.026925495 0.007889714
-0.039872263 -0.09757752 0.030422
-0.23967797 0.019664599 -0.21627364
0.13890919 -0.15431207 0.027492668
0.100228205 -0.21223883 -0.11745565
-0.16201767 0.050068967 0.21288337
0.05422767 0.26507747 -0.08088383
-0.12396911 0.00012846611 -0.09962491
0.20728073 -0.09521255 -0.028693229
-0.06921816 0.106079884 -0.10687378
0.19816408 -0.017863564 -0.015715148
-0.07037248 0.08424688 -0.096096985
-0.09093665 -0.01638495 -0.060395915
0.046651285 -0.10056707 0.08500943
0.20771712 -0.050107878 -0.047347497
-0.2022186 0.061893325 -0.20482938
0.13003564 0.018123783 -0.025720896
0.19469176 -0.03781257 -0.039368153
-0.09634267 0.041205093 0.16404553
-0.2319372 0.12131131 0.3152132
-0.22382237 -0.002459944 -0.20705228
-0.27734 0.031689566 -0.25559518
0.15191434 -0.094517656 0.031809494
-0.28798485 0.1605059 0.36112615
0.026863731 0.20490547 -0.07237619
-0.14024498 0.0606164 0.21619135
0.15448901 -0.048747946 0.027440265
0.04579405 0.070992164 0.017566193
-0.23985526 0.020160548 -0.21670505
-0.004342241 0.067836955 -0.026678355
0.01559235 -0.15100355 0.009255281
-0.16324385 0.05718824 -0.16655499
0.014309511 0.03576089 0.007805625
0.15390176 -0.118699 0.027093472
-0.09847867 -0.007367016 -0.072197355
0.056907073 -0.13518462 0.05568153
-0.010868454 -0.026293855 0.07068241
0.17186858 -0.08934977 0.022489065
0.15813005 0.016756617 -0.04762122
-0.26996756 0.14738189 0.3347965
0.16724317 0.0037581492 -0.032222025
0.05575579 0.16252626 -0.022921497
0.03422289 0.009098028 0.040511254
0.092669405 -0.04387525 0.08427366
0.1225973 -0.014018109 0.04609633
0.049284276 0.16614714 -0.030815594
0.05288269 -0.17265067 -0.0009850201
-0.21327943 0.025013281 -0.1949761
0.0060179043 0.088960215 -0.028632632
0.13404487 -0.21385023 -0.075202234
-0.055485476 0.09299608 -0.09720888
0.12870689 -0.16864774 0.02591244
0.083054595 0.16508695 -0.012241435
0.08494777 0.20970994 -0.03464162
0.06689616 0.19639927 -0.031071763
-0.24527423 0.025139673 -0.22437079
-0.022246959 -0.09641102 0.045944985
-0.20909864 0.11303715 0.28795123
0.05638426 0.13675866 -0.008377517
-0.306894 0.14678955 0.39073992
-0.12683189 0.048958965 0.20310315
-0.22199005 0.034410827 -0.2080544
0.14894825 -0.053917497 0.03495885
-0.26838034 0.1431122 0.35146272
-0.2152678 0.04284532 -0.20646508
-0.12417597 0.0513354 -0.12757242
-0.15894857 0.04299735 -0.15492529
0.04002598 0.2695414 -0.10004115
0.042856015 0.11101506 -0.006822265
0.02911297 0.015348071 0.032439407
0.13708206 -0.1917559 -0.030032245
0.041636303 0.018939322 0.041972004
-0.0219241 0.008627405 -0.010697734
0.117809206 -0.05158534 0.06312356
0.16345833 -0.09474574 0.022260474
0.19619673 -0.17105092 -0.039224308
0.058740404 0.1240195 0.00068806607
0.054245416 -0.090456195 0.086488985
0.0021262711 0.10839952 -0.04273707
-0.08434814 0.07406519 -0.103387356
0.14956017 -0.030467123 0.023604518
0.056554094 0.19043112 -0.037316255
-0.04048854 -0.023140589 -0.010493176
0.087325916 0.23938203 -0.05019665
-0.008739789 0.07830734 -0.03638457
0.043823887 0.20717368 -0.058060437
0.063923076 0.042670142 -0.032645885
0.19401544 -0.13708735 -0.0142390095
-0.060972944 0.022988895 0.12094685
0.12418111 -0.0714619 0.056322828
-0.063184194 0.06522108 -0.07919482
-0.22168976 0.088822484 0.2899076
0.06741045 -0.0971576 0.08594655
-0.2881916 0.047157165 -0.2468112
-0.31726927 0.0801258 -0.24269246
0.13730721 -0.19555148 -0.041847903
-0.18746606 0.05446735 -0.18728185
-0.24894679 0.1388537 0.3164532
0.006201026 0.02659502 0.0053418837
0.15304324 -0.13770674 0.031446856
-0.1279785 0.10900403 -0.16231856
-0.07618679 -0.015130534 -0.047556393
-0.076665565 0.12666662 -0.12485974
0.09005921 -0.04127731 0.086610414
-0.09577473 0.022447221 -0.08588058
0.13431703 -0.1252611 0.034245867
0.019280883 0.01609892 0.023020381
0.10394501 -0.21113257 -0.10227861
0.12674692 -0.08606713 0.051541265
-0.023631308 -0.021108279 0.08194345
-0.23242986 0.1253809 0.31255543
0.023088904 -0.055905476 0.06554268
0.2110046 -0.10790211 -0.029952455
0.0956555 -0.03945742 0.08239194
0.035543762 -0.025945984 0.06071875
-0.15824743 0.094095156 -0.18198128
-0.30069137 0.03733914 -0.22795
0.12625916 -0.20177716 -0.05828987
-0.009568881 0.08575979 -0.04118455
0.04007828 0.093452334 0.00015194516
0.017217048 0.020383118 0.018806513
0.15532614 -0.0022552614 -0.12257733
0.0018320632 -0.10965627 0.07012417
0.07872777 0.14091769 0.004360267
-0.10692981 0.11443386 -0.14596882
0.07706833 0.01400921 0.06302356
0.2233008 -0.10318809 -0.04480235
0.08821816 -0.18797447 -0.0007228581
-0.097288154 0.06294204 -0.10921897
0.18170044 -0.011885941 -0.010490166
-0.17676234 0.04680042 -0.173315
0.024617145 -0.05897699 0.06860837
0.10960081 0.012036088 0.035230167
0.17304455 -0.16805685 -0.025240095
-0.10773024 0.08224957 -0.12925625
-0.22200762 0.024969947 -0.20295292
-0.16729614 0.052175086 -0.16755159
0.03139804 -0.093928866 0.089416936
0.054229602 0.2250372 -0.058205657
0.008518029 -0.06660561 0.05798741
0.032118723 0.19182332 -0.06046831
0.047789484 0.13150857 -0.013409446
-0.30576074 0.025876693 -0.2169514
-0.12356253 0.021808099 -0.111004174
0.14656064 -0.1890602 -0.032286387
0.04948446 0.26617628 -0.08485553
0.1048009 -0.14947277 0.031715862
-0.2692156 0.13958202 0.35317758
-0.13455205 0.032423798 0.18782759
0.116884425 0.01765366 0.008501856
0.1945085 -0.17469361 -0.04575141
-0.008658296 -0.010485223 0.068105206
0.04452049 0.023497554 0.042144667
0.035718627 -0.17043619 -0.024085486
0.12259703 -0.012597907 0.0440197
-0.012851138 -0.03335189 0.06356832
0.01822325 -0.18177088 -0.06824292
0.004849096 0.010768102 0.012682147
-0.14222708 0.054858215 -0.14602786
0.20103805 -0.07547806 0.016893305
0.1378466 -0.0030135554 0.00928143
0.001971292 -0.17449555 -0.087083116
0.06931473 -0.19311814 -0.109043196
0.04550646 -0.02885952 0.07142941
0.091176555 -0.1918123 0.0040691104
0.007980758 0.07331481 -0.0183524
0.052153435 0.09159901 0.012224526
-0.14923912 0.09409802 -0.17372599
0.08097471 0.11169633 0.014308708
-0.012836358 0.0755511 -0.03864561
0.10699794 0.02185879 0.01746281
-0.28900567 0.07197388 -0.27710852
0.029509895 0.19151375 -0.062691376
-0.0682292 0.006686423 0.13219962
-0.3161887 -0.034887735 -0.17022327
0.015832115 -0.17730565 -0.0728548
0.005012451 -0.1461449 -0.09966358
0.01006787 0.06353709 -0.01113923
0.115857914 -0.08043309 0.06046808
-0.14636722 0.07125883 -0.15871312
-0.2351223 0.10940653 0.31880957
-0.21419938 0.10644145 0.296458
0.056953747 -0.11782176 0.07113897
0.060973432 0.05045466 0.042612303
0.01746424 0.23483062 -0.097213574
0.08262576 -0.056522794 0.089578
-0.16085456 0.068667196 0.23944166
0.18463978 -0.17085549 -0.03409964
0.06143181 0.16640374 -0.019820636
-0.3171289 0.14537618 0.38004255
0.10965623 -0.21221706 -0.098785944
0.056776416 0.12905788 -0.0038434176
0.04824421 0.1761941 -0.037215587
0.08149043 -0.19646582 -0.0022867648
0.0742809 0.07042709 0.041717343
0.05529693 -0.013573709 0.07211718
-0.10477296 0.012649211 -0.08881685
-0.14065765 0.056477923 -0.14546737
-0.3050109 0.06162089 -0.23032646
0.020911291 0.17972048 -0.064180106
-0.15329184 0.011929918 -0.15478352
0.02300538 -0.03311242 0.05311052
0.099645734 -0.075786114 0.07434164
0.09912323 -0.19929168 0.0071824584
-0.08911327 0.019895883 -0.07839165
-0.13391486 0.03867166 0.19612871
0.18819353 -0.13317378 -0.0072476417
-0.036508884 0.0017162956 0.09902267
0.14996916 -0.17142248 -0.010005677
-0.2933973 0.16103661 0.38221788
0.024147555 0.060420882 0.00345541
-0.123719335 0.075342305 -0.14016774
-0.18000053 0.085777804 0.26172876
0.08084292 -0.047617186 0.08764629
0.050336048 -0.06311794 0.09442682
0.045633737 0.120659985 -0.009504415
0.109262854 -0.0070948014 0.056351822
-0.056123585 -0.006005849 -0.03411265
0.0011011994 0.08814816 -0.03269892
0.17341805 -0.12168065 0.040740125
0.1272688 -0.08852771 0.051659945
-0.13137914 0.06773968 0.18817347
-0.12717256 0.08527728 -0.14871816
0.06922053 0.0920956 0.027599066
0.17346837 -0.043096617 0.0010416153
-0.16118646 0.06458359 -0.16867766
-0.17205745 0.056524936 0.22379453
0.08913334 0.21299437 -0.041768525
0.12803034 -0.031836167 0.045936346
-0.21368855 0.111321755 0.29086974
-0.07721552 0.035173338 -0.07576781
0.058045212 0.21890241 -0.051383007
-0.016890962 -0.086475596 0.0454683
0.08629141 -0.09228145 0.07568072
-0.25386906 0.1252957 0.3382146
-0.04866452 0.0867903 -0.10102388
0.0023018152 0.0006025773 0.015858045
-0.0024942874 0.04741038 -0.013911767
0.11779198 -0.10348895 0.054496024
0.057331674 0.19471833 -0.038927484
0.101137325 -0.073177174 0.07243517
0.18842712 -0.014308928 -0.080324255
-0.11198748 0.010933977 -0.09449996
0.11529856 -0.17345716 0.016229521
-0.33191612 0.047591075 -0.21059489
-0.32751435 0.043504808 -0.20434508
-0.31930974 0.048115265 -0.20525628
-0.27046326 0.14887568 0.34397998
0.042090617 0.08343221 0.0074280943
-0.09258985 0.09022095 -0.11969949
-0.011086155 -0.016204529 0.069865435
-0.08772435 0.058344107 -0.09796062
-0.11348745 0.0033014067 -0.09173735
0.06598193 -0.16225608 0.018850384
0.1615031 0.012083461 -0.04199641
-0.10461359 0.08476739 -0.12776436
-0.1779201 0.07582411 -0.1901087
-0.25450727 0.13662653 0.32062146
-0.28709915 0.029528487 -0.24226971
-0.27412954 0.13503854 0.36405805
0.09898963 -0.07233707 0.074120715
0.07956685 0.03955029 -0.0039432077
0.056761954 0.10568613 0.008812638
-0.09258947 0.058162805 -0.10232117
0.08629053 -0.0859773 0.079519965
-0.26449773 0.06596615 -0.26412195
-0.1900624 0.098243505 0.25224227
-0.070789926 0.055191353 -0.08072943
0.060312793 -0.054739174 0.09874462
0.07045415 0.019657722 0.06799664
-0.08942965 0.095633656 -0.11973679
0.015530046 -0.13050981 0.05432811
