# .PCD v0.7 - Point Cloud Data file format
VERSION 0.7
FIELDS x y z
SIZE 4 4 4
TYPE F F F
COUNT 1 1 1
WIDTH 1000
HEIGHT 1
VIEWPOINT 0 0 0 1 0 0 0
POINTS 1000
DATA ascii
0.056321763 -0.30426347 0.37539926
0.039332923 0.11804539 0.038568374
-0.026803391 0.006883905 -0.0064205285
-0.012645427 0.1196886 0.046761233
0.047623415 -0.32425624 0.35924807
-0.17201772 0.20009801 0.17838444
-0.020289231 0.00815658 -0.006723871
0.03383905 -0.28039557 0.28035635
-0.019436596 -0.0067023817 -0.014115549
0.05249442 -0.22931081 0.20131356
-0.00828163 0.077923425 0.025705652
0.18914275 0.037475675 -0.022149483
0.14657289 0.008186897 -0.030428987
0.011298186 0.03435576 0.001605009
0.024409987 -0.1536164 -0.24431208
-0.060131013 0.14405458 0.06543355
-0.050322704 -0.14701572 -0.07837938
0.10866292 -0.014176152 -0.035982028
0.036252934 -0.0431251 -0.03985339
-0.13543534 0.21810707 0.112371914
-0.011461347 -0.07682191 -0.04955833
-0.09827403 0.0032586772 -0.12938835
-0.11003699 0.1380081 0.069569595
0.080863565 -0.13216576 -0.121296465
-0.14835763 0.25869706 0.13404697
-0.023265751 -0.021469045 -0.020796303
-0.07657464 0.06510466 -0.1398245
-0.06618181 0.08623769 0.038004596
0.18710093 -0.012974638 -0.046544205
-0.015686922 0.013997022 -0.0045204316
-0.06288385 -0.11431206 -0.060592163
0.0021653636 -0.024989154 -0.02613382
-0.0019316751 0.06443138 0.018201372
0.015090919 -0.08160155 -0.055671267
0.032827605 -0.023747902 -0.029885398
-0.015376156 -0.15013783 -0.2369544
-0.11894219 0.15713969 0.08019652
0.16158901 0.013615001 -0.029907642
-0.03546799 0.06935341 0.02537697
-0.05821363 0.12719586 0.056912147
-0.19504492 0.16419332 0.175575
0.1786937 0.09138834 0.0057148696
0.014060985 -0.12043389 -0.052304123
-0.1390497 -0.053003807 -0.1718467
-0.21041523 0.1651205 0.15069361
-0.12508895 -0.008389126 -0.15200157
-0.0845596 0.01508852 -0.12396955
-0.05660843 0.094200365 0.04053947
0.16624707 0.06459958 -0.005623405
0.13866426 -0.03081553 -0.04838835
0.06881684 0.03529741 -0.15819028
0.029325785 0.117287375 0.039620128
0.05745312 -0.034285508 -0.03854166
0.013919559 0.04478474 0.0063351677
-0.06551349 0.067615844 0.028797947
0.030129578 0.013043147 -0.011500338
-0.059190106 -0.044206522 -0.026814952
0.031889472 0.015963484 -0.01032145
0.16447122 0.10206681 -0.0067252773
0.24227373 0.05596527 -0.020655334
-0.15780723 0.16905853 0.09155319
0.14352952 -0.02012249 -0.043848082
-0.14543132 -0.01692078 -0.17191802
0.25397566 0.068648316 -0.018693654
0.03627637 -0.07962532 -0.05771597
0.026489949 -0.16008829 0.07115817
-0.070347294 -0.010440643 -0.008707589
0.15684003 -0.036928575 -0.05396308
0.0666743 -0.07372402 -0.059149507
0.015337296 -0.19454233 0.1319628
-0.056872193 0.18806316 0.08622872
-0.16626135 0.20982353 0.17293006
-0.165853 0.18933444 0.102617554
0.18418281 0.09155796 0.0050175744
0.106114395 -0.07438879 -0.21716124
-0.016552927 -0.104317114 -0.0622878
-0.0004743572 0.096775405 0.033819996
0.0034247509 0.11115579 0.040301703
-0.14095524 -0.012202975 -0.15887068
0.03906741 -0.11534741 -0.07559123
-0.07466153 0.065550044 -0.20149495
0.18349618 0.07440966 -0.003275714
0.03448443 -0.18455674 0.104277045
-0.026638674 -0.00842914 -0.01393679
-0.026329529 -0.11574191 -0.06648782
-0.06296483 -0.022002531 -0.015414199
0.08917216 -0.07348816 -0.21431205
0.004992704 0.014084621 -0.007417439
0.17928958 0.07242562 -0.0036481412
0.04298006 -0.14906584 -0.2447254
0.029982153 -0.010621688 -0.02305821
0.05748471 0.012783531 -0.13132042
0.050434493 -0.034768462 -0.037780397
-0.13018663 -0.012952533 -0.21711406
0.21400294 0.126538 -0.0011348552
-0.002217006 0.025697779 -0.0007101483
0.19124699 0.019051267 -0.031463757
0.057243235 -0.15399843 -0.09708689
0.04221702 -0.0025121877 -0.020829348
0.15424898 -0.007869711 -0.039376564
-0.013606732 0.00630996 -0.008577353
0.050118696 0.010760211 -0.015458528
-0.0940766 0.22048377 0.107655615
0.2234573 0.10314402 0.0051035653
0.108287804 0.007421282 -0.025361175
-0.019507067 -0.0030914715 -0.012338835
0.041628145 -0.1994213 0.1485959
0.03746815 -0.25705212 0.2747433
0.22910255 0.042588122 -0.025328362
0.016012756 -0.1593751 0.07786341
-0.06068669 -0.06846486 -0.038471885
-0.022499455 -0.15793006 -0.08767498
-0.042723317 -0.050135203 -0.03205667
-0.043041464 -0.110084 -0.061343834
0.017331265 0.04168662 -0.12826549
0.1808305 0.04532899 -0.017125364
0.045165308 -0.25738072 0.2776232
-0.009247195 0.03150873 0.0031323992
0.19117568 0.10815824 0.0076888152
0.036864255 0.06831279 -0.22095694
-0.11446492 0.17783575 0.08968653
0.035662044 -0.18658715 0.12414399
0.058085587 0.014982385 -0.0145253455
0.16293503 0.006314359 -0.033671062
0.04772728 -0.25757465 0.27602836
-0.048031814 -0.10801809 -0.0596238
0.19075213 0.025825504 -0.028078666
-0.19221914 0.161547 0.17387839
-0.0128859775 0.13603748 0.054794896
0.041814383 0.062599234 -0.14119418
-0.053029295 0.029949825 0.008593523
-0.033923503 -0.17448325 -0.114427604
-0.060314234 -0.07097266 -0.039751712
-0.050869007 0.09972289 0.042425938
0.013651026 0.119662195 0.043010287
-0.024642207 -0.084957376 -0.051665258
-0.011016393 0.1389399 0.055949204
0.013026946 0.08551685 0.02639205
0.029355371 0.113628626 0.037825506
-0.075777255 -0.14984044 -0.09642025
0.07808822 -0.11152138 -0.18039703
0.08790187 -0.05909954 -0.055011522
0.02272079 -0.1722871 0.10190209
0.004476501 -0.080331415 -0.05354113
0.026993088 -0.069288485 -0.051338673
0.15889354 0.034515217 -0.019298127
0.21140046 0.012576616 -0.03749656
-0.042089418 0.07912206 0.031098006
-0.0211952 -0.14693302 -0.08247952
-0.16205086 0.22401898 0.12131274
-0.062933475 0.07206103 -0.20099539
-0.19030817 0.17195968 0.17870198
-0.018262392 0.08083397 0.028548326
-0.19316964 0.16991527 0.17810817
-0.03991324 -0.13820025 -0.075545534
-0.066220276 0.11204412 0.050636735
0.2481794 0.06969577 -0.014776933
-0.060318887 -0.1417175 -0.074366055
0.028702486 -0.20718619 0.1765321
-0.074068606 -0.073654264 -0.03910867
0.035531994 0.0763948 0.018729571
-0.027675688 0.025464216 0.0027944953
0.055664692 -0.04637706 -0.044204067
0.08461536 -0.06530988 -0.05758283
0.043686654 -0.05507179 -0.046755537
-0.051143628 0.00319948 -0.0047635157
-0.1269305 -0.027571391 -0.16112581
0.21473436 0.10078431 0.00518892
0.22102883 0.10310077 0.005427778
-0.045027826 -0.15907459 -0.18594314
0.24187864 0.07584799 -0.010870926
-0.09657751 0.17006211 0.08333963
-0.09334263 0.008973042 -0.13334776
0.1573635 0.013772149 -0.029230203
-0.049022786 0.17562126 0.079300135
-0.033106446 -0.027582917 -0.022388889
-0.033918265 -0.14680584 -0.080608815
-0.1674196 0.23599382 0.12923543
0.15481916 -0.037050154 -0.053735454
-0.061488137 0.13179064 0.059625965
0.19647962 0.02976355 -0.026966225
-0.14860547 0.25486505 0.1391624
0.19008532 0.08139104 -0.01898461
-0.09358048 0.02887956 -0.1382455
0.027611587 -0.17560184 -0.10344511
-0.08742071 -0.040070474 -0.069386855
-0.19752944 0.1436749 0.16588865
-0.08283837 0.005576242 -0.11392046
0.07481395 -0.31839806 0.38773975
0.058327295 -0.26062667 0.26627105
0.07768032 -0.122515455 -0.1617949
0.13208158 -0.042055815 -0.052952264
-0.02485917 -0.10707207 -0.06245514
0.22764954 0.035790894 -0.028447606
-0.13587102 0.23661488 0.17419775
-0.12417832 0.13869491 0.07191566
0.088196844 -0.036123544 -0.043811377
-0.13526775 -0.00854201 -0.15062954
0.017934026 -0.22401915 0.16826111
-0.02801354 -0.026234789 -0.022453213
0.009311165 0.050362024 -0.13668741
-0.17357115 0.1907033 0.1854936
-0.14322288 -0.04951541 -0.16954671
-0.04970121 0.08208649 0.033630554
0.0347913 0.11225751 0.036382265
-0.14160874 0.21042326 0.17842439
-0.1437451 0.15368326 0.08203097
0.042468634 -0.1468058 -0.24354708
-0.06664707 -0.07748346 -0.042037066
0.06767424 0.023243122 -0.017361052
-0.07925612 0.00267358 -0.017282654
0.17490795 0.00090228155 -0.038021136
-0.06836892 -0.055214502 -0.030896349
-0.16737135 0.21607764 0.115918614
-0.15679505 0.22830947 0.120400175
-0.15336628 0.22205411 0.11685223
0.061279833 0.004699803 -0.12443553
0.13070416 -0.010596032 -0.03736365
-0.16516109 0.22018686 0.12145692
0.06801428 -0.28468522 0.29367676
-0.03386961 -0.179895 -0.11708288
-0.1173159 0.023119017 -0.20254743
0.115258165 -0.021832261 -0.04066593
-0.09036942 0.020221481 -0.14144951
0.119235516 0.015890518 -0.027147736
-0.09738602 -0.05027322 -0.085977964
-0.102052376 0.13126867 0.06513687
0.092340335 -0.03169179 -0.04223217
-0.0636445 0.05571822 0.022710452
0.08656215 -0.052801166 -0.051739585
0.10482712 -0.07959052 -0.0674437
-0.0017437085 -0.15380313 0.009779908
-0.04917404 0.0020045293 -0.0056278934
-0.16971815 0.18771155 0.18348226
0.0474681 0.04956853 -0.14817268
0.052167144 0.061448492 -0.1478616
-0.010826412 0.116980575 0.045177724
0.030541208 -0.22322103 0.21102923
-0.1600129 0.23888262 0.13978998
-0.1701564 0.20123917 0.10905429
-0.13257715 0.1907918 0.08288876
-0.18388677 0.17479447 0.17917599
-0.2272609 0.14879091 0.14493519
-0.1448895 0.24371728 0.17323169
-0.015495269 0.13684249 0.055559848
0.02233566 -0.046180055 -0.03936975
0.04321321 0.11139244 0.034761902
-0.0037427081 -0.10131442 -0.0460745
-0.041924834 -0.091349 -0.05233588
0.032038596 0.024147155 -0.006338668
-0.06987942 -0.14322937 -0.07374675
0.20016567 0.014264236 -0.035073593
-0.1633392 0.24568145 0.11211494
-0.058147024 0.1721148 0.078881584
0.016886035 0.14046167 0.038248576
0.03823464 0.017882237 -0.113970414
0.066780895 -0.090072684 -0.067164
0.05134951 -0.14159423 -0.2523978
-0.16198233 0.19566643 0.1862747
0.028948324 -0.09243033 -0.0629398
0.06500976 -0.28957304 0.33507794
-0.006552197 0.074960686 -0.1308699
-0.046797127 -0.042957705 -0.027965557
0.014634804 -0.107368946 -0.06821417
-0.026827447 -0.06340251 -0.04080818
0.03434159 -0.27857915 0.28117377
-0.07043137 -0.04634689 -0.026264481
0.057128035 -0.27877346 0.31677693
-0.06147752 0.062545575 -0.18064174
-0.07303599 0.063080594 -0.13457015
-0.0746567 0.112530164 0.05207386
0.075584374 -0.12990601 -0.1081829
-0.09245052 -0.04817688 -0.07376855
0.1066348 0.0206179 -0.031173019
-0.15893343 0.17654039 0.095373906
0.046120446 -0.2798854 0.32201385
-0.05723537 -0.057579815 -0.033636432
0.023498958 -0.15551339 -0.18372683
0.0580605 0.018633882 -0.012734859
0.0028991266 0.07212816 -0.19053924
-0.12797582 0.2329005 0.11854995
0.054338515 -0.021755805 -0.031968355
-0.06877448 0.16491185 0.07686773
-0.081868 -0.118859075 -0.0601183
0.054578636 -0.006844425 -0.02470653
0.052664313 -0.23586927 0.18794183
0.03694041 -0.09736138 -0.06648837
0.0238304 0.008264528 -0.012942986
-0.119679585 0.2438483 0.12272727
-0.07799857 -0.12623706 -0.0642785
0.17317867 0.03749156 -0.01987263
-0.13700408 0.22442673 0.18061544
0.06972774 -0.09630508 -0.07063256
-0.0012649008 -0.041802447 -0.033873167
0.12056976 -0.035650756 -0.04818176
-0.111828215 0.12325922 0.06260774
0.09880074 -0.09531352 -0.074280016
-0.07825437 0.1257522 0.0590546
-0.061147768 -0.15651904 -0.2335702
0.07959913 -0.12833816 -0.13737215
-0.054272704 0.18943447 0.073068105
-0.15843669 0.2062819 0.10985571
0.18008022 0.07897247 -0.0005573486
0.095168576 -0.045446184 -0.049364198
-0.05475839 0.17712134 0.08084929
-0.10663744 0.18396333 0.091571525
-0.11630918 0.14537041 0.074063376
0.120964654 -0.072129734 -0.06608719
0.05939157 -0.3302596 0.38412812
-0.15693456 0.1634507 0.08868509
-0.07832112 0.028841313 -0.13080905
-0.15588038 0.17827368 0.095788136
0.020101072 0.12420043 0.04431378
0.051971633 -0.32270277 0.35009912
0.14494795 -0.056789376 -0.061990492
-0.031515475 -0.16133453 -0.08805905
-0.0033310608 -0.068387896 -0.046587285
-0.12225377 0.24298757 0.122672014
0.022707349 0.040261544 0.0028728228
-0.015411685 -0.14634088 -0.23509163
-0.038066823 0.025248714 0.004166363
-0.029764613 -0.08552919 -0.051217075
0.116477564 -0.021306826 -0.040582158
-0.09314573 0.11704953 0.0569135
-0.019846518 -0.14986639 -0.21846643
0.03498927 -0.22617537 0.21472962
0.012501217 0.003659805 -0.013585424
-0.042840697 0.15408346 0.06788271
-0.0822449 -0.0053834487 -0.10328295
-0.03562537 -0.1738725 -0.09360966
-0.006870821 -0.0020636695 -0.013631862
-0.076798245 -0.005158675 -0.005206136
-0.10940192 -0.10813887 -0.20303857
0.13046189 0.0015930219 -0.03136482
0.05146473 0.10422124 0.030079836
-0.091939785 0.15375178 0.07470002
-0.17141218 0.19284953 0.10512784
-0.13186245 0.14906791 0.0780834
0.028286459 -0.007096246 -0.021092314
-0.098552816 -0.03906885 -0.09469969
-0.055913467 0.08502833 -0.21843414
-0.12793064 0.21746415 0.11099032
0.02025337 -0.13947852 0.02923448
-0.0017580449 -0.14013618 0.015767727
-0.0596691 0.05417242 0.021389091
0.019638887 0.07808656 0.02181641
0.045977246 -0.23064315 0.21615893
-0.12985657 -0.010732236 -0.21463203
0.043168582 -0.29535437 0.3323436
-0.07296001 0.18473516 0.087162346
0.011397279 0.10863414 0.03793473
-0.04233853 -0.09329781 -0.05323075
-0.025797972 0.036526866 0.0079403585
-0.043210622 -0.006483822 -0.010629244
0.040629104 -0.27728382 0.30593073
-0.13667198 0.24218868 0.13998352
-0.15814966 0.21770899 0.13797325
-0.04436729 -0.08798518 -0.050342873
0.15991864 -0.00046076177 -0.036557246
0.012424354 -0.015451583 -0.022925643
0.009906899 0.039487664 -0.12024004
0.019077493 -0.14839807 0.050457902
-0.17012878 0.21367115 0.11513331
-0.13111278 0.24435897 0.1246026
-0.09209872 0.12471763 0.06051666
-0.052980162 -0.018037409 -0.014893532
-0.008448313 -0.023622936 -0.023956908
0.018728098 -0.17779079 0.116943136
0.0063489983 0.08652759 -0.23813601
-0.10848362 0.17283057 0.0863868
-0.013521803 -0.0026620913 -0.012979377
-0.14212391 -0.04341782 -0.1667195
0.15966818 0.053713605 -0.010014537
0.09565415 0.012118513 -0.02126708
-0.025647622 0.13306716 0.05515568
0.051522013 -0.31538802 0.33381796
-0.012742275 0.13068184 0.05215394
0.042957094 -0.31827846 0.35177222
0.08624187 -0.001375418 -0.026531523
0.035012174 -0.10474443 -0.06982677
-0.025337616 -0.16702992 -0.09172391
-0.08927958 -0.04952274 -0.064582124
0.025546802 -0.19668573 0.15515465
-0.008181574 -0.12498451 -0.07359027
-0.058608655 0.15741567 0.07175471
0.030092822 -0.25041088 0.24041858
0.0567845 -0.33041015 0.38442525
0.058034826 -0.07717205 -0.05960886
0.11228553 -0.035572313 -0.19904599
-0.029846108 -0.063927054 -0.04063566
0.037244204 -0.23042771 0.22260953
0.16752203 0.040580507 -0.017556984
0.012700106 -0.04472094 -0.037286036
-0.037506185 0.05228357 0.017314378
-0.17717052 0.21113048 0.14811215
0.07327491 -0.12465477 -0.16667716
-0.07374733 -0.119265206 -0.061471425
0.05242806 -0.2468275 0.24784584
0.14222673 0.026519043 -0.023820229
-0.057214938 0.008916685 -0.0011029277
-0.06954587 -0.12738729 -0.066042796
0.052614275 -0.062513314 -0.051665757
-0.11085874 0.20562433 0.10277076
0.043452032 -0.21192095 0.15201162
-0.14714393 -0.03780335 -0.16325852
0.01583909 -0.11325632 -0.033413343
-0.17204474 0.20988436 0.11355281
-0.07717469 0.028195523 -0.12900944
-0.03893577 0.14621577 0.063478015
-0.06282585 0.0519147 0.020733321
0.016994894 -0.16533239 -0.09691098
-0.12025552 0.16643088 0.08492906
0.10714285 -0.041318607 -0.04904669
0.11236392 -0.0032962859 -0.03118466
0.038015388 -0.15179169 -0.24535345
-0.02353172 0.10184247 0.039576545
0.082627006 -0.021138765 -0.035687823
0.09278775 -0.0938797 -0.07272378
0.07015974 -0.32775578 0.38382253
-0.1045732 0.0139115695 -0.14400642
-0.053625427 0.013228874 0.00049671857
0.0009262343 -0.12172763 -0.009251185
-0.08530298 0.14814593 0.07101368
0.057773564 -0.022952495 -0.03304224
-0.18751553 0.17955421 0.17791374
0.111833766 -0.019602051 -0.039087713
-0.11737335 -0.052408937 -0.13858995
-0.035797257 0.07007129 -0.17565092
0.07444325 -0.09375685 -0.07005599
-0.14911486 0.24723166 0.14931998
-0.19775939 0.14551471 0.16682127
0.03601409 -0.25891915 0.2686393
0.017566558 0.08709664 0.02651985
-0.19280942 0.15124552 0.16892184
-0.021755628 0.029517021 0.0039359466
-0.075481586 -0.10129438 -0.052431956
0.056473337 0.0145920515 -0.014487071
0.05147262 -0.2365556 0.20167263
-0.021423016 -0.014981 -0.01788391
0.031512424 -0.08578426 -0.060052358
0.18278879 0.080611594 -0.00013986905
0.063205235 0.048414126 -0.15097481
0.0918194 -0.065956995 -0.058923922
0.016633524 -0.03381036 -0.032506566
-0.07178991 -0.10232079 -0.053458888
0.058818404 -0.30489364 0.3748484
-0.1082385 -0.013080199 -0.1336731
-0.017383978 -0.013835053 -0.017897364
0.043332282 0.122657984 0.032797724
-0.036069494 0.07226077 0.026884845
-0.069842726 0.016773097 0.004536257
0.027875297 -0.2258252 0.20928389
-0.029797211 0.066507615 0.023178367
0.026544588 -0.07326 -0.05321813
-0.087147474 0.21117464 0.10211538
-0.035584737 0.023111816 0.0027679563
0.21098274 0.012699414 -0.037376992
-0.02785564 0.0715986 0.025393559
-0.17480123 0.21932818 0.13889864
-0.074013434 0.14636786 0.068539
-0.054763447 -0.10585183 -0.057606936
0.18452784 0.06008346 -0.010431655
0.032661334 -0.13411404 -0.2359427
0.026355332 -0.14830622 0.04446479
-0.18859173 0.17274962 0.17884429
-0.10178675 -0.016100923 -0.11495695
0.030408533 -0.009143169 -0.022395032
-0.075579934 0.1697516 0.08020304
0.003608842 -0.16796504 0.06209592
0.13525279 -0.05335414 -0.05893124
0.10810969 -0.04928798 -0.20516337
0.01806811 0.024987292 -0.003941677
-0.0072042067 -0.11570893 -0.027749997
-0.044577364 0.11360534 0.048323985
-0.08233864 -0.046674892 -0.053736858
-0.048327446 0.14544186 0.064434454
-0.12047392 -0.040182732 -0.15301406
-0.05528443 0.10960992 0.04789112
0.026071444 0.052483987 -0.14370477
0.20507936 0.10288751 0.0075903665
-0.016220748 -0.0007578 -0.011663979
0.02188614 0.13827735 0.034127288
0.03215604 0.11165516 0.036461957
0.027712243 0.067684166 0.0155790355
0.18976033 0.107237056 0.007854132
0.04395219 0.024887389 -0.13265625
0.060759984 -0.08499708 -0.063824676
-0.19476688 0.16236089 0.17463893
0.0725372 -0.05334579 -0.05001214
-0.09398285 0.17608857 0.08591977
0.16191988 0.07527087 0.00021304016
0.007148219 -0.1684937 -0.09705813
-0.21491568 0.13427243 0.16375966
0.0449105 -0.246324 0.25267544
0.026953237 0.023119338 -0.006118319
-0.022014115 0.15472397 0.06523579
0.057945747 -0.25650728 0.2654782
-0.038852826 0.10438446 0.042998523
0.012593816 0.054815035 -0.1406482
-0.024658678 -0.03413195 -0.026794327
-0.120436534 -0.048910044 -0.14856152
0.019428091 -0.13645993 0.0017758963
-0.06384429 0.057827473 0.023771271
-0.13502292 -0.093210556 -0.19209212
-0.06943606 0.119955145 0.05496454
0.2083977 0.05962574 -0.014048728
0.21490179 0.0715021 -0.009162522
0.12606059 0.016149955 -0.031796604
-0.20091224 0.17261289 0.1573375
0.035394426 0.03769167 -0.13844278
-0.13867564 0.21807206 0.112815194
0.12047116 -0.015557294 -0.03833675
-0.059176486 0.08753032 0.03764117
-0.06794264 -0.074375905 -0.04033253
0.033016723 -0.16381875 -0.098447695
0.087473966 -0.10457521 -0.22928132
0.2099576 0.05208425 -0.017960925
-0.13034116 0.18394414 0.09493211
-0.040002085 -0.0057760673 -0.0107389875
0.07042718 -0.11860168 -0.23372106
0.20087008 0.06534352 -0.010181058
-0.008839581 -0.06441404 -0.043860096
-0.10261901 0.15357007 0.07612944
0.05549499 -0.23626645 0.22138509
-0.17191458 0.20075999 0.10906983
0.14853548 0.022968648 -0.023475291
0.051155232 0.024453342 -0.13906893
0.048778098 -0.22703472 0.19866931
0.23869166 0.109411426 -0.0011522706
-0.08393253 0.18978855 0.091194585
-0.019544696 -0.03375964 -0.027339036
0.1837695 0.0121484175 -0.03377819
0.011229355 0.12880796 0.047829386
0.016086515 0.027303306 -0.00252632
-0.13852847 -0.022539252 -0.15701482
-0.060554016 0.12612545 0.056721333
-0.04790744 -0.02705083 -0.020024572
0.022598593 -0.043863025 -0.038273342
-0.1624523 0.18803127 0.17115031
-0.13293755 0.2639017 0.12100496
0.15895778 -0.022282427 -0.047098015
0.017288739 -0.12389654 -0.07667839
-0.13225581 -0.0012165125 -0.23665486
0.0078020706 -0.042147722 -0.03533093
0.018327188 -0.16829215 0.0963071
-0.056191083 0.08679111 0.03685501
-0.011409156 -0.017036395 -0.020313017
-0.05188091 -0.1628815 -0.10619778
0.07979136 -0.10630416 -0.22903517
0.23780863 0.07345501 -0.01146318
-0.13155164 0.25470686 0.12764432
-0.21694973 0.16144444 0.14712866
0.11457121 -0.07512495 -0.06664364
0.090641715 -0.06856855 -0.060034107
-0.072683595 -0.021146307 -0.013613581
0.01731934 -0.12752335 -0.078457355
-0.22881697 0.12993796 0.16361497
-0.15761292 0.23300831 0.1603305
0.18292068 0.032702506 -0.023600664
0.014501458 -0.026230277 -0.028494842
-0.01598371 -0.18069756 -0.12001845
-0.03517366 0.1441659 0.061940163
-0.18649386 0.21326004 0.12444372
0.0947557 -0.06638997 -0.21163271
0.06506014 -0.034186497 -0.039574653
0.05582976 -0.2779882 0.31602228
0.026368013 -0.21691488 0.18719655
0.12353843 -0.024151389 -0.042977586
0.06807163 0.019296031 -0.013833953
0.035181906 -0.14832236 -0.18881874
0.03958973 0.09304644 0.026300365
-0.047235295 0.00048647865 -0.006646619
0.23986197 0.06247698 -0.017126521
0.18289015 0.043747805 -0.018191587
0.03470208 -0.2766101 0.28231198
-0.057479594 0.079881966 0.033657517
-0.0022516542 0.14610723 0.05821027
0.18660851 0.012894399 -0.033816643
-0.04269113 0.13943148 0.0606922
-0.22816296 0.12915432 0.16313846
0.051322863 -0.13689071 -0.23995395
0.17368548 0.07574484 -0.0012273534
0.14250173 0.008987852 -0.029458331
-0.084120475 0.14553103 0.06956613
0.21437807 0.12471247 0.0024380395
0.21951927 0.02416616 -0.032980002
-0.05500878 -0.14668682 -0.22963196
0.02454731 0.009493173 -0.012443588
-0.08005135 -0.14482082 -0.15909606
0.21947521 0.051812958 -0.019446308
-0.12276044 0.23126069 0.11700621
-0.114446804 0.17602576 0.08879844
0.10550471 -0.055780668 -0.20796953
0.05004052 0.02171348 -0.010088099
-0.06299037 -0.13520396 -0.07079933
-0.045735233 0.047862522 0.01632107
-0.03210961 0.10649063 0.04307033
0.04614701 0.006846817 -0.016808927
0.04239594 0.08169143 0.002411883
0.09624558 -0.038605437 -0.046170346
-0.14203186 -0.09446559 -0.20184857
-0.08912361 0.19142126 0.0927313
0.036120266 0.062239263 0.011719623
0.02786461 0.047578387 0.005719595
0.026526392 -0.16809183 0.08933441
0.06830639 -0.11680625 -0.23254125
0.21835369 0.028273221 -0.030804705
-0.13434418 -0.09826298 -0.19466059
0.043569427 -0.2692832 0.30507222
0.17217737 0.05157158 -0.012840838
-0.12220718 0.031639427 -0.23769857
0.12873372 0.017032867 -0.035929326
0.03252566 -0.09787645 -0.066113114
-0.021563265 0.0046328907 -0.008266759
0.17671722 0.07281617 -0.003091497
0.18901746 0.029431406 -0.02606782
-0.1003004 0.055573057 -0.21608853
-0.06998618 0.0774559 0.034248486
-0.042281087 -0.0074572284 -0.011237368
0.051637307 -0.30092815 0.3699994
-0.13486502 -0.056553192 -0.17417827
0.043659274 -0.25199723 0.26657462
-0.092582956 0.16674489 0.08114906
-0.01252009 -0.038044035 -0.030434264
-0.038550746 -0.105369404 -0.059675425
0.05645261 -0.26636723 0.24592552
-0.047833424 -0.17168638 -0.11108172
0.05906299 0.044045128 -0.1525236
0.04192776 -0.28813037 0.32090905
-0.06826144 0.11735304 0.05352444
-0.03574329 -0.060166743 -0.03795743
0.13720329 0.014220025 -0.032044787
-0.07384454 -0.14607817 -0.09485432
0.07433209 0.044940423 -0.15425621
0.00773739 -0.11894511 -0.007524451
-0.0005864054 -0.010723714 -0.01876277
-0.03474122 0.001836771 -0.0077615515
-0.023428304 -0.013742218 -0.016992494
-0.06916299 0.08900118 0.03978028
-0.024616845 -0.03715631 -0.028279996
-0.10808744 0.21570528 0.10730917
0.084724054 -0.08810901 -0.18064886
-0.051397424 0.18677847 0.071228325
0.044415887 -0.30250156 0.34373292
0.061973866 -0.11525266 -0.2308809
0.010539422 -0.15734561 0.060692053
-0.053617474 0.06473381 -0.17397702
0.016279686 -0.21020539 0.14997336
-0.056027222 0.08370107 0.035319824
-0.009391136 0.07543175 -0.18874012
-0.075069435 0.016745774 0.005265874
-0.010746619 0.13082445 0.051940065
0.042799976 -0.20565833 0.16185154
0.07848192 -0.043860532 -0.04621591
-0.19986965 0.17574772 0.15428758
0.08283995 -0.059342142 -0.054410547
-0.13200729 0.24266396 0.12390014
0.033284534 -0.13918129 -0.086431235
-0.06584404 0.04343578 -0.13506594
0.17141011 -0.00058422395 -0.038251333
-0.06487776 -0.059236288 -0.033360448
0.026745787 -0.23313421 0.2115983
-0.15001501 0.19854994 0.1818054
0.25104097 0.058413476 -0.020703755
0.22909674 0.06124569 -0.016198719
0.07307639 -0.31286952 0.38165876
0.009831293 0.057263255 0.0130219925
0.1962539 0.059309654 -0.012476987
-0.064934045 0.17622854 0.08185909
0.060214728 -0.27198204 0.2988757
-0.06234437 0.1196484 0.05380636
-0.017857065 -0.045819614 -0.03347981
0.051935364 -0.33333814 0.38260254
-0.043287475 0.045739736 -0.13063575
0.10680621 -0.018897487 -0.038028337
-0.06031624 -0.070563994 -0.039551288
0.034793794 0.12649739 0.039549008
0.07907793 -0.10868035 -0.0780168
0.017490644 -0.14915395 -0.089065485
-0.14343047 0.23362151 0.18246618
0.009236317 0.12865445 0.048037764
0.06361431 -0.28941765 0.2948392
-0.08892195 0.19267972 0.09331833
0.09875032 -0.08621588 -0.069821335
-0.09486137 0.123999715 0.060557973
-0.002280277 -0.1204428 -0.019722631
0.20269276 0.07802226 -0.02204738
-0.027536465 0.010914741 -0.0043440326
0.103910506 -0.05725714 -0.2084656
-0.122516945 -0.018978152 -0.15754817
0.1938122 0.07862454 -0.015653757
0.07910037 -0.06591325 -0.057094455
0.03516709 -0.12045996 -0.07753836
0.112297654 -0.007838938 -0.033397965
-0.08345896 -0.116146006 -0.07844864
0.14676158 -0.03941219 -0.053745538
0.03196065 0.03760445 -0.13106458
0.04333359 -0.23237303 0.22219463
0.09400905 0.017888267 -0.018857177
-0.13062342 -0.015080389 -0.21913648
0.1226376 -0.04826605 -0.054648604
-0.044969413 0.16857554 0.07527621
0.023067115 -0.15540728 0.06323106
-0.11699588 -0.03082083 -0.1483433
0.22153431 0.028770428 -0.031013677
-0.05762401 0.005021484 -0.0029506916
-0.038781628 0.11575028 0.048549604
-0.11255998 0.18347506 0.09217476
-0.14178742 -0.07906102 -0.18420717
0.046611518 -0.07239026 -0.055644985
-0.05273194 0.14965601 0.06712242
0.10423844 0.01263275 -0.022235751
-0.17313552 0.22018796 0.14096454
0.016146667 0.14173435 0.036375
0.021894082 0.04534403 0.00547501
-0.0008076246 0.1352276 0.05268163
0.022181692 -0.10515636 -0.06820441
-0.057533212 0.039745208 0.014026586
-0.10766232 0.17971532 0.08963882
-0.06784705 0.079072975 0.034735397
0.03120965 -0.24319509 0.23814066
-0.0044246637 0.08052309 -0.21135968
-0.046190526 -0.14792185 -0.22712538
0.0071423966 0.0025418885 -0.013370566
-0.10447621 -0.11138847 -0.2050247
0.037345298 0.116048194 0.03787362
0.061150294 -0.33263 0.3827184
0.03392216 -0.030859372 -0.033520438
0.18569908 -0.01515495 -0.04741169
-0.026502792 0.11132732 0.04463979
0.1476376 -0.015819605 -0.04232656
-0.10081438 -0.13416655 -0.21699443
-0.0032388954 -0.13292918 -0.07818011
0.0016227473 0.084119275 0.02732923
0.0012731832 -0.13387397 0.008004419
-0.06380952 0.07266422 0.031025896
0.08223542 -0.11542777 -0.14449263
-0.13246845 -0.0128514515 -0.24137387
-0.14297317 0.23849076 0.17988741
-0.040218636 0.15473455 0.06782855
-0.038304288 0.09765749 0.03962929
-0.02670728 -0.07603216 -0.047004674
-0.03482106 0.027551794 0.0048318584
0.20825253 0.089132324 0.00040919974
0.16016307 -0.018524576 -0.045430604
-0.040131208 -0.080729686 -0.04739505
0.010454805 -0.17770422 0.09758618
-0.09769647 0.04121382 -0.18461925
0.20921102 0.09359362 0.0024557698
0.047442723 -0.22323617 0.17143884
-0.0685093 -0.04258157 -0.024695257
-0.12525424 0.2503202 0.12668638
0.10813597 -0.055053756 -0.20798822
-0.07058889 -0.031874213 -0.019160457
-0.031800985 -0.08422597 -0.05028981
-0.10696874 0.2114309 0.105058625
0.17262386 0.049662642 -0.013838439
-0.1355503 0.23245795 0.17496614
-0.0840714 0.11438474 0.054319628
-0.11579123 -0.093348 -0.19489335
0.009950508 -0.109492786 -0.030784665
0.23983034 0.09578977 -0.0008222796
-0.19236448 0.16210276 0.17417113
0.060956866 -0.11398626 -0.07803682
-0.014469224 0.023958225 0.00018040267
0.14147665 -0.034510672 -0.050596215
0.027864454 -0.16178985 0.05772508
-0.04266898 0.112547874 0.04753508
-0.086352296 -0.088896625 -0.06509796
-0.027433708 -0.011306701 -0.0152316615
-0.13131963 -0.016999764 -0.22010936
0.05286647 -0.046918493 -0.044071134
-0.13988501 0.23334882 0.17886977
0.1921259 0.046601057 -0.018108616
-0.10183723 0.038371388 -0.13242744
0.027811352 0.08058585 -0.24167876
-0.02459417 -0.09035226 -0.054311905
-0.11414016 -0.049475763 -0.13136989
0.022897381 -0.15299685 0.057882577
0.13001998 -0.009608403 -0.036783125
0.01546599 -0.14386201 -0.08618833
-0.14818467 0.2381932 0.17347972
-0.2014019 0.14510015 0.16713671
0.06219574 -0.0011694385 -0.023012446
0.018917082 -0.013205307 -0.022749396
-0.0819946 0.19262178 0.092305385
-0.017412804 0.061448894 0.018942729
0.066320986 -0.30675516 0.3731194
-0.010270291 -0.12362626 -0.07262855
-0.18327086 0.17237197 0.14965664
0.09447074 -0.078975104 -0.0656703
-0.079987764 -0.022712639 -0.023316279
0.033074357 -0.22282337 0.20862627
0.009896285 -0.18104309 -0.12386648
-0.09673513 -0.039876565 -0.08941565
-0.11590117 0.020374142 -0.19238202
0.2398673 0.05695265 -0.019830467
-0.035674993 0.013406329 -0.0019680203
0.019348819 0.12860377 0.04657524
0.10831883 -0.056664918 -0.2088021
0.18683481 0.08031844 -0.00085869135
-0.098811515 0.039639656 -0.18412198
0.06790971 0.0036487163 -0.021467369
0.0082140975 -0.06435731 -0.046256453
0.08421196 0.0021493244 -0.024518413
0.01518817 -0.05414351 -0.042250313
-0.050983727 -0.019701367 -0.015991464
0.16170044 -0.030507125 -0.051512063
-0.038223583 0.09997242 0.040750246
-0.098039694 0.12610058 0.06203751
0.111945756 -0.08958049 -0.07334363
0.035751346 0.03633174 -0.14734586
-0.03612063 -0.16268742 -0.24014607
-0.06582828 -0.05554284 -0.031418104
-0.04170084 -0.15628111 -0.084138505
0.16687734 -0.031237673 -0.052605484
-0.058120765 0.17787248 0.08169494
0.045449294 0.10379796 0.030727964
0.068935454 -0.092101045 -0.06846289
-0.021360297 0.15044487 0.06304899
-0.050398283 -0.13044141 -0.070258886
-0.0037203408 0.013318066 -0.0065536145
-0.09988158 0.03719383 -0.13328147
-0.009736464 0.079655565 0.026759883
0.22003794 0.088868536 -0.0013952577
0.04081436 -0.08264438 -0.059838105
0.046236113 -0.09504723 -0.06667766
-0.10659532 -0.09754802 -0.111350685
0.06133774 -0.007760789 -0.026115786
-0.061840422 0.104951486 0.046543736
-0.09458366 -0.13566525 -0.21861362
0.07031149 -0.09949634 -0.22435682
0.050438024 -0.07662909 -0.05826319
-0.020147977 -0.14242394 -0.08042194
0.023305224 -0.13256046 -0.081772916
0.16505128 0.019798186 -0.027374512
0.20472439 0.025409473 -0.030268466
-0.22279143 0.1444928 0.15720665
0.031199556 -0.04350272 -0.039319735
-0.12989582 -0.06795705 -0.18046448
0.015611878 0.081485964 0.024052244
0.18696292 0.038520485 -0.02132849
-0.12642878 -0.06931136 -0.18162008
0.026169091 -0.14884453 0.045837086
-0.13553962 0.004829082 -0.15346216
-0.004504525 0.024556465 -0.0009434599
0.040064413 0.065939724 0.01296968
-0.0952494 -0.019475142 -0.10264047
-0.003917269 0.1402268 0.055569936
-0.043975376 0.102973744 0.0430364
-0.12093845 -0.00816016 -0.15247965
-0.078303896 0.057380885 -0.13530143
-0.09264488 0.17223096 0.08384189
-0.04190706 0.09148071 0.037119158
0.015111181 -0.18280216 0.120328106
-0.019211035 0.06848876 -0.1296545
0.007941084 0.044376686 0.006985025
-0.022647258 -0.086634226 -0.052769378
-0.086440004 0.20437331 0.098687224
0.007665212 0.051204488 0.010365274
0.10227916 0.0033411314 -0.02650355
0.18430309 0.040686354 -0.019890457
0.11865434 -0.05584576 -0.05779082
-0.05163824 0.04380303 0.015173919
-0.064519376 -0.029752996 -0.018985515
-0.016528342 0.10804602 0.04161658
0.17044227 -0.0037157384 -0.039646108
0.11673586 -0.074179694 -0.06648886
0.038393743 -0.02465333 -0.031119425
-0.01132695 -0.026129624 -0.02477421
-0.029151011 -0.027327573 -0.022826385
0.024639083 0.030447163 -0.0022039558
-0.095094204 -0.02373628 -0.098022446
-0.086187854 -0.130731 -0.08559029
-0.10140541 -0.11763191 -0.1488872
0.0093302885 0.057724815 -0.1387605
-0.04660691 -0.06105728 -0.036848724
-0.15212801 0.18149285 0.09682973
-0.01625264 0.06766213 -0.13026163
-0.09993226 0.11866402 0.058668073
0.05497033 -0.24537997 0.2425323
0.030615192 -0.14183186 -0.23942824
-0.13496636 0.24577935 0.16213629
-0.13080026 -0.05788413 -0.17540728
0.009316503 -0.11896971 -0.07313458
0.07098196 -0.12245093 -0.08360378
0.1070767 0.005043829 -0.026352515
0.041417643 0.10717212 0.032951973
0.102629825 -0.08114374 -0.23010951
0.11008359 -0.07244344 -0.06469391
0.0075492207 0.06587008 -0.1345219
0.045609202 -0.21308777 0.16967554
-0.031079862 0.06311526 0.021700872
0.035049524 -0.18404163 0.0952744
-0.21255404 0.14295198 0.16767071
-0.011752676 0.021113532 -0.0015977797
-0.00696557 -0.05037654 -0.037257697
-0.048784915 0.07350784 0.029302834
-0.13228941 0.2542085 0.12836537
0.04175396 -0.2738432 0.30714354
0.03497089 -0.252984 0.26170567
-0.07889799 0.0035610048 -0.104399964
-0.06229509 0.06558839 -0.13486987
-0.090188645 -0.044924792 -0.069477834
0.032631166 0.02795648 -0.004558967
0.1948278 0.030110257 -0.026561724
0.035551477 0.06095285 -0.20317243
-0.14164762 0.22130957 0.18579274
-0.01018869 0.03880375 -0.12080509
0.032509897 0.09167469 0.026635464
0.051813528 -0.013107748 -0.027378049
-0.20428893 0.16901243 0.15572467
0.08771791 -0.009580716 -0.03075609
0.04807621 0.016133301 -0.012539244
0.080625266 -0.0673707 -0.05802407
0.01578628 0.010777521 -0.01056977
0.12650062 -0.0133212935 -0.038099345
-0.08203379 -0.09234871 -0.047123067
-0.05216514 0.022790316 -0.1033962
0.05527252 0.010681805 -0.11993157
0.063443616 -0.09199377 -0.067629665
-0.05447423 -0.042602994 -0.026700797
0.0445098 0.03133331 -0.023445558
-0.011500581 -0.007938588 -0.01584857
0.035340495 0.0457635 -0.14831084
0.0380792 0.017257506 -0.0105681475
-0.00400106 0.04353374 0.008270573
-0.04437222 0.11928535 0.051074125
-0.05597667 0.07993829 0.033471633
-0.06931803 0.15493464 0.0720632
0.009816784 0.13241906 0.049797278
0.17868792 0.0932572 0.006630143
-0.09483043 0.19555603 0.09556567
-0.08507179 0.16747169 0.08043703
0.056850232 -0.2960953 0.35639948
0.024280952 0.022543347 -0.006020178
0.0134826675 0.027906135 -0.10455508
-0.1082895 -0.10580457 -0.16233914
0.17706761 -0.008127878 -0.04274659
-0.13015713 0.16934182 0.08776119
-0.017442126 -0.15071945 -0.08486573
-0.120074295 -0.027260236 -0.15838633
0.061554622 -0.27348408 0.2908139
-0.13344604 -0.0032188634 -0.14828421
-0.026150849 0.040334564 -0.12167512
0.0041490425 -0.17166026 0.049010668
0.059701804 -0.15814227 -0.11974119
-0.096411884 0.20769082 0.101727955
-0.095265664 -0.12822539 -0.12438329
-0.00028629124 0.07481835 0.023049887
-0.06605462 0.18018982 0.08395653
-0.21250868 0.13293956 0.16276532
0.09594324 -0.061457537 -0.057308372
-0.018063106 -0.15487322 -0.08681019
0.06620124 -0.0009316199 -0.023465673
0.122924976 -0.011120312 -0.036514245
0.21733837 0.110844776 0.009741591
-0.15076046 0.2463831 0.14727764
0.104695246 -0.007363988 -0.03208481
0.041949097 -0.23156504 0.2214572
0.13267039 -0.042168025 -0.05309106
-0.03895928 0.0870828 -0.22649142
0.022317737 -0.18089394 0.12180011
-0.098073676 0.21416439 0.1051318
-0.004511277 0.101969466 0.03693516
-0.13337608 -0.0089392355 -0.15109305
-0.061858445 0.16833133 0.077557765
0.16387346 0.05740196 -0.008807797
-0.13423267 -0.0030890147 -0.2527412
-0.058388487 0.1253143 0.056016486
-0.0061156712 0.057981204 0.015640227
-0.11254296 0.1531243 0.07732189
-0.03425994 0.090654664 0.035627864
0.22329648 0.09365684 0.00048453137
0.08661651 -0.06519047 -0.057808947
0.053287856 -0.28567123 0.3355192
-0.052952286 0.06878826 -0.1812558
0.036856975 -0.27782187 0.26002306
-0.09255032 0.019256536 -0.14310011
0.025742553 -0.11076871 -0.07145699
0.034856305 0.057303853 -0.19431958
0.24104783 0.0702133 -0.01350987
-0.09938376 -0.06435924 -0.08431754
0.065009035 -0.29564828 0.34889784
-0.010635279 -0.1187358 -0.038291056
0.23373389 0.06392014 -0.015549157
-0.10652948 0.17483303 0.087088935
0.17326713 0.02626214 -0.02537983
0.050549284 -0.22816047 0.17173703
0.052751265 -0.08006701 -0.060273957
-0.0016235798 -0.042566307 -0.034195744
0.20102628 0.10967719 0.011488662
-0.034246434 0.048280794 0.0148927625
0.08946201 -0.08875681 -0.16171688
-0.08584432 -0.00758224 -0.10321738
-0.13250254 0.16825615 0.08756329
0.034767814 -0.13587901 -0.23710571
0.016990088 -0.16170947 0.08239604
0.0034221855 -0.16943821 0.0441541
0.09642471 -0.04169771 -0.047708362
