# .PCD v0.7 - Point Cloud Data file format
VERSION 0.7
FIELDS x y z
SIZE 4 4 4
TYPE F F F
COUNT 1 1 1
WIDTH 1000
HEIGHT 1
VIEWPOINT 0 0 0 1 0 0 0
POINTS 1000
DATA ascii
0.19452266 0.0014076583 -0.012027432
0.21978201 0.06953195 -0.030427659
-0.011087714 0.0351751 -0.031061612
-0.15497732 0.07968194 -0.06867726
-0.10293208 -0.115180135 -0.12937726
0.028188772 -0.17212988 0.030209584
0.19084536 0.021177812 -0.017867725
-0.09603013 0.10874175 0.19936527
0.023900108 0.001058942 -0.019681921
-0.08509368 0.09230102 0.1619878
-0.11061119 0.067548156 -0.0448745
-0.17537607 0.034522388 -0.056645736
0.09239039 0.032548387 -0.025604973
0.1970583 0.08425914 -0.035686366
-0.103041284 0.021033848 -0.03118308
-0.046044912 -0.10739916 0.008261438
-0.03221143 0.026132647 -0.029427087
0.20171635 0.028974708 -0.019610895
-0.04059077 -0.09251676 0.0042387373
-0.053180713 -0.0462623 -0.009606374
0.23460655 0.086381346 -0.0345889
-0.0007423492 -0.22558148 0.027438426
-0.027125312 -0.108972244 -0.12771326
-0.1746813 -0.052198008 -0.119030006
0.28940475 0.092118025 -0.03374455
-0.11552424 -0.0024918034 -0.024999654
0.18399623 0.052437745 -0.027149057
-0.07779595 -0.016978519 -0.019127999
-0.10428794 0.14694971 0.42475662
0.17372179 -0.029398141 -0.010551458
0.15389153 -0.030096902 -0.0048337798
0.311166 0.11295554 -0.04620296
0.14015582 -0.04018093 -0.0025643806
0.00047610723 -0.0861549 -0.13300633
0.08006285 0.06056282 -0.03420399
0.04235034 -0.030616611 -0.009753844
0.084388085 0.02299142 -0.023226343
-0.10912063 -0.12384307 -0.12717287
0.02504054 -0.040365517 -0.0077435137
0.28495997 0.05462431 -0.023187572
-0.057827014 -0.14759581 0.015173908
0.11156962 0.05639274 -0.03157565
-0.03315609 0.03683716 -0.03254161
0.026245965 0.01783643 -0.024389675
-0.09351023 0.08562752 -0.049284965
0.26808462 0.1165957 -0.041737262
0.21818973 0.06880174 -0.030290682
-0.00060920493 -0.05374627 -0.0050695445
-0.09323056 0.12437957 0.3100501
0.0964537 -0.06030706 -0.01411087
-0.121119834 0.12665762 0.30235088
-0.15390384 0.008001647 -0.029754966
-0.15981837 -0.0508281 -0.06281367
-0.01693753 0.056546967 -0.037460435
-0.19612412 -0.03652072 -0.15618397
-0.120843284 0.1270172 0.31287646
0.030845476 -0.014994287 -0.014759541
-0.15309192 -0.00011919053 -0.027387956
0.30353588 0.10349939 -0.033619024
0.06615165 -0.019252207 -0.011933236
0.30983758 0.10531996 0.0056576133
-0.19669038 -0.07182224 -0.14790279
0.006406268 -0.075338505 0.0014453785
-0.16900688 0.046193026 -0.059705373
-0.10209694 -0.012085072 -0.021636512
-0.15332109 -0.032431882 -0.036430843
-0.039364677 0.093819074 -0.049174644
0.078133166 -0.20086084 0.040723655
-0.17158705 -0.07276145 -0.14466952
-0.10190145 0.04674707 -0.0077450033
-0.0029690913 -0.17092453 0.028447522
-0.16682969 0.08515775 -0.19120507
-0.01505652 -0.05614997 -0.0050362167
-0.089280635 0.015273939 -0.028904462
-0.050370738 0.0222241 -0.029130721
-0.12381407 0.040800463 -0.03779911
-0.115764 -0.055703428 -0.009741642
-0.035146087 -0.11717616 -0.12572367
0.08152324 -0.23164758 0.049712256
-0.042274967 -0.07820629 5.574331e-05
-0.015085396 0.014703739 -0.025369124
0.020190947 -0.23540145 0.048001807
0.063157074 -0.2407332 0.034031663
-0.20656382 0.030918907 -0.17601031
-0.043295488 -0.12043362 0.012126637
-0.18018077 -0.0061480557 -0.058044024
-0.08210027 -0.07593953 -0.0024047769
-0.10253694 0.07049975 -0.045354724
-0.071338505 -0.1277933 0.012963729
-0.11588911 0.09133362 0.18685354
0.21747999 0.07880174 -0.033192202
-0.13590468 0.001590803 -0.027097473
0.015140814 0.062444057 -0.17498042
0.08168188 0.050643798 -0.03128438
-0.11605373 0.15206847 0.44155297
-0.18285759 -0.047003046 -0.13700654
-0.020198453 -0.11583526 -0.12817688
0.21223548 0.05734676 -0.027274232
-0.07954957 0.09068488 -0.050101705
-0.13678372 0.06369876 -0.044959273
-0.09479467 0.10419341 0.2626421
0.05167154 0.028370598 -0.026256895
0.10599535 -0.06442036 -0.007195257
-0.065518074 0.087634705 -0.048588835
-0.20357025 -2.102197e-05 -0.16699612
-0.03395115 -0.084032804 0.0021056642
0.036438018 -0.031719457 -0.14699201
-0.13447876 -0.059443504 -0.03158373
-0.03944573 -0.12540816 -0.12829007
-0.11009141 -0.04603386 -0.012258301
0.28624445 0.13186195 -0.007208467
0.05765296 -0.21508402 0.043874267
0.07994865 0.020582872 -0.022736944
-0.1730534 -0.07934677 -0.22859861
-0.10682807 0.11048759 -0.19430986
0.022035016 -0.21267007 0.04156274
0.10649872 0.013684977 -0.019551031
0.0022854342 0.08219696 -0.043946628
-0.090204045 -0.11554176 -0.12869492
0.10733528 0.025789242 -0.022986522
-0.16740166 0.056563146 -0.060833853
0.0011805005 0.07829037 -0.18016183
-0.020060211 0.08461198 -0.045655366
-0.18426593 0.004380796 -0.08659618
0.020646743 -0.048754416 -0.0055358396
-0.094651386 0.09735297 0.2433333
0.28356683 0.100351214 -0.036372524
-0.07557637 -0.09554069 0.0035163092
-0.055357404 -0.11136692 -0.26805806
0.024342367 -0.17583135 0.031096792
-0.11987999 -0.06537076 -0.00960049
-0.022934852 -0.10995399 0.010044521
0.12962162 0.051655814 -0.029395824
0.15732464 0.05649111 -0.029524332
-0.094699286 0.09964429 0.24980065
-0.10699798 0.14678788 0.4223543
0.011725001 0.02759008 -0.027848452
-0.0886913 0.11337778 -0.19431478
-0.050195184 -0.02661105 -0.015109413
0.30615368 0.13718376 0.013755485
0.215505 0.05807323 -0.027333975
-0.058512617 0.045402654 -0.036151864
-0.12343841 0.15186536 0.411125
-0.18658395 -0.077588595 -0.14396593
-0.1241617 -0.003538022 -0.02509202
0.16837817 0.053242452 -0.0280896
0.06363172 -0.022613306 -0.01108342
-0.021782668 -0.118226916 0.012470826
-0.08577766 -0.050832115 -0.009776576
-0.13498932 0.035443347 -0.03676955
0.09574731 -0.0048430897 -0.014722912
0.06509514 -0.18679062 0.03609353
0.10632009 -0.061943095 0.0021423406
0.0746205 -0.029933054 -0.0084835775
0.021224737 -0.016367601 -0.014803006
-0.069662295 0.0023835388 -0.024314256
-0.024896469 -0.10409144 -0.17277053
0.17367518 0.041740585 -0.02454851
0.2676839 0.10496799 -0.038418915
0.24780199 0.11487092 -0.04216428
-0.11862275 0.019996444 -0.031593524
-0.024838392 -0.019516839 -0.01599271
0.033816215 -0.22485112 0.045593653
0.121893995 0.05290513 -0.030105475
0.04648612 0.068056524 -0.037880413
-0.04942902 -0.031632755 -0.0136336265
-0.1562115 -0.09931454 -0.13635167
-0.028131308 0.081852704 -0.045230202
-0.04547312 -0.12061935 0.012080635
0.32212746 0.0692374 -0.02569184
-0.10786015 0.073332824 -0.04640909
0.24199326 0.075732425 -0.031197464
0.17952621 -0.021991525 -0.0059943427
-0.18152964 0.016765755 -0.05399532
0.27752942 0.09245128 -0.034379795
0.18275121 0.022969427 -0.018749624
-0.0832708 -0.093989916 0.0027215434
0.05361262 -0.014916136 -0.013747318
0.02779486 -0.20699438 0.040195785
-0.09760095 0.058342237 0.10310607
-0.10624711 0.09291431 0.23645104
-0.030933272 -0.020848025 -0.01588792
0.05876691 -0.16196762 0.028683145
-0.12229506 0.004320596 -0.027262127
-0.18685395 0.018667892 -0.10034703
0.123082094 -0.04327076 -0.0024537756
-0.11861117 0.116959535 0.2638685
-0.057962276 0.007417214 -0.0252269
-0.0827616 -0.1143985 0.005924289
-0.16132483 0.063284546 -0.04595577
0.28059566 0.15083875 0.022224292
-0.0707938 -0.05448149 -0.008048193
-0.047034044 -0.017000932 -0.017723408
0.018008536 -0.15076493 0.023616288
-0.01692291 -0.040058136 -0.009738675
0.20539601 0.086960636 -0.03608259
-0.051882666 0.09394629 -0.04978013
-0.1261524 0.037511166 -0.03696151
-0.01729579 -0.10796767 -0.20725039
-0.17097089 -0.046375226 -0.095687054
-0.121347636 0.1722334 0.43713227
-0.09421538 0.054613885 -0.04041771
0.26491943 0.16847517 0.016450962
0.25700447 0.20067556 0.006851571
0.28612238 0.15796874 0.020429388
-0.09406005 0.15687901 0.39005286
-0.10718128 -0.1320989 -0.13825065
-0.014026728 -0.024482585 -0.014076486
0.18427029 0.08173195 -0.03954977
-0.117926024 0.0421808 -0.03792767
0.27436253 0.081462495 -0.0428241
0.23202619 0.090829924 -0.035982702
-0.13644035 0.08830246 -0.052003913
-0.117792904 -0.12987834 -0.13339713
-0.09276307 0.13550755 0.33808744
0.08250062 0.009810173 -0.019529859
-0.10737074 -0.082093626 -0.06320629
-0.095959455 0.0005779254 -0.024991155
-0.0009533639 -0.08131554 0.0028259037
-0.0856886 0.029453494 0.0153395245
-0.056781456 -0.075307585 -0.0014352552
-0.09801285 -0.12291823 -0.12693323
0.08888818 -0.024249556 -0.009465931
0.10972854 0.03785993 -0.026341282
-0.081998214 0.01967562 -0.029054431
0.13802858 0.047160372 -0.027723767
-0.10649089 0.114073634 0.29890573
-0.15323222 0.08558437 -0.07029161
-0.068956375 -0.11073984 0.008178602
-0.06264709 -0.13086472 -0.13602151
0.11429677 0.0026060627 -0.01601735
-0.1681875 -0.08434087 -0.20517823
-0.09114322 -0.03412427 -0.01481456
-0.0075279465 0.04516163 -0.033765573
-0.118623 0.11042754 0.2540887
-0.066635616 0.0030724588 -0.024374422
0.0094115995 0.030768165 -0.028865635
-0.21360724 0.0063941106 -0.17246339
-0.049700044 -0.13687812 0.016554166
-0.0034731352 -0.18429892 0.03226268
0.012584248 -0.007065362 -0.017865077
-0.09945318 -0.09415648 -0.009163527
-0.07352107 0.02300852 -0.030408012
0.28361952 0.06016899 -0.024839897
-0.08852071 0.09165208 0.15128851
0.2795701 0.040457834 -0.019367535
-0.13268647 0.08654575 -0.051329024
0.27441826 0.11713861 -0.041605618
-0.18801738 0.005560924 -0.112455554
0.039845064 -0.012281695 -0.015129143
-0.008654453 -0.10758693 0.010014507
0.16968818 0.04059784 -0.024401829
-0.020598274 -0.12647709 0.014892218
-0.021209689 -0.113881595 -0.22434011
-0.12700336 0.16273361 0.4288906
-0.052772958 0.011738398 -0.026231213
-0.05338645 -0.022648256 -0.016391717
-0.086260855 -0.093427874 -0.08999735
0.005740929 0.029207235 -0.028584478
0.065657154 -0.22378868 0.0467359
-0.093063414 0.11702317 0.2892221
0.26882297 0.06271142 -0.026241742
0.034877907 -0.026033057 -0.011408872
-0.033897866 -0.06994831 -0.0019332567
0.010222036 0.06622149 -0.039001986
-0.17488462 0.05365363 -0.18034412
0.05229223 -0.033938244 -0.017791951
0.09064409 0.06022465 -0.033626217
0.2898906 0.05688945 -0.023613634
-0.12866697 0.10058567 -0.101402804
-0.13605687 0.084171444 -0.17648858
-0.0611988 -0.055167418 -0.0074153156
0.3154923 0.061364304 -0.023734182
-0.035273004 0.017512172 -0.02709263
0.27775285 0.07367878 -0.033782654
0.13521194 -0.036575686 -0.0038238026
-0.09248126 0.13845709 0.3447568
-0.0003756376 -0.15477659 0.023931794
-0.018804679 0.03058774 -0.030095989
0.03831974 -0.01522368 -0.014354312
0.038200766 -0.1808704 0.03317272
-0.04445289 0.10425305 -0.18968603
0.25409696 0.17863843 0.00079947157
0.003674019 -0.1039235 0.0077376496
-0.09567703 0.021825427 -0.012936411
-0.118243895 0.12053895 0.32397363
-0.17001806 0.027257556 -0.03601289
-0.06454726 -0.007469049 -0.021254487
-0.03156892 0.009591525 -0.024651423
-0.1995474 -0.060747266 -0.15002118
-0.06812564 -0.13408889 0.010436487
-0.013198735 -0.061990004 -0.0032758752
-0.10737406 -0.011958458 -0.021912608
-0.14295575 -0.0627693 -0.063185155
0.008547652 0.023216894 -0.026737845
-0.017216861 -0.2041217 0.01919783
0.24886554 0.19876401 0.0010572964
-0.107216366 -0.12640372 -0.12635154
0.015779233 -0.13949153 0.020280024
0.07614471 -0.038804464 -0.005868718
-0.077266626 -0.10943691 0.0074269767
0.10860269 0.03288768 -0.024965424
0.10801749 -0.04139881 -0.0036754839
-0.12532234 0.14696695 0.38928738
0.29321116 0.10950645 -0.03856122
-0.030560246 0.0044118254 -0.023119055
-0.0014758119 -0.19739833 0.036111876
0.05434246 -0.15861738 0.027520884
-0.050343286 -0.033447657 -0.013154386
-0.11507488 -0.093047924 -0.09506425
-0.14706373 -0.053748265 -0.049657825
0.06719805 -0.21798433 0.04514039
-0.16493806 -0.04554061 -0.07254061
-0.09710651 0.10371447 0.27247676
-0.18914637 -0.05752588 -0.14983957
0.2815745 0.14937147 0.022689844
0.067942426 -0.17411377 0.032585766
-0.0143274255 -0.20403266 0.037431803
-0.08815246 -0.13286586 -0.13226748
-0.1966071 -0.015458909 -0.1622498
-0.0016546545 0.03311327 -0.030041559
-0.09999674 0.07364213 0.16436431
-0.04120945 -0.12858175 0.01455937
0.025535436 -0.15743704 0.025872817
-0.07863865 -0.0272126 -0.016229594
-0.18483424 0.028241767 -0.17425482
-0.14042635 -0.05798702 -0.042145055
0.13469538 0.019359041 -0.019897703
-0.11182651 0.116598986 0.32539588
0.120662756 -0.010255756 -0.012037371
-0.016483843 -0.16210032 0.025301127
-0.029762873 0.006372318 -0.023645585
-0.0338726 -0.16743101 0.026040679
-4.862149e-05 -0.11017471 0.01114815
0.30479297 0.06338223 -0.024799395
0.09069533 0.045689736 -0.029453034
0.03861456 -0.020983575 -0.012688003
0.00052468834 -0.16103716 0.02576906
-0.11404841 0.102054566 0.26540148
0.08946626 -0.23440292 0.03479468
0.27958256 0.15232228 0.021752613
0.047344368 -0.0021912288 -0.017683906
0.18632735 -0.021515487 -0.022239402
0.16518815 -0.0121162515 -0.009479927
-0.033317648 -0.08670935 0.0029025744
0.1930145 0.024530396 -0.018731268
-0.13662027 -0.067878336 -0.05861456
-0.08076259 0.11160301 -0.074464425
0.22855796 0.024537282 -0.017117515
0.20858158 0.050447427 -0.025460687
-0.09216657 0.1277254 0.31403145
0.011561865 -0.1989743 0.03715682
-0.15830642 -0.10975838 -0.13950208
0.14895366 -0.045879606 -0.0005294009
0.23936327 0.0750515 -0.031121759
0.21867515 0.032835778 -0.01994811
-0.16934419 0.059051745 -0.06341053
0.08126273 0.015199675 -0.021132732
0.12652896 -0.056114838 0.0013884741
-0.021644788 0.015987314 -0.02603553
0.2267854 0.047534123 -0.023797095
-0.0988022 -0.09810981 -0.103235915
-0.08313236 0.06786309 0.10756966
-0.096138895 0.1407703 0.3686757
0.039368693 0.05276695 -0.03381633
-0.08702624 0.07184191 0.08773601
-0.04178125 -0.114963636 -0.19390558
-0.1670246 -0.09033737 -0.1394187
-0.014069359 -0.05128448 -0.0063874833
0.103772074 0.035049524 -0.0258054
0.22745001 0.07379865 -0.031303745
0.17105061 -0.01516925 -0.008337433
0.30067807 0.083840564 -0.030857146
0.15410037 0.055763133 -0.029461807
0.0039846217 -0.093901455 0.006661891
-0.11780194 -0.08692094 -0.084385365
-0.038135123 0.09316393 -0.048930835
-0.12176877 0.14293711 0.3497884
-0.119995594 0.115676716 0.2795271
-0.13665533 -0.0019723128 -0.026109155
-0.123357974 0.14957263 0.43439105
-0.14725421 -0.06366333 -0.07427141
-0.15722041 0.031601958 -0.036677755
-0.11683382 0.14064209 0.40064058
0.0017362236 -0.12918659 0.016684655
-0.03338695 -0.0033286246 -0.021026636
-0.08478294 0.05134525 0.07056237
-0.030917715 -0.12096887 -0.1276006
-0.14637217 0.0808524 -0.050317116
-0.076952465 -0.077128656 -0.001829428
0.1670342 0.03548053 -0.023053829
-0.06831127 -0.1359941 0.0007014744
-0.027187942 -0.15497398 0.022769975
-0.1661462 -0.03628177 -0.06035971
0.087782815 -0.22673285 0.03096295
-0.1103701 0.11806503 0.3237655
-0.005019882 -0.0963238 -0.1303382
0.32419118 0.075737 -0.008837325
-0.09737537 0.04599802 0.0672544
-0.058093805 -0.051806692 -0.008238812
0.21287444 0.0545962 -0.026455764
-0.16064698 0.07246963 -0.04856069
0.18076286 0.058916647 -0.02915506
0.025127055 -0.06018564 -0.006395767
-0.12621921 -0.08315141 -0.08679474
-0.032056957 -0.16148995 0.02441841
-0.058771867 -0.051888507 -0.0082460195
-0.02306913 0.021253986 -0.027611483
-0.17881447 0.0582172 -0.18258236
-0.098847315 0.16304304 0.4407921
-0.0023174407 0.07297809 -0.041510563
-0.11497724 0.049724046 -0.0399581
-0.18501928 -0.021047596 -0.11860077
0.12384428 0.033224195 -0.024369674
0.028032769 0.0033752613 -0.020158745
0.005780646 -0.033740632 -0.010519892
-0.06472691 -0.11346067 -0.12813438
-0.13033049 0.076167926 -0.048244175
-0.15124197 -0.050159253 -0.047513533
-0.013560925 -0.16930296 0.02750097
-0.06840265 -0.06502162 -0.004915047
0.27301183 0.04747567 -0.02167953
0.06650327 -0.16491203 0.029879643
-0.09531073 0.13610312 0.35198227
-0.008884275 -0.14438023 0.020561697
0.27284086 0.109987296 -0.03962484
-0.097141705 0.121860355 0.3220363
0.089460775 -0.00565767 -0.014774847
-0.21167353 -0.039518613 -0.1628359
-0.12168709 -0.006765245 -0.024053596
-0.06921982 -0.100970924 -0.106809035
-0.12615713 -0.07159852 -0.05636045
-0.09665098 -0.036376566 -0.01441865
0.295625 0.12195424 0.010942233
0.08905717 0.0022483421 -0.017062062
0.08951908 -0.05201816 -0.0014691455
0.2822266 0.10231511 -0.03699682
0.2759688 0.15704875 0.020231996
-0.11486032 0.110893 -0.20394363
-0.16188316 -0.017348778 -0.041148137
-0.05766089 -0.14972262 0.006677039
-0.11200116 0.07028084 0.11480957
-0.052040335 -0.13564543 0.016094053
0.093908794 0.0038125091 -0.017290214
0.19034405 0.057189733 -0.028224075
-0.04974942 -0.008360877 -0.020326264
-0.20757335 -0.018387187 -0.16190782
-0.09241496 0.067403845 -0.04400629
-0.1190623 -0.00054967933 -0.025717659
0.25005788 0.030870743 -0.017958045
-0.119912386 -0.12976837 -0.13360448
-0.10639709 0.10641563 0.2751676
0.033143725 -0.19365418 0.036611136
0.18223996 0.052632768 -0.027284775
-0.01933779 -0.020725477 -0.015395855
0.14626291 0.051766742 -0.028671466
0.04349738 -0.019977268 -0.15004085
0.069799505 0.06382307 -0.03560585
-0.1076301 -0.06290038 -0.0073064677
0.3063667 0.10755211 0.0007157213
-0.036283895 -0.15913028 0.023549201
-0.17151126 -0.06333086 -0.13504261
0.054429967 0.05540781 -0.03388974
0.24816315 0.088906966 -0.034697533
-0.07451276 0.092360266 -0.05035353
0.24724239 0.036511563 -0.019704416
-0.18134144 -0.00025647008 -0.056999817
0.05517169 -0.15773335 0.021874754
-0.1198197 0.111084044 0.25376478
0.24313232 0.19377927 0.0052163624
-0.038944356 0.06902808 -0.042041726
-0.15756132 -0.060658943 -0.08332169
-0.105429694 -0.11150148 -0.13054639
-0.15313056 0.04072494 -0.039109845
0.31178463 0.11439882 0.025852006
-0.09541923 0.15443859 0.4024113
0.0076556397 0.036469825 -0.030581247
-0.09941629 0.127277 0.34773877
-0.023013944 0.082365215 -0.13058499
-0.10239284 -0.12887354 -0.23358345
-0.09290866 0.11868253 0.24523306
-0.10652637 0.116638176 0.3077498
-0.07978079 -0.07711462 -0.0019622645
-0.0004117955 0.06661677 -0.039598722
-0.013905436 0.009401595 -0.023794027
-0.17247672 -0.020461204 -0.048084922
-0.11425169 0.1390828 0.3956901
-0.19196098 -0.0745342 -0.14508696
0.21282972 0.018858578 -0.01620289
-0.13502266 0.083228126 -0.05048338
0.29915673 0.09884399 -0.035231538
-0.10610922 0.07925532 -0.048028998
0.21818271 0.06863437 -0.030242922
0.053802937 -0.019738251 -0.012354979
-0.035854377 0.068769164 -0.041827064
0.037757635 0.019140424 -0.02424053
-0.011046814 0.048563577 -0.03490168
0.27921003 0.03784684 -0.026236812
-0.06423641 -0.0005412156 -0.02322854
-0.0075971596 -0.049876645 -0.006497402
0.016914787 -0.06775862 -0.00025221394
-0.13839962 -0.02266224 -0.02025138
-0.11596459 0.15360151 0.4427236
-0.11787057 0.09347325 0.20362346
0.19463019 0.044666998 -0.02443579
-0.02061332 -0.17345153 0.02837093
-0.021048555 0.0856361 -0.045994073
-0.05553444 -0.12839736 0.013855293
-0.054142594 -0.10292883 -0.120795995
0.09457121 -0.049120184 -0.0020710942
-0.100042515 0.102081925 -0.19158958
-0.09826928 0.03321754 0.02488104
-0.19320524 -0.054877784 -0.1507839
-0.1170376 0.11563306 0.25267613
-0.119917616 0.15376844 0.37035134
-0.15366231 -0.023858208 -0.03768904
-0.005788294 0.01798172 -0.025887275
0.26334637 0.091500655 -0.03475166
-0.05915462 0.022536892 -0.02961967
0.14130588 -0.03521897 -0.003936016
0.25666174 0.119790085 -0.04317329
0.1007516 -0.034680758 -0.005933541
0.13079943 -0.03695778 -0.0039146454
-0.1814187 0.012260169 -0.05436895
-0.12409173 0.00059298094 -0.026274381
0.053274747 0.063575886 -0.036286257
0.26947302 0.17320037 0.01530199
-0.06537789 -0.0781945 -0.0009975726
-0.083305225 -0.053956643 -0.008767554
-0.08733695 -0.12867174 -0.2051317
0.25240606 0.2052336 0.005334236
-0.07687025 0.006285668 -0.025761731
0.011152891 0.031723376 -0.029060448
-0.049137805 -0.045645118 -0.009599501
-0.086282775 0.011298606 -0.027627725
-0.008870394 -0.13043484 0.016560908
-0.15485886 0.021257792 -0.03360204
-0.019383965 -0.08780394 0.0038499392
0.27422917 0.04783669 -0.02172779
0.2946445 0.15458603 0.02178747
-0.088175215 0.060668968 0.112283275
0.016250376 0.032978788 -0.029189045
-0.16518535 0.073290884 -0.11513726
0.14900836 -0.015586112 -0.009219739
-0.102634154 0.15088904 0.42751062
0.20214155 0.00844067 -0.013699237
0.2595276 0.17301282 0.008835786
0.12904365 -0.031291466 -0.005620411
0.22717863 0.039812014 -0.021563286
0.16104478 0.034229845 -0.022967497
-0.04859554 0.069504224 -0.0426172
0.32065046 0.090097874 0.010453745
-0.1326746 0.0797032 -0.049365144
0.27554107 0.049607705 -0.022176282
0.012752596 -0.23114133 0.04644154
-0.16891746 -0.05192366 -0.10310589
-0.138505 0.08917829 -0.07065368
0.12356237 -0.06929025 0.0050341585
-0.117668375 0.10122047 0.22886686
0.0051754457 -0.17386524 0.029661495
0.14965978 -0.032644376 -0.0042952476
0.14793399 0.052696053 -0.02886215
-0.12503204 0.06650621 -0.04523109
-0.10882901 0.17100745 0.438053
-0.111763634 0.06805336 0.10677207
-0.13695668 -0.12417006 -0.14415078
-0.12790808 -0.053549502 -0.01091146
-0.10760678 0.10889555 0.18890229
0.15236063 -0.011889693 -0.010128009
-0.09539465 -0.024342861 -0.01781465
-0.086426295 -0.085000016 -0.07080733
-0.10751984 -0.053069007 -0.010122864
0.14789528 -0.018466044 -0.0084437495
-0.10690628 0.09680016 -0.053099636
0.27792823 0.10683372 -0.038488884
-0.05634254 -0.048609283 -0.00907634
0.21423294 0.02738147 -0.01858474
-0.15777014 -0.05463211 -0.06887749
-0.113463536 0.16523401 0.43949914
0.09140201 -0.020856809 -0.010325317
-0.05748083 -0.14550892 0.018677166
-0.032814674 0.007934961 -0.024232598
-0.04776115 0.03769087 -0.03345025
0.16159113 0.010905044 -0.016249444
0.19731499 0.012059055 -0.014956897
-0.09953902 0.009397403 -0.027684757
-0.13343607 -0.022265757 -0.020139635
-0.038948145 0.09679747 -0.05001046
0.046697646 -0.020636987 -0.012420256
-0.11547695 0.10522162 -0.10217861
0.3152107 0.09852411 0.00806786
0.009523286 -0.05692431 -0.0036970433
-0.122582935 0.1013399 -0.0734195
0.04495039 -0.15339269 0.02559485
0.26162246 0.18900888 0.010409263
0.14128762 -0.054662094 0.0016423836
-0.11261779 0.10907838 -0.0887856
-0.044062477 0.021981528 -0.028774427
0.07771225 0.020004693 -0.022672826
-0.044912443 0.019053891 -0.02797289
0.2781906 0.08238289 -0.031460807
0.28384945 0.16982055 0.016925316
0.08266679 -0.03316943 -0.007189241
-0.111276284 0.14802243 0.31640384
-0.004028757 -0.04704253 -0.0071483543
0.22720711 0.07797374 -0.03251264
-0.085313775 0.052562233 0.027010249
-0.19578382 -0.05140026 -0.15189907
0.1451258 -0.043794926 -0.0013016275
-0.024880795 -0.041257158 -0.009756375
-0.11923134 0.0036870989 -0.026941206
-0.13438694 0.0260178 -0.034037847
-0.1082198 0.09700126 0.25796404
-0.13438992 0.03283893 -0.03599544
0.037927803 0.030910308 -0.027610358
0.0134936 0.048545275 -0.033781096
0.12007199 -0.028525526 -0.006821883
-0.13778076 -0.04420879 -0.028234085
-0.12040926 0.09434843 -0.05301015
-0.10247377 0.17129958 0.43287107
-0.1010592 0.026370874 -0.008239516
-0.106992014 -0.039799083 -0.013906556
-0.04556783 -0.13148594 0.015194703
0.042481933 -0.17078747 0.03047407
-0.036449585 0.016827676 -0.026949637
0.072612196 -0.19469532 0.038703594
-0.08759448 -0.008547958 -0.021992404
0.08065231 -0.03875922 -0.0056766393
-0.14491205 -0.038606152 -0.034276996
-0.02341865 -0.1139237 -0.12612405
0.18315084 0.007979129 -0.014429901
-0.052288763 -0.06931986 -0.0029494257
0.0185577 -0.20810981 0.040096078
-0.100469135 0.09664473 0.24423094
0.0011407171 -0.14510544 0.021225529
-0.05795228 0.027695723 -0.031045401
-0.06623556 -0.11907567 -0.12659165
-0.060566586 0.040871054 -0.034944948
-0.07328686 -0.10789243 -0.120569274
-0.12428249 0.14105988 0.35890907
-0.10803376 0.07590387 0.10116065
0.06087274 -0.23931457 0.039737336
0.062449098 0.048834883 -0.031639103
0.014526784 -0.16613404 0.027868161
-0.13911335 -0.09124353 -0.12892662
-0.12108958 0.016396718 -0.030672593
-0.12784281 0.008193554 -0.028625768
0.14679578 -0.01695002 -0.008928971
-0.14763956 0.07561442 -0.048871975
-0.026528878 -0.1724453 0.027813027
0.30256465 0.11072359 -0.0071495455
-0.016541753 0.08521281 -0.18295398
-0.14988172 0.07788312 -0.18185492
-0.01239627 -0.17755109 0.029920662
0.098834485 -0.0071047065 -0.013933781
-0.12502345 0.052821733 -0.041303582
-0.0046648863 -0.05045548 -0.0061980896
0.11138768 -0.04598678 -0.00220579
0.07009432 -0.21921119 0.04562398
-0.13021061 -0.05213531 -0.015761286
-0.10452517 0.004775443 -0.026585145
-0.040583406 0.08869232 -0.047758885
-0.11347578 0.086445235 -0.050427005
0.290964 0.09926231 -0.03572385
0.25965247 0.18994047 0.0100521725
-0.11291326 0.07805843 0.14420539
0.3110125 0.09384168 -0.022820849
-0.15407826 0.059748087 -0.044611774
0.26745167 0.17005256 0.01611325
0.09066346 0.0053983494 -0.017892802
0.104145594 0.032573666 -0.025078107
-0.024711303 -0.13781889 0.017959582
-0.08385554 0.0046191225 -0.0256007
-0.10022462 0.050284687 -0.03944837
0.27592844 0.08370919 -0.04711469
-0.06689935 -0.11630949 -0.12741537
0.26029846 0.1943776 0.0088084955
-0.07963533 0.04825095 0.03733978
0.008428728 -0.22634363 0.044868022
-0.17088181 0.061478604 -0.1583163
-0.08898583 0.11582641 0.2663199
-0.008559897 0.014647345 -0.025056463
-0.11574131 -0.06827018 -0.037264384
0.02818143 -0.17916146 0.032227058
-0.10588028 0.06901122 0.14712088
-0.17131212 -0.090206616 -0.13965128
-0.104830995 -0.028890759 -0.016938496
-0.18140012 -0.011345177 -0.07567755
-0.11991255 -0.09840435 -0.1159021
-0.019710649 -0.13776347 0.018171133
-0.1076106 0.057458237 0.07576367
-0.0007287658 -0.0006397005 -0.020313911
0.05482036 -0.17316446 0.031716887
-0.0903037 -0.12692967 -0.12543178
-0.07006449 -0.12567423 0.012413495
-0.1551541 -0.011046513 -0.024345936
-0.15609245 0.07405632 -0.04880904
0.26033333 0.18016185 0.012889221
0.11251653 0.017689008 -0.020426378
-0.08953446 0.055231374 0.104031526
-0.11548596 0.16808082 0.4385904
0.23512389 0.044368524 -0.022509864
-0.043686595 -0.027810978 -0.014469446
-0.18201655 -0.027793057 -0.107325815
-0.11517582 0.08865575 0.17027807
-0.10645441 0.14128102 0.4197642
-0.017867975 -0.09661968 -0.1308374
-0.11591443 0.09824076 0.21348006
-0.0070409924 -0.118849054 0.013319543
0.27219036 0.17447145 0.0150609035
0.23829633 0.058852926 -0.026522111
0.014673267 0.07357357 -0.040909436
0.09223291 -0.012804402 -0.012598119
0.106922485 0.012370154 -0.019154437
0.00975543 -0.051167957 -0.005338061
-0.101237535 0.13371465 0.37403643
-0.095341064 0.05742842 -0.041276615
0.17680372 -0.0039993385 -0.011281081
-0.09715994 0.005803961 -0.026545616
-0.087418064 -0.10231828 0.004923175
0.03818632 -0.22064012 0.04458398
0.3052648 0.13122004 -0.0059762727
-0.028849958 0.03974693 -0.033180904
0.2493331 0.03984173 -0.02056498
-0.05329491 -0.11736553 0.010791445
-0.08228712 0.029358445 -0.0013067384
0.06860124 -0.16511872 0.02544167
-0.08500454 0.08781669 -0.04952671
-0.13269848 0.10351757 -0.20263797
-0.074155845 0.012142788 -0.027319007
0.29101568 0.110175215 -0.03885284
0.26462272 0.029698746 -0.024276385
-0.11794414 0.16186316 0.44026273
-0.12203113 0.036918253 -0.036604196
0.11248487 -0.040999416 -0.0035872161
-0.14745249 0.034762327 -0.03714075
0.14637184 0.01678012 -0.018627033
-0.019237094 -0.18266597 0.031077415
0.16789162 0.023671057 -0.019626467
0.098541595 0.007651098 -0.018181356
-0.0924955 0.09203623 0.21847533
0.30007496 0.12534575 0.030424964
-0.18115972 -0.0877836 -0.1407942
-0.004642105 -0.03708522 -0.010033647
0.33036247 0.08588188 0.011787038
-0.091779836 0.050194982 0.085542485
-0.0864621 -0.006669722 -0.022479959
-0.0942312 0.08210932 -0.048308518
0.14391603 -0.058167975 -0.0136876535
-0.11779092 -0.12956594 -0.13850772
0.007757794 -0.15367718 0.023985969
-0.056826215 -0.12903957 -0.20915626
-0.11901598 -0.10864878 -0.1319826
0.12963219 0.03737114 -0.025296338
-0.10145791 0.14769737 0.41315627
0.28711766 0.14433327 0.024387572
-0.13281125 -0.0059075323 -0.024805197
-0.12836313 0.1549356 0.4143198
-0.09480577 0.08471322 -0.049081754
-0.09416971 -0.005507783 -0.023163812
0.12751037 0.052120123 -0.029625116
-0.061849225 -0.11824605 -0.16910774
-0.18298282 0.0007082792 -0.073810115
-0.008231882 -0.12604153 0.015329047
-0.013625783 -0.012163474 -0.017593421
0.106931314 0.025430785 -0.022901885
0.00586916 -0.13864627 0.019587066
-0.06544333 -0.02291909 -0.016862238
0.11023192 -0.06402663 0.002918021
0.039192002 0.025560068 -0.026017508
-0.102507666 -0.12936631 -0.21338062
0.0077641574 -0.089002535 -0.13185807
0.038953338 -0.23788196 0.04956648
0.303903 0.094055586 -0.033641506
-0.09356047 0.0038746998 -0.025828265
0.27181074 0.11778441 -0.041909475
-0.14079648 -0.04464479 -0.032357324
-0.10295986 -0.12090806 -0.12773472
-0.075967856 0.0111455675 -0.027115127
-0.09663862 -0.043197703 -0.012460688
0.006232589 -0.088337295 0.005167461
0.25882414 0.1857434 0.011218821
0.0058363024 -0.051205784 -0.0055055832
0.31635344 0.08844945 -0.008071748
-0.14724566 -0.02603465 -0.019685542
0.0076309033 0.014221817 -0.024198469
-0.11791757 0.12962921 0.35040343
0.05954744 0.038424764 -0.028783983
-0.17981818 0.0438714 -0.05953023
-0.13327907 0.09595831 -0.05405701
-0.103322804 0.037266262 0.028444361
-0.07765626 0.03718692 -0.002310001
-0.010559935 -0.0493105 -0.0067944573
0.25810525 0.04137715 -0.020607006
0.0318691 -0.16016717 0.026944034
-0.12415287 -0.12948199 -0.13406906
-0.075634666 0.0010302417 -0.024197279
-0.09718721 0.053905435 -0.040349834
-0.10066055 0.11204246 -0.19447576
-0.10368791 0.15252455 0.43703893
-0.09028647 -0.13171387 -0.1299292
0.015056207 -0.23018532 0.04627211
-0.20222762 0.035429016 -0.17710753
-0.1134655 0.092825875 -0.052257426
-0.029649979 -0.123475656 0.013619766
0.16241524 0.057645593 -0.029624095
0.18381776 -0.004243233 -0.010892418
0.08435452 -0.2189779 0.046205003
-0.06561076 -0.12185974 -0.12576452
-0.09472435 -0.08876633 -0.081091255
-0.12531917 0.14467278 0.38922736
-0.035074078 -0.16210726 0.024458375
0.23201592 0.105340414 -0.040146872
0.047142386 -0.0022958 -0.01766289
-0.08970543 0.06448672 0.13004701
-0.14287981 -0.116665505 -0.13076666
-0.1429879 0.0042785187 -0.028190635
0.034442004 -0.21311408 0.04225387
-0.042581588 0.070948176 -0.0427581
-0.12208246 0.08994185 -0.05182179
-0.075432315 -0.10676707 -0.11821529
0.11469248 -0.0636111 0.0030015297
-0.100325406 0.09401755 0.2500265
0.17516674 0.0014981189 -0.012933207
-0.12721857 0.065674245 -0.04509157
0.022556635 -0.15496199 0.025027148
0.17857523 0.026300015 -0.019895239
-0.070304066 -0.04269052 -0.011409593
-0.12256196 0.14492963 0.3899975
-0.015628662 -0.10110905 0.007838548
-0.08752542 -0.0517619 -0.009589073
0.086163595 -0.02773613 -0.008589273
0.2944407 0.123260796 -0.0093426
0.19712774 0.026517238 -0.01911417
0.3078322 0.096759446 -0.032971106
-0.21197566 -0.0149350455 -0.16309868
-0.010482297 -0.111154474 -0.13773191
0.1881677 0.021778138 -0.018161522
-0.026353464 0.069366254 -0.041566655
-0.082114704 -0.06913857 -0.0043571047
-0.11611941 0.057807088 -0.04232964
-0.0153499665 -0.12685424 0.015238724
-0.13056172 0.09566012 -0.13319972
-0.005639466 -0.09197418 -0.13161454
0.17625083 -0.015492553 -0.008008093
-0.011355347 -0.0848851 0.0033775135
-0.0995569 0.04373125 -0.037537713
0.05311642 -0.1807924 0.03382817
-0.16917647 -0.06040692 -0.12276796
0.0028950863 -0.14408022 0.021011204
0.024419213 -0.14197718 0.021386042
0.3100877 0.122807205 0.031608142
0.0023948087 0.02025365 -0.026167294
0.050967596 0.0469141 -0.031609863
-0.11143961 -0.13063113 -0.13190344
0.058418006 0.026819825 -0.02550533
0.16595554 0.04346226 -0.025393179
-0.14728914 0.035279084 -0.037281483
-0.06692148 -0.105889 -0.119813845
0.15997532 0.009719132 -0.015982348
0.30313885 0.10641828 -0.02295883
0.2556729 0.10663031 -0.03944183
-0.10203375 0.115731366 0.3260898
-0.049758434 -0.1395751 0.017325364
0.17313401 0.035650417 -0.022825608
-0.19564725 0.03988711 -0.17808777
0.18663037 0.02709451 -0.01975709
-0.16488028 -0.09040497 -0.139302
-0.1838667 0.031594682 -0.09088443
-0.035939258 -0.09273028 0.004511284
0.27439833 0.06681954 -0.027167143
0.25090143 0.04706462 -0.02256646
-0.10343931 0.1542967 0.44066483
-0.06458804 -0.041319773 -0.011542793
-0.15733002 0.08321973 -0.069799356
-0.02997847 -0.046784442 -0.0084018875
-0.05857925 0.09354659 -0.18725574
-0.087973624 0.108440615 -0.07388414
-0.046065778 -0.07272374 -0.0016897798
-0.1816044 -0.00959438 -0.07431916
-0.015720408 0.06835905 -0.040794574
-0.04378482 0.03413171 -0.032248475
0.007876024 0.06552108 -0.17619357
0.24408379 0.053714063 -0.024784427
-0.029938271 -0.14570124 0.019983953
-0.029821957 0.092029855 -0.048227746
-0.051538058 -0.05585231 -0.006779938
-0.016762014 0.089275114 -0.046843488
-0.02082902 -0.1978267 0.024530578
0.088457264 -0.03919033 -0.005198303
-0.07698966 -0.07998034 -0.0010129138
0.22505884 0.023753652 -0.01705175
0.07055843 -0.16872615 0.01618204
-0.16028814 -0.07838161 -0.13552882
0.083333224 -0.04683716 -0.003236874
-0.0152108725 0.07029245 -0.041325834
-0.015761072 -0.10216515 -0.18558785
-0.0716266 -0.091934815 -0.08404566
-0.102790274 0.11663325 0.31664425
-0.060728658 0.031687368 -0.032317057
0.119370975 0.030804763 -0.023878586
-0.15113361 -0.045260057 -0.03532957
-0.095877305 0.10178873 0.17286776
-0.11367712 -0.038326718 -0.014633023
0.17787337 0.00091740873 -0.012643663
-0.014708437 -0.13424364 0.017388294
0.0133130215 -0.18459834 0.033111215
-0.16695064 -0.060685605 -0.117943875
-0.07291029 -0.080104105 -0.0007918181
-0.124035485 -0.0634562 -0.033115845
-0.0076136827 -0.16366789 0.02615422
-0.087105066 0.044258133 0.062459618
-0.015523171 -0.07051625 -0.00093506963
0.32049885 0.08172851 -0.008464368
-0.10884084 0.06857558 0.13621783
0.293574 0.12961741 0.015009268
-0.112418845 0.1582146 0.44156086
0.27884686 0.10153747 -0.036927298
0.25438643 0.19718947 0.0077327457
0.25360045 0.18427907 0.011401743
0.018241502 -0.13618785 0.019443804
-0.16313563 0.08780549 -0.19036023
0.09325032 0.0065241787 -0.018098155
0.25041345 0.10159038 -0.038234815
-0.001080501 0.025011461 -0.027690338
-0.09232095 0.063567206 -0.04290071
0.14952564 -0.017524276 -0.0086402185
0.09571303 0.0016943022 -0.016600424
0.017698 -0.23864415 0.04881925
0.011325406 -0.022731993 -0.013426612
-0.10418693 -0.07956909 -0.0023670897
0.048687156 0.010412075 -0.021239199
0.009233988 -0.20257604 0.038084455
-0.077435516 -0.011781769 -0.020602599
-0.18909925 0.008931073 -0.12143697
-0.0043434203 -0.15462434 0.023707584
-0.15844168 -0.03484754 -0.035970345
0.07019257 -0.19688708 0.039222587
-0.115641534 0.07082934 -0.0460446
-0.20234397 -0.05992007 -0.15890475
0.22719534 0.052527964 -0.025211446
-0.062801614 -0.124873266 -0.124771945
-0.07595176 0.02472088 -0.031009978
0.17944634 0.04279163 -0.02458787
-0.09671925 0.11128259 0.29121035
-0.10380733 0.171914 0.42484224
-0.037076883 -0.01711377 -0.017238632
-0.15614648 -0.10505718 -0.13470061
-0.09159394 0.07614204 0.08401931
0.2181746 0.10048026 -0.039381597
-0.073262684 0.011236828 -0.027018301
-0.18686037 -0.06348635 -0.1480251
-0.018942865 0.018037494 -0.026501093
0.2768191 0.044255015 -0.020582246
-0.106894284 0.14017335 0.39715677
0.011155462 0.07170296 -0.04053244
-0.11415687 0.11957014 0.33358973
-0.1137098 -0.058662754 -0.008798887
0.007693683 0.07648573 -0.04206229
0.15930247 0.026804991 -0.020915978
0.31935713 0.11298776 0.025695022
-0.13141108 -0.014286392 -0.022337183
0.105836906 0.013922315 -0.01964913
-0.122258075 0.05227854 -0.04102191
-0.08517224 -0.06033664 -0.0070216213
0.09236706 0.0539809 -0.031756077
-0.10661369 0.116522476 0.3256548
-0.18642402 -0.08616284 -0.1426244
0.062065896 -0.19543228 0.02576853
0.18596368 0.038280513 -0.022997253
-0.11413692 0.1538764 0.4416382
-0.100152984 0.082860425 0.19173108
0.048322525 -0.03801089 -0.023181047
-0.13690698 -0.07246843 -0.07240137
-0.15162393 -0.08559055 -0.13499288
-0.035308994 -0.0094022 -0.019371005
-0.011152541 -0.12147017 0.013884591
0.019384231 -0.029380811 -0.011152453
-0.074168235 0.025703495 -0.031210607
-0.17250223 0.048081003 -0.060405944
-0.076632544 -0.12375563 -0.19112386
0.20534003 0.03584107 -0.02141659
0.029557824 -0.20593773 0.039972745
0.20964421 0.0425524 -0.023146784
-0.0654302 -0.002179579 -0.022812482
-0.099626854 0.14703736 0.4025378
0.030693647 -0.18755749 0.034750473
-0.15190974 0.056535255 -0.043591324
-0.117942624 0.15008217 0.42936373
-0.10731043 0.0059990897 -0.027062709
0.023374902 0.05833193 -0.036140177
0.052429974 -0.020362047 -0.012238385
0.0059188046 -0.19522119 0.035823494
0.32738534 0.10506492 0.028333472
0.06863621 0.01946207 -0.022929441
0.0458228 0.0044036303 -0.019645292
-0.03402857 0.020157374 -0.027794993
-0.11132093 -0.07759656 -0.010153909
0.123384565 -0.07473075 -0.0054645957
-0.15921581 -0.09403283 -0.1962886
