# .PCD v0.7 - Point Cloud Data file format
VERSION 0.7
FIELDS x y z
SIZE 4 4 4
TYPE F F F
COUNT 1 1 1
WIDTH 1000
HEIGHT 1
VIEWPOINT 0 0 0 1 0 0 0
POINTS 1000
DATA ascii
0.20474358 -0.22207926 -0.03640074
-0.07737641 -0.041907437 -0.0075612525
-0.21365236 0.07821695 0.08790813
-0.12079492 0.03711813 0.059250515
0.081418246 -0.0083045 -0.01599719
0.20709169 -0.11047812 0.004289769
-0.3387396 0.13316432 0.11412617
-0.29055235 0.1515929 0.14000112
-0.13609713 -0.0073121404 0.012971776
-0.027315918 0.040222693 0.036587346
0.055903748 -0.13921724 -0.081690505
-0.25228968 0.13726772 0.12840559
0.0918027 -0.15069629 0.009434078
-0.26846614 0.24559559 0.14020355
-0.02021278 0.13561049 -0.06100105
0.15434402 0.07325106 -0.17784819
-0.09372652 -0.032371163 -0.001853539
-0.0072157346 0.04959882 0.026611254
0.045531634 0.09144338 -0.076514184
0.10678833 -0.012333454 -0.03107508
-0.032159343 0.019779671 0.03485338
-0.014957893 -0.011892183 0.02002923
0.19611329 -0.09502832 0.0083267335
0.17816871 -0.052603085 0.012311141
0.015166655 -0.21744502 -0.057238504
-0.088980265 -0.051348027 -0.036262825
0.15432811 -0.067413665 0.021816688
-0.2893579 0.16979706 0.14938253
-0.031916726 0.1264226 0.007298425
-0.20607032 0.11493823 0.110241376
-0.11339794 0.07081203 0.072682455
0.1085085 -0.13423449 0.02096104
0.2500447 -0.0024377075 -0.037167586
0.14973627 -0.26325917 -0.08063466
0.040631983 -0.22169816 -0.057693038
0.28626108 -0.010407453 -0.056972295
-0.055560548 0.016516056 0.039806314
-0.21688245 0.034813967 0.022642639
-0.026451768 0.008888907 0.03034258
-0.0957355 -0.024600498 0.007722632
-0.011052464 -0.17490742 -0.17105506
-0.28820762 0.21939233 0.1361617
-0.29557076 0.29562148 0.012559944
-0.11489125 -0.007217559 0.022557307
-0.35386795 0.22863302 -0.014119525
0.015746256 -0.06307284 -0.010369909
0.058137245 -0.06534658 -0.016541667
0.04985551 -0.13133788 -0.07245238
0.22728333 -0.005609105 -0.023409244
0.036408313 -0.23312669 -0.09447753
-0.1842374 0.1798523 0.10963442
0.10451887 -0.28163 -0.103107534
0.24347728 0.035309 -0.12877703
-0.10176771 0.06691478 0.06813128
0.07014111 0.06721197 -0.05751854
-0.2926705 0.14554365 0.13663736
0.1166897 -0.2274795 -0.052833624
0.031793203 -0.20065898 -0.044993214
-0.12288445 0.16618377 0.07018181
-0.21111457 0.22008462 0.1151599
-0.010733222 0.11382304 -0.0050144233
-0.17117219 0.038733136 0.05745463
-0.21757011 0.07602314 0.08561367
-0.34083307 0.20465189 0.04715586
0.10415265 0.042951554 -0.07164191
0.0037329847 -0.18741392 -0.23912756
-0.13198233 -0.00518061 0.018063165
-0.20584087 0.050789423 0.06118669
0.24797569 -0.18062077 -0.008788821
-0.28111547 0.17215851 0.14876555
-0.028661463 -0.09684728 -0.11691009
-0.28565207 0.29728743 0.030916113
-0.004875711 -0.10700489 -0.07194705
-0.20116769 0.25681165 0.014670397
-0.064178646 0.15818608 0.007363045
0.07981731 -0.027945234 -0.014190208
-0.032421727 0.1005674 0.028749121
0.14267218 0.002220848 -0.06956683
0.24562405 0.030110532 -0.10430636
0.07087181 -0.18995222 -0.02517829
-0.1096109 0.12402183 0.07518458
-0.10189776 0.04599034 0.06114519
0.04278504 -0.1816239 -0.04905467
0.20970297 0.07364126 -0.21748075
0.16833341 0.100270286 -0.1875464
-0.24036603 0.060499467 0.056984108
-0.20330751 0.15060809 0.119826466
-0.23495421 0.13362277 0.12367317
-0.03895053 0.020741226 0.037177406
0.02840187 -0.01377377 0.007790925
-0.2747326 0.10940119 0.10732774
-0.06611635 0.050148744 0.052957762
0.2675869 -0.044454362 -0.04098137
0.017606284 0.08028012 -0.003949676
-0.066289514 0.08243176 0.055452242
0.07823204 -0.09144365 -0.032170378
0.065470636 -0.16752195 -0.021685932
0.13160323 -0.20905554 -0.03431292
0.10552759 -0.16994323 -0.0026237627
-0.30384138 0.14477937 0.13529886
-0.042519003 -0.0813965 -0.053846143
-0.023674602 0.057590887 0.03473553
0.2885941 -0.075891845 -0.048429545
-0.11237244 0.13208173 0.074965864
0.12290014 -0.20437768 -0.031260516
0.026466623 -0.008685222 0.009488103
-0.26215044 0.30092895 0.06143905
0.09123282 -0.18092671 -0.014379856
0.035585888 0.098328516 -0.07480544
0.046063993 -0.20457573 -0.041594815
0.24422483 -0.1326509 -0.013955071
0.13672943 -0.18326008 -0.010462814
0.080695525 -0.22812141 -0.058172572
0.109732665 -0.023204125 -0.030275328
-0.07087389 0.14714481 0.032902736
-0.079746746 0.097654894 0.061427105
0.060457278 -0.09477261 -0.032671597
-0.19823228 0.13680872 0.1154097
-0.29248187 0.09742844 0.08485669
0.26279795 -0.15936458 -0.020665316
-0.1479573 0.012683785 0.03513493
0.2522379 -0.0036229228 -0.03827154
0.18373187 -0.13643996 0.021850444
-0.1789219 0.15823857 0.10942572
0.0489741 -0.09901101 -0.036810093
0.062591396 -0.08067297 -0.02460169
0.108730495 -0.20350507 -0.03235024
0.03538701 0.077941686 -0.021606067
0.100070365 -0.26323736 -0.21465208
0.13463792 -0.0038031037 -0.056466904
-0.16368304 0.14850289 0.102083355
0.04584695 -0.19156197 -0.029932728
0.20717044 -0.0482677 -0.005219349
0.15389644 -0.14575627 0.02547436
0.23279095 -0.14636672 -0.005213185
0.18831877 -0.20331734 -0.02168962
-0.19986816 0.035498265 0.04247715
-0.19285104 0.25346366 0.037231456
0.21112733 -0.12898105 0.0047412864
0.18589996 0.08469215 -0.17113742
-0.0407966 0.11450993 0.028217787
0.22195046 0.04780486 -0.10392195
0.2938645 -0.08365264 -0.050316937
0.111544594 0.009174381 -0.04331735
-0.07208097 0.08992023 0.057951037
0.009737042 0.06893853 0.009915886
-0.22807106 0.03695305 -0.0017071287
-0.25962466 0.13220505 0.12613398
-0.18368036 0.11295554 0.10490132
-0.148564 0.10617134 0.092424035
0.24703015 -0.15531838 -0.012102508
0.0024862564 -0.06597549 -0.013402835
0.18890269 -0.22940202 -0.04501583
-0.15330979 0.22658601 0.018430216
0.06249273 -0.003895656 -0.0062884255
-0.054315105 0.04719565 0.04826729
-0.21709402 0.19449732 0.12690732
-0.24460302 0.27640313 0.102015436
0.03236276 -0.04263081 -0.0020298709
0.16291313 0.059105057 -0.13986492
0.18377672 0.027363274 -0.051219624
0.0052863136 0.078591086 0.009046193
0.13299501 -0.2787992 -0.09665233
-0.1193205 0.023445437 0.05022103
-0.15600175 0.055487566 0.07290599
0.062448647 -0.24364015 -0.15592901
0.26718992 0.017590586 -0.12919623
-0.0014838787 -0.16328146 -0.16757126
0.04599037 -0.20024964 -0.037717726
-0.1893448 0.15089473 0.11421244
0.10344623 -0.2615589 -0.08510193
-0.04546423 0.14396153 0.0012416374
0.26599056 -0.041729543 -0.040465333
-0.16450751 -0.0019191883 -0.0059048687
0.13677281 -0.1833069 -0.010499419
0.27753517 -0.052309547 -0.04555613
0.22420207 -0.04908328 -0.015002739
-0.042218797 0.08233869 0.041897316
0.18298633 0.08057077 -0.12840609
0.17060092 -0.17212811 0.003984809
-0.100945644 0.008775828 0.03967937
0.15676701 -0.14593194 0.02571106
0.2816889 -0.13041218 -0.036073986
0.2982355 -0.008297945 -0.111396894
-0.025601164 0.104645796 0.020586614
0.11672766 0.033324014 -0.19974564
0.21892971 -0.12165644 -0.00089667377
0.15835238 -0.014035957 -0.04555664
0.17866682 0.053918604 -0.09959296
0.09542958 -0.08766556 -0.033129077
0.06293949 0.049978543 -0.026042307
-0.36925158 0.15013438 0.065186255
0.060734965 -0.11412936 -0.048662905
0.15564251 -0.24720085 -0.06536992
-0.02124129 -0.010907609 0.021663653
0.044984706 -0.027426051 -0.00075106195
-0.05470681 0.050424606 0.048778195
-0.0085962685 -0.019496012 0.015612597
-0.086021826 0.15700644 0.040677745
-0.10196645 0.013930746 0.043738425
0.21732154 -0.2260202 -0.039552115
-0.05574536 0.13728553 0.02515022
0.0039447374 -0.111448415 -0.07143725
0.15485744 -0.08763221 0.031201275
-0.09067573 0.13514185 0.058905404
0.1034973 -0.27118894 -0.17794964
0.28700122 -0.114202455 -0.04166122
-0.33873317 0.12982833 0.10886982
0.10329852 -0.08958459 -0.035462476
0.22669709 -0.07020978 -0.013241307
0.22245796 -0.027018009 -0.017345712
-0.20695384 0.11678422 0.1111844
0.2114721 -0.17664082 0.0053729173
-0.19467998 0.14326897 0.11553536
-0.2576633 0.22317095 0.1462438
0.2040685 -0.01951767 -0.007787989
0.14796428 -0.17524368 -0.0017762036
-0.17134777 0.10220773 0.09816185
-0.14248268 0.06729304 0.077948585
-0.37648368 0.18309064 0.0032933648
-0.11989043 0.14896707 0.07561954
-0.2311072 0.25226367 0.11283115
0.01660674 -0.13998975 -0.1628471
-0.28408715 0.27925 0.05979105
0.04302174 -0.06544739 -0.01412518
-0.34328255 0.22048381 0.019562796
0.06647118 -0.012338111 -0.0077522257
-0.025985507 0.0049336753 0.029196125
-0.37007993 0.17829704 0.023475144
-0.12497322 0.010435016 0.038539864
-0.04556255 0.15087827 -0.016303875
0.07991561 -0.18466778 -0.019236194
-0.06630575 0.013179648 0.04050272
-0.2477692 0.13847312 0.12819402
-0.27294457 0.19680282 0.15303782
-0.013555003 -0.16206433 -0.1945139
0.08996194 0.047112484 -0.055299714
-0.21375851 0.2506583 0.093553886
0.17092067 -0.06920974 0.019054307
0.055211768 -0.023344252 -0.0037385956
0.14703877 -0.0399112 -0.032456245
0.14201596 -0.2642286 -0.08250417
0.28330532 -0.05757101 -0.0481056
-0.014864443 -0.15395448 -0.20876499
0.30715585 -0.0095619075 -0.1483874
-0.03189211 -0.06734856 -0.021978794
0.20473191 -0.043449882 -0.0045334245
0.21335596 -0.20115338 -0.016349664
0.05393693 -0.18068528 -0.027091963
-0.28109208 0.11846194 0.11526678
-0.21314102 0.24441357 0.1003013
-0.32722098 0.13891983 0.12609954
-0.11570546 0.14533685 0.0738238
-0.07461242 0.1729881 -0.03244438
-0.15065847 0.04017701 0.061569702
0.10183402 -0.05772917 -0.026351867
-0.1681162 0.00795297 0.015728435
0.04455734 -0.23247331 -0.14059713
-0.0033558842 -0.17629437 -0.15300573
-0.021807779 0.08926797 0.025518477
-0.31558168 0.17152677 0.14693095
-0.21764854 0.1088008 0.10898831
-0.037452023 0.14266615 -0.010406491
0.13970248 -0.056260776 -0.024570972
-0.12484766 0.09253887 0.081701264
-0.19191863 0.22557822 0.09411256
-0.038145617 -0.03764154 0.0066245263
0.08371532 -0.08879094 -0.03131973
0.09951439 -0.04787175 -0.02433469
-0.124610566 0.152585 0.077693924
0.079991706 -0.18902817 -0.02314361
-0.021277016 -0.04412237 0.0025377758
-0.15739776 0.031642172 0.05320587
0.05935769 -0.03345195 -0.0066833794
-0.17047146 0.06828018 0.081535526
0.25116763 -0.0859374 -0.025084324
-0.21750455 0.06780794 0.07714159
0.1606264 -0.2365887 -0.055214737
0.3038741 -0.023482382 -0.0652206
0.09445928 0.005513475 -0.027994355
-0.008471878 -0.034691717 0.008085399
0.13099605 -0.17868195 -0.007107397
0.10706751 -0.19004995 -0.020482577
0.12700352 -0.15089302 0.017327476
0.17548224 0.04895704 -0.09920274
-0.1122108 -0.0363176 -0.027452013
0.18131693 -0.13159432 0.022492457
0.14838327 -0.0978407 0.03652054
0.15951745 -0.18452477 -0.008586338
-0.36162737 0.17195208 0.05013935
0.17006233 -0.088319674 0.022460701
0.15988599 -0.20185228 -0.024103472
0.008567928 -0.0028360283 0.016640967
-0.17737405 0.12855646 0.106927164
0.21177602 -0.21940489 -0.03307823
0.15973595 0.06918026 -0.16080593
0.1709552 -0.25527835 -0.07048754
0.023605352 -0.21840243 -0.056983147
-0.078727126 0.035811283 0.05238087
-0.1825849 0.14913611 0.111287296
0.10823154 -0.1774953 -0.009051384
-0.2749667 0.07577263 0.05497971
0.15900482 -0.12357246 0.03424368
0.03852796 0.06708592 -0.014755648
0.10824029 0.045529246 -0.086751945
0.08922771 -0.081472 -0.0293333
-0.26271257 0.15056391 0.13615619
0.13771296 -0.013815189 -0.053255532
0.037463844 -0.09844248 -0.037654597
-0.2808938 0.2696098 0.08014904
-0.12640066 0.11441521 0.08476977
-0.12578817 0.094960235 0.08239239
0.034838915 -0.22058909 -0.17194775
0.07329177 0.058513884 -0.047407545
-0.02232899 0.06985942 0.03211801
0.23214905 -0.046282575 -0.020053644
0.061853513 -0.056974825 -0.0137654515
0.24448007 0.022963079 -0.049720664
0.07739461 -0.21226487 -0.044359658
-0.17807166 0.2434794 0.028696248
0.06866765 -0.19273196 -0.027967116
-0.29444122 0.19107817 0.15864602
-0.23409513 0.2568281 0.11230797
-0.3392837 0.18266846 0.081601426
-0.17570853 0.0015532869 -0.02184458
-0.038048718 -0.04652411 -0.000887402
-0.096124634 0.044912983 0.059571687
-0.22089773 0.20181502 0.12791912
0.027770672 0.054398566 0.0023167315
0.036487818 0.08338487 -0.029618323
-0.356451 0.20964499 0.0074417377
0.30364436 -0.01144539 -0.117590606
0.085928395 -0.20231198 -0.034291636
-0.12607625 0.20354337 0.030143192
-0.013596056 -0.10763729 -0.09339606
-0.09800327 0.056403447 0.064312555
0.2160052 -0.086670205 -0.004517649
-0.20027718 0.1155146 0.10935459
-0.21598119 0.11525132 0.11230037
0.16411088 -0.25070095 -0.06735189
0.16173738 -0.069724895 0.024475118
0.110535495 -0.121365875 0.0069270614
-0.26574853 0.20683526 0.15122664
-0.006998127 0.10320777 0.0029627115
0.29087344 -0.00010373891 -0.12963127
0.059415147 0.06698062 -0.039598595
0.010459529 0.10119294 -0.017302103
-0.023846244 0.055628624 0.034977734
0.26925296 0.012457394 -0.104741514
0.31140497 -0.013338188 -0.14436604
0.073024265 -0.026120292 -0.011243886
-0.21971671 0.06952381 0.07842077
0.22152816 0.031889156 -0.02577909
-0.24450852 0.18233483 0.1399575
-0.037769016 0.036851116 0.040444057
0.2370202 0.031187296 -0.067658976
-0.15298964 0.09344972 0.09055256
0.044146013 -0.060863327 -0.011944689
0.22394994 -0.19425157 -0.008765627
-0.21102731 0.19880049 0.122274145
-0.28109097 0.18343535 0.1526174
0.24556202 0.023619795 -0.05973373
-0.0146986665 0.010943222 0.027262911
0.23429242 -0.08717985 -0.015078178
0.04888674 -0.059718553 -0.012388305
0.042896256 -0.15863408 -0.081462555
-0.09371196 0.08992502 0.06887249
0.063466355 0.03221452 -0.015710235
-0.09812409 0.15852268 0.05176595
-0.19453341 0.077019095 0.08819413
0.13738468 -0.21368983 -0.03771099
0.1696277 -0.16005282 0.014732248
-0.34843946 0.18138056 0.06430394
0.14998245 -0.15624996 0.015552299
0.14284787 -0.051362775 -0.024953624
-0.23352987 0.043120127 -0.021683099
0.1878125 -0.04080679 0.0049062036
0.2024702 -0.078300945 0.0020835542
0.090993084 -0.16793126 -0.0027377198
-0.090644814 -0.0063231415 0.028268741
-0.019846365 0.02076541 0.03133112
-0.03743391 0.12292953 0.018356515
0.1533098 -0.05934116 0.008227039
0.20111907 -0.0075968173 -0.007885176
0.062925614 0.02235374 -0.01129343
-0.08982243 -0.032826446 -0.0007644358
-0.11503718 0.058715187 0.0690217
0.09738143 -0.04283714 -0.022921408
-0.27401966 0.28527445 0.07226945
-0.15259705 0.1798188 0.0873735
-0.12306696 -0.034407787 -0.051971067
-0.078171045 0.078449085 0.061333273
0.043581717 0.089748695 -0.056867912
0.0991846 0.03991619 -0.058592465
-0.20736116 0.16052696 0.12255125
0.2536712 -0.14511302 -0.017606715
0.22330551 0.02307809 -0.02546971
0.2643694 -0.027671617 -0.041631706
0.21438177 -0.06273596 -0.007214261
0.16499066 0.05741197 -0.13312162
0.014786898 -0.10386781 -0.050773446
0.078451686 -0.19394366 -0.027762532
-0.37097058 0.137701 0.07924792
0.21550603 0.050216112 -0.087417
0.099424966 0.036994867 -0.24110101
-0.062214006 0.032326333 0.047242224
0.2297145 -0.10366005 -0.009909111
0.18701491 0.047189064 -0.07259948
0.10078215 -0.015879717 -0.02629985
-0.18292516 0.10647116 0.10219768
0.19012228 -0.019418694 0.00030999284
-0.32927173 0.23761305 0.024513409
-0.20009966 0.049918793 0.06251439
0.17810464 -0.114782915 0.021807501
-0.25487342 0.1050882 0.10672675
0.19419928 -0.21230435 -0.028988676
-0.10727861 -0.019187182 0.0099797705
0.15075782 -0.27669412 -0.09242964
-0.011389372 -0.10977337 -0.118277274
0.19390658 -0.027844118 -0.0006091395
0.029363723 -0.18478039 -0.07261024
0.25106922 0.033557262 -0.15564935
-0.18821216 0.08038714 0.090057
-0.19672935 0.14823353 0.11690705
0.2015134 -0.057752933 -0.00048568097
0.03156525 -0.034344558 0.0015893573
0.25950694 -0.018038461 -0.040283926
-0.069406025 0.02374718 0.045523424
0.17897074 -0.06456572 0.013664038
0.1961921 0.013424802 -0.008216906
-0.09198425 0.10942421 0.06702082
-0.019691234 -0.016222414 0.019140474
-0.21115829 0.03280167 0.025632028
0.16405869 0.09605719 -0.18993102
-0.07031691 -0.050362676 -0.015859313
0.13125521 -0.19168395 -0.01875299
0.2466373 -0.044102952 -0.028813034
-0.23676664 0.14435476 0.12851223
0.11451255 -0.20813866 -0.03574726
0.0045542787 -0.13872507 -0.18982089
-0.3104898 0.2721281 0.014748047
-0.014923393 -0.006519824 0.02226856
0.25591108 -0.10442293 -0.025031189
-0.2843317 0.2302857 0.12879513
0.29232204 -0.028439255 -0.057720475
0.11991149 -0.10670318 0.005697652
-0.095020995 -0.044598438 -0.025303446
0.27301246 -0.032585036 -0.045945738
0.30714068 -0.04028907 -0.06451545
-0.08088638 0.07257206 0.06178749
-0.19069502 0.11475229 0.107170515
0.035684828 0.040243115 0.001902608
-0.30971074 0.09710527 0.064658
-0.15769994 0.1230465 0.09836984
-0.13861313 0.010442534 0.0355025
0.014896718 0.017649207 0.01704915
0.22243898 -0.16519319 0.003714421
-0.26623303 0.2569126 0.1287999
0.05313227 -0.018324105 -0.0023477357
0.20753016 -0.22404906 -0.037810314
0.10958951 -0.012047945 -0.032961596
0.002964887 -0.20650841 -0.10499659
0.045590352 -0.04679395 -0.0063444856
-0.024791805 -0.10093746 -0.105271034
-0.13460928 0.1909502 0.06281937
-0.11109543 0.19363055 0.021939933
-0.2568207 0.06039773 -0.01611616
0.06786988 -0.102206506 -0.038137436
-0.2810165 0.10243279 0.09791942
-0.32626635 0.13007556 0.115399174
0.2525083 -0.0028604807 -0.038550332
-0.33754975 0.13019738 0.11057467
-0.08406156 0.01853504 0.045338266
-0.030555699 -0.07799847 -0.035719015
0.033903476 -0.13819647 -0.10551621
-0.092450365 0.12942716 0.06271732
0.13073389 -0.16569154 0.004526343
0.23921505 0.052506268 -0.22425787
-0.10766739 0.0050208387 0.0362376
0.022955988 -0.0791474 -0.022609496
0.07602107 -0.24822295 -0.19407184
0.060643613 -0.05309104 -0.012058623
-0.030538853 0.09341376 0.030506784
0.1982001 -0.2313287 -0.045517847
-0.030079285 -0.028217675 0.013703687
0.02129414 -0.15768564 -0.12793234
0.09684521 -0.15352018 0.010981535
0.27161533 -0.011047303 -0.048342906
-0.2252021 0.2431554 0.11393262
0.04642043 -0.22634238 -0.06109306
-0.099360466 0.123770386 0.06860434
-0.29275304 0.250959 0.081852056
-0.11649761 0.028342992 0.053824373
-0.2045421 0.23512726 0.099407345
-0.20933704 0.17771779 0.12407709
0.011151808 -0.1934824 -0.09829896
0.30215308 -0.049745582 -0.060324185
0.13632154 -0.0332994 -0.044989955
-0.15323997 -0.0031876408 0.006611352
0.17544219 0.03404454 -0.07811538
0.058297567 -0.21493533 -0.04928288
-0.22247094 0.22695757 0.12097947
0.14742891 -0.12624392 0.04139484
0.07429102 -0.18871899 -0.02361908
0.008396929 -0.11243536 -0.21911597
-0.040603988 0.12741809 0.017391376
0.21125083 -0.21320486 -0.027543051
0.12299852 -0.087301165 -0.0153983105
-0.096400656 0.14439516 0.059219133
-0.27454352 0.25047296 0.12058357
-0.13477159 0.11182595 0.08787101
0.00255602 -0.043887306 0.0018271189
-0.003638132 -0.18679567 -0.2056583
-0.36267194 0.16844451 0.05293709
-0.26256067 0.25487345 0.13936666
-0.250541 0.19713318 0.1440166
-0.09734329 0.03275413 0.054685317
0.024380237 0.10384046 -0.0516898
0.15698853 -0.11531964 0.034173578
-0.09613958 -0.029734831 0.0006419403
-0.048161633 -0.07944563 -0.0568936
0.15231952 0.06762117 -0.17408635
-0.061227895 0.14144269 0.027253885
0.18378636 -0.2552147 -0.06878569
-0.30405706 0.106257476 0.09226145
-0.020756405 -0.007087247 0.023165675
0.016440265 -0.0881583 -0.03172589
-0.09802014 -0.022825634 0.0091142
0.08098274 -0.22691087 -0.05704215
0.11921839 -0.06783018 -0.03448641
-0.37435693 0.14702886 0.058930624
-0.12505928 0.06905111 0.07529283
-0.23595034 0.23020442 0.13010857
-0.09810572 0.15177122 0.056951888
-0.010908912 0.05785218 0.02770887
0.14488071 0.035908725 -0.14460385
0.12052856 0.027182462 -0.07095118
-0.14159946 0.1738376 0.081432566
0.020765938 -0.11218497 -0.059356388
-0.16354512 0.11358245 0.098893106
0.07875556 -0.25765935 -0.14370845
0.11073171 -0.047653183 -0.02884572
-0.029813474 -0.0033820604 0.026477572
0.3090689 -0.014592236 -0.12386789
-0.038483474 -0.020572973 0.018839577
-0.29134464 0.084225334 0.054647867
-0.13319641 0.05553142 0.07093424
-0.2952479 0.13735485 0.12991768
0.09084451 -0.0276338 -0.019517139
-0.32950202 0.20288992 0.07332733
-0.008530863 0.04582537 0.027599014
-0.2573196 0.14187464 0.13147497
0.05637346 -0.04139162 -0.007782809
-0.01814476 -0.02154557 0.016498338
-0.26197726 0.2896156 0.0912632
-0.17094414 0.14569362 0.10615412
0.09179042 -0.21134534 -0.04163182
-0.057867937 -0.07624332 -0.10583716
-0.22686249 0.13170047 0.12129481
0.27648768 -0.11401339 -0.03554379
-0.026393613 -0.16863666 -0.21313651
0.24354465 0.041919973 -0.17420433
0.19984207 -0.09600345 0.0063051544
-0.3037679 0.08832152 0.036343176
0.017314954 -0.12981404 -0.1191017
-0.20589247 0.05451101 0.066001326
0.2652963 -0.015602093 -0.044073872
-0.28545994 0.30166662 0.025100727
0.12486102 -0.23551837 -0.058991373
0.077621005 0.008455554 -0.017353272
0.12743315 -0.15697749 0.011918961
0.008292368 -0.21279639 -0.07685457
-0.25307664 0.2439934 0.1373343
0.091952875 -0.22000305 -0.04938779
0.034639865 -0.20399055 -0.042579044
0.10757106 -0.1428549 0.021979256
-0.04102294 -0.058403146 -0.013923715
0.109564066 -0.24705003 -0.071308725
-0.055400424 0.033510022 0.045454547
0.21084051 -0.1958676 -0.0119384155
0.039222836 -0.13771226 -0.09530807
-0.24912225 0.1797644 0.14154169
0.18157373 -0.155449 0.020464037
0.29498622 -0.04729118 -0.05656739
0.21953581 0.06660146 -0.21975148
-0.213267 0.26543143 0.061740138
0.014174863 0.09058273 -0.0093052015
0.0860612 -0.018111287 -0.017709248
-0.17643468 0.011548671 0.015727546
-0.28228414 0.22866856 0.13536628
-0.2869041 0.15579216 0.14209819
-0.16330469 0.06466412 0.07882672
0.025611827 0.105227225 -0.072946474
0.08439543 0.037394654 -0.037853707
-0.36799708 0.14234784 0.07886189
-0.10710127 0.10381981 0.07547599
-0.24172872 0.059099607 0.05313331
-0.07789508 0.049696725 0.056451708
-0.014997515 -0.01731531 0.017769882
0.1305621 -0.15702187 0.012292301
0.168647 -0.0516771 0.017710343
-0.00019546527 -0.17134535 -0.15343009
0.03854094 -0.15556298 -0.09491843
-0.14674771 0.18972729 0.076461665
-0.22577365 0.096406735 0.10167407
-0.0719527 -0.056381624 -0.028335398
0.20526244 -0.19991097 -0.016352115
-0.059116047 0.120303564 0.040805906
-0.1904983 0.09118578 0.09647252
-0.21714269 0.04273491 0.04202962
0.26742926 -0.018152572 -0.044929203
0.2910465 -0.11186731 -0.044385135
-0.29217803 0.08114479 0.036617372
-0.28061298 0.14167432 0.133422
0.16583344 -0.039757516 0.0065863277
-0.14159495 0.051161062 0.06915475
-0.09246657 0.016670154 0.045001466
0.28029758 0.012630888 -0.16239442
-0.14247699 0.1670498 0.08519543
-0.25196636 0.06940861 0.06452256
0.13132544 -0.06450335 -0.030368343
0.06836321 -0.17540638 -0.012443709
-0.26382908 0.1468228 0.13480993
0.112528905 -0.008443494 -0.035885368
0.18875101 -0.0127376625 9.1656526e-05
0.07137835 0.061449606 -0.048846554
0.07885047 -0.12700638 -0.051254716
0.17092116 0.069341905 -0.13766895
-0.36795416 0.1766968 0.030188246
0.28211746 -0.07340676 -0.045058645
-0.06373136 0.089868926 0.053522997
-0.2520551 0.07609939 0.075110905
0.15979074 -0.19753033 -0.020233138
-0.14287572 0.018236157 0.042600725
-0.008148577 0.033608295 0.028113324
0.2692311 -0.068409465 -0.03829358
-0.15046906 0.028090052 0.051083677
0.21838678 -0.15381618 0.0043461155
-0.20622486 0.14295779 0.11941767
0.27893472 -0.12746605 -0.034919903
-0.07174463 0.09375549 0.05747852
-0.1270233 -0.0018558122 0.02469246
-0.19057989 0.18236363 0.11311929
-0.06606504 0.163782 -0.0025214197
0.2304856 -0.17802598 0.000951578
-0.32422054 0.24066079 0.030737776
-0.28705716 0.21155669 0.14968954
0.043723203 -0.11928632 -0.058915086
-0.3038187 0.19002792 0.14523739
-0.3055149 0.22603752 0.09057488
0.12745304 -0.029027604 -0.040307123
0.04049332 -0.21299598 -0.04989537
-0.16501454 0.23351386 0.005210299
0.23997462 -0.17304967 -0.0052850875
-0.0998161 -0.050244235 -0.059538543
0.025515515 0.10480658 -0.06111001
-0.083629824 -0.047459204 -0.020835383
-0.24413678 0.1224852 0.11918385
0.09808595 -0.008097471 -0.026491594
0.1386557 -0.048156787 -0.038261686
-0.15083988 0.11900674 0.09515318
-0.08656816 0.16320035 0.03390008
0.17607504 -0.13908315 0.026700359
0.16740757 -0.19043183 -0.012850301
0.2426181 -0.108667776 -0.0166526
0.040419266 -0.2086342 -0.045986637
-0.3504947 0.21904269 0.006543322
0.29021215 -0.09987943 -0.04573552
0.2595334 -0.049091183 -0.035586324
-0.07935234 -0.0022265539 0.032280616
0.23483476 0.056391466 -0.22835004
0.1268605 -0.2566142 -0.077694155
-0.006406717 0.09540323 0.008467631
-0.20440899 0.13789047 0.11757619
-0.1357082 0.14492883 0.08688678
0.071841314 -0.051247545 -0.0150206
0.18062541 -0.026382992 0.006893277
0.22702011 0.022455638 -0.027528679
0.103281684 -0.21625003 -0.044518642
-0.2638307 0.13678956 0.1291414
0.12007817 -0.046099033 -0.03361938
0.2035591 -0.11194823 0.0065684095
0.25677085 0.008055603 -0.042594716
0.07672725 -0.12389486 -0.05517883
0.03134854 0.056499224 -0.0014467346
0.110057995 -0.27326047 -0.09473189
-0.019335398 -0.1508175 -0.222557
0.19313039 0.02732335 -0.03162242
0.109066136 -0.22088738 -0.047919612
0.13421498 0.059441533 -0.20029296
-0.015191136 0.12410407 -0.01459951
-0.11523066 0.19772805 0.018960726
0.05275434 -0.17274019 -0.0408422
-0.009185382 -0.052049033 -0.003017925
-0.06289065 0.0016970391 0.033793807
0.14272924 -0.19661379 -0.021665039
0.24029727 -0.16343874 -0.0069271526
0.13811873 -0.056975335 -0.026864395
-0.24605405 0.05884916 0.04903049
0.0043757944 0.07678831 0.010578324
-0.13062961 0.0975172 0.08462994
-0.03737464 0.05656915 0.042087093
0.023976492 -0.029624166 0.005038831
-0.070122615 0.060190704 0.056080643
-0.049834605 -0.004157078 0.0292815
-0.05830355 0.11320861 0.04337896
0.29780218 0.0037888146 -0.19160138
0.12611303 -0.08240469 -0.015841085
0.29435846 -0.07586986 -0.05176215
0.18245251 -0.048699442 0.009225546
-0.016530083 0.13180178 -0.07081911
0.05686041 -0.16138805 -0.04838047
-0.013306522 -0.12609899 -0.24505578
0.22194047 0.018230202 -0.023929765
0.051020235 0.030382736 -0.0055790297
0.2428718 -0.020782994 -0.030185167
0.07981133 -0.057586968 -0.019069826
0.14308411 -0.21399052 -0.037228018
-0.21163678 0.055323657 0.06476227
0.21434464 -0.15612635 0.007044355
0.31648278 -0.041151922 -0.073591895
0.2286104 -0.20467661 -0.017503886
-0.09553173 0.06137565 0.0648173
0.24932207 -0.116896115 -0.01930109
0.1741769 -0.17996643 -0.0025785745
-0.19226985 0.120358095 0.10941064
-0.049151327 -0.06107625 -0.021053942
0.21209604 0.061470203 -0.14672314
0.25346294 -0.083212204 -0.026833896
-0.09542505 0.15118401 0.054717015
-0.15381812 0.07199249 0.08211914
0.22810869 0.013446493 -0.026802637
0.0779813 -0.11344192 -0.046468545
-0.13130274 0.06282605 0.07390542
0.15461765 -0.22395767 -0.044656653
0.19479078 -0.23836648 -0.05229087
0.010653749 0.075743355 0.0061140447
0.2771314 0.017107433 -0.17673278
-0.25932708 0.17898548 0.14482325
0.11071914 0.047520615 -0.118180856
0.02211949 -0.12948923 -0.0974961
0.16203648 -0.061909117 0.023112532
0.1427572 -0.1605504 0.010734597
-0.30344275 0.17679732 0.15504937
-0.33047995 0.245593 0.010660449
-0.21721484 0.045786675 0.047876716
0.19577768 0.005607092 -0.006786874
-0.105364814 -0.04621236 -0.06591403
0.30842748 -0.04728572 -0.06426071
0.21397819 -0.057394955 -0.007790694
-0.10232006 0.14705224 0.062671185
0.013331279 -0.19501023 -0.09157672
-0.084997065 -0.052944437 -0.034782574
0.06635275 -0.2255278 -0.0577343
0.06397909 -0.030785568 -0.008097916
0.22154897 -0.07531057 -0.009469923
0.06560667 0.078045815 -0.09206395
0.10527133 0.011818111 -0.039350063
0.19983403 -0.10348284 0.007447234
-0.22919783 0.11828991 0.11546133
-0.23586242 0.11494947 0.11412224
-0.22845732 0.059629004 0.06323199
-0.19406329 0.047448125 0.06134528
-0.13615268 0.14584662 0.08694692
-0.01765422 -0.1735682 -0.18674429
0.031199433 -0.061968636 -0.011087307
0.15020202 0.08449344 -0.2024605
0.10879114 -0.028445888 -0.028981822
0.04618509 0.049231973 -0.009824114
0.06881922 -0.2014192 -0.03575109
0.14361636 -0.27934226 -0.09572579
0.18545812 -0.23108777 -0.04698477
-0.3257262 0.26299605 -0.0041153086
0.03093791 -0.07082459 -0.016161894
-0.21926202 0.2340255 0.115014315
0.17414054 -0.05491383 0.015006166
-0.023124008 -0.091561124 -0.05557207
-0.05007598 0.022227386 0.04096218
0.27078304 -0.15476677 -0.026368365
0.12012883 -0.20411465 -0.031390965
0.1682025 0.062376864 -0.13346142
-0.19286539 0.013480127 -0.029526955
0.16596796 -0.07361442 0.0226059
-0.0032214804 -0.070168726 -0.017534355
-0.19878085 0.22836894 0.09884066
0.13634938 0.05774828 -0.19342943
-0.29245013 0.094395906 0.07901312
0.24088039 -0.19761439 -0.025413094
0.22730242 -0.036647975 -0.018699044
-0.018514968 -0.103249505 -0.0845997
-0.26935443 0.08270151 0.07570257
-0.3269377 0.27102882 -0.018050624
0.26643157 0.02999945 -0.20994093
0.028564153 -0.10105473 -0.04234038
0.025082795 0.05908403 0.0023103703
0.031021314 0.07101696 -0.01025838
-0.17080405 0.013269373 0.023769235
0.18694043 -0.12212182 0.01778335
-0.28140154 0.16826887 0.14719447
-0.0057310057 -0.0207285 0.014539848
0.00035891717 -0.19517438 -0.16895771
-0.22339548 0.12935108 0.11963745
0.2961875 -0.036956266 -0.058724787
-0.20109507 0.226229 0.10281099
0.07059382 0.074759975 -0.099156305
0.0050614863 0.0599197 0.016844591
-0.36453208 0.20187445 0.0015932596
0.1934086 -0.09349323 0.00966663
0.04332369 -0.2070011 -0.044135198
0.2039543 -0.00049810094 -0.010615871
0.01901636 -0.20485541 -0.19833598
0.26078138 -0.1272918 -0.024385963
0.2562832 -0.0012780755 -0.040959578
0.13263601 -0.23508725 -0.057570383
0.063186966 -0.20550902 -0.04017009
0.16843575 -0.09546914 0.024494963
0.24241745 -0.028586915 -0.02872338
0.08547997 -0.05593459 -0.020386927
0.2361553 -0.043962944 -0.022736985
0.09321627 -0.0014496066 -0.024992432
0.14387773 -0.25321722 -0.07223388
0.08932685 -0.0038613563 -0.021870598
0.054778084 0.012934993 -0.0036671618
0.22413093 0.042584505 -0.07947508
-0.008135903 -0.15862678 -0.18807386
0.108399875 -0.18617094 -0.016821826
0.19510128 -0.19815594 -0.016182834
0.016879806 0.073145136 0.0022790316
-0.20703651 0.023552261 -0.002475932
0.25300226 0.015412249 -0.041805763
-0.16269499 0.1675956 0.09872749
-0.27610314 0.28693628 0.06555837
0.16972527 -0.0820503 0.021703454
0.26921323 -0.0062283934 -0.047651872
0.24931325 -0.18626705 -0.023340227
0.08381203 -0.07797568 -0.026817065
-0.32564378 0.2138329 0.065851085
0.11367373 -0.1647732 0.003097045
0.24819537 -0.0338281 -0.031297956
0.08022818 -0.20203647 -0.034797747
0.26112458 -0.10026877 -0.028695595
-0.29821235 0.095809974 0.0769296
-0.1583817 0.18543641 0.08937904
0.20546626 -0.20857494 -0.024161668
0.06032846 -0.11085037 -0.045544617
-0.22552519 0.25597125 0.102431834
-0.16141348 0.14367662 0.10124914
0.11359222 -0.16045365 0.006966481
0.17043975 -0.24859485 -0.06469403
0.21329848 0.05544954 -0.11181493
-0.30397782 0.09736899 0.07460564
-0.07779299 -0.051934153 -0.024613887
-0.052376196 0.06515858 0.049391605
0.09224171 0.004009051 -0.025719984
-0.20592807 0.05858784 0.07020418
0.050306097 -0.20434995 -0.04083089
0.16460206 0.0066303574 -0.06184104
-0.015798714 -0.16050996 -0.20140865
0.052642427 -0.11247732 -0.048763085
-0.15878575 0.20146653 0.07948105
0.20671697 0.06458781 -0.14048156
0.19380727 -0.19492875 -0.013445041
-0.34273925 0.15776826 0.10973125
0.20343038 -0.20877583 -0.024627594
0.0032397828 -0.0984671 -0.048536584
-0.18098405 0.07823335 0.08818499
-0.29340246 0.23048851 0.109559216
0.1649226 -0.1717985 0.0035581433
-0.21422128 0.12042306 0.11412005
0.18697819 -0.09100731 0.013028608
-0.04515968 0.024996735 0.04015828
-0.17887922 0.067322455 0.081453316
0.28345612 0.00815218 -0.1480036
0.010083797 -0.118274614 -0.0824738
-0.13350043 0.10430189 0.08653289
0.007556474 0.05511909 0.016424399
-0.09032541 0.071240455 0.06545813
0.015815986 -0.1949336 -0.24963261
-0.22547711 0.10803456 0.1092327
0.11617657 -0.2905641 -0.11066265
0.10021429 -0.041980285 -0.023973595
0.16385818 -0.17572914 -0.00011141962
0.0017179259 0.10221059 -0.007164894
-0.21725272 0.10987722 0.10957321
-0.15406863 0.05152944 0.07043184
0.22407666 -0.050933763 -0.014649678
-0.3245186 0.25498912 0.009775184
-0.093387246 0.13980517 0.05892742
-0.008699998 0.018250495 0.026655244
-0.12475678 0.099054195 0.08242404
0.034799088 0.04898063 -0.00075717
0.2735077 0.008684473 -0.10076981
-0.32270318 0.21850385 0.0653639
0.10688404 -0.2790748 -0.1414974
0.26113176 -0.041976318 -0.037612017
-0.1887596 0.080073155 0.08992508
-0.07875937 0.0035676472 0.03626068
-0.25145152 0.053247347 0.01576768
-0.25259796 0.1276126 0.1228757
-0.024429703 0.067731224 0.034009617
0.17770475 -0.22934201 -0.0464425
0.20835026 -0.09586269 0.0013341531
-0.28520676 0.30017585 0.027746066
0.23209265 -0.13966326 -0.0058704996
0.17647758 -0.12193786 0.023843126
0.09760506 -0.009780213 -0.025760379
-0.07669003 0.099645 0.059651434
0.07968058 -0.17163531 -0.007560085
-0.22427982 0.1863929 0.1313445
0.24903862 0.04546234 -0.22645253
-0.002692781 -0.028761763 0.010590263
-0.25886166 0.2799934 0.11143227
0.07536645 -0.018030345 -0.012037991
0.28090644 0.0004784225 -0.082642786
-0.012620165 -0.15551414 -0.20185997
0.099659644 -0.03530189 -0.023609068
-0.004674871 -0.117665164 -0.23899749
-0.25391242 0.17710285 0.14268655
0.18868025 -0.20741884 -0.025315216
-0.079146914 0.104446314 0.060320623
0.2353729 -0.06305462 -0.01937672
0.28457674 -0.109366596 -0.040985394
0.14254989 -0.1879334 -0.013891139
-0.18304765 0.22482452 0.08485166
-0.007794403 -0.1732264 -0.16663563
-0.31205362 0.19636442 0.11904043
-0.24070118 0.14929362 0.13134208
-0.21319352 0.2594394 0.07872926
-0.0017964342 -0.14868954 -0.18893987
-0.15747914 0.16054611 0.09710405
-0.344497 0.12527269 0.09512003
-0.14704861 0.042163894 0.06339523
-0.04798136 0.07279399 0.046472285
0.1359964 -0.007997766 -0.054594778
-0.2289938 0.16956665 0.13228671
0.12091117 -0.17355442 -0.0038349605
-0.053561267 0.14520723 0.01273257
0.19187328 -0.038476884 0.0021896332
0.22326669 -0.038962338 -0.01599911
-0.22889346 0.18270798 0.13368478
0.0061515872 -0.0016192415 0.017689103
-0.055561755 -0.023535512 0.01677784
-0.048053604 0.06946593 0.046766445
-0.09578593 0.09488172 0.070154704
0.15121797 -0.013738705 -0.060880408
-0.06489558 0.13804616 0.03423684
-0.26804408 0.12355414 0.12064484
-0.30994576 0.14154367 0.1323131
0.18298645 -0.12128722 0.019957034
0.07824608 0.06698482 -0.11869855
-0.29531044 0.28121305 0.033559073
-0.3437972 0.19998379 0.047591075
0.16141511 0.00666469 -0.068546735
-0.11821148 0.09451993 0.07928104
-0.029840158 -0.0025792306 0.026818415
0.0071456763 -0.17715816 -0.12984401
0.0255921 -0.06621702 -0.01304221
0.09012429 -0.166328 -0.0014123186
0.12593032 -0.1561556 0.012459012
0.21753487 -0.17300726 0.007706167
-0.119180046 0.07572459 0.07570028
-0.14596945 0.024649015 0.04853434
0.10110631 -0.20583484 -0.035449494
0.10538221 -0.1391134 0.021357914
0.13035697 -0.28179005 -0.14829312
0.1103459 -0.1418758 0.023226386
0.17038126 -0.13398232 0.029236196
-0.11478719 0.09580076 0.07803752
0.12644854 0.024357753 -0.07583762
0.24978292 -0.109174915 -0.02074393
-0.00101453 0.10047428 -0.0015139732
0.112514526 -0.06542797 -0.031513095
-0.2138227 0.2247241 0.11519025
-0.25671926 0.18375145 0.14504965
-0.012394872 -0.119497135 -0.25252342
-0.25805965 0.1420445 0.13165945
0.2934894 -0.10934353 -0.046200804
0.12401563 -0.08081342 -0.022483397
-0.02349109 0.09328957 0.025020853
0.19160184 0.074674405 -0.1319777
0.011635097 -0.20415837 -0.16534933
0.27002895 -0.15146321 -0.026147401
-0.05778846 0.005641458 0.035616606
-0.24098553 0.10038762 0.10387001
-0.22919826 0.10333958 0.106856406
-0.08352227 0.10583057 0.06280383
0.06389608 -0.19260068 -0.02847943
0.21204703 0.035149112 -0.020746268
-0.23256469 0.111574106 0.11189046
0.050395355 -0.036467925 -0.0047023706
-0.30963472 0.09367541 0.04909077
-0.12414749 0.13426945 0.08205116
0.16585113 -0.02510804 -0.014172622
-0.27701354 0.28060547 0.072644986
-0.15892707 0.13604695 0.10028917
-0.24483491 0.2374095 0.13383305
-0.21697944 0.20279843 0.12513492
0.014679642 -0.15304852 -0.1483335
-0.06115667 -0.036266204 0.004549438
0.07765049 -0.022941705 -0.012873871
