# .PCD v0.7 - Point Cloud Data file format
VERSION 0.7
FIELDS x y z
SIZE 4 4 4
TYPE F F F
COUNT 1 1 1
WIDTH 1000
HEIGHT 1
VIEWPOINT 0 0 0 1 0 0 0
POINTS 1000
DATA ascii
-0.008760258 -0.10521255 -0.10904836
-0.24011716 0.19462979 0.20835419
-0.2262798 0.1928085 0.21850018
0.040182874 -0.1010728 -0.08267057
0.17399813 -0.08936253 -0.075203516
-0.13660844 0.22384629 0.24470468
0.13080296 -0.21698965 -0.16230074
0.030962566 -0.018739898 0.019037126
-0.099513546 0.07941433 0.21640675
-0.13247848 0.14187637 0.28454652
-0.046034347 0.13019782 0.14994852
0.20402826 -0.079482906 -0.08621697
0.16396068 -0.17440434 -0.12363232
-0.0048141866 0.13353702 0.005189979
-0.17743328 0.23203516 0.23211761
0.1178659 -0.17030023 -0.09366103
-0.17523433 0.02167917 0.16207203
0.10655674 -0.20268232 -0.13046686
0.045774356 -0.0115783885 0.008276518
-0.09386499 -0.12886831 -0.23526806
0.018917862 -0.0010968933 0.04343814
-0.12365179 -0.000302311 0.12603094
0.16192585 0.0029967146 -0.12819383
-0.03898083 0.12801497 0.13706377
-0.053663563 0.013967902 0.12030286
-0.17615537 0.13326225 0.28100234
-0.2140924 0.054312102 0.23333323
-0.19053553 0.17189577 0.25259182
-0.10410345 0.07665088 0.2188719
0.27543882 -0.053976785 -0.20467977
0.110354945 -0.020793682 -0.07507997
0.2265779 -0.16380413 -0.1429991
-0.010408763 0.059125528 0.10385462
-0.005904969 0.13327079 0.026263645
-0.007869607 0.040570103 0.0949776
0.14109159 -0.22715077 -0.18121856
0.03220219 -0.22137812 -0.20087707
-0.013066713 -0.15525715 -0.16836019
-0.08070087 0.05511957 0.18064268
-0.029593674 -0.07478067 -0.21855402
0.024957493 -0.012189242 0.02958588
-0.030965118 -0.1837988 -0.2575379
-0.058871232 -0.0038080036 -0.2726596
0.12924774 -0.016591929 -0.10370329
-0.008997643 0.04621545 0.0983468
0.03361705 -0.21870191 -0.13606727
0.1902899 -0.14045577 -0.09277519
-0.09876363 0.10653124 0.23074795
-0.2015065 0.08934645 0.2853909
0.1453892 -0.12633753 -0.07637177
-0.2634972 0.089951605 0.2436063
0.2473668 -0.10003463 -0.15263301
-0.049121972 -0.12796113 -0.2057643
0.05034411 -0.07860216 -0.05458186
-0.016327718 -0.19119465 -0.2205046
0.24056485 -0.12252763 -0.13829924
0.09367486 -0.18596187 -0.10149435
-0.16554637 0.06767831 0.25435528
0.17729871 0.005509464 -0.11912721
0.087030865 -0.07956214 -0.08151577
0.20758887 -0.11856937 -0.08598806
0.0044265143 0.101293206 0.068368554
0.115792625 -0.07552102 -0.10421716
0.111602105 -0.1356395 -0.09446137
0.08549111 -0.15871347 -0.10071749
-0.02252932 0.05093911 0.116740935
0.120992556 -0.24837826 -0.19852042
-0.076467134 0.16770788 0.17992061
-0.04714771 -0.09286693 -0.22150746
0.053630285 -0.059398465 -0.035576396
0.08068254 -0.16881628 -0.09902288
0.0058543603 -0.1594396 -0.15366319
-0.28160158 0.10464249 0.22434628
0.037752617 -0.21813515 -0.11426774
-0.08053449 0.16542616 0.19327593
0.17189525 -0.09222475 -0.07521965
-0.20347841 0.05579341 0.24101377
-0.025701648 -0.18688723 -0.25179988
0.017298095 -0.11897377 -0.12790878
0.1558189 -0.2029606 -0.15706576
0.16432473 0.01535084 -0.13259622
-0.09029294 0.17802091 0.20020723
0.27611136 -0.06641282 -0.20386949
0.2205855 0.050387528 -0.13252944
0.10377114 0.11677357 -0.2224407
0.16489844 -0.06066525 -0.09524739
0.18082823 -0.17674924 -0.13571519
0.16037741 0.017673837 -0.1363669
-0.19857207 0.18917093 0.23881362
0.046176806 0.09382953 -0.0413959
-0.15101103 0.23994523 0.21535864
-0.14652146 0.23644108 0.21922465
0.014054894 0.061483994 0.06886295
0.11998426 0.11834057 -0.28032184
-0.15854035 0.03034368 0.19011131
-0.1860951 0.14950795 0.26645035
0.13348535 -0.07647655 -0.10858468
-0.23650637 0.07693941 0.26799867
0.27352393 -0.016799513 -0.20725906
0.10665749 -0.003326766 -0.06948823
-0.18207352 0.1178858 0.28451815
-0.2825281 0.20690551 0.17399974
-0.12538819 0.08503752 0.24557659
0.24159527 0.042589627 -0.16505641
-0.10681889 0.027003495 0.1694848
0.21177022 0.022410078 -0.114131406
-0.107276194 -0.040600356 -0.00934015
0.20280279 -0.0005351722 -0.09911729
0.061073296 -0.042727973 -0.027473079
-0.19640775 0.20062484 0.23469271
-0.021855662 -0.10904792 -0.19671254
0.11530244 -0.11381196 -0.102599256
0.19913407 0.0742445 -0.15872191
-0.11974889 0.026940536 0.17515425
-0.07318056 0.18118344 0.07548733
0.03449239 0.051672887 0.03806675
-0.17401558 0.021714637 0.16301233
-0.087884285 0.13710998 0.22118282
-0.22163174 0.04421851 0.12742773
0.23365891 -0.050002526 -0.13824378
-0.063301496 0.052676894 0.16199188
0.024938043 -0.22009072 -0.2621686
0.019290768 -0.027381739 0.022562673
-0.14906473 0.066775724 0.24395727
-0.1749469 0.012760869 0.04207686
-0.04563647 -0.095194705 -0.21936488
0.037319034 -0.1271234 -0.13863689
-0.21535543 0.12281273 0.25984758
0.08050215 0.02041071 -0.0313911
0.23420505 0.0008486005 -0.14685154
-0.13999498 0.00093033694 0.1239778
0.04177895 -0.08012852 -0.05134287
-0.004442056 0.09210665 0.09224376
0.10404683 -0.14675823 -0.09411132
-0.17969699 0.18700035 0.25250104
0.117956385 0.10646394 -0.20793396
-0.1757245 0.055371366 0.23915675
-0.06057469 -0.0030820328 0.10512241
0.21890393 -0.05698637 -0.11350718
0.26667926 -0.043848068 -0.19216447
-0.09137285 0.017583892 0.1490089
-0.07959874 0.0057247705 0.12664625
-0.06933265 0.0898302 0.18843201
0.2861245 -0.042168446 -0.22362158
-0.0975761 0.0346021 0.17325184
-0.12703778 0.13113557 0.27447528
-0.04122963 0.033007007 -0.27875465
-0.14386755 0.083111554 0.25856814
-0.05870738 0.010946007 0.120628454
-0.06231817 0.09663908 0.18135679
-0.2722389 0.17538135 0.19621454
-0.20169409 0.24746366 0.20837808
-0.041794192 0.1203917 0.1476765
-0.15862095 0.23601487 0.16751298
-0.11599366 -0.02710783 -0.05362036
-0.04425685 -0.05296331 0.018733969
0.10887472 0.05069754 -0.18124792
-0.04002608 0.019550372 0.11489853
0.1955825 -0.12006527 -0.06857942
0.10190767 -0.012234293 -0.062447757
-0.09244236 0.11202706 0.22450845
0.17765772 0.08359636 -0.2379004
0.22562882 -0.07939322 -0.12089048
-0.06560835 -0.12839036 -0.2165895
-0.036973555 -0.072787665 -0.22446202
-0.23897214 0.05567341 0.16059364
-0.103815965 0.13134289 0.24466437
0.094269365 -0.115558475 -0.1158271
0.15935999 -0.07798629 -0.09053323
0.17877473 -0.11709808 -0.05852035
0.09693694 -0.2375636 -0.17144561
-0.08685085 -0.09176419 -0.24861634
0.15747531 0.09222852 -0.17456247
-0.21835601 0.19533513 0.22257513
-0.03516039 -0.18257883 -0.28339538
0.025318518 0.03361833 0.050601635
0.059253197 -0.18189418 -0.107005656
-0.040468108 -0.1795007 -0.28894246
0.22558747 -0.04780457 -0.12562574
-0.21900377 0.22035588 0.20997496
-0.17603725 0.009705212 0.068102136
-0.12859397 0.22279233 0.16983165
-0.20605469 0.031878293 0.14691901
-0.060547434 -0.16293538 -0.22471009
0.02756463 -0.1771185 -0.13053629
0.049024217 -0.21253079 -0.112860195
0.033404633 0.06344409 0.036078133
0.08479664 -0.20598792 -0.12325378
-0.26247007 0.07226467 0.22561632
0.075329445 -0.1306356 -0.1211712
0.107177295 -0.17012966 -0.08774397
-0.13678876 -0.018763546 0.04047658
0.12904698 0.008176232 -0.11578028
0.13941406 -0.16762146 -0.10159087
0.13477497 -0.18677606 -0.12445456
-0.14314424 -0.0128078945 0.062420662
0.20769784 0.05860332 -0.12459887
-0.16024736 0.06786283 0.25226188
-0.111155935 0.12987463 0.25368562
0.14371216 -0.21086133 -0.16106942
-0.22704354 0.23151003 0.19916986
-0.07121164 0.1283174 0.19605477
-0.08303983 -0.14623895 -0.21957722
0.20314872 0.06588437 -0.2612698
-0.053550657 -0.051785253 0.020044351
0.14593962 -0.12489806 -0.07670338
-0.18004383 0.029289404 0.18160565
-0.1569854 0.06027158 0.239851
-0.12426315 0.007891559 0.14382236
-0.15489845 0.19517419 0.26512396
-0.037707347 0.15274552 0.094992034
-0.04653369 0.14804342 0.13230026
0.23792201 0.021731129 -0.15599008
0.06321898 -0.053633854 -0.03759908
0.12558408 0.11740835 -0.20815088
-0.24302033 0.13235818 0.23669058
0.24427079 -0.10160262 -0.14742684
-0.05052081 -0.051114593 -0.24406663
-0.19858861 0.12565184 0.26968974
-0.11903754 -0.03206323 0.008822464
-0.23868562 0.21290089 0.2004265
0.122288965 -0.04136331 -0.09558152
-0.12687984 0.14218426 0.2774327
-0.100506976 0.15412936 0.23833604
-0.04264159 0.11383411 0.15130219
-0.23511663 0.05529013 0.21170723
-0.29400215 0.1236143 0.20682211
0.12160699 -0.10381732 -0.10323835
-0.012252286 -0.109379254 -0.14685176
0.05215297 -0.08050569 -0.057984754
-0.2699807 0.12319996 0.22309981
-0.08686064 0.08470735 0.20641351
-0.20150231 0.24825971 0.20811902
0.16088077 -0.13828254 -0.07421704
0.021310864 -0.07626464 -0.03664819
-0.1148208 0.045378234 0.19693391
-0.05704568 0.0077798474 -0.2770727
0.2609892 -0.02323716 -0.18616761
0.013132206 0.030883495 0.06549516
0.12212413 -0.110213995 -0.09978302
-0.073690094 -0.0002038492 0.11545611
0.23684433 -0.11172059 -0.1339725
0.11255299 -0.20232528 -0.13318868
-0.03593288 -0.06345033 -0.0037177026
-0.17331766 0.015563771 0.14199767
-0.1887256 0.018764708 0.11616191
0.17938198 -0.032695383 -0.09915546
0.25722924 -0.01250632 -0.18176553
0.11580982 -0.05593873 -0.09312373
0.025696304 -0.1593637 -0.14042081
0.0062457067 0.07041408 -0.26517028
0.06704852 -0.020893693 -0.020457381
0.13730057 -0.08808274 -0.100387156
0.05885939 -0.15702464 -0.11936242
0.23182802 -0.07623274 -0.13131806
0.2135446 -0.04095985 -0.107343875
-0.13596971 0.20380458 0.27359584
-0.034550767 -0.09479604 -0.21213922
-0.18708956 0.01952699 0.073248655
0.1486764 -0.22136973 -0.17761034
0.11049763 -0.2472292 -0.19142282
-0.24453384 0.15902613 0.22271106
0.054016914 -0.12833597 -0.13655376
-0.2839757 0.18864898 0.18190846
-0.2696166 0.11704263 0.22633797
-0.17317939 0.1107002 0.2939644
-0.015375618 -0.09781363 -0.08816078
-0.07765218 0.13680792 0.20442238
0.017559003 -0.14560892 -0.15255477
0.19311336 -0.20752394 -0.18302326
0.023249289 -0.18320991 -0.13046269
0.10697023 -0.13241571 -0.099129386
-0.11381964 0.20082815 0.22725049
0.21401605 -0.14369172 -0.10964871
0.26241863 -0.143373 -0.17019674
0.18318865 0.011555384 -0.11812504
0.034703154 -0.22520721 -0.24092738
-0.07420565 0.18095511 0.14062059
-0.20220815 0.19133756 0.23532681
0.241155 -0.10316352 -0.14218967
0.02565353 -0.04594518 -0.00041793066
-0.13854447 0.11020622 0.27647755
0.120549224 -0.24097145 -0.1885716
0.13261682 -0.24637596 -0.20211977
-0.04350502 0.10723967 0.15488487
-0.062199812 -0.11300017 -0.221791
-0.14726591 0.02481106 0.17856996
-0.23562555 0.11224397 0.2514198
-0.076820254 0.14335555 0.20082739
0.14722244 -0.0332635 -0.1204026
-0.014874295 -0.043192793 0.02720556
-0.24473362 0.180344 0.21221074
-0.014355642 0.1291973 0.077007115
-0.15857269 0.19733655 0.26161343
0.013553133 0.071184166 0.06793905
-0.24224183 0.08793089 0.2588145
-0.05117798 0.10419483 0.16630924
0.10569321 -0.18808359 -0.11069928
0.013590789 -0.03321082 0.02144357
0.17392285 -0.1911111 -0.15103376
-0.016666835 0.039214283 0.10427063
-0.09662201 0.17445792 0.2195497
-0.27463028 0.20648596 0.17949006
-0.017408503 0.13354288 0.076105386
0.22549324 -0.057348035 -0.12402584
0.14133365 -0.0810827 -0.101092234
0.05626518 -0.1963517 -0.10197551
-0.021149764 -0.066704586 -0.009658807
-0.007368924 -0.15873125 -0.16285744
-0.14161234 0.022068717 0.17261873
0.22253358 -0.08095935 -0.11568612
0.0553115 -0.053494725 -0.03120255
-0.09240693 0.12845449 0.22788602
-0.03219081 0.03926474 0.12188322
0.17704177 0.069875315 -0.15059757
0.12658444 -0.24366918 -0.1953401
0.24235532 -0.06452577 -0.14999017
0.0996876 0.07005127 -0.20245518
0.20820922 -0.14465794 -0.10793661
0.12010147 0.03957686 -0.14840074
-0.115408376 0.13399637 0.26033446
-0.1721377 0.06377542 0.25165793
-0.2561431 0.06782667 0.19234103
0.043013427 -0.031936973 -0.00216726
-0.1258242 0.17670566 0.27478865
0.033873685 -0.17306398 -0.12828527
0.015703298 0.053789083 0.06637003
-0.021054897 -0.11566744 -0.1929575
0.124658875 -0.05767482 -0.10401311
-0.20444907 0.084727384 0.28566688
0.1336081 -0.23938018 -0.19349326
0.24245119 -0.12794334 -0.1405022
-0.055775966 0.10035356 0.17314592
-0.057431743 -0.12261728 -0.21392487
-0.14941542 0.16819397 0.28191376
-0.08804306 0.088099144 0.20943952
-0.17982657 0.24153091 0.22589843
-0.05619999 0.0004138463 -0.2729244
0.106783554 -0.13842678 -0.09633103
-0.23648645 0.16066094 0.22730178
-0.121076554 0.15445748 0.27074686
-0.27336168 0.0910871 0.23645246
0.13762818 -0.21486704 -0.16312778
-0.04138847 0.12670581 0.14309947
-0.15002297 -0.003193129 0.09941504
0.19867538 -0.06363573 -0.08003697
0.03822789 0.09025074 0.00034701987
-0.120713465 -0.0074787973 0.11026608
-0.025305592 -0.057469986 0.0079093985
-0.109617606 0.20934407 0.17652798
0.0011172857 0.028976286 0.079031855
-0.07489065 0.03696819 0.15934305
0.043918476 0.036825974 0.024228716
-0.1891826 0.101098225 0.2879234
-0.1804892 0.21079087 0.2404029
-0.00748129 -0.092943706 -0.06680694
0.20707735 -0.02586792 -0.09925958
-0.07738564 -0.07669455 -0.24960898
-0.001844143 -0.19850414 -0.18396617
0.030892065 2.2665117e-05 0.030904833
0.04633097 -0.23319729 -0.24992299
0.17821556 -0.08220136 -0.07586281
0.06352486 0.08379477 -0.092938945
-0.1171741 0.08978606 0.24102205
-0.20505096 0.03068217 0.11783748
-0.118099235 0.15618184 0.2663156
0.13193925 -0.23530512 -0.18720224
-0.004882603 0.020786643 0.0817588
-0.11557354 0.12293413 0.25738248
-0.16587466 0.16983491 0.27009892
-0.21095727 0.17517547 0.23732968
0.20150135 -0.18749593 -0.16102819
0.21445747 0.015737427 -0.11742787
-0.25451508 0.18506663 0.20336787
0.11944275 -0.0091458475 -0.08915903
-0.074545674 0.12067937 0.2012219
0.110695064 -0.0139693385 -0.07555534
0.042514496 0.03736376 0.026324172
0.13372745 -0.0017849039 -0.11754374
-0.08471455 -0.005224626 0.11312033
-0.08686824 0.0751657 0.20107001
-0.05876244 0.0801876 0.1720779
-0.19985594 0.026724836 0.124174155
-0.050726768 0.16371903 0.10666488
0.19254594 -0.1565911 -0.1153333
0.115930766 -0.045491256 -0.088584095
0.10704352 0.027892847 -0.085878715
0.012077769 -0.06471387 -0.015863724
0.20596352 -0.19675137 -0.17563894
-0.089219384 -0.10414915 -0.24417904
0.089111224 0.024929533 -0.04780039
-0.3005708 0.16713049 0.1812657
0.060955513 -0.024129923 -0.015163444
0.24477123 -0.018941613 -0.16079743
-0.21017563 0.0638216 0.2581538
-0.05174321 0.02806131 0.13240367
-0.2168485 0.03911989 0.14576943
0.12455707 -0.21065399 -0.1505957
0.05374975 -0.0460061 -0.022727363
0.13296245 -0.1577624 -0.08511651
-0.170874 0.24923728 0.22814374
0.0756165 -0.11431148 -0.115755916
-0.14989437 0.11407946 0.29028654
-0.060432006 0.116088636 0.18016024
-0.0062872623 -0.1413927 -0.17056522
-0.09091575 0.007471241 0.13420776
-0.099091984 0.1670154 0.23060411
0.19384643 0.034619827 -0.12220749
-0.20924912 0.12750272 0.26165414
-0.23626782 0.066416174 0.254447
0.062478054 -0.24319816 -0.24337813
0.0027586913 -0.20062022 -0.16861497
0.11918935 0.015549809 -0.10121995
0.050191626 -0.22958118 -0.13960662
-0.17234133 0.2309641 0.23604709
-0.27943316 0.116066135 0.22024287
0.13892667 -0.20676209 -0.15309979
-0.03941027 0.060181525 0.14046118
-0.2418398 0.19422628 0.20739684
0.1627822 0.095178 -0.20215553
0.16833009 -0.16261928 -0.110371545
0.21697882 -0.15578322 -0.12732643
-0.07487984 -0.05419295 0.0023987012
0.12107851 -0.09206329 -0.10930869
0.03985089 0.071604006 -0.24325685
0.07252454 0.041015696 -0.024770057
-0.102678 0.019661661 0.15704343
-0.19569059 0.16203484 0.25393754
0.14649968 -0.042042926 -0.11661696
-0.05695273 0.06880493 0.16462374
-0.11683451 -0.016072333 0.08884933
0.18479136 -0.11321861 -0.056380685
0.20997275 -0.2037031 -0.18695936
-0.070827164 -0.0030466933 0.11007786
-0.11509349 0.1578995 0.26184213
0.15012263 0.0021957022 -0.13570423
-0.037870467 -0.17798844 -0.23268431
0.16481268 -0.015245116 -0.11739189
-0.03769715 -0.099827334 -0.21179827
0.0025898227 0.04645737 0.08351032
0.1932857 -0.0155717265 -0.09817587
-0.20003162 0.23464859 0.21572198
-0.0090261465 -0.045801587 0.020836134
0.10898878 -0.15802726 -0.08532383
-0.23317519 0.23590158 0.19293073
-0.16484909 0.001439233 0.06043496
0.029318098 0.073524736 0.038896754
-0.20153566 0.19273655 0.23509629
0.25468084 0.031876285 -0.27985904
-0.010386687 0.13617705 -0.01306224
-0.16096306 0.22189978 0.24806967
-0.04260064 -0.086743206 -0.096050166
-0.124424 0.07354541 0.2339233
0.08434141 -0.15334503 -0.10409656
0.22295009 -0.15185356 -0.1251648
-0.13533291 0.17086142 0.2900416
0.097861886 -0.11565359 -0.11337572
-0.081793636 0.12838244 0.21206287
-0.17017664 0.15016003 0.27678704
-0.0744962 0.021387216 0.142994
-0.2679117 0.19827884 0.18797669
-0.057761442 0.07126231 0.16676146
-0.106954545 0.10792784 0.2407225
0.22916032 0.050990704 -0.22942334
-0.14242792 0.1787646 0.28144956
0.15846497 0.06858612 -0.16240393
0.11373474 -0.13343932 -0.094104536
0.081477806 -0.19385228 -0.10543638
0.08133731 -0.05621844 -0.05686341
0.10963774 -0.06880666 -0.09340533
0.002889398 -0.056901574 -0.00049460476
0.08433478 -0.22119428 -0.14311889
-0.03536139 -0.087478235 -0.21623974
-0.2531581 0.083749175 0.25354248
0.10035214 -0.15289646 -0.09359917
-0.15214957 0.0168151 0.16051611
0.24041793 0.0040802853 -0.15731294
-0.061873246 0.044738866 -0.29827514
-0.13539743 0.010834381 0.14945403
-0.1458496 0.22030458 0.2589602
0.09460865 -0.055095367 -0.06893885
0.046720967 -0.01746793 0.0042757923
0.17317757 -0.015604435 -0.11161841
-0.27305222 0.21406463 0.17685993
0.073821746 0.13037975 -0.24910155
-0.29407 0.12463984 0.20627753
0.079329796 -0.19506244 -0.10589305
0.13059203 0.09819825 -0.19545728
0.08243183 0.039965007 -0.0444741
-0.04306737 -0.08551621 -0.08709651
-0.17967893 0.029959455 0.18386452
-0.20077609 0.08260105 0.28915918
0.13309456 -0.0083372025 -0.11308448
-0.22635119 0.18466417 0.22241212
0.14048058 0.10425476 -0.29643568
-0.1484197 0.16330002 0.28495932
-0.1542451 0.055410694 0.23161504
0.24468647 0.043543305 -0.18366519
0.08407734 0.0097569795 -0.035765376
0.14821212 -0.21401101 -0.16763054
-0.2781129 0.113379814 0.22243232
-0.0021809384 -0.10209327 -0.09062056
0.06806476 -0.138599 -0.12216153
0.000203584 0.12469646 0.039645527
-0.033028424 0.033754997 0.11897248
-0.16438264 0.1880316 0.26224986
0.2653212 0.017029973 -0.19924203
0.06035125 -0.14978492 -0.12188403
0.08071945 0.08377573 -0.22182295
-0.2623192 0.103135176 0.23798433
0.17386498 0.064871214 -0.15029094
-0.032214098 -0.082444206 -0.2165815
-0.26131934 0.20075479 0.19118561
0.18308006 -0.023285924 -0.10125489
0.12845728 0.07085424 -0.18359038
0.06030807 -0.2069198 -0.111446194
-0.24518284 0.14673623 0.228252
0.2203498 -0.14996824 -0.12130322
-0.17838822 0.07870718 0.2759953
-0.072430305 0.059901174 0.17605826
0.06645243 -0.21321577 -0.12304506
0.21154614 -0.19207057 -0.17237511
-0.24139866 0.089648366 0.25854486
-0.027063973 -0.02760359 0.054842804
0.13728312 -0.1506804 -0.07805043
-0.19352661 0.23297028 0.22089212
0.10909552 -0.06654826 -0.091252185
-0.15386802 0.045408368 0.21700926
0.16745469 0.020363403 -0.13293819
-0.045871098 0.07874297 0.15508161
-0.010393889 -0.007843908 0.06495447
-0.12540686 0.2186094 0.14908113
-0.09089199 -0.008674435 0.107996985
0.22364715 0.05202087 -0.13768934
-0.08056602 -0.08171524 -0.24929568
-0.02336054 0.07549169 0.12470621
0.008561107 -0.053601194 0.0014778381
0.16512841 0.022837542 -0.13569841
-0.0033454194 0.055641223 0.09377169
0.001943659 -0.16822998 -0.15200603
-0.03197806 0.13182823 0.11839039
0.19154662 -0.07607178 -0.06992174
-0.18254834 0.17324106 0.25728312
-0.07873121 0.11796727 0.2074481
0.20217761 -0.053578846 -0.08718496
0.16234733 0.09391929 -0.22945517
-0.029755542 -0.10443482 -0.20424213
-0.11929363 0.017167596 0.15995061
-0.07271332 -0.05191133 -0.25853366
-0.3021296 0.13571514 0.19549817
0.09842974 -0.10263617 -0.11346392
0.13972355 -0.2353617 -0.19141282
-0.22301906 0.08915695 0.27108452
-0.24817073 0.17389658 0.2130457
0.02987811 0.042897742 0.04518781
0.1717114 -0.2137338 -0.17977627
-0.102063134 0.17201827 0.23277634
-0.16372198 0.11782317 0.29683182
-0.17026809 0.115317054 0.29366824
-0.23324476 0.09532028 0.26124412
-0.12932679 0.002591839 0.13173789
-0.12699205 0.084510796 0.24655552
0.27208534 -0.060040336 -0.19837794
0.12190223 -0.06794507 -0.105995014
-0.07657233 -0.08404321 -0.24549101
-0.08030942 -0.09356444 -0.24336278
-0.020992069 0.13168426 0.09108298
-0.049185142 0.03770079 -0.2863604
0.08080492 -0.15547267 -0.10542977
-0.021565005 -0.18812414 -0.22599629
-0.20042908 0.11442515 0.27391627
-0.082896866 -0.09409768 -0.24483457
-0.23138593 0.17674036 0.22289672
-0.22264528 0.22252756 0.20648116
-0.1911104 0.13196284 0.27162483
0.09740518 -0.059991337 -0.07517947
0.12509407 0.03590986 -0.15561225
0.12585166 0.116440706 -0.24634987
-0.08452037 -0.07938005 -0.25307846
-0.29388794 0.17091252 0.18389922
-0.09895188 -0.032410193 0.0520941
0.115108274 -0.08304035 -0.108969375
0.24433729 0.0385323 -0.27900064
0.15525529 0.065049425 -0.16283204
0.23189144 -0.13957383 -0.12179075
0.039792366 -0.19962813 -0.11140715
0.26919764 -0.05717005 -0.19418173
0.01012003 -0.18197545 -0.13985011
0.26183286 -0.16281657 -0.16629955
0.23372328 -0.15195984 -0.1310196
-0.07809087 -0.103766076 -0.2369171
0.0072230115 -0.19651017 -0.13472089
-0.23856895 0.08578162 0.26231784
-0.07613754 -0.0130744185 -0.2797095
0.11437235 -0.059728097 -0.09338021
0.20271648 -0.14368132 -0.103668466
-0.18016231 0.16493188 0.26292127
0.19303755 -0.18042502 -0.1471298
-0.09643275 0.11399031 0.23020324
0.13901989 0.006905613 -0.1361543
0.018963225 0.013656865 0.051197655
-0.24817331 0.13549903 0.23171394
0.23147011 -0.06559111 -0.13236213
-0.024051392 -0.07216749 -0.021662045
0.048959237 -0.0053541 0.007762219
-0.048627313 -0.119200535 -0.20969264
-0.24761346 0.066457 0.23990758
0.12854561 -0.1804887 -0.1128229
-0.23436259 0.17397152 0.22225046
-0.018817404 -0.19192843 -0.26308647
-0.067609504 0.17853953 0.11568391
-0.2334565 0.051360626 0.15713681
0.07676056 -0.18974087 -0.09748648
0.24172968 -0.052177656 -0.15086323
0.020650132 -0.21344118 -0.1919651
-0.13677888 0.034535293 0.19370249
0.055545487 -0.061704487 -0.03932217
0.18731655 0.077622816 -0.14748883
0.08571663 -0.110447854 -0.114741854
-0.054393012 -0.08323941 -0.23103835
0.12788518 -0.12802409 -0.08726744
-0.024430793 -0.18282521 -0.163645
0.0220243 0.044807132 0.05690507
0.013860213 -0.05678295 -0.00564316
0.25355008 -0.121831715 -0.15924126
-0.21416198 0.07612787 0.2833474
-0.14216995 0.14835533 0.29640922
-0.11537513 0.068306446 0.22169422
0.060107637 0.015605803 -3.892614e-06
0.23984733 -0.046804674 -0.14865965
-0.2102365 0.23432907 0.209048
0.071795695 -0.20495091 -0.11495914
0.13119943 -0.034654316 -0.106219105
-0.029604778 -0.17299928 -0.17080222
0.16884659 -0.062982224 -0.09147793
-0.090679 0.18986163 0.17765892
0.19885792 -0.17946066 -0.14897956
0.17829667 -0.047949463 -0.09246303
-0.1789295 0.19665457 0.24832052
0.14937972 -0.23235933 -0.19254155
0.17231822 0.074258156 -0.15589003
0.022482615 -0.17591052 -0.1345248
-0.008439044 0.10820016 0.089536145
0.18647358 0.050510414 -0.13486853
0.026788061 -0.22305648 -0.2925747
0.20988554 -0.16756211 -0.13905
0.15130982 0.09875225 -0.26968303
-0.18765432 0.18273933 0.24924795
-0.040479653 -0.06891177 -0.017330917
0.11634348 -0.17162216 -0.09459826
-0.30114752 0.1358882 0.19607122
0.17992654 -0.1606042 -0.11388159
-0.08281923 -0.031585027 0.061375048
0.02151618 -0.07971067 -0.041714255
0.21813355 0.036529057 -0.1264878
-0.10690676 0.16255638 0.24665627
-0.06650243 -0.007349047 -0.27604434
0.051002823 -0.08572874 -0.063535765
0.09642643 -0.1579127 -0.09378822
0.048611876 -0.0035359717 0.009060116
0.22187918 -0.037112128 -0.12130162
0.19744599 0.066839725 -0.30936584
0.0012110083 -0.0039068484 0.058604997
-0.116848476 0.11866203 0.25726816
0.2690614 0.0063062245 -0.20361325
0.18622139 -0.1668795 -0.1255493
-0.051010795 0.0007073495 0.10360138
0.035483893 -0.22154166 -0.16563547
0.20505486 -0.12799333 -0.08409558
0.02245088 0.1061362 0.012561114
-0.08259288 -0.13757178 -0.2234924
0.014215214 0.108019665 0.03539749
-0.15645225 0.14521384 0.28837797
-0.096265264 0.089548394 0.21947592
-0.032686416 -0.12759732 -0.19494162
-0.0062801614 -0.15439774 -0.16423571
-0.022899464 -0.082917 -0.0472967
-0.009888865 -0.15025307 -0.1686664
-0.15815964 0.07256426 0.25657353
-0.22957431 0.05193212 0.20693673
0.14676863 -0.098003425 -0.08922576
-0.10463271 0.01550987 0.15192053
0.18760158 0.05551407 -0.13654718
0.032709032 -0.2023686 -0.11481395
0.16912504 0.040079895 -0.14140731
-0.14877854 -0.009120364 0.06706069
-0.07652943 0.057530124 0.17833032
-0.02895084 -0.11177052 -0.2001376
0.0350706 -0.10757659 -0.09370757
-0.06374026 0.058717735 0.1667693
0.05850052 -0.11594484 -0.11289659
0.08722372 0.011489855 -0.04044734
-0.0070331045 -0.19547054 -0.18956032
-0.14916457 0.07042763 0.24836367
0.13435173 0.028602028 -0.15909903
-0.20930181 0.0974112 0.2762515
0.12321709 -0.18876608 -0.120932125
0.11089752 -0.0854959 -0.106649615
-0.09808792 0.12447349 0.23533112
0.24534345 -0.058537558 -0.15569676
0.00819049 -0.14711984 -0.15809001
-0.18109004 0.18012644 0.25491178
0.16252173 -0.07298585 -0.09084824
-0.024233283 -0.12139146 -0.1923003
-0.07014354 -0.108369924 -0.22935994
-0.044016875 0.16123937 0.08143932
0.01850794 -0.21514162 -0.24761668
0.102974586 -0.25950202 -0.20369641
0.17774956 0.02807807 -0.12979965
-0.06648046 -0.028743168 0.06725826
0.21324672 -0.13282098 -0.09487063
0.09959032 0.030274762 -0.0723226
0.09988972 0.005680374 -0.06014729
-0.23495291 0.11533791 0.25036708
0.031711772 -0.052301563 -0.011564143
-0.19274749 0.2303249 0.22269931
-0.12128079 0.087411895 0.24329948
0.12299657 -0.18511607 -0.11598749
-0.074319966 0.12744027 0.20091629
-0.022891792 -0.18955861 -0.266761
0.1413436 -0.041926965 -0.12012413
-0.20095205 0.17881596 0.24225567
0.11431228 -0.23457654 -0.17685495
0.16660473 -0.006689993 -0.12035115
0.044577602 -0.14731917 -0.13363999
0.15174899 0.02967037 -0.14797474
-0.073372476 -0.0069868593 0.10552467
0.17903845 -0.055251513 -0.088416345
-0.049590655 -0.09288556 -0.22313273
0.015063832 0.07831196 0.06297583
0.25867236 -0.059293967 -0.1769693
0.030915184 -0.0142530035 0.022314653
0.18556026 0.023443677 -0.12231813
0.18704851 0.07357606 -0.30826956
0.2030263 0.0682928 -0.13243698
-0.025805466 -0.106741436 -0.20047702
0.11939103 -0.080542624 -0.11132785
0.19441725 -0.014545173 -0.09791827
-0.24714676 0.07054621 0.2580075
-0.11560424 0.084902875 0.23598085
0.0019211117 -0.032426473 0.030844046
0.022262024 0.082003385 0.046766955
0.007476651 -0.20809054 -0.24863759
0.20516959 0.01183446 -0.10354868
-0.15520562 0.06756455 0.24876611
0.16396844 -0.1854627 -0.13826227
-0.081138924 0.18908985 0.114900306
-0.02797293 -0.0010547185 0.08543763
0.048233956 -0.13415992 -0.13759193
0.07123598 -0.14966115 -0.11466032
-0.081341915 0.18899816 0.12564202
-0.015918637 -0.19750431 -0.32778522
0.052119352 -0.23245193 -0.1691014
0.10842637 -0.021402031 -0.072208345
0.14506023 -0.10170792 -0.08856829
-0.03534618 0.024760112 0.1147441
0.115223154 0.12255479 -0.25916898
-0.06885027 0.022747997 0.1408165
0.22829728 -0.17806536 -0.1628936
0.17899834 -0.08951361 -0.07178315
-0.20313612 0.031133872 0.15535727
0.009782022 0.11762028 0.02563442
-0.11753169 0.09572736 0.24564925
-0.24889976 0.18069577 0.2092509
-0.20726371 0.16511208 0.24469529
-0.2029648 0.19813439 0.23151545
-0.10097986 0.117468484 0.23704764
0.23994416 -0.14189045 -0.13435957
0.16186123 -0.031390198 -0.11151595
0.1603106 -0.016709656 -0.119692154
0.14568065 0.013991251 -0.1444131
0.05555279 -0.22611128 -0.13428023
0.053115938 -0.11935135 -0.118227996
0.25294513 -0.052773092 -0.16876943
-0.0051157814 -0.09490109 -0.07105807
-0.018933842 0.14405456 0.014994291
0.2289288 0.04953832 -0.25693357
0.019093327 -0.019097922 0.030302433
-0.041728094 -0.060465 0.0021763248
0.166577 0.029946256 -0.1381859
0.069635324 -0.24916448 -0.2681405
-0.10280016 -0.04097728 0.012763272
-0.19066986 0.2171609 0.23049188
-0.024819179 -0.09929728 -0.11922723
0.22066475 -0.075588055 -0.11350303
-0.054276273 0.1073383 0.17094275
-0.19278264 0.2523844 0.21194983
-0.2519006 0.067132406 0.2335153
0.09636599 -0.10106355 -0.11029212
0.03783739 0.09285553 -0.12782383
0.0727739 0.022530682 -0.018854689
0.028974975 0.10341255 -0.0023667864
-0.012614018 -0.15595958 -0.1677159
0.010018735 0.105859704 0.049326304
0.09424376 0.045793027 -0.07808441
0.06604843 -0.20592177 -0.113182686
0.052079067 -0.0023697088 0.005710793
0.13008219 0.11101616 -0.2953467
-0.02156719 -0.092448235 -0.07522644
0.09158133 0.050515253 -0.07798097
-0.17420253 0.18050706 0.25933576
0.06315121 -0.23960839 -0.16959575
0.16627966 0.08703488 -0.30623853
0.18449582 -0.14149171 -0.0910359
-0.06665158 0.027215647 -0.29295245
-0.19206797 0.21027121 0.23290598
-0.12630792 0.053750005 0.21412803
-0.1967908 0.044958513 0.21713102
-0.2885866 0.16774479 0.18898742
-0.16063103 0.082286775 0.26969188
0.26367822 -0.13638487 -0.17328064
-0.23647928 0.24211083 0.18770044
-0.07184616 0.16424704 0.17316008
0.04922021 -0.216146 -0.11774592
-0.13646439 0.028328953 0.18320492
0.07935386 0.00090456917 -0.02876398
-0.23957989 0.17715915 0.21720868
0.18880384 -0.118777245 -0.06329413
-0.16009414 0.14396541 0.28654724
0.13135797 0.015362528 -0.1287218
-0.06943909 0.074692585 0.18169746
-0.10407398 0.11470399 0.24023642
0.071068995 -0.2220775 -0.13723657
0.278554 -0.020573016 -0.21475717
-0.092488 0.059552472 0.19510709
0.044061366 -0.06853463 -0.038650177
0.19432753 -0.16339828 -0.12529586
0.009688233 0.08140706 0.07127369
0.23874381 -0.14884727 -0.13137412
-0.22480679 0.1474355 0.24154845
0.26676583 -0.1029612 -0.18331622
0.061650604 -0.068109706 -0.050347295
-0.025413416 0.06810763 0.1257242
-0.067848675 0.056317262 0.16902891
0.022493955 -0.21007186 -0.11790547
-0.26792696 0.21022825 0.18215615
-0.012222638 -0.18359847 -0.15401453
0.089015454 0.057419866 -0.19687556
0.03718981 0.01942695 0.03127189
-0.2539349 0.20436516 0.19437183
0.07100313 -0.124156326 -0.12721738
0.16256191 0.09455214 -0.21577491
-0.014625771 -0.17487952 -0.15986253
-0.29235598 0.1904644 0.17541666
0.21660866 -0.18011722 -0.15925446
0.11183683 -0.17419693 -0.09560432
0.052815184 -0.14551686 -0.12900329
0.0010219816 0.107195154 0.06999657
-0.11146988 0.1114734 0.24760093
0.17095098 0.051364053 -0.14567275
-0.0767724 0.17957357 0.15735279
-0.030696299 0.021111406 0.10760147
0.124068946 0.11018757 -0.20565309
0.15932591 -0.21518107 -0.17509665
-0.17587328 0.047213893 0.22427085
-0.013821575 0.09920821 0.10616382
0.06164475 0.09756877 -0.24129601
0.20647854 -0.20405371 -0.18558604
0.14222218 -0.09445828 -0.09399336
-0.14797541 0.17506221 0.2795367
-0.19201571 0.13405192 0.2700037
-0.058585018 -0.011985664 -0.26849195
-0.0694475 0.060388144 0.17351338
0.025395988 -0.02990612 0.015287337
-0.15688008 0.11573076 0.29825744
0.07965946 -0.07516873 -0.07143288
0.085480414 0.08032061 -0.21695599
-0.18348542 0.2516384 0.21853493
-0.011040726 0.10074979 0.10083685
-0.23043072 0.10914553 0.25640473
-0.20556952 0.11751407 0.26897418
-0.042723805 -0.049046326 0.026201285
-0.120166615 0.20947324 0.11598695
-0.032964654 -0.18622233 -0.32446557
-0.052736465 0.16841757 0.074047334
0.1302872 -0.08148372 -0.108289465
0.122652434 -0.029519213 -0.093453646
0.2578842 -0.024845153 -0.18094178
0.06987655 -0.15623914 -0.11237102
0.20290709 0.033840414 -0.11576356
-0.28589836 0.09535994 0.22598411
0.09684076 0.022765288 -0.060635623
-0.017105429 -0.118686005 -0.18884574
-0.074803725 0.03298323 0.15542366
0.1538449 -0.082608484 -0.09197593
0.12417307 -0.15241474 -0.07789113
-0.19701442 0.040710017 0.20423451
0.1558517 0.09631531 -0.17763585
0.013452578 -0.19247772 -0.13251224
0.26729417 -0.051768895 -0.1919473
0.2063903 -0.048403904 -0.094732575
0.16754493 0.054799583 -0.14962326
0.26362702 -0.104551315 -0.17803876
0.14427386 -0.027624402 -0.12511799
-0.019249637 -0.0633393 -0.003824701
0.021266848 -0.12639984 -0.15124275
-0.2287811 0.14863932 0.23830396
0.16918743 0.07453973 -0.1581233
-0.016282557 0.12817712 0.08416412
0.10271668 -0.030983478 -0.06743771
0.1780429 -0.043485336 -0.09480448
-0.10432051 0.115563944 0.24079879
-0.04091572 -0.06862617 -0.016773676
-0.036974292 -0.10723726 -0.20771109
-0.14623907 0.17731063 0.27960595
0.15144382 -0.122408316 -0.0742301
-0.13775393 0.062102534 0.23127373
-0.15356062 0.16667347 0.2798778
0.23396167 0.045144893 -0.27811933
0.06069672 -0.17469384 -0.10954099
-0.24558131 0.20436102 0.199965
0.21493599 -0.1815269 -0.16020557
0.034973584 -0.14082468 -0.14322576
0.23405655 0.045892823 -0.26422152
0.1223986 -0.11112539 -0.09915604
0.06315192 -0.205677 -0.11131767
0.19077444 -0.08478724 -0.066200726
0.091349564 -0.038329743 -0.05665794
-0.06484417 0.17408006 0.12709615
-0.13007171 0.16134614 0.2841876
-0.079994366 0.13526663 0.20899042
-0.13605623 0.15791716 0.29309425
-0.05754199 0.030293277 0.13915378
-0.29329586 0.11783869 0.21010217
0.050998617 -0.17134733 -0.11765899
0.12461748 -0.025423868 -0.096364744
-0.068332456 0.12712169 0.19145812
-0.21387509 0.17278537 0.23653905
-0.2589758 0.21754946 0.18458737
0.23384653 0.044403646 -0.29212588
0.033658948 0.07204477 0.03107618
-0.28886324 0.09793053 0.20610861
0.13901807 0.025244815 -0.15434393
0.0966545 -0.080499046 -0.09004312
-0.08163513 0.17687201 0.1801244
0.20157138 -0.04132244 -0.08807514
0.042823892 -0.121972404 -0.12432952
0.178682 0.037522912 -0.13376848
0.13728829 -0.22699177 -0.17898284
-0.07914276 -0.027525045 -0.27469414
-0.029894223 -0.07133802 -0.020638358
-0.28756067 0.15893978 0.19395562
-0.07538773 -0.105196975 -0.23441264
0.03136929 0.03217273 0.04240477
0.079168364 -0.049059853 -0.04960129
-0.28979886 0.1793524 0.18253255
0.090945296 -0.23487596 -0.16471426
0.09185473 -0.010992226 -0.0477467
0.036144692 0.046362415 0.03586195
-0.115132585 0.21219523 0.19222116
0.17053439 -0.05446495 -0.09449135
0.018832318 -0.21062085 -0.1621815
-0.24300146 0.15815443 0.22415999
0.008065134 0.116789594 0.033535767
0.11294215 -0.12613752 -0.09818505
-0.16625199 0.084625304 0.27601475
-0.07423957 -0.07165645 -0.24995294
-0.115300044 0.20601775 0.21889573
0.03917508 0.07869526 0.014074326
-0.0068306844 0.12112162 0.07030388
0.09289308 0.11650135 -0.22958846
-0.24717262 0.06109391 0.19556111
-0.052449547 0.011439362 -0.27577588
0.042074285 0.04956582 0.02561962
-0.18501058 0.07436404 0.27267632
-0.023142334 -0.15047365 -0.17742938
0.005691953 -0.092707224 -0.063689254
-0.2314025 0.20858328 0.20740052
-0.12600282 0.21189204 0.23977299
0.16809438 -0.1590026 -0.10546332
0.1799042 0.06937087 -0.14843668
-0.097953446 0.10086704 0.22701506
0.12879942 0.0019115707 -0.11027359
-0.13158365 0.15446946 0.2864101
-0.19710562 0.23929253 0.21542214
-0.016086092 -0.09330801 -0.073797904
0.25740495 -0.13950689 -0.16273996
-0.06612216 0.07596334 0.17857127
-0.043667395 0.05520488 -0.29117858
-0.0042991005 0.017323568 0.07924609
-0.14341396 0.06445432 0.23763606
0.0013657429 -0.012389642 0.05124874
-0.004853056 0.025765613 0.08420029
0.10492233 -0.02331311 -0.06807963
-0.045029987 -0.033698197 -0.24886146
0.13581674 -0.09524165 -0.097899206
0.22987635 -0.0077145677 -0.13860379
-0.18186104 0.16024034 0.26406586
0.2767062 -0.046967007 -0.20777921
0.10726798 -0.15714644 -0.0869043
0.0052762087 -0.17875399 -0.14465818
-0.28973007 0.14751568 0.19805874
-0.0075787813 -0.06899079 -0.016093867
0.009765095 -0.1274856 -0.16658399
-0.045720473 -0.060799822 -0.23614477
0.10461219 -0.16998692 -0.08618915
0.07990586 -0.08338233 -0.07956603
0.08009749 -0.20186415 -0.11529793
-0.19127373 0.15296648 0.26130235
-0.0005949922 0.12916492 -0.026818048
