# .PCD v0.7 - Point Cloud Data file format
VERSION 0.7
FIELDS x y z
SIZE 4 4 4
TYPE F F F
COUNT 1 1 1
WIDTH 1000
HEIGHT 1
VIEWPOINT 0 0 0 1 0 0 0
POINTS 1000
DATA ascii
-0.08205301 0.27724615 -0.13710272
-0.25874835 0.1397912 -0.101432554
-0.007067542 0.23841423 0.026482653
0.15986758 -0.09156313 -0.032231696
0.032810062 -0.1722374 -0.09668523
-0.13125017 0.13944292 0.13836291
0.121753156 -0.20728098 -0.051210854
0.2163216 -0.16117363 -0.04732426
0.12756018 -0.18310276 -0.03536037
0.13908827 -0.18343057 -0.034690823
0.16503389 -0.22031224 -0.047105234
-0.03916874 0.12707299 0.12463428
0.008201075 0.1581697 0.06151877
0.0055900356 0.23700605 0.01557865
-0.10439831 0.20815264 0.13552946
0.0058325194 -0.07818002 -0.0060409186
-0.089808635 -0.041239128 -0.034539253
0.002960026 -0.10498667 -0.026745254
0.034358844 -0.06697771 0.0028384519
0.10267729 -0.039438717 -0.012740126
0.03671535 -0.090350054 -0.0059083835
-0.17222466 0.124828845 0.13300845
-0.0029781014 0.10179927 0.0073135127
0.21407081 -0.283572 -0.070286185
-0.15308443 0.18955895 0.075390615
-0.21016687 0.18460202 -0.08950431
0.09826546 -0.116795324 -0.013689758
-0.037267275 0.2706822 -0.053608555
0.2198119 -0.33722153 -0.111547045
0.01964501 -0.003950224 0.017025914
-0.09007495 0.13421199 0.13700715
0.16742572 -0.3011195 -0.121268205
-0.020971842 0.14477777 0.096854925
0.30650583 -0.2322649 -0.080241926
0.11147935 -0.11618954 -0.014827039
0.07127142 0.01966564 -0.012317148
-0.2271509 -0.026072167 -0.06688077
-0.11754892 0.28279802 -0.10216447
-0.051735695 0.013125348 0.027838906
0.17154019 -0.18182352 -0.03470252
0.008700849 -0.12309267 -0.040883563
0.19407049 -0.22431992 -0.047031324
0.05779647 -0.1056142 -0.010331789
-0.2596114 0.15186214 -0.1414998
0.14412181 -0.13331214 -0.022928217
0.046544526 -0.08253197 -0.0022183624
-0.057672437 0.23866281 0.07337308
-0.018128466 -0.07763022 -0.014401667
-0.074000515 0.059807405 0.11280642
-0.21682635 -0.010884686 -0.004743886
0.2687992 -0.2222634 -0.062735096
0.0027716772 0.19354047 0.044864394
0.21390256 -0.21184838 -0.046237722
0.019516854 0.2383417 0.0018126693
0.069511175 -0.14253308 -0.02654486
-0.02698582 0.011677646 0.026743863
-0.1718508 0.10249872 0.12569356
0.26037925 -0.17543165 -0.06918032
0.20271692 -0.27529186 -0.06840506
-0.12712133 0.19160186 0.15545703
0.19352251 -0.16081917 -0.037905864
0.024645751 0.08282728 -0.007518675
0.1416729 -0.09974115 -0.02191917
-0.021684984 -0.005525328 0.021965433
-0.12092383 0.16356261 0.14636396
0.14992248 -0.18645626 -0.035108
-0.16889225 0.11608064 0.13017882
0.15644798 -0.25476575 -0.071653165
0.010781047 -0.027475394 0.014443751
0.19665784 -0.3187917 -0.11037838
-0.13662726 0.20174019 0.1476892
0.16227764 -0.02564454 -0.09506889
0.065247774 0.057992946 -0.03588295
0.079961374 -0.04499308 -0.0020029661
-0.0020057536 0.22547162 0.029715778
0.051473215 -0.054769795 0.00434437
0.050743505 -0.09211726 -0.0056200535
0.065184295 -0.067391485 0.00016497899
-0.09485651 0.3042011 -0.014298946
0.11017033 0.028181916 -0.090151235
-0.30875194 0.052937094 -0.04762573
-0.16433829 0.1318491 0.13538444
-0.19419113 0.17194295 0.0010804952
-0.030887473 -0.025302077 0.014477809
0.04551 -0.03365173 0.008394723
0.10707699 0.008679582 -0.039925657
0.1418227 -0.23464377 -0.0628361
0.08872746 -0.08866011 -0.0069517056
-0.05687241 0.10731048 0.12856793
0.17586873 -0.2342809 -0.05204843
-0.10461952 0.28895018 -0.0789857
-0.20179918 -0.016034478 0.015812123
-0.18847635 0.10499636 0.12632549
-0.2647443 0.09449283 0.10001451
0.13306552 -0.24942303 -0.082756
0.013020087 -0.075622946 -0.0028978856
0.027221655 0.011628065 0.014676168
0.07487674 -0.08307656 -0.0037553902
-0.2851326 0.09256672 -0.03550372
-0.031673554 -0.10667353 -0.07233734
0.23672196 -0.19406903 -0.052064247
-0.21792488 0.022900248 0.07937103
-0.06929781 0.19219954 0.11268561
-0.17799082 0.12488018 0.13296045
0.21207112 -0.17766929 -0.043766618
-0.012182573 -0.043996967 0.008568358
-0.10039685 0.31337383 -0.060842093
0.14768551 -0.013012982 -0.081877105
-0.029801402 0.16722766 0.09128885
-0.030529877 0.2641895 0.03248023
0.13249995 -0.2143938 -0.05197562
-0.19486715 0.07422597 0.116168596
0.1491313 -0.019091923 -0.073059924
0.21017261 -0.09530687 -0.07183275
-0.06575987 0.16515335 0.1259907
0.14327298 -0.01546157 -0.06674612
0.1756117 -0.15694556 -0.032271095
-0.24244261 0.001956781 -0.02937099
-0.1960366 0.045960337 0.10686351
-0.13355897 0.25309527 -0.06383543
0.25879884 -0.3083112 -0.07452405
-0.12944877 0.2266931 0.032689843
-0.28729975 0.0636666 0.028071733
-0.14225733 0.052327223 0.109584786
-0.17101775 0.052464765 0.10930547
-0.1512313 0.00992593 -0.057104014
0.0053113294 0.16050297 0.062773556
-0.15410201 0.080204375 0.11858748
-0.008417612 -0.1318649 -0.08678764
0.016673798 0.21607564 0.01811582
-0.23740931 0.030038964 0.05393956
-0.074385345 0.135453 0.13763559
-0.050683435 0.16174726 0.11406462
0.06744045 0.04668514 -0.02614669
-0.25675657 0.0007054228 -0.06476746
-0.26211822 0.058138285 0.07029292
0.20684005 -0.090271145 -0.07240841
0.14076422 -0.20510326 -0.044244375
-0.16427377 0.2760573 -0.1448645
-0.06650123 -0.05522057 -0.02665316
0.18878505 -0.06746688 -0.07256269
0.18351953 -0.082616456 -0.05270341
0.0075936257 0.12999874 -0.0709609
0.0188527 -0.0792472 -0.0035142913
0.173039 -0.13360973 -0.031492118
-0.15222012 0.14525872 0.14003778
0.25772932 -0.23625124 -0.058224585
0.17059875 -0.22389983 -0.04810197
0.18483958 -0.10267681 -0.043990966
-0.10705727 -0.017403923 -0.017398657
-0.20131765 0.20474467 -0.12523071
-0.028817916 0.23731545 0.047374647
-0.054934356 -0.08146206 -0.057829563
-0.15863125 0.18608263 0.06884226
0.23723495 -0.28270012 -0.06614926
-0.28876454 0.08827704 -0.03342445
-0.018870857 0.22740234 0.044210404
-0.0075852615 0.07132735 0.021974508
0.2593423 -0.16411754 -0.073858194
0.040312923 0.0102310125 0.008943506
0.17168725 -0.28328034 -0.0894002
-0.007100723 0.20310532 -0.12942383
0.06438622 0.071587354 -0.06105374
-0.17682266 0.16460922 0.07922586
0.092766 -0.16987213 -0.03616507
0.10537176 -0.06499025 -0.010231275
-0.16729209 0.10177981 0.12550947
0.2132386 -0.14398691 -0.04936788
-0.27609816 0.099219196 0.06080017
-0.09451431 0.05643257 0.041566517
-0.14408034 0.16990568 0.14815964
0.106527425 -0.02254168 -0.020076698
-0.01738644 0.21973401 0.047535233
0.2487616 -0.30440524 -0.073712796
-0.17444406 0.112728745 0.12901735
-0.2037336 0.17006171 -0.023154676
-0.15889041 -0.00866267 0.08940869
0.2644477 -0.127854 -0.12718002
-0.012931407 0.16338436 0.07796337
-0.07452644 0.2543839 0.07939561
0.050072823 -0.1908439 -0.11143101
-0.1832749 0.096973285 0.12375418
0.18448576 -0.19403629 -0.038603365
0.07976025 -0.21820575 -0.10792499
0.03142779 0.062498685 -0.0011792645
-0.22788467 0.18613517 -0.15040246
-0.16054189 0.28048316 -0.14705762
0.023439446 -0.08913273 -0.007909376
0.14387941 -0.19273593 -0.037944347
-0.15213735 -0.008693022 0.089474835
0.28931493 -0.21443453 -0.0749861
-0.28133896 0.057872236 0.026606062
-0.24653162 0.091747046 0.12136841
-0.01890625 0.024336748 0.027837882
0.1260087 -0.061474543 -0.020476857
-0.08483783 0.057584073 0.11195456
-0.2625227 0.045538303 0.037256498
0.21705586 -0.18261045 -0.04534216
0.22413987 -0.3085003 -0.08273097
-0.080330215 0.25142452 0.08660609
0.32310945 -0.2406592 -0.087792985
-0.21774116 0.09162569 0.12156757
-0.19346541 0.14450203 0.1391833
0.18436792 -0.26142547 -0.065095596
-0.13867195 0.19164428 0.15538502
-0.23269612 0.06227132 0.11185095
0.14263111 -0.24276552 -0.06905369
0.039383665 0.0309495 0.0052897166
0.058885686 0.012507081 -0.001171402
-0.24013817 0.053395245 0.10762864
0.0043660817 0.12740794 -0.030769462
0.14755963 -0.013491244 -0.13040778
-0.034941055 0.1110102 0.027184913
0.004237751 -0.13592651 -0.06557934
0.011287034 0.16338539 0.05544986
-0.083820075 0.30477366 0.01880103
0.026628828 0.09126925 -0.0170804
0.24961531 -0.31712595 -0.080415815
0.038265236 0.0920884 -0.10551092
-0.18260981 0.058070965 0.111011826
0.20806876 -0.19233054 -0.04253693
-0.059141483 -0.03342546 0.00087471266
-0.023865422 -0.0479452 0.003646048
0.04874322 -0.07694987 -0.0005589362
0.24283908 -0.24919774 -0.056587424
0.23726642 -0.30340475 -0.07574895
0.033064507 -0.16053087 -0.066056944
0.11574364 -0.13912702 -0.020480337
0.13283893 -0.12647696 -0.019997114
0.011122415 -0.10573876 -0.022821732
0.30446166 -0.20825312 -0.08860083
0.028721493 -0.093344554 -0.00898428
-0.07254486 -0.044208147 -0.018274395
-0.05120185 0.22324143 0.076818824
-0.06664662 0.11992018 0.13259692
-0.11155507 0.040338863 0.10600182
-0.12985058 0.029941386 0.017300755
0.032159615 -0.023791887 0.0121151395
-0.019025858 0.030379284 0.028722933
0.27259046 -0.1570944 -0.092048265
0.20743698 -0.13854721 -0.04743221
0.099877246 -0.054239385 -0.00921353
-0.28958005 0.14987808 -0.14210153
0.014642658 0.051230643 0.014353718
0.011011632 -0.044664662 0.009913735
-0.13147315 0.23982379 -0.01525419
0.04829537 -0.08428198 -0.0027714816
-0.013828006 0.14900428 0.08762059
-0.13270213 0.013012795 0.09680775
-0.0017535861 0.026457196 0.023807826
-0.018422905 0.23956361 0.036333147
0.14363645 -0.08527534 -0.024787521
-0.254891 0.030271146 0.015258535
-0.060847595 -0.07568373 -0.056456026
0.22575517 -0.28238422 -0.06682754
0.032592017 -0.01200307 0.012943065
-0.1717571 -0.0031004434 0.09108162
-0.11933881 0.057753522 0.11162156
-0.06843218 0.15120028 0.13703477
-0.11310367 0.2804944 -0.08580179
0.07941679 -0.052145775 -0.001846652
-0.078296214 -0.026238522 -0.003502076
-0.090367235 0.13212997 0.13631336
-0.15274689 0.09756484 0.12429269
0.2541313 -0.2765316 -0.06397068
-0.1766281 0.04267387 -0.15819816
-0.16760638 0.23828904 -0.124702804
0.26946098 -0.2424424 -0.061922483
0.3000476 -0.22616832 -0.07809912
-0.18242772 0.046995495 0.107384294
-0.22617327 0.013903712 0.03781298
0.2738027 -0.28896484 -0.06830244
-0.041437022 -0.036117855 0.006008542
0.005261755 -0.049957037 0.0074782614
-0.17753483 0.0005688525 0.09223103
-0.11621799 0.103621475 0.12668967
0.122524045 -0.04111931 -0.024080291
0.1850899 -0.3076379 -0.10726003
0.2800095 -0.22238185 -0.06779651
0.14676453 -0.20884624 -0.044887032
-0.2584548 0.10529406 0.008623246
0.07888062 0.059140358 -0.086032175
-0.061869685 0.060979594 0.04051678
-0.12639368 0.1661604 0.14715825
0.14104299 -0.0029732327 -0.095046476
-0.19568619 0.1608434 0.031461712
-0.0532289 0.00070513855 0.022952683
0.029767085 -0.018188907 0.013330314
0.022763724 -0.1215541 -0.02985398
-0.091209896 0.10209738 0.12647122
-0.04273322 0.124992475 0.12922452
-0.30918247 0.09447553 -0.02885223
0.010263459 0.0024128864 0.019652706
-0.20649159 0.18897898 -0.09172315
0.24873593 -0.2937114 -0.0695963
-0.17562018 0.080214724 0.1183484
0.17155321 -0.09209921 -0.039034504
0.19494256 -0.13164999 -0.04192254
-0.27915508 0.052075773 0.016650483
0.16452427 -0.08651866 -0.03641
0.10407051 0.031649243 -0.07241503
0.02262268 0.23322071 0.002067603
-0.13730747 0.051612493 0.10940646
0.014435738 0.00075999735 0.018672122
-0.0057074907 0.025352022 0.025048392
0.2939557 -0.17663164 -0.10087815
-0.082618326 0.2537348 0.08731603
0.09768845 -0.07461428 -0.007629857
0.055392846 0.01428231 0.00041252602
0.020932946 0.11669578 -0.074542895
-0.2492486 0.04157297 0.056911554
-0.18468882 -0.02426627 0.033148214
-0.22582094 0.098105185 0.123626366
0.17716916 -0.1713713 -0.03409062
0.18995696 -0.3313028 -0.16566291
0.14264019 -0.057406735 -0.032100674
0.04040433 -0.025980083 0.010374931
0.10299249 -0.053519804 -0.01072323
0.116719276 -0.14041823 -0.02087112
-0.052547324 0.150432 0.12274009
-0.06857363 0.002876048 0.021175677
0.20219529 -0.13445067 -0.045456823
0.08113419 -0.14362262 -0.024365991
-0.18192427 0.06400554 0.11296455
-0.19928217 0.02489404 0.099967085
-0.06594405 0.28421775 0.0531142
-0.035901107 0.23304224 0.05658165
0.21095236 -0.12940997 -0.052071627
0.0261685 -0.007994621 0.014968642
0.15999131 -0.13803008 -0.027327271
-0.18769978 0.019306568 0.09825729
0.23053323 -0.31805637 -0.15309434
-0.077224694 -0.03819419 -0.015059249
0.20952748 -0.18622483 -0.042983193
-0.10637345 0.08254366 0.11989256
0.14801411 -0.20903628 -0.044693828
0.068866156 -0.065436006 -0.00019395129
0.10212687 -0.048608985 -0.011003447
0.04887178 -0.01536643 0.007821434
0.008500106 -0.06576769 0.0014951831
-0.017570294 0.11765236 0.1103352
-0.27841696 0.07296776 0.0717598
0.21556006 -0.28995648 -0.0734773
0.22253661 -0.2782154 -0.065436125
0.00065112516 0.110967934 -0.0031128726
-0.12226188 0.25385487 -0.030499632
0.037608776 0.04433656 0.0026116765
-0.16562946 0.07467323 0.116644815
-0.21330707 0.14272936 0.12179447
-0.13490787 0.21715623 0.045587774
0.086702585 -0.19630407 -0.060595118
-0.02067126 0.17591257 0.07747397
-0.14313859 0.0105929235 -0.020745063
-0.28726348 0.11068112 -0.0930919
-0.1365912 0.20595005 0.07571404
-0.18030386 0.04957164 0.108252235
-0.22108586 0.21542859 -0.15880814
0.011037841 0.24228194 0.007277519
0.09633994 0.041233823 -0.09933785
-0.29969382 0.12490807 -0.09510448
-0.06708422 0.28407162 0.05426423
-0.28620714 0.07972934 0.07160197
0.1733673 -0.24723275 -0.059844416
0.024843844 -0.16417482 -0.093811184
0.060370144 0.07629519 -0.063005865
-0.11482789 0.1412636 0.13904867
-0.0010709827 0.26109508 0.002814372
-0.04033426 0.12986492 0.124004215
0.15612292 -0.2796607 -0.09939159
-0.11160532 0.30644855 -0.07439277
0.285916 -0.28240702 -0.068793684
-0.07182342 0.1960562 0.11266798
0.2945109 -0.27457532 -0.0698545
0.008495445 0.06446464 0.01432042
-0.08966609 0.19389318 0.1305819
-0.10938664 0.16355628 0.146483
-0.27393138 0.0596231 0.047737677
0.009337016 0.011703253 0.020295193
-0.08262348 0.109403335 0.12896374
0.03475349 0.04716898 0.003520698
-0.0071748863 0.13448754 -0.018189074
0.2534656 -0.20957667 -0.05752617
-0.23601642 0.20430428 -0.1564731
0.20241022 -0.34253708 -0.15286085
0.087596625 0.05020272 -0.09264586
-0.17062077 0.101276875 0.12530786
0.109216295 -0.07924726 -0.011261156
0.2514883 -0.31820926 -0.080569655
0.24856512 -0.24879809 -0.057522167
0.12400151 -0.0827156 -0.01624439
0.1944345 -0.05636587 -0.12172845
-0.22316583 0.058544703 0.11073777
-0.20960408 0.012429235 0.07125759
-0.011903966 -0.0074603995 0.020919448
-0.080827415 0.050242297 0.03978068
-0.02993869 -0.005466655 0.02218425
-0.30651534 0.110390164 -0.0707588
0.07245929 -0.02329651 -0.0010289688
-0.1518446 0.21887428 -0.013424689
0.115975395 -0.18206048 -0.03737862
0.016842928 -0.12023773 -0.03246651
-0.2774356 0.07788062 0.08684413
0.21375838 -0.2872172 -0.07238708
0.19470821 -0.3051463 -0.09555259
0.17710765 -0.057081874 -0.067275375
0.09809838 -0.21961953 -0.078423664
-0.20495303 -0.022457996 -0.007742377
0.18509908 -0.18826403 -0.037878282
-0.090677105 0.26933736 0.020438807
0.064741805 -0.045668457 0.002777178
0.042424027 -0.01134807 0.009855238
0.003903555 0.10586199 -0.0027200433
0.120336816 -0.06317974 -0.017258085
-0.20700727 0.0063549397 0.061517812
0.03224522 0.034605663 0.008516745
-0.22047636 0.1009697 0.124585405
-0.0030094325 0.24135508 -0.05190549
-0.028395742 0.13211185 0.012129102
-0.165761 0.17154963 0.0922607
0.032226246 0.21326856 -0.037167132
-0.17193666 0.07120904 0.1154384
-0.13370448 0.11437018 0.13001525
0.0074968566 0.12950435 -0.047856603
-0.031258024 0.060944796 0.0331441
0.17946787 -0.22224045 -0.046851102
0.24386099 -0.113039054 -0.1695798
0.08076411 -0.09443236 -0.0068899295
0.1911844 -0.2692654 -0.067818634
-0.26110289 0.053106584 0.059817173
-0.070793696 0.12275506 0.13346925
0.12520976 -0.069830395 -0.018555226
0.07888107 -0.002129437 -0.008986487
-0.07403922 0.17667708 0.1266174
0.20737332 -0.06973129 -0.11402231
0.115873635 -0.155802 -0.025651595
0.17913677 -0.30918187 -0.11750797
0.110432975 -0.08792619 -0.011660132
-0.16507936 0.04134605 0.10572824
-0.1741 0.19882336 -0.020397697
-0.059556548 0.18417272 0.10855441
-0.1716452 0.26709896 -0.14073351
-0.11825598 0.009913843 0.0054222187
0.06392554 -0.2032731 -0.1062245
-0.27890772 0.07047691 0.064204045
0.030410564 -0.12912968 -0.032201376
0.31468064 -0.17705768 -0.16750275
0.10460909 -0.12850782 -0.017095055
-0.1566301 0.10900744 0.12799908
0.056954995 0.0741936 -0.04614241
-0.0065594725 0.2088411 0.044152316
0.119524844 -0.25833678 -0.15821502
0.19062229 -0.113254644 -0.044481605
-0.24193272 0.12171636 0.008940683
-0.064013734 0.16766453 0.122826844
0.15597646 -0.1426482 -0.026315218
0.042515844 0.079621255 -0.027334932
0.21421391 -0.3055761 -0.08466456
0.21492843 -0.12715158 -0.056190733
-0.00078193226 -0.107629105 -0.03178095
0.14473207 -0.25658014 -0.081128195
0.21790788 -0.32716402 -0.101734556
0.2260921 -0.29496896 -0.07373991
0.05611938 -0.060839515 0.0026713866
-0.1471659 0.19501805 0.14680481
-0.0011310996 0.2328074 0.024403287
0.24080153 -0.22413011 -0.05288231
-0.01734946 0.14181189 0.09530631
0.09242851 -0.06551455 -0.005960641
0.07965319 -0.03133503 -0.0031875246
0.20689419 -0.10643213 -0.059830166
-0.06706704 0.17273875 0.122551516
0.0854837 0.020902835 -0.02591758
-0.04834112 -0.08118134 -0.044529144
0.028378287 -0.049941 0.0076118507
-0.23077449 0.08168441 0.11824962
0.031734686 0.049905397 0.004553808
-0.11532294 0.17475946 0.15009369
0.021015774 -0.10178966 -0.015922792
-0.3066894 0.08798742 -0.00044170322
0.092147164 -0.0169401 -0.012749297
0.0028179134 0.15385728 0.069168724
0.11995642 -0.22125708 -0.0630221
-0.07643626 0.26062107 -0.16703834
0.035692956 -0.02072188 0.011942483
-0.21949922 0.11415392 0.1289326
0.2270472 -0.20981753 -0.04853381
-0.023923622 -0.111205 -0.063714184
-0.06936801 0.18670006 0.11612537
0.20689826 -0.18072635 -0.042147078
-0.03567029 -0.0560169 -0.0059080366
-0.11871497 0.020913549 0.099555105
0.068039365 -0.20673402 -0.105133265
0.21927576 -0.08367642 -0.10827032
0.29431355 -0.22806793 -0.07415812
-0.30414015 0.05834466 -0.023464693
-0.049038857 0.10414609 0.05095869
-0.29831818 0.04418279 -0.04687008
-0.022531183 0.24922071 0.03422715
-0.05747652 0.15360646 0.12537464
-0.006719828 -0.10630467 -0.034397356
0.34160122 -0.20315622 -0.16170204
-0.2441126 0.069442466 0.11406002
0.2305487 -0.09802381 -0.10377242
-0.31941858 0.07486694 -0.017523155
0.24629736 -0.13034998 -0.08411407
-0.06529972 0.25721577 0.06908098
-0.15181182 -0.00465969 0.09080044
-0.04050602 0.23199342 0.061506055
0.17345488 -0.1620532 -0.032116055
0.032436978 0.22512464 -0.0020884783
0.075059965 -0.18510194 -0.057343204
-0.21262872 -0.027024748 -0.036695305
0.1688858 -0.30560818 -0.12977825
0.21211109 -0.19172938 -0.043806046
0.14401871 -0.054551132 -0.034598257
-0.0010944809 -0.011501675 0.019266099
-0.24103206 0.17375557 -0.15283293
-0.18398434 0.058611583 0.111173764
-0.23781678 0.08559943 0.11945252
-0.07150465 0.26740488 0.068598665
0.28588623 -0.24009895 -0.068034306
-0.011760366 -0.03925012 0.010426494
0.20763268 -0.15284286 -0.044528544
-0.019342935 -0.00014095716 0.023239093
-0.1913575 -0.0051438743 -0.053525064
-0.19785787 0.21530373 -0.14768754
-0.21779168 0.017095754 0.0648265
-0.18208207 0.20833372 -0.07573367
-0.0010934563 0.2080901 -0.12618923
0.27500924 -0.14905174 -0.10554576
0.044565957 -0.18374178 -0.099477775
0.10858452 0.006415331 -0.03982341
-0.09102287 0.023798855 0.027423399
-0.10518512 0.16988604 0.14859326
-0.2813183 0.08998599 0.07349524
0.0674129 -0.1967249 -0.0806899
0.21274105 -0.114548095 -0.060572457
-0.0012384444 0.04723728 0.022701593
0.051041514 -0.03015372 0.007110851
-0.27258804 0.110598706 -0.052863713
0.013929615 -0.034314737 0.012487042
-0.07892284 0.20539545 0.11353854
-0.029914694 -0.07078427 -0.0150605105
0.16382009 -0.12139298 -0.028987758
0.09663665 -0.026340907 -0.0127991745
0.05214718 0.04337368 -0.008505184
-0.010375528 0.17656106 0.067504816
0.13011365 -0.114018455 -0.017894078
0.17397676 -0.10042519 -0.03815583
-0.11904947 0.29739782 -0.083767675
-0.093185626 0.2527186 0.0977633
0.2820926 -0.2069949 -0.0727645
-0.24062099 0.13267247 -0.021566447
0.020205753 -0.13760741 -0.048438624
-0.11607766 0.111108854 0.12914531
-0.1669051 0.16417378 0.14596967
-0.11951249 0.06887809 0.11526588
-0.11368878 0.03062064 0.10279329
0.14712983 -0.075657345 -0.029088395
-0.14482027 0.2461248 -0.07740861
0.040359605 -0.094274946 -0.0071691973
-0.29924226 0.07528902 0.030969314
-0.06844041 0.21839449 0.09581814
-0.18431173 0.15828785 0.14398876
0.24333262 -0.28407955 -0.066259444
-0.030602157 -0.095287204 -0.043427132
0.16427667 -0.053839386 -0.053929698
0.13906053 -0.17803985 -0.03261543
0.23250142 -0.27001774 -0.061590534
0.10937808 -0.24141972 -0.09953906
0.16503616 -0.041107442 -0.06827741
0.20267096 -0.2991933 -0.0847526
-0.28484452 0.07626314 0.06565386
-0.1483063 0.22937101 -0.03543942
0.17907588 -0.15844424 -0.033362232
-0.019598374 0.029765464 0.028734704
-0.16145751 0.2232514 -0.057682026
-0.20856562 0.14872272 0.029062007
-0.2447434 0.16935667 -0.1506573
-0.18067695 0.0066699204 0.094194174
0.18520768 -0.29979628 -0.09693674
-0.087024845 0.2371526 0.101586156
0.050060026 0.01042263 0.004503553
-0.035204094 0.13635473 0.11525325
0.32285866 -0.21982238 -0.17178473
0.31262112 -0.23133479 -0.08413991
0.11710927 -0.1211054 -0.016505126
0.19126211 -0.1618143 -0.037197705
-0.1962818 0.2477599 -0.15660402
-0.18990566 0.14726186 0.14016324
-0.036309667 0.1405352 0.11371685
-0.13798776 -0.00013299886 -0.037900124
-0.026753878 0.11575022 0.019615453
-0.031051794 -0.10164168 -0.056481306
0.16095242 -0.0945669 -0.03203975
0.12751131 -0.23647395 -0.07287327
-0.056098785 0.10385369 0.1274438
-0.32500142 0.07560328 -0.06015613
-0.1635854 0.10516257 0.12666067
-0.32400894 0.07574711 -0.048323203
0.13724819 -0.24688047 -0.076604076
-0.2544478 0.103795975 0.026041836
-0.085301645 0.090957806 0.122887716
0.06993998 -0.07861017 -0.0022619714
0.20601614 -0.07034263 -0.10442413
-0.078730725 0.097986385 0.12526552
-0.13645902 0.14716758 0.14077781
0.0010876755 0.10474326 0.0011869177
-0.21507046 -0.0006424 0.025460714
-0.005748439 0.22606911 0.032829355
-0.04656134 0.042030774 0.035156995
0.12683605 -0.059528727 -0.021512108
0.027007803 0.01849292 0.013839561
-0.16123746 0.024132838 0.10013027
-0.17060249 0.20926495 -0.042363353
-0.032777835 0.12442425 0.03824969
0.0975562 -0.23320983 -0.10331155
-0.13862832 0.15719642 0.14398383
0.088619694 -0.09495103 -0.007832156
-0.029722545 -0.042318236 0.0053694583
0.16808501 -0.24705485 -0.061107546
-0.04142258 0.14911981 0.1132031
-0.018270282 0.046585318 0.029035266
0.265877 -0.15389708 -0.08722843
-0.05913752 0.13599095 0.13772632
0.18866399 -0.17035754 -0.036397643
-0.07174503 0.07475332 0.04419488
-0.1599866 0.16795199 0.14726925
0.07187784 -0.00082490576 -0.005183711
0.0028247547 0.17507368 0.056146223
-0.20226654 0.18126589 -0.053960394
0.33274227 -0.20025589 -0.13599971
0.028765492 -0.050655726 0.0074038766
-0.14080672 0.05854063 0.11163734
0.27175915 -0.23111056 -0.06286561
0.07512038 -0.18076599 -0.05308163
-0.1320429 0.13575883 0.13709961
-0.013906234 -0.024091296 0.016117206
-0.102895126 0.11330043 0.1300111
-0.061752457 0.20367308 0.098631695
-0.22743545 0.12556143 0.12933728
0.32315266 -0.19171073 -0.13087721
-0.1024897 0.08548012 0.12089836
0.08579492 -0.05055438 -0.003846858
-0.04704558 0.27521515 0.041069355
0.052035257 -0.0241098 0.0068108737
0.27467155 -0.23934443 -0.063552745
0.10467183 -0.18249294 -0.040326666
0.015196909 0.17314312 0.04582771
-0.22454765 -0.015412636 -0.033701558
0.21189423 -0.121966615 -0.0562793
0.15429316 -0.25596824 -0.07424127
-0.09776182 0.15786129 0.14473818
0.065038554 -0.10961666 -0.01137322
-0.0043557016 0.17944025 0.060142525
-0.03570397 -0.060752474 -0.009351724
0.2670729 -0.30629823 -0.07317761
0.013567156 0.22764875 0.013903997
-0.06352226 0.23041683 0.08387016
-0.018998526 0.22925542 0.043191005
-0.0711387 0.27179632 0.0655637
-0.17138645 0.07472054 0.116595596
0.09300955 -0.21219034 -0.07376884
-0.019520774 0.1411217 -0.0070631546
-0.14203279 0.09281151 0.122855194
0.004165505 -0.035332136 0.012761236
-0.31230372 0.06298378 -0.03015832
-0.1303477 0.013124277 -0.0006147072
-0.113304876 0.24545532 0.11317933
-0.034366954 0.24324629 0.04889494
0.24338092 -0.21552017 -0.053675976
0.039863035 -0.15934436 -0.05735963
0.2084828 -0.2858303 -0.07287926
-0.2115974 0.019677933 0.08543566
0.12685272 -0.25838327 -0.104018085
-0.01878106 0.018199816 0.026939558
-0.12135041 0.1916147 0.155485
0.2542547 -0.29819134 -0.070940465
-0.23785415 0.07778198 0.11688423
0.15996282 -0.052828133 -0.050034776
-0.090384915 0.11443715 0.13052398
-0.19187024 0.056793254 0.110481806
-0.22463498 0.16111061 -0.060959883
-0.11296285 -0.011684418 -0.015774373
-0.11656646 0.24498469 0.015577185
-0.063066304 0.14207923 0.13764288
-0.2917996 0.040888477 -0.040573485
-0.18986423 0.1584253 0.05753157
0.12583435 -0.053992376 -0.022459963
0.20265813 -0.24426028 -0.05373104
0.1464395 -0.09697519 -0.02445552
0.06523239 -0.059692513 0.0012566521
0.22776015 -0.22435598 -0.050425384
-0.21814628 0.0013597623 0.023683691
-0.28589925 0.15423803 -0.14425123
-0.30076244 0.06778324 0.008204443
0.27726102 -0.29307657 -0.084296614
-4.2715103e-05 0.15023942 0.07404749
0.07925935 -0.06619721 -0.002102154
0.05214421 0.071318954 -0.03201627
0.023986135 0.034020826 0.01308367
-0.13728735 0.10234027 0.12603155
0.17191845 -0.07358079 -0.047738787
0.28309828 -0.2876597 -0.069057174
-0.24865188 0.13581143 -0.056903303
-0.2303089 0.1575617 -0.067680456
0.041644733 -0.046165567 0.0072751893
-0.10569075 0.036698177 0.10487523
-0.010591837 0.19948767 0.05363939
0.07902547 0.031106384 -0.026747115
0.04581182 -0.060970582 0.0037706546
-0.27005032 0.07056487 0.08467249
0.19044594 -0.26526153 -0.06577133
-0.15685886 0.0021382028 0.032570686
-0.106077164 0.046110556 0.03621524
0.27153373 -0.25888476 -0.06294138
-0.18148887 0.10884844 0.12766655
-0.0968132 0.0910029 0.12277274
0.068012156 0.052856248 -0.03382943
-0.09060086 0.084584355 0.120739825
0.21568781 -0.087068334 -0.16501534
-0.100302234 0.0061317435 0.012724217
-0.26209 0.18581484 -0.16882625
0.27550575 -0.15553671 -0.098311864
-0.2278138 0.005793062 0.013332004
0.22483759 -0.1549812 -0.05320279
0.06626749 -0.05281478 0.0020600082
-0.17790094 0.14817624 0.14065163
0.1604577 -0.061069287 -0.044627886
0.115770444 -0.22429238 -0.06873314
0.2152806 -0.14784628 -0.049506374
0.11454494 -0.2253893 -0.07060666
-0.26241982 0.13545035 -0.09931418
-0.1580029 0.16243774 0.14547727
-0.25064465 0.03396999 0.03428223
-0.07417918 0.16853012 0.13174626
-0.264905 0.113394536 -0.037402418
0.16686134 -0.25524122 -0.067535184
0.0014776259 0.04184433 0.022208473
0.0023226014 0.18630046 0.04972447
0.019973084 0.08038201 -0.00068967324
-0.13118939 0.08005386 0.11879658
0.08211138 -0.16122584 -0.034033824
-0.05694766 0.26330987 0.057577807
-0.252505 0.023813479 0.0040610963
-0.29853597 0.13597097 -0.12643926
0.3345908 -0.21274996 -0.11929909
0.028615339 -0.07230601 0.00048249503
0.06842026 -0.040407404 0.0016314362
0.28811148 -0.2600109 -0.15457192
-0.14173375 0.019012751 0.09867271
-0.033681635 0.028656598 0.031015078
-0.09444587 0.096001215 0.12443784
0.13330708 -0.22783484 -0.061382007
0.054913986 -0.12997414 -0.02306291
-0.18951596 0.12489188 0.13283402
0.22729167 -0.28841335 -0.06980905
0.21633978 -0.21752946 -0.047472302
-0.18772325 0.15175629 0.08539955
0.1849102 -0.3068739 -0.106442094
-0.0122086825 -0.07379727 -0.0092097325
-0.036674004 0.21858093 0.06617242
-0.10990382 0.14157547 0.13917986
-0.031447165 0.24968013 0.042233802
0.09514368 0.0056309947 -0.024668535
0.24273819 -0.23140143 -0.054026302
-0.010706386 0.11571888 0.0055432986
-0.07862903 -0.055649552 -0.04468226
-0.21416785 -0.0089869145 0.0060943817
-0.07624081 0.29994947 0.042750012
-0.11263685 0.20781723 0.14339404
-0.011891804 0.19185263 -0.10898283
0.07644964 0.02783939 -0.021453187
-0.11911504 -0.009407561 -0.02011014
0.2904519 -0.20227753 -0.080258004
-0.0071645747 0.14602679 0.0832519
-0.10533887 0.056667257 0.11142397
-0.24888031 0.0052183094 -0.035472423
-0.081278704 0.2754701 0.07273651
0.15479998 -0.12703638 -0.025674984
-0.02578629 0.17654315 0.08184212
0.06916202 -0.18370539 -0.06019373
-0.13703488 0.14298023 0.13944602
0.014974956 0.22166596 0.016265044
-0.062489852 0.107486375 0.12856178
-0.104171924 0.11621509 0.13095234
0.08654297 -0.2044675 -0.070089124
-0.18687981 0.25570607 -0.1519961
-0.20770341 0.08758361 0.12037056
-0.08851392 0.064946815 0.050084945
-0.240491 0.060477268 0.11114427
-0.023385048 -0.09617453 -0.037467755
-0.110963985 0.20511258 0.14349821
-0.2409533 0.13858691 -0.04132807
-0.030100996 0.0059631676 0.025426421
0.2369337 -0.21982345 -0.051659428
-0.19190574 0.21269563 -0.12060967
0.20948927 -0.1721435 -0.042944238
-0.14446208 0.2276029 -0.01768278
0.10975674 -0.1929237 -0.045708466
-0.048094172 -0.07437786 -0.03344843
0.031714037 -0.11553922 -0.021514822
-0.18956141 0.16162893 0.13712537
-0.087819286 0.052051008 0.110108316
0.17062175 -0.062237058 -0.054361373
-0.118667915 0.27072254 -0.07249108
0.05760251 -0.08357011 -0.0027747734
-0.28931913 0.09290631 0.038950767
-0.07037275 0.15514503 0.13641939
0.04722529 0.046039935 -0.0058512078
-0.008846065 0.02051374 0.025549548
0.16215166 -0.26894733 -0.08171321
-0.15051539 0.1906036 0.14829901
0.041460447 0.21756534 -0.005840745
0.31202105 -0.197282 -0.103931196
0.08627507 -0.15364486 -0.028703934
-0.23962197 0.11513076 0.03708362
0.2355889 -0.16402914 -0.057076808
-0.18045714 0.169329 0.14156519
0.15069097 -0.19988132 -0.040225837
0.03049494 0.20430572 0.012488664
-0.21844597 0.19409719 -0.14573161
0.05557373 0.06633293 -0.031177752
-0.12501 0.05224147 0.109751634
0.27902722 -0.2793047 -0.06715827
0.08776866 -0.053224146 -0.0044720573
0.061158895 -0.08472178 -0.0032724023
0.032204527 0.22536927 -0.013980643
-0.26561856 0.07579607 0.10792277
-0.25263798 0.19380079 -0.16418636
-0.19738622 0.15573205 0.04225338
-0.21358122 0.029585997 0.1013183
-0.09429381 0.024686778 0.027132751
-0.14120044 0.06311487 0.11313226
-0.21597056 0.031584706 0.101944216
-0.2858248 0.07121204 0.050726444
0.18529142 -0.04774396 -0.12791944
0.04509698 -0.17895879 -0.08294189
0.105937935 0.025779365 -0.062764056
0.023967035 -0.021543078 0.01385636
-0.0063234996 -0.07469859 -0.0074606966
0.25439978 -0.2716676 -0.062716626
-0.0058130175 0.12115024 -0.0039192396
0.14399423 -0.021966169 -0.05927951
0.28439564 -0.23367526 -0.06823827
0.18540291 -0.24366742 -0.054979578
0.023720246 0.1115306 -0.086652495
-0.0634748 0.28621936 0.049591653
0.027422618 -0.012618515 0.014532931
0.15636335 -0.26338863 -0.08010716
-0.15942186 0.1035704 0.12618512
0.20795128 -0.2118431 -0.04520638
0.09731519 -0.05494524 -0.007957126
-0.17296864 0.16951092 0.14762154
-0.015043927 0.02438699 0.027176483
0.2920904 -0.27212098 -0.06908949
0.1503964 -0.27014416 -0.09264837
-0.12835133 0.18394189 0.15296802
0.20973538 -0.33779725 -0.12312331
0.22995259 -0.09181019 -0.12348807
-0.06394 0.27895096 0.05448246
-0.07350133 0.063887596 0.11414957
0.29069275 -0.16119172 -0.11673175
0.16143517 -0.12262778 -0.027750628
0.17952308 -0.21134114 -0.042841204
0.22254784 -0.18559258 -0.04707318
-0.04640832 0.021395372 0.03035412
0.104302324 -0.1999833 -0.053047877
0.034447793 -0.07789823 -0.0012687758
-0.09721848 0.044081636 0.08855568
-0.09439907 0.28996605 -0.056595523
-0.2087316 0.1959319 -0.12080456
0.24859455 -0.21243101 -0.055308692
0.12177172 -0.18259628 -0.036288336
-0.07169132 0.30010092 -0.055305
0.27175337 -0.26233894 -0.063473724
-0.1619318 0.24181984 -0.11792053
0.0012150811 0.15923399 0.035666533
-0.21745054 0.11952515 0.1307318
-0.18335141 0.004229939 0.09336755
0.25446013 -0.28854147 -0.067208655
-0.30333453 0.120575346 -0.09291614
-0.06790954 0.036836576 0.03557043
-0.17581005 0.16602814 0.14649884
-0.016567739 0.25441557 -0.048867054
0.20088236 -0.286494 -0.07628524
0.2421404 -0.16402453 -0.06097589
-0.22956608 0.108417146 0.1269535
0.12016187 -0.21400793 -0.056732442
0.20139766 -0.118028924 -0.04976618
-0.13205492 0.19276814 0.15580982
0.14101239 -0.03749304 -0.041272566
0.05193109 -0.09457643 -0.0064852485
0.1363993 0.0012767091 -0.11021439
-0.016423346 0.14488658 0.025255166
0.16768534 -0.16568054 -0.03163477
0.15348445 -0.058143336 -0.040451318
0.2879022 -0.21762232 -0.07325672
-0.102820635 0.081989154 0.119750835
0.307505 -0.2134565 -0.0885105
-0.19677457 0.15312585 0.14120543
0.081616275 0.05359126 -0.06293284
0.2079155 -0.3436808 -0.13860805
-0.07415826 0.11866747 0.13213252
-0.07700514 -0.029809367 -0.006131801
0.1518185 -0.1924268 -0.037276786
0.28849792 -0.21525644 -0.07427014
0.17963234 -0.24314423 -0.056071784
0.29817748 -0.26072177 -0.07097983
-0.0529112 0.25307685 0.060103975
0.22403786 -0.14278051 -0.05612861
0.05602331 0.017796125 -0.0009429081
0.15086778 -0.03193713 -0.057629645
-0.14925754 0.13031095 0.13504809
-0.16216572 0.06915326 -0.19621307
0.1312457 -0.05698495 -0.024844788
0.07681181 -0.04665993 -0.0010174974
-0.21794564 0.009254146 0.044375908
0.18843707 -0.28610057 -0.081127666
0.034172222 0.22192402 -0.0017387158
-0.09677648 0.24518052 0.10572602
-0.18847385 0.029854821 0.10167656
-0.13067174 0.046683416 0.10786572
0.14467295 -0.2667444 -0.09386304
0.08460657 -0.14850986 -0.026249971
-0.10009422 0.011807438 0.016920546
-0.22272459 -0.02368972 -0.09408338
-0.07013175 0.3114236 0.014751402
-0.14575359 0.10178934 0.12575604
0.083331406 -0.15484166 -0.030073473
-0.07969378 0.102050595 0.12658639
0.060746815 0.030884998 -0.00932884
0.2084772 -0.27081826 -0.06453829
0.2248907 -0.301534 -0.07767519
0.24720505 -0.10982786 -0.12537998
-0.09183913 0.14672156 0.14114742
-0.039775826 0.073578954 0.03584416
0.22522618 -0.18973698 -0.04792295
-0.033857856 0.0020462952 0.024612539
0.27688587 -0.1969336 -0.07247141
-0.032471467 0.29097068 0.017854013
-0.11416714 0.09662294 0.12441895
-0.24067117 0.08616459 0.1196047
0.27137858 -0.2946278 -0.069644205
-0.004202716 0.14024772 0.08404529
-0.21885335 0.13923527 0.115302265
-0.12811543 0.2690982 -0.09723851
0.03050578 -0.1365052 -0.03932198
-0.095705576 0.29055345 -0.13381462
0.08143637 -0.16806278 -0.039261848
-0.08311866 0.06799132 0.044534855
-0.24142799 0.094517924 0.122338966
-0.17951748 0.10313569 0.12581623
-0.23186837 -0.01739179 -0.055223465
-0.118455335 0.22310494 0.13750145
0.0458816 -0.066740364 0.0022624987
0.30001262 -0.21877542 -0.080140345
0.19777626 -0.13699755 -0.042232018
-0.17639072 0.030324664 0.10198866
0.23071495 -0.19117403 -0.049739353
-0.14088766 0.2381226 -0.0396557
-0.06595747 0.19051929 0.110612355
-0.04951596 -0.02978735 0.007437964
0.041628446 -0.15070127 -0.045831956
-0.13727373 0.24869677 -0.061672293
-0.0015547607 0.2327099 0.024855386
-0.031925984 0.28086185 0.023548447
-0.2830844 0.09184319 -0.026736556
-0.120723456 0.14910494 0.14154056
-0.03080508 0.26090962 -0.064118
0.20541015 -0.29650813 -0.08168954
-0.17823808 0.04928069 0.108180806
-0.025770228 -0.11245987 -0.073775455
0.2297088 -0.112018205 -0.08102122
0.16797931 -0.2702231 -0.07912205
-0.1606964 0.19289196 0.040768012
0.26203004 -0.16286638 -0.07662734
-0.18688764 0.18059124 -0.0031737993
-0.06315494 0.091076806 0.12317647
0.25971556 -0.20230393 -0.06135115
0.1910733 -0.22240415 -0.04636506
0.12757328 -0.198241 -0.0435909
0.05684415 -0.09593261 -0.006667867
-0.1452298 0.29150617 -0.15019801
-0.038644675 0.11967605 0.03471052
0.22547631 -0.22085987 -0.049530137
-0.2518596 -0.003780373 -0.0652965
0.1506644 -0.19449411 -0.038152684
0.010420808 0.022070482 0.019974729
-0.08841527 0.12648216 0.13453534
0.23128171 -0.23229979 -0.052170277
-0.15435022 0.153594 0.14269733
0.18603876 -0.16488887 -0.035562687
-0.07460542 0.2724885 0.06836124
-0.24894519 0.19821174 -0.16645724
0.19023605 -0.17959996 -0.0375301
0.13473614 -0.020279143 -0.047673672
-0.17721617 0.17646646 0.040470194
0.13346252 -0.041812085 -0.032325085
-0.07825689 -0.055763807 -0.044271827
