# .PCD v0.7 - Point Cloud Data file format
VERSION 0.7
FIELDS x y z
SIZE 4 4 4
TYPE F F F
COUNT 1 1 1
WIDTH 1000
HEIGHT 1
VIEWPOINT 0 0 0 1 0 0 0
POINTS 1000
DATA ascii
-0.22721045 0.20210667 0.0070629404
-0.044911154 0.1656665 0.18580028
-0.08549392 0.034082975 0.009415703
-0.16471943 0.24785413 -0.05351047
0.029653136 -0.25866225 -0.08385022
0.08884684 -0.27029666 -0.089429475
0.0942943 -0.38074797 -0.13469495
0.13252482 0.18364654 0.075645305
-0.11905479 0.2550352 -0.046686314
-0.20176367 0.08397437 -0.048448548
-0.03645377 0.036775216 0.047134053
0.061081387 -0.37740877 -0.13525884
0.12870574 -0.2398066 -0.10304496
0.060511358 0.060224846 0.03116982
-0.21160017 0.19797802 0.055788357
0.16724244 -0.28174147 -0.16410023
0.11086676 -0.09758945 -0.055730913
-0.13102522 0.25092325 -0.043447077
0.118572816 -0.018087927 -0.08911292
-0.056435145 0.05047955 0.12892821
-0.014176345 0.17896289 0.19695882
0.0616992 -0.27892673 -0.08895115
-0.03121786 0.20557344 0.10913801
0.0018524576 -0.4093378 -0.20957951
0.0015446873 -0.15351284 -0.038400117
0.0037839827 0.19587962 0.19309074
-0.21322744 0.15139061 -0.006041699
0.06326552 -0.12723051 -0.02806131
0.027063824 -0.14847976 -0.03134441
0.061185 -0.35493657 -0.123988144
0.01941391 0.02070906 0.04102623
0.14252736 -0.2661407 -0.12298477
0.05563555 0.31148022 -0.058235288
0.008110135 0.19839925 0.19127485
-0.04887154 -0.05992702 -0.01455404
-0.12281317 0.07583092 0.1306998
0.1340918 -0.27678293 -0.11644431
0.02067628 0.064639404 0.14770247
0.015413584 0.11036416 0.16880585
0.066801086 0.29448566 -0.041965526
0.09483111 0.20554002 0.1255914
-0.19219781 0.15165475 0.065880135
-0.0038705152 -0.24609067 -0.09460562
0.14813381 -0.20961772 -0.12573297
0.0562545 -0.26354188 -0.08221533
-0.034526054 -0.015949301 0.019995019
0.16654634 0.17991681 0.033277836
0.098336875 -0.14476232 -0.053306963
0.07885964 -0.16946258 -0.049108922
0.17614962 -0.28909606 -0.18913504
-0.042769548 -0.043807097 -0.00025753045
0.019705039 0.21291529 0.16908847
0.028649576 -0.26162758 -0.085589714
-0.15241854 0.18633011 0.14227523
-0.15592238 0.06349847 0.08356929
-0.0001631768 0.1926383 0.1953813
0.09054634 0.14756137 0.12103814
-0.054648567 0.28757235 -0.08759699
0.13609888 -0.2809776 -0.11941743
-0.19257408 0.17839766 0.09684745
0.047948766 -0.19519219 -0.051849086
-0.030518262 -0.25864664 -0.22751912
-0.1003172 0.11945883 0.15505219
-0.15661041 0.25586587 -0.067491904
-0.01846618 0.0074128993 0.03702635
0.050284818 0.27860788 -0.014483713
0.11539694 -0.09602481 -0.06211953
0.0801618 -0.15048173 -0.043615084
-0.002997132 0.040073957 0.05228097
0.012457272 -0.39136654 -0.17508474
0.12455959 0.22229287 0.09195614
-0.04519885 0.10000882 0.15434295
0.11057136 -0.39317563 -0.14205873
-0.07422215 -0.048684444 -0.03873497
-0.07451059 0.18298951 0.13824648
-0.013653219 0.21608938 0.09427627
-0.02115352 0.2730869 -0.038045485
0.13300715 -0.31168643 -0.12538055
0.03422793 0.25154173 0.03846145
0.0066553582 0.22488938 0.08466854
-0.053499885 0.19356707 0.124984264
-0.12725334 0.13861974 0.16005403
-0.024953032 0.061241344 0.13897273
0.037567887 -0.069238186 0.0017731274
-0.028508794 0.1340703 0.17318569
-0.03109361 -0.028740661 0.01460366
-0.13632257 0.29263094 -0.089340985
0.16138658 -0.24927035 -0.1526989
0.060041882 0.28764343 -0.029942458
0.13845094 -0.22771086 -0.11124957
0.109114595 0.007954869 -0.055340655
-0.12578578 0.17127042 0.17590553
-0.20287187 0.14935093 0.026607295
-0.11651276 0.110087365 0.14803731
0.055522803 -0.39901567 -0.14769971
0.09759015 -0.19800916 -0.06827608
0.042038206 -0.015341079 0.020328563
-0.061674405 0.11646022 0.15963762
-0.031004068 0.010923994 0.03558739
0.019122334 0.20598093 0.18443316
-0.06430725 -0.1036165 -0.06842965
0.07225512 0.049463578 0.01667446
-0.0055547073 0.1495165 0.184277
-0.18179864 0.18887095 0.12142564
0.064967275 0.16999118 0.15621342
-0.1215311 0.198273 0.0800762
0.18227305 -0.37470606 -0.19303052
0.1008695 -0.30182683 -0.105019726
0.16898239 -0.24693154 -0.18526492
-0.13762884 0.22103989 0.020617312
-0.0671362 0.076631166 0.13975675
0.033919297 -0.38940313 -0.15391386
-0.059015214 -0.16675532 -0.13280213
-0.0065800454 0.19688511 0.14115192
-0.020303879 0.04514502 0.13200617
-0.14941728 0.040626455 0.07822169
-0.12790385 0.16001552 0.1702037
-0.18237932 0.067531645 -0.0020131175
-0.019951005 -0.23778275 -0.10486357
0.037426822 0.0012046385 0.027960906
0.04016626 -0.22022608 -0.06328314
0.13882746 -0.19105327 -0.10743487
0.02369224 -0.14545937 -0.030120533
0.068776436 -0.14231263 -0.03544153
0.064937614 -0.017347971 0.006808717
0.028742952 -0.2174793 -0.06347521
-0.05484909 0.24323794 0.012285287
-0.1860742 0.087488994 0.009427418
0.058816455 -0.03597954 0.004918333
0.005350711 0.19223012 0.19595994
0.11948744 -0.1721409 -0.079192065
-0.2018136 0.08787569 -0.043913487
0.12498572 0.26562086 -0.007873195
0.059943233 0.20392631 0.1681184
0.03623002 0.10821184 0.1709447
-0.020701308 0.28032264 -0.054135416
-0.014721628 -0.2216769 -0.08798258
0.17077987 -0.2545438 -0.21312173
0.09689339 -0.1618605 -0.057015438
0.06831447 -0.1796178 -0.04913611
-0.12693232 0.1283258 0.15517257
0.0069196783 -0.21335392 -0.06884816
-0.025285853 0.055776276 0.058938388
-0.039666865 -0.25295997 -0.16902916
-0.22978935 0.19884193 -0.005703227
-0.06691981 0.18260421 0.1904038
0.08552946 -0.17624342 -0.054833237
-0.1799618 0.26206622 -0.04240985
-0.05883362 -0.16014943 -0.11755698
-0.056415956 0.055473514 0.13131778
-0.16801521 0.17025001 0.15015814
-0.08938633 0.08830327 0.14186908
-0.049628913 -0.085740596 -0.032694336
0.124633186 -0.07209376 -0.08308396
0.033951137 -0.3264543 -0.11814266
0.012388289 -0.1998237 -0.058808237
-0.037224323 -0.26123106 -0.1676937
-0.025561027 -0.01485023 0.024077319
0.11732278 -0.34688464 -0.12715095
-0.053625874 -0.07030853 -0.026455233
-0.07729864 -0.010889551 -0.013466333
-0.061653115 0.121481605 0.16203935
0.08303033 -0.0030117435 -0.005600373
0.0052786265 0.20892777 0.11997096
0.10437516 0.15878752 0.10597337
-0.04141207 -0.18502112 -0.0954899
-0.18716897 0.20532067 0.031093463
0.05254568 0.18743192 0.17440313
-0.03450949 -0.27511826 -0.17595129
-0.14467204 0.05861698 0.11623362
-0.11282633 0.11587893 0.15138406
-0.15757528 0.058275383 0.071619205
0.14942877 0.14999855 0.04921471
0.14787996 -0.24924915 -0.12749813
0.14083524 0.14907679 0.059601165
0.0028963343 0.071887836 0.06487141
0.10620411 -0.30306727 -0.10720612
-0.033953127 0.14961128 0.17980017
0.028067043 0.2469359 0.04574326
0.16585527 -0.3092886 -0.16073191
0.0028529873 0.2497254 0.026741745
-0.21380582 0.19749962 0.04774463
-0.12797622 0.029887263 0.09936085
-0.06574803 0.24333474 0.00657241
0.08111775 0.19608025 0.14081463
0.018123323 -0.145369 -0.03031928
-0.123508476 0.30063254 -0.10092675
0.10701715 0.11024872 0.036587782
-0.0037219706 -0.087787494 -0.006852818
0.052114006 -0.107629746 -0.017179737
-0.030714355 -0.20948361 -0.098053165
-0.050730214 0.095400535 0.15127969
0.10404892 -0.024787823 -0.03785452
0.09991028 0.28187242 0.027246298
-0.068090774 -0.111517854 -0.08728711
0.10385249 0.1402742 0.103481576
0.05433693 -0.21791816 -0.06207842
0.007291539 -0.17825545 -0.04931432
-0.04199131 -0.083908595 -0.024068493
-0.01952818 -0.2873558 -0.14243597
-0.119899765 0.2336687 0.0010731323
0.07394286 -0.14910367 -0.0398878
-0.07906488 0.25864035 -0.03465832
-0.106768854 0.21078895 0.059291672
-0.21285032 0.11197526 -0.052571375
-0.015953021 0.20903471 0.10902699
-0.16520236 0.072957724 0.063253134
-0.14468648 0.082483865 0.13051993
0.12623975 -0.2256053 -0.09748612
0.13018505 -0.29929566 -0.11984784
-0.11434299 0.121429704 0.15379085
-0.025713326 0.3255638 -0.10785371
0.097727224 0.2623417 0.04611557
0.0145162875 -0.17568594 -0.046187654
-0.017213736 0.28427678 -0.06129459
0.05777092 0.23215215 0.1448939
0.12667683 -0.18238004 -0.08883469
0.039937604 -0.21222267 -0.05966729
0.122205384 -0.40414837 -0.14989434
0.07763442 -0.37583417 -0.13216785
-0.13621913 0.25143784 -0.047226187
0.10572533 0.2096906 -0.1417613
-0.00080659345 0.16716792 0.19335395
-0.016823474 -0.307346 -0.15409233
0.036193088 -0.3727348 -0.14262758
-0.05645789 0.045400444 0.12649861
0.1582025 -0.35087445 -0.15715887
0.01848881 -0.089028604 -0.004779778
-0.1771012 0.1975258 0.10458451
-0.050807174 -0.059414987 -0.015828777
0.15167564 -0.37511483 -0.15680975
-0.21805638 0.14667727 -0.02850584
0.020354003 -0.3704869 -0.15240344
0.094568886 0.23607007 0.13107923
-0.039356396 0.17524745 0.19133477
-0.19172277 0.23489359 -0.005228065
0.090114795 0.082276374 0.11052161
0.050094232 -0.4125008 -0.15780893
0.08164866 0.2426504 0.0824186
-0.16908227 0.06552707 0.041027814
0.0069386642 -0.29537845 -0.11661417
0.0069982745 -0.16916661 -0.044842448
0.012302147 -0.2633272 -0.093838505
-0.02496006 0.22255044 0.07400594
0.14106111 -0.28630924 -0.12570813
-0.15518156 0.08292894 0.109493956
-0.061588246 0.13667622 0.16930923
0.065914646 0.076741494 0.13927305
-0.14447738 0.094054595 -0.053670622
0.04261957 0.21611205 0.122593045
0.15674017 -0.29785216 -0.14614183
-0.10839384 0.3027312 -0.09804025
-0.0085113635 -0.3472783 -0.17305817
0.012648301 0.13346824 0.1793637
-0.08654413 -0.03026198 -0.110007435
0.056444325 -0.23803729 -0.070721075
-0.14936106 0.03837653 0.07570109
0.123677045 0.2271063 -0.059037756
0.013437059 0.14629944 0.18559788
-0.15003866 0.14359018 0.15893717
-0.22545694 0.2070911 0.019091142
-0.059465572 -0.16648209 -0.14251609
-0.1971949 0.13529553 0.0290667
0.043632466 -0.21926273 -0.06269786
0.1022873 0.26656038 0.04347199
0.013696554 0.18909477 0.19866031
-0.097460255 0.17430267 0.1816856
-0.03398789 -0.28002006 -0.19035979
0.084453784 0.09612367 0.1198095
0.095930256 -0.07445597 -0.034083612
-0.026879491 0.12260813 0.16799308
0.13594869 -0.28678703 -0.12059841
-0.058375444 -0.020993693 0.0021199721
-0.0093920175 -0.17562976 -0.055974733
-0.031148028 -0.08260579 -0.015289457
0.03495787 0.16508289 0.19219731
0.09855416 0.17685226 0.116170764
0.10387147 -0.012115925 -0.03791017
-0.0895366 0.047952306 0.12256648
0.0691618 -0.115216374 -0.026335286
-0.1972467 0.13913533 0.033521138
0.13578852 0.18576051 0.071998715
-0.12981382 0.2255561 0.014371937
0.17431737 -0.2830966 -0.18487076
0.10169957 0.13533624 0.105286814
0.023543902 -0.31682184 -0.11790866
-0.08711209 0.08133273 0.13889161
0.10090013 -0.34821326 -0.12224306
-0.10116969 0.18477455 0.1207816
0.122916475 -0.047508355 -0.0861732
0.10227276 0.3083749 -0.0045708306
0.05314058 -0.32047865 -0.10879639
0.06167918 -0.3492105 -0.120997116
0.117681 0.19397835 0.095604
-0.17628403 0.119926974 0.08201697
0.040493082 -0.14020632 -0.028030919
-0.1374509 0.1090854 0.14437884
0.09473149 -0.017053038 -0.022729734
-0.061925333 0.05591363 0.13067058
0.021153785 0.27443817 -0.019765358
0.02359996 0.33318394 -0.100171246
0.06555715 -0.16432269 -0.04256811
-0.21688728 0.1830787 0.01984413
-0.07258443 0.14762634 0.17282902
-0.068192385 -0.10773903 -0.08259367
0.0772915 -0.08513136 -0.02118978
-0.06913092 -0.02058883 -0.009251512
-0.017286336 -0.13080792 -0.03506054
-0.03415614 0.10418584 0.15805769
-0.21689212 0.15838194 -0.010229196
0.113151714 0.16665061 0.09653641
-0.031012181 -0.03745661 0.009825742
0.035748966 0.14713694 0.18819071
0.10392588 -0.41832826 -0.15150289
0.082591645 0.19238569 0.13838199
0.053451177 -0.17774677 -0.045208897
-0.13437122 0.088517286 0.13501364
-0.07515415 -0.06428249 -0.056260377
0.10656394 -0.14001997 -0.05896908
0.008223086 0.14830035 0.18574421
0.006923985 -0.20846447 -0.06614342
-0.17680468 0.21950494 0.004329841
0.009584932 -0.00804261 0.03073256
0.09594462 0.082255185 0.103365906
0.14226094 0.2696425 0.07096514
-0.038180012 -0.16544634 -0.075060666
0.08553473 0.24308343 0.1342365
-0.0638238 -0.0046038413 0.007631482
-0.06342464 0.30293515 -0.107018024
0.12250382 0.28279537 0.0045291064
-0.019245805 0.15070225 0.18271586
0.12176729 -0.19726412 -0.08685907
0.16715847 0.15323348 0.00088864914
0.100073196 0.25096032 -0.1111253
-0.19021785 0.1779232 0.10427247
0.0009862417 -0.3013353 -0.12561807
0.015623635 0.15071875 0.18804857
0.017461918 -0.14125285 -0.028482374
-0.07764237 0.05714492 0.12880985
0.023555718 -0.1659133 -0.039392546
0.020164935 -0.17944747 -0.046630938
0.114685096 -0.032139506 -0.0620461
0.101326466 0.031052114 -0.036528546
-0.009770459 0.2730903 -0.03231586
-0.06938736 0.30952194 -0.103645556
-0.14295897 0.07952049 0.12937419
-0.07481679 0.051633414 0.034171753
-0.09973466 0.0883112 0.14026052
-0.057437763 -0.14245479 -0.090301335
0.011538956 -0.35142913 -0.14854158
0.08511955 -0.08195293 -0.02606101
0.111358784 -0.38215804 -0.13822474
0.0024879836 -0.40226206 -0.20075315
-0.0050806813 0.21783653 0.09465833
0.072976336 -0.21296212 -0.06301841
-0.014531839 -0.06269968 0.0029454944
-0.08789066 -0.036856946 -0.07115589
0.17449029 -0.27301854 -0.22429319
0.0313467 0.21610115 0.11693475
0.16004576 -0.21423233 -0.20482105
0.14656353 0.13503422 0.05019856
-0.00142272 -0.20684972 -0.0693337
0.06668138 -0.19018225 -0.052528303
0.05703857 -0.35711947 -0.12613735
0.006185054 -0.049911574 0.012412571
0.0038590643 0.16308546 0.19212855
-0.15460603 0.23725563 -0.024511268
-0.1650165 0.06146615 0.050029237
0.12477922 -0.07469516 -0.08281637
0.008148038 0.025015248 0.04469632
-0.15563165 0.19078204 0.13061468
-0.056380104 -0.14773178 -0.17484619
0.08199706 -0.18081611 -0.054459788
0.10605939 -0.17321739 -0.066926144
0.050158393 -0.3686995 -0.1336849
0.115664154 0.28509167 -0.016359624
0.1293892 0.18603839 -0.08911818
-0.0010973077 -0.374178 -0.2865155
-0.22098021 0.1547875 -0.028725985
0.147171 0.2170578 0.06333142
-0.16615956 0.19852917 0.057000384
0.041497096 0.20548135 0.18424748
-0.06573814 0.21152227 0.07832127
0.004267036 -0.28500316 -0.11227349
0.112198845 -0.05908549 -0.0540952
0.09813131 -0.23689513 -0.081222594
0.118904255 -0.4046274 -0.18444648
0.17287976 -0.30112848 -0.17548369
0.124486476 -0.31616324 -0.120924234
0.15783055 -0.3669765 -0.16016316
0.04132195 0.33046097 -0.08510425
0.13603796 0.19422732 0.07312597
0.043114133 -0.040504113 0.010642892
0.10633232 -0.046052393 -0.04301767
0.025022589 -0.04915986 0.011772014
-0.07812848 0.14299682 0.16975339
0.008324872 0.20909941 0.12111977
0.1468899 -0.1473409 -0.16374993
-0.03887893 0.2178269 0.07764209
0.08934923 -0.026454575 -0.017117955
-0.103721015 0.21603383 0.04899918
-0.029254444 -0.013323144 0.02390038
-0.18406275 0.23330745 -0.02843107
-0.0122636 0.18050432 0.19797271
0.12128789 0.110763945 0.07709915
0.10203825 -0.2263572 -0.07984989
-0.14505601 0.24252331 -0.031577513
-0.023392746 -0.0032825316 0.03041852
0.0016611522 0.07042798 0.14750719
-0.06261449 0.23872997 0.018537864
-0.0620086 0.035770673 0.12103327
-0.13081177 0.03616632 0.11050699
0.097988375 0.14803438 0.11198861
-0.065690264 0.19163777 0.123188496
-0.03808675 -0.2608066 -0.17690258
0.0019184775 -0.3536353 -0.16132256
-0.043208342 0.32186848 -0.108337946
0.12239523 -0.124898635 -0.07571377
-0.030935517 0.031022478 0.045661878
-0.2062966 0.18842973 0.061904483
-0.041823946 -0.17007376 -0.084221594
-0.19993608 0.091223836 -0.033457734
-0.17087482 0.23009652 -0.016567606
-0.18169197 0.1422389 0.090439886
0.0078070164 -0.016841961 0.027267354
-0.059529714 -0.1329816 -0.08603476
-0.024916334 -0.16642703 -0.061667383
-0.18944599 0.097181514 0.009588091
0.018770289 0.32387924 -0.08162998
-0.0172403 -0.34928638 -0.20511174
0.07380979 0.04786253 0.014717437
-0.11273354 0.18410064 0.16730845
0.0047702813 -0.20367333 -0.0645484
0.1202701 -0.19149753 -0.08408525
0.039870616 -0.22243789 -0.06429804
-0.15262134 0.21884042 0.018019492
0.015997011 0.11291258 0.1701155
0.11691002 -0.10170085 -0.0649917
0.12310281 0.2647393 0.09174774
-0.020162674 -0.19609763 -0.076334305
-0.16476424 0.1617316 0.15953621
0.15832737 0.16130918 0.04021208
0.14232244 -0.13471492 -0.12421715
0.12106078 -0.13198954 -0.07462041
0.035689738 -0.051553264 0.008943916
-0.03392904 0.15466602 0.18226396
-0.14141613 0.16118172 0.16869518
-0.09621832 0.045657475 0.0014968162
0.0654564 0.010989619 0.014333173
0.10016281 -0.3546898 -0.12450445
0.007884718 0.112071656 0.16843678
-0.07363177 0.15534253 0.17635109
-0.12795964 0.12165275 0.15182596
-0.03288334 0.27520555 -0.048736647
-0.0057074553 -0.19091737 -0.062622875
0.13457233 0.20191196 0.07622398
0.0027291141 0.05091802 0.056139093
-0.22440462 0.19588348 0.009157895
0.018945122 0.13006915 0.17870106
0.00331292 -0.374731 -0.17593482
-0.03964399 -0.09181991 -0.02714906
0.04776418 -0.122419514 -0.021454478
-0.1298086 0.1968185 0.07918301
0.13523255 -0.32020104 -0.12939309
0.025857346 0.16982341 0.198801
0.04564545 -0.19189863 -0.050215133
0.15393299 0.17749055 0.04834195
-0.16000026 0.2160057 0.020692397
-0.21051186 0.11049565 -0.04626639
0.048332546 0.2649005 0.015444275
-0.061523903 -0.039549984 -0.013944529
-0.05329125 -0.18357755 -0.17399074
0.10131152 -0.071310915 -0.039024822
0.10886157 -0.1321871 -0.059710912
-0.085645355 0.06150719 0.029176962
0.018589525 -0.07364006 0.0021959154
-0.028989917 0.10267925 0.1581426
0.016839176 0.32083765 -0.08371821
0.16182981 0.16328518 0.03624931
0.023767283 -0.11091539 -0.014468035
-0.017635318 -0.25934938 -0.117189474
-0.03413754 0.18350717 0.19613095
0.16289021 -0.32141086 -0.15787108
0.06880886 0.11041581 0.14142025
0.069032006 -0.42006332 -0.1545769
0.046067584 -0.14513057 -0.030735556
-0.0669301 -0.13319717 -0.1283698
0.11576318 0.11217534 0.08411536
-0.018549222 0.30300754 -0.10420938
0.08545869 0.13291785 0.12480167
0.04142256 -0.1000316 -0.011372137
-0.1113858 0.053962715 0.122034945
-0.01898035 -0.32139724 -0.17360333
0.023472091 -0.18111432 -0.04662188
-0.022661535 0.20732641 0.10949702
0.07429188 0.16681744 0.1442372
0.033997066 -0.2971616 -0.10200793
0.031099334 0.044274252 0.04565895
-0.12931357 0.19377881 0.0862884
0.16615538 0.16744632 0.031648155
0.10185814 -0.23726805 -0.0833091
0.17596172 -0.32361412 -0.28091857
0.12515962 -0.24068765 -0.099800475
0.04464661 -0.046047594 0.0080896225
-0.080427706 0.20936997 0.0757689
-0.21170703 0.098600246 -0.06478554
0.0812981 0.30207703 -0.026131336
0.07882333 -0.019566167 -0.0047074873
0.13524376 0.17304805 0.070516475
0.026247298 0.079330824 0.1555813
0.0026477955 0.18303952 0.20147228
0.1588567 0.17407292 0.041723333
-0.061351087 -0.09873628 -0.05826161
0.0386772 -0.34640327 -0.12685817
-0.03673144 0.12922603 0.16962035
0.006969882 -0.36278874 -0.16141975
0.08645019 -0.12125155 -0.038004205
-0.17314027 0.15462758 0.13494721
-0.040970616 -0.21807145 -0.2050146
-0.14704767 0.15201265 0.163432
0.037514545 -0.102194056 -0.011818632
0.18620811 -0.32510766 -0.21814811
0.025426392 0.048578285 0.04942335
0.18880425 -0.34975165 -0.21308035
-0.09115503 0.18408982 0.17821056
0.18476686 -0.31905657 -0.21483235
0.06699312 0.08166767 0.028937658
0.07596194 0.02361107 0.0073685055
0.123214014 -0.34002477 -0.12802292
0.110995986 0.21887527 0.1080174
-0.08412241 -0.052335337 -0.07616605
0.073675856 0.099701844 0.021722937
-0.084516935 -0.03903492 -0.05635786
0.13486712 0.20380373 0.07618332
0.03389663 -0.3702531 -0.14237916
-0.15977393 0.19207057 0.1256213
0.031477775 -0.11274228 -0.015517355
0.05420038 0.086174436 0.15523987
-0.031129526 -0.09699712 -0.024026355
0.0016630474 -0.31216106 -0.13234185
-0.07913129 0.11058835 0.15411282
0.14155799 0.14946064 -0.034431282
-0.005068415 -0.33492458 -0.15746668
0.110321276 -0.11594231 -0.057808124
0.04051538 -0.009801657 0.022876559
0.08788263 0.31095275 -0.017639704
0.08420159 -0.30400285 -0.101488635
0.128079 0.13372584 0.07265281
0.023520779 -0.17107463 -0.04173315
0.10942085 -0.15128227 -0.06431641
-0.0011587446 -0.30939582 -0.13354594
0.03400937 0.21436635 0.12218917
0.008405467 0.056094483 0.14170945
0.0781471 0.085570335 0.12576059
0.10572281 -0.3755596 -0.13395284
-0.081909396 0.19588938 0.10542523
-0.02523472 -0.26110554 -0.13053976
-0.10828788 0.24076025 -0.009066374
0.039848085 -0.09448122 -0.008871796
-0.014544692 -0.026268192 0.021171313
-0.035659786 -0.23231883 -0.1258084
-0.11670263 0.10114359 0.14374115
0.10022625 -0.3494472 -0.12248436
0.040082153 -0.19176881 -0.050395273
0.013219773 -0.042708594 0.015840359
0.12636882 -0.18148887 -0.088326566
-0.004582605 0.19285323 0.19500321
0.07205361 -0.38078132 -0.1346489
-0.1356961 0.26579493 -0.07934113
0.06398483 0.113882326 0.14792547
-0.12254605 0.0858542 0.13552265
0.13946359 -0.2470971 -0.11578309
0.09968267 -0.40114138 -0.14383467
0.014335389 -0.056345772 0.009847726
0.13573684 -0.37758714 -0.14685372
-0.01289289 0.14727841 0.18207492
0.106638916 0.29821178 0.020550571
-0.07268616 0.12237401 0.160748
-0.12181074 0.29806727 -0.09428502
-0.012047829 -0.34629676 -0.26272368
0.088528775 0.14025213 0.12227704
-0.04403285 -0.22296576 -0.14131004
-0.030793712 -0.007824135 0.026260275
0.044476938 0.17476128 0.18215762
0.06886665 -0.26934242 -0.085235216
0.11594526 0.13702938 0.08809743
0.12995519 0.2870997 0.044326697
-0.060968887 -0.013890537 0.004373188
-0.0016022758 0.26767355 -0.015981045
-0.11814523 0.106522016 0.14607808
-0.10127233 0.038509667 -0.018853178
-0.052975524 0.025296854 0.03376947
-0.054419365 0.18871252 0.18630476
-0.012971416 0.2676705 -0.021706464
-0.12134257 0.19856189 0.07951941
-0.20790914 0.23175251 0.011866427
-0.19303337 0.24041142 -0.0024242937
-0.06569986 0.2948671 -0.10961887
0.03713404 0.06249281 0.04840903
-0.19934182 0.26004216 -0.049209744
0.13342966 0.10743323 0.06163982
0.042956386 -0.3481055 -0.12570573
-0.03002983 -0.19709408 -0.087906346
0.034418408 -0.05218814 0.009119613
-0.046211224 -0.20617169 -0.12629484
-0.039537426 0.08396927 0.14756057
-0.038846035 -0.051810138 -0.002233195
0.037171874 0.06838471 0.1520571
-0.031200208 0.28914332 -0.079320736
-0.12386563 0.07008379 0.1277922
-0.17000829 0.12205296 0.10598285
-0.061001223 0.22486642 0.050614525
0.0656579 0.26240093 0.029815625
0.04720132 0.32098693 -0.060775153
-0.10070775 0.021168647 -0.044410497
-0.06597707 0.036699604 0.12085837
-0.13204463 0.098451406 0.14011404
-0.012404736 0.047035214 0.13414009
0.048844308 -0.19528213 -0.051990665
0.16062804 -0.37669393 -0.16512296
0.055750497 0.11537872 0.15828036
-0.041078303 -0.21093297 -0.11796429
-0.019485282 0.15170096 0.18315867
0.082922645 -0.22690515 -0.07141015
0.11742149 0.16494873 0.09101056
0.18032658 -0.3043096 -0.24402395
0.11988494 -0.11307676 -0.07066346
-0.17013083 0.06026207 0.031092636
0.05593419 -0.36005145 -0.12788612
-0.05474117 0.27551767 -0.06045825
0.0048191412 0.16874011 0.19497871
0.01871488 -0.058056857 0.008794201
0.07893248 -0.12988468 -0.036259748
-0.0069041834 0.046607196 0.13479236
-0.02006864 -0.21463683 -0.089022465
0.14272934 0.21133497 0.06781218
-0.09784362 0.25055844 -0.025897924
-0.03401678 0.13451019 0.1725524
-0.016381321 0.23375544 0.05306087
0.10330245 -0.15962134 -0.061105147
-0.11720972 0.029888686 0.10962661
0.028815897 -0.05558094 0.008649963
-0.041694313 -0.15377682 -0.07102099
-0.086825974 0.2504499 -0.020099489
0.06597777 0.12120301 0.14671846
0.10198546 0.17882793 0.11229524
0.08474311 -0.2301501 -0.07320323
0.07142257 -0.1276578 -0.03157776
0.09450083 -0.36016542 -0.12612964
-0.19213209 0.21544117 0.0104107885
-0.029845417 0.2712673 -0.038323175
0.079950444 -0.39848265 -0.14232849
-0.0077761533 0.08406292 0.15255211
0.023352595 -0.21109378 -0.06165274
0.02392665 -0.1096703 -0.013896874
-0.03280162 -0.2705971 -0.15927829
-0.040318627 -0.24589363 -0.19477405
0.15076604 -0.37550724 -0.15625018
0.022785844 0.21435946 0.11654745
-0.05415201 -0.18313242 -0.13020422
-0.009673841 0.1451068 0.18154028
-0.08470865 -0.034724735 -0.050721064
0.093979396 0.14953195 0.11715944
-0.16757596 0.26215264 -0.056181233
-0.1820749 0.13598439 0.0815866
0.14166628 -0.3603718 -0.14533305
0.1008523 0.29537258 -0.054779172
-0.007807682 0.17555489 0.19628625
0.012641686 0.23802719 0.05805722
-0.13047078 0.29625377 -0.09456151
0.028521152 -0.33018145 -0.12285869
0.15736371 -0.3841746 -0.16352108
-0.06022176 0.23901235 0.01910482
-0.1598017 0.05500443 0.060062546
0.08725789 -0.40277833 -0.14396022
0.04884637 0.25692192 0.033697832
-0.19772528 0.23023067 0.020431142
-0.0725284 0.12356905 0.1613429
0.024997469 0.27667984 -0.022883862
-0.21308292 0.13982747 -0.019532258
-0.042051774 -0.02627291 0.010608365
-0.0632508 -0.09568466 -0.058838286
-0.10020688 0.14978516 0.16955653
-0.085317366 0.011829127 -0.008051889
0.009401861 0.10675275 0.16611424
0.016388547 -0.34730667 -0.1412291
0.084024236 0.18705691 0.13572264
0.015455863 0.3090494 -0.090981916
-0.14470266 0.07743291 0.12809718
0.042966273 -0.28616148 -0.094217524
-0.0027341556 0.22914329 0.07034177
0.050070524 -0.42711183 -0.16589683
0.04506126 -0.27840456 -0.08980307
-0.02476669 -0.27513853 -0.14140247
-0.08499802 0.19684274 0.10171627
-0.08959601 0.032800347 0.11531809
-0.072763026 -0.1056811 -0.10815084
0.05152014 0.13152836 0.16620183
-0.003947768 -0.18658315 -0.059366234
0.06420471 -0.061864458 -0.006349883
-0.026712133 0.007588236 0.035011575
0.049544852 -0.20085785 -0.054399528
-0.07295302 0.05674597 0.12935062
0.16136827 0.19396438 0.030218186
-0.013973876 0.31185552 -0.10004526
-0.062984966 0.18991268 0.12844272
-0.06244161 -0.14438228 -0.15382461
-0.20289002 0.16886932 0.050027173
0.10914853 -0.18462147 -0.0723805
-0.049769133 0.17337151 0.18874674
0.07374439 -0.2000423 -0.058472387
-0.058302727 0.19067994 0.17991064
-0.20395091 0.23404305 0.008695998
0.08807887 0.23549435 0.13894385
0.002146859 0.1581836 0.189525
0.15260398 0.22633024 0.058234565
0.01948703 0.17322648 0.19941202
-0.043610852 0.3204133 -0.105260596
-0.03628062 -0.1702509 -0.07628045
-0.024821782 0.32476228 -0.10559693
-0.18455482 0.20067814 0.093716614
0.11998097 -0.08716208 -0.069765784
0.012470504 -0.32420456 -0.13006827
0.039944425 0.21787982 0.11725861
-0.22202162 0.19257826 0.013450762
-0.0025055332 0.28635576 -0.05856921
-0.014740821 -0.08143483 -0.006524339
0.12218225 -0.13119557 -0.076153785
0.17565736 -0.27928162 -0.22824723
0.06445349 -0.045389727 -0.0011170272
-0.06194367 -0.15146193 -0.14920202
-0.014824345 -0.15484308 -0.04719042
0.13848011 0.24906261 0.07940812
-0.1223449 0.1464709 0.16453673
0.019946583 0.06914251 0.05882771
0.06662036 -0.365488 -0.12795419
0.14220323 -0.12864023 -0.1303957
-0.11989798 0.055275228 0.121336326
0.030398237 -0.3070396 -0.10914921
0.06919016 -0.22197838 -0.065504245
0.08453754 -0.2461061 -0.07905848
0.13713755 -0.35563883 -0.1406816
0.023408035 0.11516584 0.17227972
-0.006084346 0.15952584 0.18894325
0.10738898 -0.25212997 -0.09106308
0.044536002 0.15828855 0.17929785
0.002285273 -0.38936993 -0.189238
0.09813143 0.07330464 -0.048498478
0.038925048 -0.4164095 -0.16664882
-0.007861194 -0.38267994 -0.2095911
-0.0843166 0.21078627 0.07061533
0.024162162 0.006126464 0.03407886
-0.2017064 0.13621716 0.0147564085
-0.11031431 0.042782158 0.07918274
0.14769134 -0.29787022 -0.13504748
0.07658223 0.14566861 0.13784866
-0.0951434 0.13856328 0.16498494
0.033782847 0.2821786 -0.03085495
-0.109823674 0.04857081 0.11970193
0.046660967 -0.0872109 -0.007837704
0.0028724899 -0.33947217 -0.14985141
0.023704747 -0.2512473 -0.08165537
-0.16170162 0.2532138 -0.064077824
-0.020230725 -0.0998086 -0.019365521
0.0015430334 -0.2841399 -0.11375521
0.06643756 0.059300464 0.1356808
-0.0039003203 -0.14744447 -0.0377087
0.16273536 0.14507833 0.03205792
-0.04324889 -0.23716767 -0.16334437
-0.18733047 0.16997787 0.10456215
-0.081378415 0.26659602 -0.053765863
0.05317752 -0.026530758 0.010967028
0.08912726 -0.32064548 -0.109009296
0.02078227 0.08476907 0.15732586
-0.11126417 0.15070051 0.16823868
0.040930826 0.162448 0.18442442
-0.036274184 0.1972549 0.1761862
0.07513752 -0.10269155 -0.02540598
-0.046406552 -0.022218693 0.010190849
-0.0038666213 -0.26812714 -0.10805863
0.1379648 -0.21598846 -0.109150164
0.020665633 0.22313355 0.095691696
-0.06631915 0.04495653 0.09645523
0.026684763 -0.095999464 -0.007971156
0.09380956 -0.043233547 -0.025297545
-0.050378963 -0.20570289 -0.15183274
0.023085414 -0.12718739 -0.021869032
-0.028697653 0.093638465 0.15386859
0.015181999 0.06506802 0.147052
0.054759964 0.068906315 0.038359698
0.04966097 -0.42267877 -0.16364652
-0.12016008 0.21183257 0.050187636
0.14703394 0.17353532 0.056135166
0.0936747 0.24979033 0.072379015
-0.16121954 0.24659438 -0.048906174
0.045477986 0.090928406 0.1641356
-0.0030708702 0.06807102 0.14564413
-0.07070731 0.20206615 0.097142026
0.11310365 -0.25609156 -0.09536394
0.12881948 0.15851529 0.07593874
-0.057751812 -0.12140998 -0.07064255
-0.08696076 0.2712261 -0.06702184
0.15554163 -0.27848607 -0.14209704
-0.1399992 0.22481567 0.010907349
-0.034427963 0.32370985 -0.1080655
0.0231361 -0.34803596 -0.13670272
-0.050665215 0.110561945 0.15853365
-0.14202084 0.105155386 0.14178824
-0.1956451 0.08737467 -0.06439796
0.14721033 -0.31532633 -0.138224
0.03645513 -0.038029406 0.013715324
-0.13145417 0.22657296 0.011251472
-0.042004056 0.01789845 0.035047032
0.0885552 -0.023246057 -0.015616006
-0.00079835823 -0.35835168 -0.16938534
0.08464457 0.053136587 0.00026252994
-0.09558812 0.2694271 -0.067314036
-0.04010917 0.058487143 0.13529664
-0.10357495 0.28209332 -0.099905476
0.08526197 -0.19265746 -0.06003591
-0.058435254 0.026932985 0.031217992
-0.06741799 0.061350077 0.13241185
0.03920084 0.015046338 0.031872056
0.099778 0.16450661 -0.089424476
-0.051076204 0.21370044 0.08080008
0.07733791 0.077946894 0.12546325
-0.020201989 -0.17224784 -0.061734192
-0.12853697 0.30283853 -0.113554664
-0.12201857 0.23008806 0.008080147
0.09198647 0.2162152 0.13088782
0.0801307 0.03869971 0.005096545
0.07143445 -0.2828737 -0.091181196
-0.06876505 0.18645424 0.13332793
0.05285345 -0.048498213 0.003985546
0.0044184057 -0.09671293 -0.009244654
-0.096516326 0.1898797 0.11161371
-0.009231826 -0.25653088 -0.10597601
-0.052383542 -0.19774114 -0.15398169
-0.041384764 -0.19054568 -0.09985185
-0.1095895 0.16115418 0.17349005
-0.09468092 0.1493724 0.17022198
0.023112085 -0.31443337 -0.1168001
0.0020987222 -0.3715106 -0.17529112
0.08936763 -0.3139112 -0.10622608
-0.14151406 0.26219973 -0.07416599
0.04305407 0.069940224 0.0472592
-0.056933776 0.17107956 0.18644711
-0.0063874307 0.15247339 0.1855558
-0.020211497 -0.085113935 -0.011233895
0.0533496 -0.38281476 -0.1399352
0.09061901 0.10059531 0.113002576
0.08044091 -0.261994 -0.083629385
0.13534985 -0.124802485 -0.10297953
0.1045195 -0.16749848 -0.06419839
-0.067311056 0.19808036 0.1078426
-0.1714793 0.21439463 0.018539827
0.1410792 -0.14744951 -0.11519909
0.0128504615 -0.09917438 -0.009618824
0.09805618 -0.12804386 -0.04843666
-0.07289243 0.071873255 0.13658708
-0.001071775 0.27489483 -0.03199989
-0.031102682 -0.038542815 0.009180946
0.0070658107 -0.33301628 -0.14077091
-0.030504236 -0.23176725 -0.11549197
0.007659609 0.104928255 0.16493809
0.10592732 -0.3998577 -0.14402723
0.05463426 0.07327559 0.1525253
0.1239106 -0.0787921 -0.07880763
0.009380705 -0.11331282 -0.016285852
0.1472036 -0.2762023 -0.1299739
0.13485035 -0.263006 -0.11433179
0.028544169 -0.31067234 -0.11206364
-0.022842504 0.1688666 0.19087932
-0.045154948 0.11011711 0.15917929
-0.155443 0.0980321 0.12705599
0.14642814 -0.37805873 -0.15377061
0.03016417 -0.036463108 0.016331235
0.02326583 -0.4001423 -0.1692172
-0.006594862 0.1345551 0.1769545
-0.1279274 0.13173862 0.15666036
-0.009014988 -0.026870022 0.022197824
-0.052737053 0.15700051 0.18036222
0.09524232 -0.29739437 -0.10155452
-0.20745555 0.20137735 0.07368125
-0.07142815 0.18818001 0.12809308
0.01598285 -0.35402462 -0.14561333
0.040397193 0.081607886 0.15888722
0.031630695 0.05874252 0.14659148
-0.15612163 0.11937306 0.14636694
0.07057558 -0.3235662 -0.10879163
-0.18447451 0.16201754 0.104725756
-0.0019847837 -0.21326585 -0.07325736
0.15107982 0.14142008 -0.011498009
-0.038663395 -0.05922296 -0.0066063814
-0.111441374 0.10011473 0.14407764
0.1287577 -0.12150279 -0.087344944
0.10186835 0.0014351131 -0.034094602
0.15394363 -0.38732982 -0.16188602
0.15749994 -0.37855828 -0.16225892
0.14241779 -0.32596478 -0.13628702
-0.20579849 0.10751866 -0.033846337
-0.0062602153 0.17776698 0.19756912
0.0153699275 -0.27773145 -0.10029993
0.09525255 -0.29335514 -0.10005913
0.13136905 -0.28513235 -0.11676793
0.017976293 0.30466905 -0.08954488
0.09092274 -0.09840148 -0.03491985
-0.046102554 -0.20992927 -0.13097452
0.0715504 0.3158673 -0.036954917
0.051651902 -0.4119705 -0.15675364
-0.20692047 0.1457762 0.0083516
0.017696638 -0.30329767 -0.11350567
0.06037443 -0.4058048 -0.1496487
0.069629245 -0.053793088 -0.006810023
0.06393833 0.21845944 0.1656768
-0.15128939 0.22481069 0.005227275
-0.027434181 -0.059065618 -0.00036955034
0.11681743 -0.031168925 -0.06928529
-0.10595286 0.08959707 0.13990703
-0.18779339 0.12729183 0.05155348
0.15280096 -0.24012251 -0.13465992
-0.23524162 0.20562352 -0.016020875
-0.20520885 0.10083891 -0.03988725
-0.19745594 0.15450723 0.051345427
-0.17422833 0.25823078 -0.04736305
-0.014488871 0.08003781 0.14958295
-0.092521705 0.05574158 0.058925774
-0.14742304 0.064381726 0.11378982
0.076982215 -0.29811808 -0.09819082
-0.0742208 0.20035051 0.0992406
-0.02049408 0.18185847 0.19739659
0.04682278 0.00672178 0.02514373
-0.024385076 -0.30007592 -0.16578792
0.11866336 0.101339 0.07872383
0.12826428 0.13992672 0.07347444
-0.030376056 -0.24513423 -0.12594825
-0.1935312 0.22731085 0.00751898
-0.12148642 0.26400378 -0.068139076
-0.022384876 0.3103996 -0.10285896
0.018994913 -0.0941973 -0.007099393
-0.031143233 -0.07289668 -0.009827427
-0.0028669878 -0.20125718 -0.06694934
0.098976426 -0.40072727 -0.14357977
0.047373813 0.25807688 0.030350707
-0.067653894 0.25864905 -0.028925218
0.15986754 -0.30177343 -0.15114714
0.063501336 -0.07372029 -0.009838591
-0.16466469 0.08771563 0.082889415
0.1543204 -0.18346806 -0.18535846
0.13122173 0.23945718 0.086687684
0.01311168 0.23550332 0.063988104
-0.09517364 0.20717962 0.07327693
-0.051785406 0.30948025 -0.10543325
0.060602497 0.10274872 0.15019059
-0.038096745 0.27668846 -0.054708052
-0.056168873 -0.016637646 0.006393336
-0.035344683 0.3172064 -0.10123738
-0.100793526 0.15767138 0.1732251
-0.01692116 -0.025171304 0.021115355
-0.056007627 0.15139993 0.17720614
-0.074380174 0.26417068 -0.044767987
0.0110694105 0.08420373 0.15555388
0.08983242 0.020370627 -0.011166015
0.09035393 0.24442598 0.082802
0.026336884 0.12921976 0.17944285
0.03744081 -0.35956612 -0.13473795
-0.06366094 -0.041720167 -0.017799102
-0.21929295 0.22274913 0.023021588
0.19349869 -0.36152256 -0.22821683
-0.18951541 0.12218389 0.03950705
-0.10277895 0.06315792 0.037030313
0.010073464 0.14106256 0.1825831
-0.08846711 0.30138713 -0.10215489
-0.16193864 0.28711763 -0.09045322
0.044005156 -0.41938037 -0.16471317
-0.0034788419 -0.33263838 -0.15312582
0.08658781 0.20697084 0.13594736
0.05159646 -0.15518583 -0.035576534
0.00071933743 -0.2532018 -0.095548816
0.07289964 0.0027084663 0.0061527574
0.12011322 -0.20320244 -0.086387716
-0.20934746 0.097116865 -0.058489576
-0.16074531 0.11212146 0.12594761
-0.051481612 0.3129892 -0.10398727
-0.06534772 -0.07663593 -0.04696831
0.04376006 0.29858992 -0.06283737
0.10827181 0.09212887 0.089914076
-0.058394406 -0.0066302735 0.0108397445
0.10705581 -0.2726142 -0.09755667
0.11340284 -0.1492855 -0.06804101
0.02042805 0.09797456 0.16364284
-0.079026826 -0.05428408 -0.12767018
-0.014456688 -0.27262703 -0.12284445
0.041396998 -0.05064067 0.0074364203
-0.09318339 0.20205188 0.08584466
0.04099626 0.30042452 -0.06836694
0.08260691 -0.020798951 -0.0089068385
-0.11133582 0.13044979 0.15856987
0.08078407 0.18371595 0.13913229
-0.060316272 0.22732373 0.045419432
