# .PCD v0.7 - Point Cloud Data file format
VERSION 0.7
FIELDS x y z
SIZE 4 4 4
TYPE F F F
COUNT 1 1 1
WIDTH 1000
HEIGHT 1
VIEWPOINT 0 0 0 1 0 0 0
POINTS 1000
DATA ascii
-0.013062952 0.1102636 -0.32725725
0.008524077 -0.18474813 0.14582357
0.08943512 -0.005281791 0.14149445
0.06191985 -0.17344444 0.15262102
0.122896664 -0.09910818 0.16323999
-0.1794554 0.096726194 0.040802173
0.10370752 0.08780379 -0.33850476
-0.1379824 0.048579965 0.117287144
0.022909956 -0.21014053 0.13914874
0.061987918 0.016532341 0.13928537
0.06381132 0.15614782 0.06700155
-0.18208478 -0.13057643 -0.012265377
0.008581466 0.1168448 -0.38123626
-0.017273564 -0.055856645 0.12660834
-0.07532638 -0.06097084 0.11955247
-0.07385886 -0.19631384 0.08370563
-0.029849546 0.15073515 0.15691775
0.12803425 0.08076898 0.17198867
0.080215566 -0.17583375 0.041593023
0.05544671 0.070081465 0.14100778
-0.19367218 -0.06970192 -0.0059636584
0.092088506 0.014761189 0.14273857
0.053663474 0.123007365 -0.47199744
0.10819092 0.13359901 0.14367071
-0.08881016 0.038546402 -0.26163757
0.05053925 -0.042102896 0.13521375
-0.034649644 -0.19483617 0.14028351
-0.10225017 -0.1765443 -0.02588279
0.06733838 0.049197905 0.14143346
0.1183495 0.103822924 0.1689901
-0.049087286 -0.04556029 0.12335098
-0.13857959 0.013652099 0.11559323
0.039827876 -0.10161593 -0.46179512
0.10687532 0.13322231 0.1532345
0.12159538 0.129719 0.1336289
-0.021493144 -0.18028915 0.12192618
-0.040002014 0.097002886 0.13104787
0.16121392 0.0024988549 -0.5238823
0.104429595 0.06303325 -0.20528184
-0.06716796 0.17364131 0.14927983
0.084138066 0.15367068 0.013186612
-0.040608034 0.022716869 0.12752317
-0.13149087 -0.06565814 0.11273762
0.054118063 -0.15555719 0.13035771
-0.16853358 -0.08844421 0.10732645
-0.17726381 -0.14998597 -0.023110764
0.04847818 0.11266951 -0.29880363
0.15613048 0.047738366 -0.520127
-0.13625307 -0.109908275 0.11011961
0.056605496 -0.049028195 0.13560426
0.12465801 0.10596074 -0.5847299
-0.0027291558 -0.09791144 0.12636155
0.041685704 0.16178584 0.0922687
-0.09435308 0.16620009 -0.0013276607
0.12188226 0.05792755 0.17042394
0.006768523 0.101918355 0.13676988
-0.20293254 0.021130517 0.13056085
-0.06735435 0.09448172 0.12771834
-0.0541374 0.04927391 -0.56438255
0.023663864 0.108510785 -0.16856992
0.09967916 -0.12956277 0.15909667
0.088779174 0.083746746 -0.22291853
0.104065 -0.15580365 0.0415046
0.09766335 -0.067206934 0.13958126
-0.0069906944 -0.1062953 -0.28751478
-0.10705504 0.078087054 0.12229206
-0.17829685 -0.15537667 0.04066218
-0.047667272 0.03527392 0.12727694
0.06299907 -0.10097457 -0.22606999
0.055185955 0.138642 0.16634405
-0.066486776 0.10605102 0.12835869
0.14867377 0.061654314 0.14231317
0.104901694 0.03497774 0.14518388
-0.019379515 0.18811895 0.039942924
-0.041399475 -0.14024067 0.11985079
-0.026205486 -0.12909809 0.122154236
0.0863828 -0.169873 0.056621157
0.11505706 -0.13018048 0.16087474
0.080482066 -0.037313644 0.13895321
-0.16133139 0.010070368 0.11275453
0.060618047 -0.047059137 0.13616602
-0.015668215 -0.031585045 0.12792641
0.086654015 0.11254386 -0.446822
-0.1753471 -0.11255159 0.12758432
0.007872687 -0.09718866 -0.45600653
-0.17550677 -0.017963782 0.10978507
0.007116504 -0.11960503 -0.05211871
-0.18827894 0.09229607 0.09957055
-0.09427364 0.13888647 0.14879936
0.043262176 -0.10753879 -0.28481904
0.15712719 -0.036966506 -0.60399747
-0.1466899 -0.1690917 0.068713285
0.10364622 -0.08296741 -0.47166634
0.12849401 0.100870356 -0.5697252
-0.024607707 -0.19165337 0.14161187
-0.14029343 0.12601206 -0.030276604
-0.054628633 0.13717687 0.1311983
0.058536746 0.04359916 0.14013863
0.15233791 -0.1121111 0.101547696
0.14631326 0.019877598 0.1715244
0.14045404 0.0783835 -0.51715165
-0.01932943 0.10669449 -0.20261738
0.009503193 -0.118183754 0.1268555
0.116951965 -0.029765416 0.14358833
0.1251074 -0.062478144 -0.43123925
-0.157276 -0.07413576 0.10931471
0.052302647 -0.100144796 -0.4800929
0.04278548 0.12444719 0.14204863
-0.11681653 -0.04019648 0.11564476
0.0076922555 0.11609878 -0.34787366
0.12835048 -0.06938617 -0.5779438
-0.05422002 -0.1964382 0.13791093
0.104422286 -0.032115974 0.14200716
-0.19600385 0.025126196 0.13156061
0.07432335 -0.14446227 0.14670525
-0.09357915 0.154237 0.14959608
-0.045783762 -0.029839583 0.12447061
-0.025977941 0.07455666 0.13165204
0.15018836 0.0034227713 0.1712143
-0.049563892 0.0977343 0.12995906
0.16095605 0.0038483597 -0.5204415
0.0093164835 -0.22364782 0.05830426
0.10984676 0.10921452 -0.5289433
0.1242287 -0.047090124 -0.309609
0.100657985 0.0747228 -0.23882858
0.01837253 0.122543626 -0.5839871
-0.08838527 -0.007537976 0.120503634
0.0108500095 -0.1807553 0.14628269
0.043260153 0.05686172 0.13896117
-0.065346114 -0.12503873 0.11774493
-0.21329619 0.04672996 -0.014501148
0.026132746 -0.0077799303 0.13394305
0.065247655 0.085311994 0.14286703
0.018564561 0.04919595 0.13570426
0.008298128 0.03756274 0.13395785
-0.087581456 0.03646037 -0.2785758
-0.075932235 -0.028090814 0.121010296
0.08199552 0.10544127 -0.35484448
0.076208435 -0.14730243 0.15551537
0.10399027 0.03389133 0.14502653
0.1232212 0.093121104 -0.48968717
0.15310259 -0.030914614 0.16995937
0.00395347 -0.1503187 0.12470946
0.08342533 0.08231387 -0.18159859
-0.11508579 0.11402848 0.12302038
-0.21594848 0.01044188 0.058168795
-0.033454698 0.10028558 -0.31816635
0.057698693 -0.1909841 0.11347209
-0.11147333 -0.05883757 0.115406215
0.025744079 0.025354931 0.13543834
-0.06573905 0.06128963 0.1263642
0.11652493 -0.05257406 0.14247672
-0.09810055 -0.12496981 0.11390038
0.13493653 -0.12114237 0.1592545
0.08204213 0.15011933 0.06186083
-0.05118665 0.14946997 0.15435234
0.1584212 -0.026204491 0.1694569
0.02939618 0.11969621 -0.39181542
0.06450359 -0.08689992 0.13477086
-0.15524013 0.111316174 0.1403568
0.025197906 0.07195394 0.13754141
-0.13511385 0.13084483 -0.021196883
0.17724366 -0.08633558 0.12518568
-0.066288404 -0.056640077 -0.3482252
-0.109549366 0.15335616 -0.002255314
0.033844914 0.1486656 0.16430396
-0.13692436 -0.06469534 0.11214429
0.037969325 0.09847729 0.14027518
0.10459544 -0.058422532 0.14080408
0.18806915 -0.08555894 0.03509895
0.0643809 0.16176762 0.0010455844
0.09967648 0.1073377 0.17011364
-0.03005855 0.1642637 0.15752201
0.010004008 -0.15709765 0.12510473
0.16973317 -0.059461474 0.14719847
0.05800904 0.11456943 -0.3555518
-0.051432867 -0.0834547 -0.2917215
0.14994949 0.08270191 0.101898275
0.12607424 -0.1315396 0.15110195
-0.10871635 0.14225002 0.1472595
-0.05700263 0.034454737 -0.573504
0.0234112 0.1757264 0.007957254
0.07387495 -0.14524896 0.13509649
-0.14197032 0.07922304 0.1182437
-0.07724764 -0.011027853 -0.40330112
-0.15152514 -0.14269066 0.12898088
0.15850341 -0.057893787 0.1658188
-0.029641988 0.09534706 0.13218784
-0.16732353 -0.15718283 0.016922606
0.14635563 0.08200523 0.13157569
0.022038529 0.12076741 -0.4390178
-0.08042552 -0.10794557 0.11676859
0.12414656 -0.04929767 -0.31963047
0.100048736 0.122485794 -0.60701275
0.068080656 0.1482069 0.13976426
0.12872396 -0.057902195 0.16584148
0.11885205 0.1043193 -0.5403648
-0.22276431 0.05139002 0.05385793
0.112800285 -0.14978488 0.016064769
0.09608589 -0.015471876 0.14180201
0.04905807 0.1457975 0.16595604
-0.14663698 -0.0064254305 0.11371203
0.074931264 -0.08937842 0.13587989
0.16268784 0.050182015 0.046653874
0.05133266 -0.120545685 0.1316589
-0.16511251 -0.16487236 0.11798066
-0.06341942 0.096774414 0.12828775
-0.0017674607 0.10878672 -0.16590384
0.17288554 -0.07290444 0.141153
0.04084295 0.11181162 -0.2619883
-0.029306151 -0.20230396 -0.027908733
0.16074455 -0.005568959 0.14159705
0.04299811 0.11972768 -0.39848092
0.04923806 -0.15084924 0.13000335
0.15440632 -0.03198247 -0.55095744
0.02597529 0.005490553 0.13454188
0.16790627 -0.025386546 0.11279812
0.030094847 0.12760685 0.14070459
-0.023170713 0.06823349 0.13168764
-0.1421182 -0.13468467 0.1221667
0.15245973 -0.026584415 0.17008471
0.1437427 0.05905151 -0.461868
0.09790531 -0.16176121 0.026416043
-0.032445904 0.19487132 0.016083606
-0.21377736 -0.024467323 0.12716661
0.030646782 0.13555034 0.14685567
-0.04052224 0.19166069 0.08499556
0.16218083 0.056206536 -0.5853377
-0.029538149 0.08865226 0.13188955
-0.10792042 -0.18697453 0.1320432
0.0757654 0.13768722 0.16789591
-0.01621766 0.15730943 0.15882438
-0.16177183 0.052633967 0.11468135
0.043140195 0.13270397 0.16465215
-0.16308747 0.11452144 0.11806533
0.085391134 0.06779562 0.1444185
-0.019017246 0.07667052 0.1325669
-0.21502674 0.006030603 0.12843809
0.07441498 0.085711755 -0.15422507
0.0092288125 0.11666196 -0.35798538
-0.12797324 -0.12972529 0.1101713
-0.066722974 0.02712 0.12465981
-0.0014928093 -0.10530318 -0.3188955
-0.09926198 0.16295125 0.015714264
0.09955849 -0.1534712 0.15765908
0.10545532 -0.118181236 0.16030459
-0.0885816 0.013776699 0.12147239
0.026535034 -0.013576537 0.13372184
-0.091784365 -0.16747603 0.12034073
-0.09589311 0.009329297 0.12040633
0.13052581 -0.036885843 -0.32520702
0.06723655 0.102768995 0.14391206
-0.07962033 -0.15200645 0.11481439
0.11162779 -0.05637086 0.141725
0.06830492 -0.016799564 0.1384771
-0.15895194 -0.08881753 0.10843518
-0.19257808 -0.11694552 0.051496003
-0.13397498 -0.12943359 0.10947992
0.055219468 0.004188252 0.13791634
-0.07834153 0.11334115 0.12730491
0.060007162 0.1207543 -0.44278568
0.05750583 -0.15716077 0.13617885
0.016425125 -0.10539635 -0.36312613
-0.05027731 -0.20362951 0.071586825
0.07066862 -0.13724172 0.1331537
-0.048317377 0.16538902 0.1554306
-0.019232716 -0.06432902 0.12598526
-0.03997009 -0.01700235 0.12575108
-0.20499675 -0.010684543 0.12883866
0.1547033 -0.012252906 -0.48649108
0.050128702 0.12214286 -0.4517148
-0.034260083 0.08272095 -0.5935117
-0.04979118 0.09104528 -0.26178432
0.0051672733 -0.19976749 0.14473122
0.06546178 0.10042843 -0.2293382
-0.16008207 0.09952427 0.13923974
0.017570311 -0.10821982 -0.31278768
0.08756879 -0.08605374 -0.24277642
-0.045747124 -0.14212126 0.11925228
-0.056712613 0.048295274 0.12682046
0.03470517 0.11219867 -0.25004163
-0.14293413 -0.080344066 0.11070951
0.14077057 0.065249294 -0.4609166
0.12376808 -0.0560645 -0.36414787
0.08174863 0.11939082 0.16856802
-0.15555272 -0.04231278 0.11099671
0.026672613 -0.053818308 0.13186532
-0.12599574 -0.01210829 0.115872115
0.037510823 -0.2146876 -0.015863651
-0.18361174 0.070307165 0.13511652
-0.1089896 0.11369553 0.12372103
0.08530976 0.14842652 0.06787343
0.07742929 -0.049716543 0.13801812
-0.008743042 -0.07385228 -0.5995618
0.03268601 -0.09917769 -0.49753824
0.09876813 -0.03633888 0.14114584
0.08524294 0.11210678 -0.436021
-0.12568793 0.04116347 0.11838649
0.17620476 -0.06933581 0.10960873
0.022804322 -0.18792886 0.14735352
-0.22705892 0.0450353 0.11653552
0.037737254 0.031251617 0.13712128
-0.051668767 -0.06632493 0.1220825
0.1491855 0.09652123 0.088210836
-0.08628933 -0.19091177 0.07258377
-0.13091134 -0.17004563 0.015954394
0.08114714 0.093482025 -0.2509082
-0.072538115 0.15192214 0.15195915
0.08037455 -0.024157174 0.1395524
-0.20961414 0.07131073 0.039019886
0.028265519 0.16034174 0.16269109
0.14632092 -0.11080497 0.15838775
0.1276525 -0.13788718 0.004904543
-0.18377851 0.08509291 0.13578548
0.13576786 0.043615647 -0.35503447
-0.05058384 -0.12689061 0.11939281
0.06842281 -0.030022053 0.13787572
-0.16871239 -0.13826233 0.12716779
-0.20469287 0.075204335 0.034939565
0.114852555 -0.065870576 0.1416622
0.035441794 -0.10589202 -0.36215463
0.13797334 -0.070430785 0.16634443
-0.056997363 0.19701003 0.09075753
0.11633652 -0.01972802 0.1439829
0.090992585 0.12517789 -0.6044546
-0.00038434955 -0.18660715 0.14469098
0.024236465 -0.10927626 -0.29576525
-0.06576377 0.15114295 0.15271868
-0.036035765 0.15786062 0.15652269
0.0038305926 -0.14144816 0.1251078
0.07300713 0.114065096 -0.39953464
0.09172775 0.1320003 0.1668191
0.085711785 0.103328764 0.16828723
0.032451723 -0.034507386 0.13344277
0.025747627 -0.085096925 0.13030231
-0.025604356 0.09305456 -0.59790987
-0.062246777 -0.13451327 0.11766873
0.11771377 -0.061593734 -0.33772847
0.008720209 0.065683186 0.13531446
0.11133832 -0.14118084 0.15944245
0.10381746 0.102140136 0.1703581
-0.14043611 -0.025248202 0.11356642
-0.043727178 -0.1763373 0.117898464
0.12329891 -0.062142342 -0.40740824
0.020188732 -0.013965437 0.13295701
0.089507714 0.11340566 -0.4684502
0.02735378 -0.16123581 0.12694971
-0.11679945 -0.091325164 0.11326985
-0.012566956 -0.20995092 0.13873811
0.11682172 0.072487116 -0.3324204
0.14609 -0.0686172 0.16738288
0.14613609 0.079805076 -0.56159115
-0.12089925 0.100977644 0.12173067
-0.17503361 -0.124932975 0.12704578
0.10002542 -0.0739723 -0.23915239
-0.11082589 -0.08343306 0.11433883
0.091551535 0.08789688 0.14607662
-0.024011344 0.18055737 0.14426315
-0.023773666 0.1504003 0.15761651
0.1281338 0.019188615 0.14717881
0.01687111 -0.18759367 0.14667165
0.07448257 -0.036956254 0.13826478
0.04781432 0.117299914 -0.3600076
-0.091095 0.13272046 0.12670837
0.13443415 0.04333926 -0.34420648
0.030872082 0.10498951 0.13974422
-0.051014047 0.059548076 0.12801284
0.17900676 -0.024226347 0.022730706
0.008313529 -0.18287002 0.14588566
-0.1888812 0.029448548 0.1325975
0.04379678 0.118639275 -0.37952897
-0.07949677 -0.10214911 0.11714754
-0.10162437 -0.11589749 0.11390826
0.05737475 0.12950236 -0.59572744
-0.14870867 0.11385063 0.141242
-0.18731634 -0.09001592 0.12722594
0.04889649 -0.105526365 -0.31847072
-0.1151852 -0.16135335 0.13238074
0.07985879 -0.17738862 0.0173822
0.008045197 0.0525539 0.13462496
-0.20923682 0.035257548 -0.030616922
0.07215013 -0.097482696 -0.4402411
-0.11894173 -0.10372382 0.1124412
0.08751628 0.15194032 0.01918046
-0.060776457 0.08345717 0.1279782
0.15516895 -0.052166834 0.16813266
-0.18649903 -0.053468578 0.11003761
-0.15106927 0.089419656 0.11764945
-0.054972533 0.11362805 0.1300624
-0.047420055 -0.058580257 -0.46408734
-0.12587598 -0.1603551 0.13117146
0.014772196 -0.22011769 0.13314009
-0.149612 0.0027453527 0.11379007
0.12836634 -0.036895532 -0.3026537
0.1311906 0.12533584 0.1446304
-0.108935915 -0.120473854 0.1128375
0.07200808 0.15348652 0.06413091
-0.12295687 -0.021445319 0.11579644
-0.13953279 -0.085437454 0.11087318
-0.07134567 0.0845802 0.12678899
-0.12793364 0.012540454 0.11679158
-0.093523555 -0.05332505 0.1177709
0.07662275 -0.09430935 -0.57021827
0.04543776 0.13366772 0.16496688
0.07403272 0.015801935 0.14066665
-0.015856696 0.1894811 0.010314576
0.054465443 0.123604834 -0.48395687
0.032968707 -0.21483657 0.053669263
0.016190799 0.08449259 0.13706717
0.07355775 0.11957675 -0.4729721
-0.0826729 -0.18656407 0.008764719
-0.02463709 0.10535764 0.13324216
-0.072921716 0.13834451 0.12910381
-0.087259546 0.04481246 0.12306973
0.02948319 0.017009113 0.13548934
0.022270883 -0.060465906 0.1310391
0.10513796 -0.03741001 0.14184488
0.16550171 0.043675955 0.033512723
-0.03042462 -0.11726292 0.12220839
0.08774595 -0.15940893 0.15630785
-0.11655825 -0.055248436 0.11497589
0.123126544 -0.1285141 0.16071698
-0.12717156 0.113636725 0.12367845
-0.04838965 0.06072799 -0.5771159
-0.20026863 -0.07782828 0.12627172
-0.21826951 0.06713735 0.09790061
0.0690214 0.09587742 -0.20316559
0.034924563 0.11782021 -0.353383
-0.008537454 -0.110625125 0.12508893
0.18679202 -0.086146496 0.044433396
-0.20334497 0.07974295 0.09882888
0.1526309 -0.10947901 0.14921702
0.011482507 0.028155636 0.13389352
0.16528122 0.042311165 -0.579033
0.043598626 -0.0942492 -0.60159236
-0.20527637 -0.07450022 0.09336122
-0.14813118 0.12714492 0.118998796
-0.15221831 -0.01786036 0.11252542
-0.119658105 -0.045829393 0.115048975
-0.16480649 -0.14631175 0.12725213
0.04971993 0.15316288 0.15758574
-0.20845497 0.0016436975 0.12900609
-0.21698464 -0.026661135 0.12632725
0.14757527 -0.052605007 -0.6146891
0.1815027 -0.023961673 0.0024739811
0.1585308 -0.07012052 0.16369478
-0.107081965 0.08700638 0.12270348
-0.041145526 0.055969834 0.12900558
0.04772246 -0.09860177 0.13225503
-0.083458215 -0.17875981 0.1352988
0.15601686 0.014468727 0.15063898
-0.06741801 -0.16562797 0.11561461
0.03445095 -0.10401053 -0.41114593
0.12841566 -0.1328541 0.08957782
-0.12394872 -0.14772172 0.10980719
-0.037083033 0.19303252 0.055595517
-0.16867661 0.10804677 0.0840028
-0.01801535 0.17060724 0.15851936
0.0034732122 0.10743267 0.1366406
-0.076403596 -0.18929437 0.014436425
0.12569392 0.1287314 0.12830493
-0.1085598 0.15967214 0.10069904
0.06906104 -0.15187895 0.15446286
0.0021234066 -0.012881019 0.13088617
-0.061556492 -0.15947236 0.116588846
-0.06919562 0.055884443 -0.3832458
-0.19068608 -0.022293793 0.10983686
0.08079716 0.08156883 -0.16106124
-0.08200849 0.04746742 -0.29065147
0.1169534 -0.14031866 0.1313049
-0.11010468 -0.124280676 0.112523
-0.09045025 0.14113034 0.14935371
-0.0634881 0.19701481 0.09079652
-0.07865122 0.1605575 0.15164316
0.01699422 -0.22032137 0.13304582
-0.09474271 -0.043036498 0.11810576
-0.005727809 0.12069245 0.13617516
0.06455004 0.111377954 -0.3359723
0.02307894 0.17517108 0.015583384
0.08109867 -0.091227606 -0.26098832
0.17071606 -0.031982206 0.099820934
0.07445519 -0.13070674 0.13390167
-0.05110752 0.026483363 -0.63254166
0.040165275 0.16710553 0.038127653
-0.19052017 -0.06567237 0.12798211
0.033180147 -0.17465128 0.1491898
-0.0024748659 0.11429707 -0.40699694
-0.21595569 -0.022097657 0.104300685
0.12623553 -0.043027896 0.14406255
-0.10864149 0.1588672 0.08785635
-0.08952304 0.17145324 0.14469734
-0.014824864 -0.2146089 0.053149935
0.050227102 -0.20179622 0.026573712
-0.16052324 0.10913904 -0.027159484
-0.20619646 0.02563823 0.13038668
-0.015109434 -0.07040408 -0.59139
-0.12854558 -0.103677966 0.111315005
0.06253549 -0.101482995 -0.25391594
0.1447336 -0.03694961 -0.47421348
0.0858728 0.019259851 0.14221805
-0.16583107 -0.09109411 0.107520714
-0.003301884 0.11406532 -0.41955096
-0.19336079 -0.07125879 0.12738825
0.031485353 -0.21990517 -0.018941466
0.077876225 -0.13267381 0.13421194
0.0032259217 0.11444059 -0.3170585
0.03641085 -0.10754668 -0.31418952
0.10599598 0.06979318 -0.24782832
0.052981004 -0.17533839 0.15148352
-0.06677179 0.14256798 0.13400523
0.16672452 0.043875065 0.023486476
-0.0088344 0.11173575 -0.38606554
-0.20275512 0.014489155 0.13027298
-0.00807838 -0.14313991 0.12363033
-0.18200266 -0.1581386 0.0868796
0.13644747 -0.027320867 -0.3507979
0.18186055 -0.030883258 0.009486503
-0.035778355 -0.15877466 0.1196493
0.031142369 -0.10976974 -0.26556918
0.15425062 -0.038727853 -0.5825767
-0.13663208 -0.01124183 0.114664376
-0.020699399 0.11519871 0.1341612
0.17410496 -0.07281589 0.13130212
0.12548907 -0.012664187 0.14538658
-0.030902259 0.08402873 0.13151345
-0.023813384 0.020435262 0.12938844
0.122608274 -0.018358951 0.14478354
-0.04084508 -0.013515327 0.12580949
-0.058686 0.18232167 0.14664264
0.18739456 -0.06509521 0.014172983
-0.19610764 0.08540749 0.12941775
0.011456671 0.11868626 -0.45176885
0.0611774 -0.022203175 0.13738877
0.12247816 0.012462081 -0.19573097
-0.020589663 0.18768142 0.04977793
-0.092620805 0.0037430988 0.12053057
0.1136874 0.13021345 0.15988463
-0.17212126 0.07782456 0.13681634
-0.08983111 0.065877825 0.123747244
0.0031741362 -0.091723345 0.12734269
-0.029745739 0.102047004 0.13248774
0.14149226 -0.05348525 -0.5506435
0.15829472 -0.04273908 0.1679142
-0.10819189 -0.17403065 0.13261327
0.08388612 0.10022317 -0.3178508
0.054886278 0.16400929 0.013896879
0.009081529 -0.08553213 0.12832455
0.023107357 0.11759658 -0.34902304
0.015022945 0.11467349 -0.28785846
-0.21414466 -0.011237511 0.12773818
0.023887837 -0.17210166 0.14652267
0.16360903 0.04332848 0.049085066
-0.21337055 0.059927925 0.12374012
0.088414 0.14816631 0.058315955
-0.062592074 -0.10096506 0.119188
-0.11354624 0.040415302 0.119778104
-0.027846128 -0.054862954 0.12541384
0.12902403 -0.12205179 0.16095278
0.10167867 0.09342833 -0.36260492
-0.20347081 0.041089796 0.1314263
0.13755842 0.13220835 0.041127358
0.09824391 -0.005469631 0.14252073
-0.17068842 0.016948014 0.111975804
0.1409511 0.115621254 0.12694366
0.0026981405 -0.09975428 -0.4052234
-0.008776813 -0.1796052 0.12697686
-0.048582427 0.050267637 -0.61470765
0.14717425 0.073482156 -0.5383892
-0.05226916 0.035964448 0.12676911
0.15755324 0.07722818 0.04900135
0.03795534 0.01137466 0.1362228
-0.12641247 0.074550994 0.119854264
-0.08760912 -0.028797789 0.11960558
-0.05025871 -0.12125386 0.119693115
0.14284985 0.0813197 0.16108768
0.12562953 0.100078925 -0.54746187
0.02492671 0.12041895 0.1397636
-0.07460719 -0.17688662 0.13642521
0.03551226 0.013273002 0.13602313
-0.025235765 -0.07596685 0.12473863
0.15870872 -0.046763863 0.16733675
-0.1984093 -0.021874778 0.12909237
-0.029901993 0.18409894 0.12786855
0.09768958 0.07418534 0.14616014
-0.05367532 0.05948675 -0.52791446
-0.17297454 -0.009049335 0.11049729
0.049264137 0.12561828 0.16504273
0.14224328 -0.045211192 0.16801953
-0.19557337 -0.11962207 0.11981018
-0.0043008807 0.08772612 0.13481075
0.17590609 -0.09737011 0.0045626345
-0.05840981 0.0038776135 0.12455487
-0.1081771 0.16196613 0.13858679
-0.06389344 -0.043733746 0.12169648
0.030808464 -0.09289759 -0.58890855
0.053458836 0.10783944 -0.25264814
-0.12938097 -0.17366454 0.050784785
-0.056890283 0.06613897 -0.46148464
0.075598665 -0.04890348 0.13784012
-0.013866786 -0.15574162 0.12236457
-0.11975953 0.047455408 0.119375475
-0.21583499 -0.009612743 0.12761602
0.17316352 -0.031731166 0.07996899
-0.18093698 0.09143877 -0.03699843
0.010427823 -0.15254277 0.1253662
0.11994286 0.012062029 -0.17465568
0.117235236 0.018876022 -0.16072005
0.14870693 0.03905855 -0.44487172
-0.0485574 -0.20875917 0.12276859
-0.09127347 0.17156185 0.14415392
0.13961466 -0.024418732 0.16867699
-0.054709446 -0.2060871 0.117280215
0.081812926 -0.15906982 0.15562613
-0.10228799 -0.13162935 0.11309944
-0.196125 0.0785965 -0.038019877
-0.079389706 0.0031881402 0.12205945
0.15255858 -0.11014959 0.13746177
0.08260057 -0.16392893 0.15549268
0.030129353 -0.013159212 0.13416223
0.015237143 -0.09895613 0.12842375
0.14510877 0.086156376 -0.5849963
0.14193083 0.03770972 -0.3899835
0.056214742 0.10871416 -0.2732898
-0.025191553 -0.07719529 -0.48396683
-0.22320762 0.028314935 0.121139474
-0.09851781 0.16838725 0.1055668
-0.208481 -0.07375535 0.12505242
0.073704876 -0.1658235 0.15436064
-0.07576379 -0.1910553 0.03180969
0.13873115 0.029945262 -0.34909937
0.15766256 0.09833962 0.01803898
0.089328736 0.11583257 -0.49177632
-0.019704128 0.103578076 -0.49943435
-0.11522742 0.12080819 0.12331935
0.13792357 0.036917694 -0.35753635
-0.04057736 -0.028560527 0.12514076
0.15492243 0.061557576 -0.55070186
-0.003117694 0.112700604 -0.31360397
0.028597401 0.12504414 -0.5696398
-0.07630004 -0.008214118 0.12189105
0.044943523 0.16063222 0.09221011
-0.030873645 -0.07195409 0.12426243
-0.021870868 -0.1653111 0.12097867
-0.06860315 -0.18072645 0.13695173
0.08773994 -0.0853147 -0.22997984
-0.07501876 -0.0815013 0.11863357
0.15369952 -0.03698543 -0.56822175
0.15248539 -0.110830046 0.12547769
0.14114974 -0.058536958 -0.6017481
0.17347908 0.009961239 0.01802856
-0.0890955 0.17176688 0.020617932
0.08851152 -0.13076583 0.14990464
0.019059356 0.09011573 0.13766481
0.061439175 -0.10513852 0.13356271
0.09663086 0.115608 -0.5229436
0.05576971 0.036833234 0.13949917
-0.22122836 0.003915392 0.109598294
-0.01631973 0.17817515 0.14026605
0.10514965 -0.07566012 -0.33752128
0.11376542 -0.037455935 -0.16059044
-0.00071884546 -0.08571249 -0.5423714
-0.038279418 -0.14971386 0.11977599
-0.17953475 0.011177994 0.1106679
0.078329824 0.063444346 0.14338642
0.013684957 0.06386066 0.13581319
0.042856395 0.11768573 0.14174227
0.14367479 0.08579658 -0.5737754
-0.062959336 -0.12999204 0.11779471
-0.08181615 0.06078901 -0.21352975
0.009393017 0.08106978 0.13610913
-0.21533145 0.020993147 0.1274823
-0.060386524 0.19085349 0.1418759
0.03263303 0.0076123737 0.13542183
-0.049608838 0.014966229 0.12610424
0.115149565 -0.07958569 -0.6025393
0.1477869 -0.04777659 -0.57844245
-0.0871493 -0.058886502 0.118260615
-0.039176233 -0.0902795 -0.3067038
-0.17215194 -0.04212937 0.10905622
0.07488912 0.107528396 0.14503245
0.05727965 -0.19255337 0.089585766
0.050283484 0.11624418 -0.35140494
-0.19698444 -0.11405477 0.1210971
-0.15625168 -0.058003705 0.11018505
-0.026805123 -0.08997502 0.123903036
-0.049213942 -0.2040753 0.13814317
0.015256052 0.12932432 0.1390418
0.0028846741 -0.13070817 0.12549515
0.077069335 0.15514658 0.02493817
0.038746595 -0.06108861 0.13294506
-0.08736912 -0.060260642 0.11817143
-0.21260694 0.006360393 0.03723869
-0.12026242 -0.16692692 0.13152593
0.104379065 -0.025539199 0.14230788
-0.109014414 0.15649156 0.049462393
0.07175767 0.07434839 0.14312217
0.059814572 -0.14405946 0.13156226
0.1123782 -0.10922763 0.16153401
0.16446908 -0.06899243 0.16139038
-0.07210212 -0.013951692 0.122117385
-0.07004788 0.032656513 0.1245267
-0.08818826 0.17850938 0.13553475
0.09916115 0.14631878 0.035951234
0.080339 -0.09350568 -0.31447628
0.115231596 -0.028265059 -0.15140675
0.13327539 -0.0010791211 -0.27960026
0.11349711 -0.012111331 0.14400324
-0.14467223 0.11758382 0.14188933
-0.11904591 0.0141819725 0.11791297
-0.18470193 0.02364 0.11064101
-0.009619303 0.10720961 -0.5960848
0.17650577 -0.02445895 0.042982988
-0.08147118 0.017661259 -0.37128994
-0.048746523 0.19432876 0.087898955
-0.15808432 -0.021022962 0.111689836
0.08208767 0.0819605 -0.17130598
-0.17195909 -0.1581147 0.04615412
-0.08349913 0.18028447 0.09366369
-0.0371348 0.10263535 0.13164668
-0.1388903 0.13069451 0.14317839
-0.03511495 -0.18108463 0.12596138
-0.053378697 0.09141827 -0.1777427
-0.054407485 0.16578408 0.1547328
-0.029192314 -0.005952751 0.1275296
-0.041255165 0.0626907 0.12930548
-0.07349618 0.053078778 -0.35207382
-0.18222731 0.08629217 0.13602224
-0.10371827 0.16285054 0.08400811
0.07964345 0.15597649 0.0051677376
-0.09639952 0.09273566 0.1242246
-0.0036478601 0.044978637 0.13289882
0.14586093 -0.121488795 0.026162125
6.564443e-05 0.17866424 0.06871899
0.10908531 0.13899282 0.07897059
-0.10048003 -0.006754883 0.119119205
-0.037209794 0.07452786 -0.6247428
-0.09022097 -0.04949434 0.11833661
-0.0011019238 0.16993731 0.15965275
0.14252798 0.10904061 0.12400984
0.11625813 0.05954342 -0.26709822
0.14753576 0.08223565 0.12163759
0.08806232 -0.08333535 -0.20544656
-0.10017275 -0.08444501 0.11554278
0.033284042 -0.022560082 0.13409583
-0.008134446 -0.004848768 0.13005441
-0.18415885 0.09363472 0.057536423
0.059785925 -0.10112091 -0.41733524
0.027581502 -0.16454373 0.12682301
-0.0007427517 -0.22022851 0.13284326
-0.16278464 0.11203419 0.13950379
-0.15405148 -0.14727333 0.1284702
0.14436454 0.074657194 0.15807739
-0.160744 -0.034754597 0.11073866
0.06336139 0.15514359 0.08019494
-0.11312729 0.02045573 0.11889934
-0.042437468 -0.1906509 0.13956377
0.0798911 0.03536003 0.14226414
-0.09666483 -0.0062764576 0.119589545
0.14170988 0.122798875 0.110191345
-0.02215777 0.16095504 0.15829685
0.07770789 -0.012924467 0.13976233
-0.17804521 0.012478755 0.1109027
-0.2146585 0.0616041 -0.02484528
0.004319804 0.11623468 -0.5675957
0.006423159 0.17477445 0.08717428
0.030773832 -0.16974907 0.13913225
-0.06343594 0.1977313 0.103447616
-0.013460752 -0.19667885 0.14268671
-0.033938948 -0.017364923 0.12644172
0.07975698 0.08723399 -0.19513427
0.050875325 0.101557314 -0.1738464
0.14024355 -0.04952615 -0.5042884
-0.072362974 -0.060751833 0.11991175
0.16444483 -0.056719918 0.16354096
-0.13261096 0.03649691 0.117356576
-0.062679656 -0.19823465 0.060430102
0.037485555 -0.16725154 0.13188054
0.04279589 0.15432903 0.16559568
0.12366997 -0.057631966 -0.37557405
-0.11895795 0.14852926 0.057372503
-0.03461947 0.1880959 0.10159345
-0.21014635 0.057123806 0.12645553
0.16384503 -0.107176445 0.010834517
-0.1324964 0.116806574 0.14328279
-0.123471044 0.12144482 0.14455928
0.1330823 -0.023686897 0.16151303
0.025042014 0.085302345 0.13814433
-0.0977932 -0.17341869 0.13386233
0.046188146 0.06598969 0.1397293
0.13127601 0.03560405 -0.3037061
0.05013689 -0.094758525 -0.60045516
0.049787045 -0.16576992 0.15155388
0.15791939 0.030587904 0.112563856
-0.048289746 -0.037186004 0.12383417
0.014816265 0.1778539 0.018471766
-0.048719093 -0.014052334 -0.6165378
0.13964315 -0.12813455 -0.0012603132
-0.054633074 0.006828867 -0.60236007
-0.14720409 -0.07643878 0.110390015
0.09752883 -0.08643464 -0.44892925
0.05643647 -0.19579843 0.041643877
-0.05754615 -0.005051103 0.124240905
0.0013254504 -0.054826457 0.12884183
-0.097904116 -0.19204712 0.13285817
0.15938179 0.04266796 0.08369455
0.1685723 -0.03906005 0.12656128
0.0050842585 -0.19337349 0.14501852
0.036860812 0.15328951 0.16487241
-0.17101368 -0.09697437 0.12078344
0.07073894 0.15307392 0.07391852
0.10851398 -0.10568897 0.15412049
-0.18191396 0.04094409 0.12644565
-0.17961659 0.0483643 0.13049442
0.060269643 -0.031918555 0.13683102
-0.19884376 -0.11395863 0.119849324
-0.042418502 0.09726602 -0.21512143
0.1701313 0.002558038 0.055246178
0.1303374 -0.09031473 0.16452344
-0.058900073 -0.036147587 0.12263668
-0.039863456 -0.02360368 0.12545522
0.1306009 -0.017931448 -0.27156162
0.101164654 0.0023917537 0.14322881
0.16446792 -0.099820524 0.14339903
0.0045321244 -0.22598962 0.10410032
0.1252542 -0.072079666 0.14620762
0.15256542 -0.059001487 0.16807404
0.09764439 0.0808484 0.14646474
-0.097327985 -0.157247 0.11249119
-0.12946886 0.13191497 0.1443414
0.11203839 -0.062385727 -0.2777419
-0.08452973 0.16968852 0.14698441
0.13699919 -0.0006221385 -0.3121735
-0.029225139 0.08006584 0.13152695
-0.03639123 -0.19743724 0.13995744
-0.010956574 -0.032214362 0.12845023
-0.0020817947 0.11279599 -0.30181843
-0.046952277 -0.006081257 0.12543832
0.09571062 -0.088809155 -0.59793836
0.059432514 0.11501121 -0.36608496
-0.025277544 0.08994146 0.13244946
0.13665622 0.0010635786 -0.30768985
-0.10490835 -0.110283695 0.11378476
0.020348908 -0.027152026 0.13236219
0.029670423 -0.17004146 0.12871826
0.075840786 0.12261036 -0.5201353
0.14849831 -0.021763807 -0.45141548
0.1624752 0.04175264 -0.5563002
0.14487168 -0.023069976 0.1693572
-0.13784564 0.029228188 0.116403654
-0.22809368 0.044701006 0.1055665
-0.13772443 -0.12301172 0.109338276
0.09066404 0.078182 -0.19978862
0.07125152 -0.121180184 0.13396956
0.012876005 -0.006975432 0.13242361
0.11100629 -0.14546992 0.12831812
-0.17757896 -0.13360626 0.12543957
0.110660605 -0.07186899 0.14089116
0.071722046 0.115308285 -0.41123164
-0.04361992 0.13604374 0.13243926
0.09344029 -0.12743118 0.1584631
0.02728504 -0.10617896 0.12950209
0.14040276 0.1246336 0.115479924
-0.13249561 0.07492926 0.11915784
0.12887292 0.021032844 -0.25526202
0.13166444 0.06969516 -0.41753754
0.09199222 0.027998175 0.14334227
0.12810135 0.025803426 0.14748211
-0.20184484 -0.08816407 0.12560508
0.15730445 -0.0064228773 -0.49692947
0.03761158 0.15812163 0.15018906
0.137023 -0.036915697 -0.39334792
0.0036559678 0.12171089 0.13732539
0.06916472 -0.08511318 0.13540162
-0.12503497 -0.1521658 0.13165125
0.14246589 0.02367789 -0.36868018
0.05634646 0.15366384 0.12521502
-0.018732078 0.06170741 0.1319047
-0.04067164 0.08513444 -0.49715832
0.05222824 0.101962924 -0.18406767
0.00049535226 0.17260326 0.13564701
-0.11099429 -0.15902318 0.12789764
-0.16117172 0.003430695 0.11246379
0.12267817 -0.11023255 0.16269714
-0.11806284 -0.032113455 0.11587501
-0.016795455 -0.1911517 0.14255159
-0.108578354 0.13551916 0.14696307
0.030858224 0.09413966 0.13923877
0.15466636 -0.016018348 -0.49561423
-0.047459196 -0.17998981 0.13194087
-0.11382673 0.053749926 0.12036536
-0.14967145 0.02933401 0.1150198
0.023756366 0.16423978 0.13669498
-0.058289077 0.04613842 -0.5327891
0.070233904 -0.07549526 0.13597353
-0.029745473 0.02411587 0.12886351
0.034428656 -0.20988904 0.12514523
-0.020665014 0.09774666 -0.60143894
-0.20089404 -0.0005965649 0.12978932
-0.052817143 0.030096676 0.12643185
0.056027565 0.010281303 0.1382948
0.06126184 -0.07740092 0.1348314
-0.13081288 -0.04998441 0.113545425
-0.042942416 0.19181038 0.09304544
0.09933009 0.077756666 0.14651866
0.14609785 0.10984163 0.0942887
0.17130114 -0.06616359 0.14421645
-0.075281724 0.07466654 0.12586637
0.1287182 0.024068967 0.16965148
0.08689087 0.016332483 0.1422014
-0.19715981 -0.002214236 0.13015327
-0.11490951 0.1302471 0.14597344
0.10610075 0.04395058 0.1457418
0.14286621 0.13378891 0.0018354632
-0.15217869 -0.16816306 0.08030138
0.042322274 -0.16315973 0.12861858
-0.105186395 -0.1780713 0.1327783
-0.21943945 0.06344574 0.046921525
0.0032550555 -0.003868972 0.1314371
0.06297053 -0.08868001 0.13450766
0.11591726 0.053112954 0.1473217
0.0064969165 -0.09194761 -0.5133393
-0.16149712 0.016771102 0.11304615
-0.12926923 -0.07092716 0.112753205
-0.19094922 -0.0026033602 0.118087694
-0.019991599 -0.1764426 0.12068216
0.012416808 0.12631042 0.13856818
0.028817598 -0.20499092 0.1419708
0.081760585 -0.15260433 0.155921
-0.20660582 -0.059823938 0.083238505
-0.029444639 0.085572086 -0.6269352
-0.19533004 0.08129183 0.0009886767
0.007978083 -8.389121e-05 0.1321684
-0.12894677 -0.086976334 0.11204446
0.067594685 0.06267763 0.14208944
-0.03340864 0.19586362 0.008720759
0.005187274 -0.20519382 0.14237222
-0.12075443 0.09426625 0.12143532
0.14728183 0.110130474 0.08439427
-0.1840552 -0.1144434 0.1264738
0.1535225 0.06121227 -0.5394779
-0.0045369803 0.08987682 0.13488251
-0.035856478 0.09075737 -0.48582888
0.054552883 -0.04330831 0.13562927
-0.018966584 -0.2187057 0.116248615
0.12060822 0.110014066 0.16637343
-0.012822181 -0.18586881 0.14326423
0.15220225 0.009706629 -0.43790713
-0.12061794 0.12957647 0.14527233
-0.13873845 0.12396914 0.14288433
0.033044595 -0.08693188 0.13107385
-0.037458822 0.11755163 0.13230298
0.11739027 -0.06610813 -0.3724259
-0.09839963 0.08895599 0.12381451
0.06660917 0.13601078 0.16756302
-0.2007641 -0.093309574 0.08321559
-0.030913364 0.09725742 -0.46017817
0.14043054 -0.1144004 0.15960225
0.16832483 0.037149508 0.020330336
0.04124658 0.15937872 0.1213016
0.14164762 -0.05028239 -0.526772
0.0008857871 0.08007902 0.13506407
0.048546366 -0.03953059 0.13509862
0.014516205 0.11894721 -0.4155554
0.1676747 0.0022395886 0.07526372
0.10625012 0.13307965 0.15737477
0.04296444 0.13573007 0.16477238
-0.01698616 0.17746338 0.15101413
0.15344262 0.062483594 0.10266215
-0.14570315 -0.0665902 0.11102488
-0.060603015 0.10237052 0.12887794
0.0032574926 -0.15706892 0.12431421
-0.011257317 -0.16624638 0.12218138
-0.11452308 0.08717985 0.121837944
0.103556365 0.050030075 -0.14248742
-0.15705281 -0.08923324 0.1086392
-0.19453417 0.018304316 0.13141601
0.0042495197 0.040436894 0.13361509
-0.10401065 -0.108004786 0.113996096
-0.17923215 0.097578794 0.05359531
0.1338041 -0.048452772 -0.4204116
0.02755321 0.10702751 0.13944925
-0.20452493 0.07048002 0.1274106
0.019065015 -0.050985236 0.13110402
-0.114117496 0.15173046 0.040512085
0.18382303 -0.044610575 0.013423714
0.10029439 0.093025155 -0.35193348
0.1350979 0.12648617 0.11585979
0.076583125 0.14833432 0.104074515
-0.035464488 0.09619734 -0.3992941
-0.010222331 0.07861385 0.13369079
0.039672732 -0.14586739 0.12911232
-0.13131443 0.021565983 0.116814755
-0.13325465 0.081170835 0.11935793
0.042523384 0.104369245 -0.17073347
-0.006788366 -0.19270617 0.14365517
-0.045607418 -0.051837765 -0.5081846
-0.01547577 -0.044752933 0.12733655
0.08259143 0.14110117 0.16181214
-0.009746296 -0.21124421 0.1381414
0.08495379 -0.09251582 -0.43583792
