# .PCD v0.7 - Point Cloud Data file format
VERSION 0.7
FIELDS x y z
SIZE 4 4 4
TYPE F F F
COUNT 1 1 1
WIDTH 1000
HEIGHT 1
VIEWPOINT 0 0 0 1 0 0 0
POINTS 1000
DATA ascii
0.101807445 -0.14418301 0.122570656
-0.20853588 -0.15133058 0.041929152
0.1588273 -0.030646058 0.14871016
-0.2891722 -0.06168857 -0.079245545
0.1892305 0.10030238 0.072491765
0.26330152 0.12925906 -0.06765761
-0.05181957 0.1868077 -0.1524972
-0.1905727 -0.02869149 -0.031824403
0.071496435 -0.22572376 0.06351106
-0.15082458 -0.18064521 0.11715155
0.01239004 0.18522751 -0.10104467
0.22871919 -0.08203076 0.063927025
0.23050275 0.16146511 -0.0020783031
-0.07822487 -0.110357024 0.16919644
0.106876075 0.23204662 -0.061971907
0.2452452 0.09826971 -0.012999587
-0.22426395 0.09881595 -0.20571052
0.10831009 -0.09410071 0.15706137
0.0384968 -0.23138598 0.0646529
0.25742462 0.095148176 -0.028913409
0.107962996 -0.18779069 0.0933083
-0.11338635 0.10122438 -0.15312757
0.03455223 0.19082557 -0.079268724
0.009571253 0.22399808 -0.14036883
-0.055959355 -0.27583286 0.056577533
0.10838185 -0.08745133 0.16282949
0.021589823 -0.19029915 0.09812579
-0.04730016 -0.23834196 0.0783562
0.17623356 0.14427385 0.08130522
0.23803467 -0.0022934487 0.018988116
0.1699355 -0.08229814 0.13684125
-0.25465015 -0.1754108 -0.14211093
-0.2143279 -0.060872883 -0.011081473
0.10517407 0.24105735 -0.17656991
0.010175563 -0.15707132 0.12578607
0.1413205 -0.017747954 0.17064892
0.18303508 0.0029043271 0.10474102
0.0983707 0.26670983 -0.109944694
-0.15977293 0.05417707 -0.13349737
-0.18749823 -0.15210097 0.09996473
0.13213012 0.029652778 0.16518338
-0.042544298 0.10007299 -0.18660718
0.10038953 -0.0012535816 0.1914942
-0.12093225 -0.117337845 0.13879754
0.06870571 0.22247373 -0.08526526
0.039457764 -0.12051666 0.15151316
-0.24088402 -0.025755893 -0.075863175
-0.3177359 -0.09706701 -0.085008405
-0.0654096 -0.06919047 0.13289215
-0.14973238 0.17863189 -0.23129563
-0.10586507 -0.2808599 -0.06885403
-0.052283216 0.17813782 -0.14421988
0.081641234 -0.2294076 0.060740627
0.06589979 0.24039432 -0.10863278
0.10356771 0.2638845 -0.101972304
0.111100286 0.15991935 0.02569738
-0.19262037 -0.1793611 0.0010831126
-0.04476501 -0.1236852 0.1626377
0.08859746 0.112882845 0.060092557
0.1861184 0.097582445 0.07704439
-0.15119667 -0.0830916 0.071686946
0.1018503 -0.11223694 0.14299822
0.12759973 0.2209235 -0.030349243
0.028498035 0.14059448 -0.09609779
0.07199795 0.11566178 0.04189178
0.08243345 -0.08645981 0.1637881
0.051271826 0.024987131 0.1286235
0.00968831 -0.20205477 0.09294938
-0.17938744 -0.13578442 0.10414639
-0.25529414 -0.011406339 -0.10554209
0.1752835 -0.0256502 0.120877445
0.20111553 0.052395426 0.062284306
-0.14401679 0.18556254 -0.23419753
0.009240193 0.07111123 -0.20214109
-0.27754784 0.0075378222 -0.14763956
-0.055485543 -0.20422749 0.10855228
0.047298018 0.046544667 0.099974506
-0.08766742 -0.0075664185 -0.19704807
-0.074448474 -0.05599256 0.109394476
0.060629446 0.14471251 -0.049984753
-0.16546452 -0.17858604 0.08146388
0.1684529 -0.103086665 0.13694197
-0.04493971 -0.22414483 0.090749785
-0.05937882 0.17841811 -0.14955834
0.1768916 -0.16764061 0.092152506
-0.25907108 0.084607266 -0.22058178
0.20141748 -0.081202716 0.101272225
0.07472969 0.061407063 0.10743514
0.0032288278 0.15601897 -0.12222926
-0.05215219 0.16069719 -0.1535324
0.09010062 0.22103003 -0.06429137
-0.15575218 0.078511424 -0.14423831
-0.15043311 -0.23255678 -0.04201336
-0.22817637 0.050399628 -0.15294847
0.0256733 -0.048576225 0.19106738
-0.04094413 -0.05426158 0.13759914
0.037744805 0.07593485 -0.18594739
0.005708502 -0.028741777 0.15000358
0.17685877 -0.0995523 0.13040227
0.055262197 0.11162375 -0.12573667
-0.09952163 -0.2437163 0.06973905
0.24074525 0.13665761 -0.10958879
-0.013806034 -0.22257742 0.08462937
0.015428831 -0.043350156 0.1757541
-0.19954444 -0.21887036 -0.13420592
-0.033063076 0.2264426 -0.18166311
0.11575016 0.040008042 0.16930887
0.13030195 0.10073219 0.111829855
-0.1986584 -0.03344025 -0.028846467
0.030362265 -0.041321356 0.18686257
-0.14643231 0.16083951 -0.20763114
0.10710737 -0.10311984 0.1491057
0.023192087 -0.0826534 0.17933728
0.153434 0.20710863 0.009013002
-0.10691274 -0.19295442 0.122144416
0.07281591 -0.24288851 0.04901133
0.11672549 0.037232295 0.17341785
0.07392353 -0.059159223 0.18336248
-0.12898193 0.1579417 -0.18852563
0.12564892 -0.09440482 0.15759659
-0.033904575 -0.12821533 0.15658048
-0.019473372 0.15720667 -0.13641293
-0.053007245 -0.18330106 0.12268594
0.010699752 0.24341433 -0.16192721
-0.21153313 0.004987665 -0.08513616
0.0049049594 0.23648144 -0.15909272
0.18943508 0.089716695 0.07351778
-0.26170272 -0.063628405 -0.05060537
-0.047919143 -0.03975314 0.11443961
0.03428734 -0.032960255 0.1806801
-0.23455876 -0.031477932 -0.06350438
0.013779276 -0.1154917 0.16041209
0.09551218 0.17200102 -0.0024063403
-0.23675966 -0.19193827 -0.14854777
0.19114287 0.025438888 0.079114676
-0.0044352724 -0.24990252 0.06285755
-0.19326259 -0.18280455 -0.011387962
-0.19603392 0.11393507 -0.19783163
-0.12827905 0.020570882 -0.16432084
0.1283214 -0.18497649 0.09060147
0.15980291 -0.12584136 0.124412596
-0.046988033 -0.26755154 0.05997738
-0.012384494 -0.06744078 0.17868024
0.16681549 -0.0733471 0.13957058
0.056535453 -0.148288 0.1299667
-0.18430999 -0.19168648 -0.013105951
-0.23168384 0.121906176 -0.24756518
0.10696836 0.125756 0.06169428
0.011270412 -0.06787419 0.19143203
0.06017261 0.04868754 -0.22582656
0.022161715 -0.13557696 0.14288844
0.04094328 0.20738019 -0.09275334
-0.12608474 -0.11474992 0.13114059
0.113697164 0.08987294 0.10948296
-0.3031632 -0.045703992 -0.117247134
0.047920182 0.054626677 0.0704914
0.15403594 -0.016174516 0.1490462
-0.15803173 0.09189117 -0.15453528
0.21426745 0.114257514 0.028608035
-0.19455467 -0.18967377 -0.036313284
0.24625687 0.14053491 -0.08178459
-0.17186676 0.170351 -0.2416274
-0.04709695 -0.22499678 0.090123035
-0.00392991 -0.16429488 0.12320908
-0.012070107 -0.18172005 0.11303827
-0.07016358 0.14443393 -0.16209202
-0.055372108 -0.14117405 0.15307125
0.13926245 0.15511766 0.056680076
0.18632264 -0.05170169 0.11466649
0.18779683 -0.072219715 0.11791854
0.09670132 0.2691125 -0.11424495
-0.04083306 0.19095075 -0.14740397
-0.1533195 -0.04197369 -0.16211939
-0.22978514 -0.15052661 -0.016614763
0.13415821 -0.077647105 0.16292064
-0.11928685 0.12177686 -0.16165552
0.1365336 -0.036530107 0.17714804
-0.27547824 -0.10922603 -0.020313624
-0.19240807 -0.14946012 0.09402222
-0.09443982 -0.24586737 0.07768876
-0.09995268 -0.24302489 0.07063572
0.0128611345 -0.21961494 0.0797099
-0.09983021 1.4341587e-06 -0.1988716
-0.01769576 0.1698721 -0.13566548
0.17054142 0.19479442 0.029523429
-0.1872983 -0.055342432 0.0068643396
0.24165598 0.074818455 -0.0018216739
-0.13221045 -0.05166818 -0.15935129
-0.25638574 0.07507816 -0.20708127
0.1470947 -0.09569061 0.14711154
0.12385674 0.16330479 0.03326702
0.14164902 -0.010582319 0.16640109
0.06518736 0.16473296 -0.021306368
0.09195141 0.08170682 0.09936547
0.02245841 -0.070920326 0.18700795
0.19086175 0.015966378 0.08066092
0.26617035 -0.029925847 -0.015739327
0.19774558 0.16492096 -0.14581046
0.18768726 -0.115423985 0.11867838
-0.09580692 0.16821308 -0.17054647
0.14187197 -0.20885341 0.058603756
0.008365862 0.261319 -0.1864413
0.007309122 0.14177333 -0.11769036
-0.16945575 -0.0067775236 -0.13989739
-0.22195514 0.14554508 -0.27988374
-0.18813555 -0.15548982 0.0876726
0.056588132 -0.12634514 0.14399222
-0.007947268 0.26283798 -0.20710132
-0.085359685 0.16478802 -0.15714204
0.15095209 -0.19871427 0.07680317
-0.0071766535 0.2129824 -0.14266501
-0.17011061 -0.019118827 -0.060636736
0.16416956 -0.033961233 0.1416938
-0.16851722 -0.16300319 0.120812684
-0.18184997 0.17545189 -0.2590254
0.14582933 0.24402826 -0.05064161
-0.13904072 -0.23262177 -0.009500571
0.048219435 -0.046709217 0.19679348
-0.079780504 0.15878226 -0.16522227
0.19070503 0.15486164 0.05143843
-0.27651033 -0.0006929043 -0.1371329
0.0806878 0.15650804 0.0022375896
-0.13693404 -0.1188165 0.12608534
0.054422133 0.030138185 -0.23337206
-0.117779896 0.04503997 -0.17736855
0.17344344 0.04485459 0.10070929
-0.046215218 -0.0973806 0.18160218
0.14237274 0.030587945 0.15224211
-0.1587271 -0.22528064 -0.04336397
0.08560796 0.06551213 0.11247271
0.0989643 0.073438354 -0.13394569
0.21315165 -0.0477138 0.07743298
0.15469706 -0.1577755 0.10501174
0.09082081 -0.1672322 0.11025559
0.24299163 -0.053416103 0.020346418
0.20570303 0.07643975 0.053109247
0.13912208 -0.18100849 0.09074968
-0.22424293 0.10476935 -0.21261388
-0.24700414 -0.07314459 -0.026282568
0.064120255 0.23493794 -0.103894025
0.08369038 -0.053815737 0.18912163
-0.012528482 -0.17227836 0.11982873
-0.20395108 0.12758695 -0.22084272
0.044439785 0.025468256 0.12190402
-0.06398865 0.06539523 -0.18929563
0.01444842 0.12392008 -0.16315089
0.24374841 0.054642323 0.0024715743
0.1602422 0.21970338 -0.08435814
-0.057100825 0.18956134 -0.16046241
0.031706005 -0.23366037 0.06483067
0.29503036 0.093472764 -0.08703313
0.11320419 -0.008532598 0.20150733
0.12110348 0.080189236 0.12742145
-0.024448201 0.15499277 -0.13866621
0.03792639 0.22269697 -0.11328435
-0.14208868 0.11415513 -0.17019121
0.051976312 0.21145226 -0.08753692
0.27114514 0.10208716 -0.043677382
-0.1481968 -0.08249177 -0.11769106
0.21800707 0.14411579 -0.15185921
0.18503211 0.011481281 0.094073884
0.21957816 -0.14221391 0.08099046
0.11554795 0.0155320475 0.18868783
-0.25983968 -0.12975708 -0.03879529
-0.14197814 0.06454547 -0.13712142
-0.3230443 -0.09440939 -0.09279898
-0.22459969 0.07966208 -0.18374555
0.1557007 -0.147176 0.112257116
-0.14683346 -0.10434609 0.10033308
-0.26530808 -0.109819084 -0.00015162016
0.037795074 0.040309608 -0.23626849
-0.06645721 -0.087757215 0.15353404
-0.03785508 -0.124997616 0.15989314
-0.15842722 -0.04257799 -0.01838089
0.02065435 0.22812074 -0.13516575
0.22767022 -0.06110487 0.061626956
-0.049236123 0.23527205 -0.2065165
-0.13775773 -0.1688207 0.14541505
0.20578298 0.116407864 0.04308294
0.06864749 0.029421333 0.13913903
-0.0212299 -0.16060865 0.13036223
-0.029156351 -0.1029913 0.1736974
-0.17978181 -0.1257935 0.09555515
-0.11772057 -0.05219707 0.06595539
0.04911906 0.27230337 -0.17697303
0.15612976 0.11278087 0.11580997
0.021931812 -0.061468203 0.19317017
0.029579598 -0.014862863 0.15539274
-0.0032172138 -0.034493506 0.1486376
0.14174666 -0.13758484 0.12274255
-0.271024 -0.12396932 -0.05304455
0.24853463 0.11074095 -0.020297956
0.11713442 -0.081042044 0.16931683
-0.040560737 0.0024787094 -0.242408
0.26565865 0.12264134 -0.042214494
-0.26974007 0.03456775 -0.1720243
-0.2181129 0.10568769 -0.20815223
0.10315141 -0.13355973 0.1290676
0.035024557 -0.09752759 0.16720212
-0.12189693 0.09001524 -0.15100375
0.22168566 -0.13812034 0.07784389
0.123487 0.18921265 0.0028107667
-0.14669324 -0.07778012 0.069571264
-0.021494048 -0.013822781 0.10812286
0.240093 0.10325264 -0.0066628302
0.0080370065 -0.113208495 0.16247822
-0.18770143 -0.06470747 0.017388212
0.12019381 0.12301626 0.076807894
-0.30411002 -0.015740938 -0.1445285
0.009738015 0.080809094 -0.21296673
0.16454402 -0.08527929 0.14429261
-0.15526772 -0.09356886 0.08019506
0.116723746 -0.121360414 0.13441217
0.020679485 -0.20662571 0.08683067
0.057072982 0.26846212 -0.1557405
0.10924564 0.12435712 0.06537302
0.15675761 0.09183351 0.117536575
0.13025711 0.1893876 -0.25304288
0.047250416 -0.20969501 0.079317264
-0.26248872 -0.15832774 -0.11704596
-0.13523497 -0.11609206 0.124450356
-0.0126109375 -0.18649468 0.1098074
-0.2545297 0.0074999016 -0.12683569
0.18759203 0.20479265 0.025989456
0.090835676 0.26557627 -0.14203908
0.009224138 0.015016605 0.10229595
-0.1568013 0.14279737 -0.19600447
-0.06444293 -0.26212713 0.06784638
-0.058074266 0.08230887 -0.18097018
-0.15498227 -0.1992249 0.0478409
0.17172827 0.20462625 -0.09792345
-0.10778538 0.1355245 -0.1672662
-0.06356696 0.14063355 -0.15725006
0.19881326 0.19001001 0.029709244
0.23726782 0.072468095 0.00740227
0.09516764 0.20046455 -0.03581146
0.06751176 -0.08890686 0.16552609
0.023051795 0.25889823 -0.168788
-0.047235776 0.14201427 -0.14412749
0.21466006 0.04924902 0.044317517
-0.032380085 0.24633941 -0.20417842
0.087337226 0.26254323 -0.11505035
-0.13960904 0.16346553 -0.20453094
-0.059307873 -0.053149153 0.11974264
-0.013268055 0.0069299736 -0.24339132
-0.23182912 -0.16079055 -0.054175172
0.17060347 -0.028390761 0.1282893
0.25022906 0.01974713 -0.0008674735
0.14295721 0.23112139 -0.0987409
-0.04750326 -0.29673976 0.040473357
0.024196552 0.28541484 -0.22016454
-0.29911456 -0.027806956 -0.12599428
-0.029885922 -0.21674529 0.09297637
0.07387751 -0.07368467 0.17385632
-0.10078127 0.1104518 -0.1519401
0.027911266 -0.011257025 0.14969647
0.030163597 0.23045069 -0.12930018
-0.2987913 -0.018370539 -0.13667454
-0.13688369 -0.075755686 -0.11531932
-0.009455966 -0.05917509 0.17171027
0.14247976 -0.1560058 0.10736819
0.18192689 0.12728876 0.07730509
-0.18367644 -0.18823728 -0.0006363393
0.13066298 0.18199643 0.017673079
-0.24435125 -0.060392994 -0.038718272
0.082756445 -0.046097927 0.19570105
0.046736024 0.016346438 0.13457984
-0.012442153 -0.15801288 0.12988475
0.18089433 0.09367522 0.08460397
-0.13576223 0.0052253506 -0.14777902
-0.1968651 -0.23798981 -0.17792623
-0.029534422 -0.15977225 0.13313696
-0.14777441 -0.12285478 0.12100335
-0.13121513 -0.062004138 -0.1486653
0.031712312 0.08938507 -0.20186593
0.028576516 0.26383582 -0.17134605
0.19625053 -0.07834016 0.10759141
-0.23235914 -0.10900496 0.028617116
0.1941314 -0.12856504 0.11092123
-0.26995927 -0.14337078 -0.08829514
0.114454076 -0.13777609 0.12386866
0.0205594 0.08523661 -0.20703425
-0.024211805 0.13733874 -0.14433798
-0.034499995 0.14106138 -0.17016315
-0.1941751 -0.004896317 -0.067420445
-0.2605069 -0.14711048 -0.08100572
0.03933348 -0.09026934 0.17089246
0.14823161 0.20989454 0.0010829295
0.09320523 0.18128741 -0.01528454
0.23197956 0.08321439 0.011706523
-0.07677525 -0.2945632 -0.02193797
-0.13315238 -0.19823496 0.113589875
0.17784669 0.10367245 0.08750291
-0.2647888 -0.018808475 -0.20135134
-0.0581152 0.22290131 -0.20013879
-0.08869432 -0.07138978 -0.19655077
-0.21139225 -0.18555184 -0.071939096
0.24007744 0.09541127 -0.005189681
-0.027166711 0.2435095 -0.19618766
-0.0065831174 0.17935267 -0.12767053
0.022216754 -0.017988274 0.15238805
-0.069052115 -0.23895206 0.0831028
-0.26195133 -0.092434324 -0.01733708
-0.0013131269 -0.17522073 0.11480104
-0.06163105 -0.29382432 0.023835532
0.2483591 -0.07146895 0.030640159
-0.18038352 -0.097854674 0.06252753
0.21575442 -0.046227124 0.073927835
0.11213978 0.05535917 0.14820547
-0.29740092 -0.09718922 -0.061320867
0.08290823 -0.03277931 0.20725954
-0.22707944 -0.13695009 0.033077504
-0.27131772 0.03323448 -0.17189693
0.16820335 -0.08481441 0.1394684
-0.011215375 -0.11450234 0.1622793
-0.17969838 0.11531538 -0.18470302
-0.2551236 -0.18025327 -0.15203136
0.25210565 -0.08871161 0.016263688
-0.23486793 -0.00034925813 -0.09997757
0.22791746 -0.039964736 0.044392873
0.28070813 0.05349084 -0.05142892
-0.19495834 0.14382502 -0.2316133
-0.11571582 0.07934323 -0.19447614
-0.20867611 -0.054171275 -0.013775278
-0.1664248 -0.20946422 -0.016633715
0.013600563 0.015453302 0.105734155
-0.17989513 -0.04034243 -0.009435376
-0.07106849 -0.07587585 0.13556035
-0.1924574 0.07291822 -0.1469159
-0.12323348 -0.20168364 0.12271136
-0.04740311 -0.27505416 0.055032395
-0.059309866 0.02740992 -0.20967944
-0.24328573 -0.113106236 0.023530303
-0.033032577 0.14366375 -0.13727647
-0.24222252 -0.15870512 -0.077585414
-0.25038183 -0.023502694 -0.08704889
0.20175906 0.031327005 0.06400356
0.14952818 0.22915594 -0.02014476
0.21856345 -0.13075456 0.08081084
-0.004619117 -0.27830914 0.042390015
0.016059304 0.067151584 -0.19763872
0.09936234 -0.18846683 0.0947793
-0.16055731 0.12556538 -0.1793574
0.05611119 -0.18914187 0.09599203
0.10680182 -0.0048770076 0.19649187
-0.24625693 0.080973856 -0.20480067
0.13931067 -0.03715425 0.17477153
-0.16829534 -0.21985541 -0.054091748
0.20425607 0.19307643 0.02232704
0.2093909 0.1497567 -0.15918623
0.0925468 0.09121509 0.08884747
-0.2574566 -0.12710844 -0.023775145
0.09498292 0.22506815 -0.0645841
0.12533087 -0.015616314 0.19391519
-0.28783602 -0.014294332 -0.1315336
0.11510751 0.19414733 -0.0104822675
-0.043310013 -0.10025127 0.17881155
-0.23713431 0.037408646 -0.14592059
0.07869683 -0.09315583 0.1603314
-0.19212204 -0.043349084 -0.011431078
0.29810783 0.08392652 -0.10766751
0.21059552 -0.10780541 0.09020662
-0.19263113 0.053333364 -0.12692589
-0.07356846 -0.27356628 0.052104473
0.099073656 0.058006946 0.13334323
0.07846872 -0.2272926 0.062393386
0.19336495 -0.09069981 0.111221746
0.16630414 0.00051284244 0.12756826
0.21810748 -0.05946979 0.07327667
-0.0005410767 -0.0447738 0.16300513
-0.06552368 0.221885 -0.20563895
-0.112226106 0.052037798 -0.1798623
0.2302614 0.12207571 0.0023394893
0.017070081 0.26635966 -0.18837361
-0.14134793 0.08370729 -0.1427642
0.25315884 0.05973103 -0.01519773
0.25674054 0.08314319 -0.026395394
-0.115411274 -0.1864622 0.12841871
0.04002166 0.26869026 -0.17318724
0.074853875 0.054102536 0.11604001
-0.07699734 -0.04687537 0.096495315
-0.14784724 -0.026829645 -0.110323295
0.11662526 -0.15775271 0.11060754
-0.0061888574 0.16012664 -0.1299187
0.12757581 -0.030843621 0.18624714
0.20800667 0.15348895 0.02479517
-0.032550592 -0.020415312 0.10581499
-0.010299917 0.25460592 -0.1938768
-0.26796994 0.068329275 -0.20968293
-0.11163751 -0.018006884 -0.19320185
0.10321212 0.07695014 0.11505223
-0.20657416 -0.14117347 0.07892108
0.21583235 -0.09986465 0.08372436
-0.15957849 0.031888798 -0.16661857
-0.2511638 -0.042343903 -0.06584714
-0.061498143 -0.1322086 0.1610159
-0.1321778 0.06978166 -0.18854886
-0.26396674 -0.03926884 -0.08096867
0.1859975 0.2026406 -0.06307832
-0.26420775 -0.17125268 -0.15032941
-0.12064794 -0.246872 -0.00067578146
-0.013917643 0.063511096 -0.21040416
-0.17490278 0.1711654 -0.24531358
-0.2804469 -0.10409431 -0.020460969
0.010097852 -0.037002463 0.16356465
-0.15038638 0.11704696 -0.16350253
0.13736498 0.12650836 0.08823251
0.23937479 0.14634681 -0.011449748
0.18657212 0.13417056 -0.27284044
-0.10658614 0.1492704 -0.16660629
-0.17529353 0.034254234 -0.117229454
0.010287849 -0.040703453 0.16803972
0.2810566 0.09511785 -0.122082315
-0.062223192 -0.10130217 0.17310089
-0.09656151 -0.28490934 -0.06087618
0.14080998 0.050965622 0.14898808
-0.22812985 -0.1908439 -0.124583974
0.06420545 -0.24348895 0.050349172
0.08406653 0.12511629 0.041782215
0.003430831 -0.20069137 0.09555827
-0.1435319 -0.1649236 0.14921969
-0.0341556 -0.27404216 0.052134432
0.052612327 0.26496902 -0.22878392
-0.06447279 -0.26936856 0.0629839
-0.04439463 -0.21253298 0.099768035
-0.28903198 -0.09089876 -0.05035567
0.09085615 -0.15259065 0.11961455
-0.24775667 -0.1326618 -0.013064863
-0.003972278 -0.17142889 0.11817872
-0.0066548265 0.22266927 -0.15345797
-0.0705744 -0.06652 0.12512748
-0.11434876 -0.09212118 0.115415044
0.113887444 0.23527615 -0.16939522
-0.20154409 0.15517913 -0.2654565
-0.0463925 -0.12585197 0.16153423
0.039537683 -0.0913432 0.17015997
0.05537782 -0.07909141 0.17449233
0.07380621 -0.10292395 0.15516476
0.022475181 -0.063616894 0.19167563
0.18019252 0.22128268 -0.022189474
0.12821472 0.23058446 -0.04102708
0.08226704 -0.15338804 0.12100668
-0.15499571 0.1814366 -0.23930247
-0.17801468 -0.14995286 0.11442189
-0.28434443 -0.062154584 -0.0727386
-0.10419557 0.00264943 -0.19952866
0.061163742 0.18665653 -0.05042269
0.25855878 0.0627252 -0.022612816
-0.13027917 -0.08930467 0.09777468
-0.20175181 -0.23560105 -0.17964193
-0.09546307 0.17998594 -0.18392405
-0.2144209 0.06468304 -0.15714708
-0.20745821 0.09244746 -0.18314831
-0.084222406 0.07712747 -0.18235865
-0.15107577 -0.047723375 -0.0055806544
0.06546424 -0.038705796 0.20010886
-0.06893642 0.12025303 -0.15048063
-0.18382375 -0.014177507 -0.06282308
0.1051585 0.047079835 0.15153562
0.2296188 0.12889451 -0.16551116
-0.095655195 -0.28388438 -0.043183535
0.14887133 0.14012128 0.082780704
0.015771333 0.11282386 -0.15644796
0.19166738 -0.10611945 0.11212334
0.04148373 0.21701032 -0.10346426
0.15051915 -0.14891374 0.11239538
-0.0055681323 0.058364734 -0.20916754
0.014607077 -0.23140013 0.070924096
0.22671181 0.012913418 0.03245676
-0.14080074 -0.18260615 0.13979012
-0.09177897 -0.25944427 0.043412358
-0.06395799 -0.15299566 0.14697684
-0.05045128 -0.08629748 0.16627291
0.031113027 0.27219176 -0.18658784
-0.066880085 -0.09704174 0.16394706
0.13532482 0.14443202 0.065553464
0.22070743 0.031110594 0.038355168
-0.0036474254 -0.12929672 0.14957947
-0.24014778 -0.1484228 -0.0398794
-0.10163842 0.16341631 -0.17022845
0.12633076 0.20166814 -0.009105445
-0.2200096 0.13554451 -0.2538493
0.061671153 0.056759126 0.10106297
-0.23750484 0.009064302 -0.11330003
-0.15548481 0.17173538 -0.22846468
-0.018263914 0.20885809 -0.14786875
-0.044504303 0.22276562 -0.18770657
0.16750048 0.17964347 0.05363295
-0.069340795 0.12877335 -0.14866877
-0.14923969 0.1883403 -0.242138
-0.16333337 -0.11506942 0.09792011
0.21239763 0.09078847 0.039169427
-0.04604719 0.19371937 -0.15532532
-0.08361365 -0.2669557 0.043666657
0.024106942 0.10774858 -0.15522993
0.043255784 0.24606733 -0.13564847
0.16956586 0.024337111 0.11659802
-0.18057021 0.030962039 -0.1160905
0.17334773 0.026308358 0.10645684
-0.12095565 0.21322975 -0.24556571
0.29270628 0.053763736 -0.06436063
0.17197938 0.20666097 0.016646788
-0.22336861 0.0063846256 -0.097435094
0.049720906 0.17019752 -0.07341501
0.24748473 0.074475296 -0.010721556
-0.18335699 -0.08601219 0.04607621
0.11969739 0.17556424 0.015262376
0.16607258 0.17825682 -0.19558738
-0.17440793 0.073278464 -0.13862355
-0.00068886235 -0.25346527 0.059356157
-0.13645485 0.0014658972 -0.14263283
0.1149309 -0.104146056 0.14912109
0.23743272 -0.087933525 0.05407348
-0.057673875 -0.2485965 0.074167766
-0.23816739 -0.035032347 -0.062627375
-0.08970536 0.1868723 -0.18673855
-0.13379739 0.17036572 -0.20731099
0.064486966 0.066802725 0.09192525
0.20288548 0.21362785 0.01934503
-0.037807155 -0.11787829 0.16491121
-0.06955691 -0.07416902 0.13493963
0.27825153 0.041304894 -0.047034826
0.031077275 0.22256102 -0.11930455
0.122940496 0.06179727 0.15046154
-0.1240518 -0.06433619 0.07435997
0.04408928 -0.14918882 0.13214457
0.0127767045 -0.23391496 0.06962921
0.120967515 0.17221406 -0.3146449
0.0633146 0.04793047 0.11280795
-0.21730153 0.12490013 -0.22976205
-0.0038441943 -0.15002994 0.13326362
-0.107236646 -0.22803923 0.095987126
-0.12386968 -0.20269457 0.12218684
-0.21094759 -0.083815366 0.018639307
0.13556749 0.11117255 0.10444117
0.21182148 0.12252213 0.028948147
0.043810695 0.2557795 -0.14644033
0.031222183 0.044032373 -0.24157494
5.605219e-05 -0.0018558366 0.11364466
-0.19312792 -0.16421728 0.046387468
0.24097201 0.14964002 -0.013187508
-0.24010637 0.09743559 -0.21839473
0.04931044 -0.15520486 0.1271404
0.18406124 -0.16676469 0.09037215
0.17182335 0.1820139 -0.1674719
0.11618961 0.01998202 0.18653834
0.1574326 0.07084721 0.119203515
-0.22500396 -0.057145976 -0.025045447
0.19310337 -0.15641227 0.095148735
-0.26934975 -0.02058985 -0.107542746
0.011443585 0.20218496 -0.11331945
0.20316187 0.19136012 -0.048618343
0.12521073 -0.16428025 0.104531124
0.03106009 0.17700027 -0.06634602
0.027492339 0.23716588 -0.13951628
0.039327737 -0.14925137 0.13184045
-0.25826368 -0.08660165 -0.020792186
-0.16789383 -0.23919673 -0.112659715
0.118673235 -0.02522625 0.19527617
-0.13313775 0.122487664 -0.1737254
0.20791103 0.007875874 0.058553692
-0.044389952 0.13237418 -0.14749005
-0.17516074 -0.14823674 0.11435774
-0.150095 0.12571666 -0.17009641
0.06506435 -0.16950303 0.11450517
0.059320796 -0.13804853 0.13589858
-0.022645256 -0.062197715 0.16332947
0.094340034 0.07616368 0.10796428
0.036755268 -0.12958437 0.1463101
0.07550471 0.15924312 -0.0056174556
-0.15635459 -0.09005484 0.07512912
0.013833799 -0.093574725 0.17442334
0.08279867 -0.22185093 0.06800327
0.15439297 0.18543857 0.034866128
0.224827 0.010366488 0.03532563
-0.04991782 -0.07702345 0.15597005
-0.08418626 -0.2295582 0.094076596
-0.2048307 0.082961254 -0.16974968
-0.12161664 -0.07348651 0.08719551
0.2663598 0.1198225 -0.08800778
-0.14409742 0.06462 -0.13707341
-0.030485325 0.15300974 -0.14180474
0.017010013 0.25168273 -0.16584991
0.27509204 -0.025290903 -0.034293376
-0.1323161 -0.18909588 0.13337418
-0.09207904 0.03737315 -0.22960326
-0.106430754 0.018084893 -0.21093777
0.19545023 0.19250773 0.033519495
0.2223473 0.09632156 0.022792315
0.2368359 0.104303844 -0.0027184726
0.1384725 -0.0462474 0.17239742
0.020384328 0.07528591 -0.1969455
-0.14552094 -0.027984777 -0.10688151
0.065518 -0.03108566 0.19998379
-0.17795224 0.054457963 -0.13043113
0.12609458 -0.13060643 0.12748343
-0.23834199 0.008949466 -0.113922514
-0.076329306 0.006400654 -0.20226777
-0.020904165 -0.144606 0.14158224
0.14349753 0.042361632 0.14822362
-0.106896594 -0.20804843 0.11368911
0.06966662 -0.166828 0.11519788
0.22705276 0.115353234 -0.21469286
-0.033291187 -0.037950516 0.12553556
-0.14138998 -0.18602458 0.12763432
0.06531512 -0.06712489 0.1799477
0.079422094 0.027325097 0.15129432
-0.13131022 -0.2484489 -0.036166452
0.19414587 -0.15126151 0.09836059
0.17835309 -0.08838211 0.12680148
-0.1658086 -0.20599967 -0.0041697198
-0.2856991 -0.10146923 -0.028248413
-0.182074 -0.1699534 0.060420126
0.15620902 0.14883338 -0.30286554
0.10796987 0.08310749 0.11218517
0.04035713 0.1744545 -0.08131162
0.1109883 0.012817677 0.18799713
-0.16119511 -0.06851545 0.045721736
-0.25117242 -0.15022546 -0.07493633
-0.1295168 0.104650594 -0.1592122
0.03358808 -0.004568323 0.14703855
-0.0018785538 0.15754594 -0.1263585
-0.21284182 0.11140148 -0.2100441
0.15072107 -0.16001818 0.10447272
-0.12177618 -0.21636516 0.090280764
0.16246922 0.19011758 0.032194074
0.19066311 0.026379948 0.07964891
0.16114816 0.030327415 0.12674785
0.2321787 0.14232014 -0.116705924
0.06408845 0.047655627 0.11382604
0.25080755 -0.059990026 0.008777399
0.23932947 0.09048542 -0.0033271655
0.010151505 0.27326733 -0.20963867
-0.13429928 0.16068695 -0.19651118
-0.14521527 -0.07006495 -0.13858019
-0.092335716 -0.26292515 0.031064244
0.045148432 -0.21876332 0.07239151
0.12056641 0.1948382 -0.0063609066
0.23076096 0.14176282 -0.0030631514
0.09078675 -0.18187764 0.10089358
0.12842262 -0.008931537 0.18717143
0.088757455 0.20872188 -0.29442123
-0.03741085 -0.010107863 -0.23990965
0.23326457 0.048803054 0.017815605
-0.08113401 -0.17459975 0.13622938
0.05845026 0.12515394 -0.045702588
-0.24463305 0.11514062 -0.26523888
-0.2950596 -0.023599941 -0.12722893
0.16861232 -0.16741218 0.09450435
0.23675859 -0.095809415 0.056274105
0.12391319 0.08449277 0.12495207
-0.014890652 -0.018156467 0.11911655
0.030987764 -0.08478241 0.17624997
0.18897139 0.19330621 -0.08336078
-0.03402194 0.17574455 -0.13988411
0.23304379 0.027437136 0.022089977
-0.043143597 -0.024039758 0.085421935
0.23918222 0.15735629 -0.013056322
0.24837598 -0.08195029 0.039387107
-0.059735965 -0.062472835 0.13019742
0.24672908 0.13133346 -0.019613955
0.1385952 0.14557476 0.0671734
-0.028912803 -0.08785398 0.18567334
0.13107541 -0.09671122 0.1545287
-0.22969161 -0.04354336 -0.045088112
-0.124030665 -0.16043194 0.1520455
0.099764325 -0.08032372 0.16801043
0.21831703 0.13680726 0.014787172
-0.121196404 0.043121316 -0.1771393
-0.046031803 -0.25868592 0.064885244
0.1964268 0.028373409 0.07159351
-0.07623496 -0.073207945 0.1277992
-0.22521625 -0.06496227 -0.016146975
0.1264074 -0.017379187 0.19240049
0.21323241 0.16125372 0.016718162
-0.11704495 0.18134612 -0.20497
-0.010236234 -0.030161705 0.13727343
0.09969368 -0.08707853 0.16214906
0.039829608 0.04374199 0.09649795
-0.16201979 -0.087152265 0.06664555
0.1620617 0.094754584 0.10999045
0.23968555 0.16405183 -0.012796665
-0.25726974 0.07686279 -0.20995149
-0.20899184 -0.14082782 0.073050626
0.13466568 0.24712104 -0.05443706
0.08139235 -0.24191321 0.047089905
0.2512844 -0.09111509 0.03631851
-0.14607301 -0.03662192 -0.09854778
-0.03381233 -0.15037026 0.14090388
-0.137329 0.17723128 -0.21848027
0.2069067 -0.11565199 0.09372477
-0.10892282 -0.23836744 0.059256293
-0.054095093 -0.021468895 -0.2430613
0.02552695 -0.12531705 0.15152696
-0.23143427 0.044214115 -0.14869171
0.025962142 -0.2623654 0.046060335
0.09838027 0.11012592 0.07212057
-0.28794834 -0.12607487 -0.08341207
0.0392117 0.17843084 -0.060657863
0.012712585 0.15105543 -0.113269195
-0.11226267 -0.03990848 -0.1591362
-0.09224411 -0.07469586 0.11509063
-0.2758233 0.01827347 -0.15856688
-0.06440512 -0.2549447 0.0726691
0.031061629 -0.055567693 0.19492458
0.18102683 -0.13035013 0.115596324
-0.07817119 0.20068747 -0.19239815
0.09280369 -0.20541109 0.0846158
0.0555394 -0.25108793 0.046167765
0.20871957 0.067372665 0.0501357
-0.04657301 -0.15434529 0.14145084
-0.18880041 -0.21593933 -0.10088605
0.28381035 0.069367446 -0.055740282
-0.075737596 0.19078445 -0.17869028
0.10193556 0.19704862 -0.025735812
0.09140393 -0.06331321 0.18178362
-0.1420564 -0.14402665 0.14034832
-0.1656319 0.1869638 -0.25532207
-0.13752264 -0.1575432 0.15368834
-0.035602313 0.14845563 -0.1411249
0.24292757 -0.08495399 0.04670165
-0.104563475 -0.27504727 -0.04147997
-0.12218012 -0.1481332 0.16285473
-0.24709278 -0.051107235 -0.051988147
-0.14901486 0.17036462 -0.22103405
-0.14512298 0.16012491 -0.20561975
0.16160384 0.04115183 0.11898526
0.2437916 -0.0734515 0.043641288
0.074301936 0.0759009 -0.1678888
0.065206274 -0.11097907 0.15191506
-0.08095414 -0.18570325 0.12703641
0.087070085 0.18333079 -0.02319335
-0.26479188 0.022364521 -0.15337354
0.19751021 0.0041235746 0.07311054
-0.013526877 0.196418 -0.12913217
0.22736701 -0.008180453 0.034165252
-0.03243812 -0.047658402 0.137591
0.20268905 0.085460104 0.056080688
0.05673925 -0.06793202 0.18133011
-0.18669389 -0.026563829 -0.042037908
-0.1443685 -0.22010739 0.013843772
0.10493965 -0.124019176 0.13477656
0.19740754 0.08251247 0.06360242
-0.02975183 -0.19538295 0.10803476
-0.1488891 -0.073725656 0.06287715
0.02138654 0.17722899 -0.10498713
-0.09652127 0.13307504 -0.15555757
-0.115458876 -0.19361186 0.123428985
-0.016824301 0.2139914 -0.152541
-0.16179414 0.03465998 -0.117790066
0.15592803 0.16602501 0.059028506
0.069175884 0.14283851 0.007748724
0.1337404 -0.020025946 0.18385786
-0.20574014 -0.10223279 0.044750094
-0.07252865 -0.103708394 0.16660453
-0.03467685 -0.26303193 0.05938643
-0.24738549 0.052335307 -0.17252052
0.090480156 -0.12529677 0.13716036
0.16701166 -0.019734098 0.1301773
0.27343634 0.03870396 -0.03849583
0.13602163 -0.2013956 0.07839245
-0.11916351 -0.082660444 0.100073956
0.26232436 0.086261034 -0.033642773
-0.02120747 -0.1944796 0.10642586
0.06326726 0.08271405 0.0005555895
-0.07202639 -0.13558927 0.16139707
-0.22534443 -0.18471497 -0.10400157
0.1499137 -0.06124386 0.15974705
0.24616458 0.10683686 -0.017273499
0.084911734 0.22383215 -0.07222951
0.03496126 0.21159491 -0.10304937
0.10037925 0.048027676 0.14612354
0.25591293 -0.078230105 0.018441
-0.06630408 -0.114539124 0.17476332
0.23547691 -0.12137736 0.059778966
-0.16975577 -0.16978996 0.09630213
-0.051326506 0.19647601 -0.16329418
-0.055368125 -0.16332516 0.13741912
0.087745495 0.015746765 0.17226164
0.16500762 0.08574352 0.10710882
0.07511215 0.2390298 -0.09873515
-0.16930117 0.026761353 -0.11522506
-0.10475867 -0.028403832 -0.1892475
-0.046743464 0.22944275 -0.19748881
0.013690173 -0.122196004 0.15460421
-0.0057272506 0.27155122 -0.22336388
-0.058767527 -0.043801915 0.10936161
0.19183847 -0.013167599 0.09775516
0.010745099 -0.14555298 0.13485047
-0.109858714 0.21736962 -0.24037126
0.050194878 0.1825602 -0.055551488
0.06352164 0.12252485 -0.037505265
0.20654808 0.081828125 0.05122381
0.068030655 -0.08767744 0.16619837
-0.055247426 -0.1765221 0.12806411
-0.063642636 -0.15604593 0.14473857
-0.14422296 0.00057389087 -0.13891628
-0.10919493 -0.094720505 0.12308499
0.19345674 0.18690509 0.03709048
0.22468296 -0.041497402 0.05583788
0.15207297 -0.18988816 0.082201995
0.10798426 0.23164847 -0.19754931
0.03965074 -0.047517855 0.19817328
-0.07207367 -0.14265211 0.15641838
-0.16376206 -0.12436949 0.10834722
-0.08967933 -0.19254842 0.1214767
0.13794833 0.21539569 -0.0145898
0.13376434 0.036370885 0.16198507
0.17735957 0.13966286 -0.28107542
-0.013140687 -0.26450226 0.053344253
0.00092787214 0.21682115 -0.13982058
0.16453014 0.19090174 0.03200464
0.07118256 -0.014585322 0.18819237
-0.015378125 -0.03483737 0.13807154
0.14054804 0.09531334 0.12737283
0.19221213 0.21796152 0.008500098
0.048049442 -0.11246419 0.15476261
-0.19291437 0.0044890586 -0.07767481
0.108091645 -0.12920946 0.13075863
-0.13084441 -0.10284059 0.113002576
0.15839092 -0.017486062 0.14260599
0.18033431 0.1989692 -0.09067685
0.03418306 0.0048064566 0.13667625
0.10700475 0.058511175 -0.12242753
-0.033699643 -0.17255262 0.1252028
-0.14907278 -0.047308356 0.022779131
-0.03767113 0.24912612 -0.21219149
-0.2772471 -0.019595379 -0.11582089
-0.10659271 -0.046769083 -0.1654722
-0.31300277 -0.06832057 -0.11250671
-0.23726705 -0.0970838 0.010330701
-0.21586305 -0.098245494 0.030985245
-0.107335724 -0.057453256 0.08143279
-0.049584825 0.25672546 -0.23177233
0.098583855 0.019843679 0.17727546
-0.08064728 -0.20953877 0.10585104
-0.13480106 -0.13451429 0.14111996
-0.17020307 -0.047519896 0.0131853465
-0.1965541 -0.14221074 0.099515766
-0.010224185 0.14134504 -0.12787935
-0.16491106 -0.04601278 0.0041166223
-0.1260493 -0.21730849 0.07509554
0.24876007 0.0036170608 0.0037256218
0.18016104 0.11563249 0.08289566
-0.13240764 -0.18096331 0.13646364
-0.28219295 -0.0074795536 -0.13436873
0.07282273 0.11787153 -0.019359987
0.1775588 0.185802 -0.13930668
0.19513753 -0.025496585 0.09607644
-0.276213 -0.09002068 -0.033005316
0.08417154 0.017761901 0.16669711
0.058710333 0.06002726 0.09459246
0.019469935 0.28788474 -0.2292603
-0.19062552 0.080219045 -0.15375093
-0.14678392 -0.17408931 0.14696401
-0.25372872 -0.107854776 0.008007817
0.23358025 -0.0041766446 0.025254572
-0.26442036 -0.11217599 0.0023346967
-0.0967943 0.13964447 -0.16214511
0.13355938 0.06967121 0.15088345
-0.10779657 -0.23148705 0.08373581
-0.023239763 -0.12177339 0.15832765
0.07156301 0.18115433 -0.034647524
-0.2549434 -0.001966638 -0.116202764
-0.14763021 0.07376926 -0.13964303
0.069477186 0.13261789 0.016472539
0.2177218 0.09380356 0.031693194
-0.1449601 -0.20652023 0.05409786
0.0639421 -0.02578994 0.19064522
-0.055617053 -0.21854454 0.09636061
0.19883409 -0.016834108 0.08883627
0.009637627 -0.19090243 0.100841954
0.16963445 0.109692946 0.09789127
0.13022964 0.17971793 0.019931106
-0.1990063 -0.078112 0.022779131
0.12445474 0.17286152 0.022694854
0.042858757 0.16457544 -0.07858073
0.20674591 0.07120085 0.052339867
0.015401954 0.23089093 -0.14312597
-0.089043245 0.0035888765 -0.20352831
-0.1838131 -0.011205766 -0.06905726
0.088911906 0.034568164 0.15143098
-0.28141302 0.011456969 -0.15568233
0.18308967 0.21197711 -0.04260039
-0.016047938 0.24764091 -0.1909631
0.077900514 0.1976226 -0.048078842
0.21607734 0.024905374 0.04539203
-0.1794026 -0.00078477274 -0.08086233
-0.047371373 -0.030393638 0.10404964
0.120694906 0.11565849 0.08581163
-0.019063944 -0.27614182 0.047207657
0.25727725 0.10549466 -0.029388169
-0.05078277 0.20613964 -0.17403793
0.030884862 0.12519217 -0.15017435
0.07631461 0.0023562897 0.17752302
-0.001884454 0.2554264 -0.18724167
0.17992292 0.13797607 0.0772359
0.06059128 0.17702904 -0.039745618
-0.21583922 -0.18906878 -0.09557056
-0.03867028 -0.23813976 0.077951044
