# .PCD v0.7 - Point Cloud Data file format
VERSION 0.7
FIELDS x y z
SIZE 4 4 4
TYPE F F F
COUNT 1 1 1
WIDTH 1000
HEIGHT 1
VIEWPOINT 0 0 0 1 0 0 0
POINTS 1000
DATA ascii
-0.12580703 -0.14195822 -0.11874837
-0.20512863 0.24964195 -0.12211506
-0.24836494 -0.08896473 -0.2186886
0.046613965 -0.31290668 -0.029639993
0.16183016 -0.07001242 0.1869775
0.083648466 -0.045107715 0.20550434
-0.10990538 -0.24987492 -0.060500782
-0.027974738 0.17743772 0.09649677
0.06321528 0.29856378 -0.12893167
0.19323938 -0.0058688875 0.13728228
-0.28440836 0.07012856 -0.2638299
0.06899708 -0.038565885 0.19475156
-0.056414615 0.31713682 -0.13074188
0.050716948 0.16637036 0.17363158
-0.13000704 -0.19223793 -0.07930804
-0.22551791 -0.07443123 -0.18760137
-0.15291664 0.0042752456 -0.17506212
0.13770641 0.25491428 0.05702671
0.03513242 0.1000388 0.16810393
0.06913659 -0.04996592 0.19354841
-0.22238883 -0.12710764 -0.18997794
0.25575766 0.008061963 0.0813681
-0.06077369 0.26376662 0.064875014
-0.029144607 -0.2507949 0.04304012
-0.19761695 0.19408898 -0.11921252
0.02909213 -0.2560634 -0.2532485
-0.15491275 0.28393465 -0.06265836
-0.05620328 -0.28477404 0.0041915453
0.15137288 -0.10171707 0.16002686
-0.09303679 -0.097138084 -0.18466145
0.2118244 -0.19714698 -0.0059654745
0.0012426646 0.13186295 0.12846768
-0.009761138 0.21434875 0.12435235
0.19282931 -0.14845258 0.07289073
0.15386415 -0.24073447 -0.009156166
0.11516205 0.23470695 0.11196408
0.17331915 0.14563914 0.09755095
-0.17580771 -0.2464014 -0.14466423
-0.01557994 -0.17885077 0.06917864
0.005406909 0.06819434 0.12608759
-0.07226106 0.2834006 0.015515972
0.006511429 -0.16148864 0.099639975
0.022085425 0.12519857 0.15440993
0.23140123 0.05502152 0.08348984
-0.009817758 0.081543855 0.10816744
0.029938499 0.25085098 0.11384062
0.057646398 -0.2974651 0.005374977
0.057555057 0.25478926 0.06850156
0.085419394 0.089132495 0.1833225
0.09417183 0.27191958 -0.0012789982
0.14130613 0.22005266 0.09398249
0.22986926 0.16152297 0.051325873
0.043618083 -0.10028303 0.15468854
0.100021236 0.16061984 0.14190492
0.047014367 0.011658799 0.17263098
-0.21873784 0.15622312 -0.15091436
0.027206505 -0.10905476 0.13256268
0.037585095 -0.27228573 0.0553553
-0.018966317 0.025092121 -0.28413683
0.025629805 -0.112299815 0.13014565
0.13259567 0.07455625 0.15655005
-0.07998129 0.17495637 0.029447671
-0.2244837 -0.12092703 -0.19191445
0.22130199 -0.20709693 -0.046005353
-0.13165641 -0.087144375 -0.15067767
0.21554188 -0.20527832 -0.019624641
-0.18444568 0.07520584 -0.12858285
-0.10773469 0.18034843 -0.005520278
-0.18619964 -0.06659089 -0.144229
-0.09175442 0.28240442 0.0273727
-0.03804218 -0.023332683 -0.23002389
-0.121691346 -0.27254343 -0.0783776
0.09456578 -0.18524033 0.11456367
-0.28464547 -0.010297546 -0.25570765
0.11576583 0.194666 0.11632357
0.036445007 -0.22856246 0.111853994
0.119684294 -0.21011809 0.06041597
-0.07167438 -0.20070764 -0.005467635
-0.0015132878 -0.13032112 0.09312029
-0.13898182 -0.09695937 -0.14969857
0.1244247 0.2662783 0.006614256
-0.04655894 -0.30280396 -0.026505176
-0.006082214 0.15315484 0.12165049
-0.13965254 -0.14061281 -0.100008376
-0.0031360625 -0.3226797 0.02803167
-0.10874315 0.22022477 -0.001975866
0.05895305 -0.08742996 0.17593235
0.26670069 -0.09835448 0.022488449
-0.18596171 -0.021982083 -0.14547272
-0.10437881 -0.16941044 -0.048023704
-0.16297899 0.13600934 -0.08632632
-0.011459417 -0.25993317 -0.20438403
-0.055011425 0.16008973 0.05969138
0.09526434 0.19573306 0.13389009
0.19964398 -0.002016669 0.12998566
0.18633905 0.16131796 0.081648216
0.054931693 0.2892455 -0.0647337
0.20070003 0.11502428 0.0919308
-0.0028440955 -0.25547683 0.07622899
-0.16319838 0.15681182 -0.07955952
0.059730582 0.08050805 0.19730629
-0.18948479 -0.19122916 -0.15552348
-0.1537423 0.05008912 -0.16888884
-0.1358551 0.07584927 -0.15690678
-0.0036791016 -0.19893079 0.082018405
-0.15354091 0.101814225 -0.11472303
-0.24745798 -0.13561617 -0.2231842
-0.21950917 0.16370304 -0.15099807
0.15590377 -0.17303757 0.07489846
0.16145498 -0.04319316 0.18267982
-0.13491876 -0.0737817 -0.15393826
-0.2252182 0.012177278 -0.17670786
0.08925215 -0.08194287 0.20314603
-0.2342414 -0.19229358 -0.21614404
0.048699174 0.042467162 0.1785303
0.110340185 0.14330304 0.142314
0.0057950434 0.27393538 0.023253743
0.043067306 -0.2834568 -0.14275374
0.22294949 0.09309585 0.086073026
0.004382941 -0.013291642 0.114887804
0.10927681 -0.048707265 0.22304234
0.2647727 -0.05283481 0.10959601
0.044582985 -0.11655933 -0.21963042
0.21552543 -0.17287144 0.021505289
-0.075541854 0.21819885 0.04039291
0.075513795 -0.293986 -0.103692405
-0.19597033 0.108739786 -0.12745406
0.011933589 -0.059118547 0.11901928
0.09513654 0.12249906 0.16197547
-0.10283592 0.31693962 -0.14002751
0.14766191 0.14579275 0.11530382
0.09338412 -0.2669631 -0.21308145
-0.24919665 -0.02306009 -0.21176016
-0.050334472 0.12258028 -0.20592323
-0.119233035 0.14645647 -0.04298293
0.11687315 0.14414902 0.1374051
-0.15393737 0.25432295 -0.055844635
0.220389 0.20106928 0.040606707
-0.16508462 0.29352367 -0.07949571
0.10070622 -0.11693006 0.18489832
0.06946704 0.2671454 0.023140118
0.12838492 0.013948328 0.17807744
-0.053131677 -0.13294736 -0.06418435
-0.091513015 -0.23755422 -0.035401154
0.2314783 0.1929468 0.022710046
0.10228253 -0.0016655673 0.2060298
0.040631227 -0.12378625 0.14800663
-0.15540527 0.24242944 -0.059169807
0.19981225 0.23474988 0.04345186
0.03677479 -0.073728345 0.14912951
-0.16689767 -0.07966582 -0.14742036
-0.13584071 0.04182563 -0.16980842
-0.09161725 0.10548042 -0.17805457
-0.13601471 -0.1389383 -0.09967843
-0.11186625 0.0013970177 -0.21125095
-0.15630022 -0.26366106 -0.15598308
-0.23681523 0.12156513 -0.17832349
0.21669416 -0.015334864 0.12395284
-0.04689548 -0.16059688 0.031202355
-0.16348055 0.08659316 -0.12704216
-0.07613836 0.25340438 0.043897495
0.051082306 -0.14984064 0.15825786
0.045131627 -0.04494633 0.1633474
0.0414782 -0.13292262 0.1479838
-0.27759278 0.0544989 -0.24591771
-0.096080616 -0.17757118 -0.0339862
-0.009804991 0.3277008 -0.21497977
-0.07520032 0.08840686 -0.18503904
0.14185786 0.28243452 -0.052684434
0.19868651 -0.1712036 0.038760163
0.06620175 -0.30343303 -0.06663949
-0.004888549 -0.117014766 0.09040504
0.26897892 -0.05477225 0.10774785
-0.06629761 -0.2521773 -0.0048105055
-0.1255564 -0.13694645 -0.12139769
0.15781906 -0.018025575 0.17129637
-0.10120813 0.120297365 -0.14141883
0.033966225 -0.08338882 0.14435187
0.21067196 0.03982947 0.10188901
-0.25816536 -0.071749575 -0.22917917
0.2739796 -0.05533659 0.104144625
-0.01561493 0.17003167 0.11146327
-0.09691332 0.24093428 0.015720194
-0.1752912 -0.060776476 -0.14367662
0.21746503 0.19550201 0.045074116
0.18194157 0.11558443 0.10471237
0.11038311 -0.29878908 -0.043718826
0.16850156 -0.15789236 0.08278633
-0.026647769 0.16230702 -0.1083894
0.180285 -0.23972434 -0.0316293
-0.08049025 0.19765197 0.03154778
-0.04654906 0.28066963 0.011328948
-0.18134545 -0.058978025 -0.14648151
-0.08846435 -0.06208196 -0.18777257
-0.12892783 -0.23889484 -0.083583
-0.066849 -0.228928 -0.0026992795
-0.03957447 -0.14080322 -0.0509101
0.08872401 0.042044405 0.19606023
-0.175519 0.21244884 -0.088623546
-0.15715756 -0.14588298 -0.10853123
-0.0028560099 0.2945878 -0.07654182
-0.18573229 -0.044999525 -0.1468316
0.073081404 0.02804742 0.20807517
-0.0068279365 0.3242362 -0.17714009
-0.024732834 -0.22867109 0.05138735
0.18345615 0.17517772 0.07758607
-0.11889727 0.17137057 -0.020934924
0.16145802 -0.10572846 0.14678079
0.18855125 0.07270928 0.11781156
0.007243844 -0.30039966 0.046966273
-0.16849783 -0.25489783 -0.19215867
-0.25245276 0.118277036 -0.19879216
-0.20028636 -0.1284393 -0.16176851
0.2208792 0.005548536 0.10975583
0.056436673 0.28828472 -0.041809272
0.2142788 -0.04029924 0.13916646
0.1344482 -0.12865601 0.14638983
0.118554495 0.06628188 0.16866484
0.06814989 -0.2737235 0.026051689
-0.20352681 0.03371132 -0.14697713
0.045934275 -0.117671095 -0.20035332
0.1794412 0.09695958 0.11459772
0.09205195 0.015659228 0.20575318
0.15111317 -0.13142084 0.12966542
-0.19230801 0.012939687 -0.14686355
0.17093994 0.13497125 0.10387121
0.029077446 -0.22761819 0.11967586
-0.13756941 0.27646604 -0.03271113
-0.13946338 -0.24671744 -0.2482696
0.18944262 0.1941954 0.06510704
-0.2604202 -0.02652044 -0.22658534
-0.2174207 -0.061024096 -0.17558189
0.096264586 -0.030129205 0.2201657
0.0324268 -0.13893013 0.1356385
-0.048291694 -0.15907001 -0.031705845
-0.23638888 -0.1253528 -0.20773153
0.052880738 -0.21828766 0.1101125
-0.07454975 0.15971239 0.03457015
-0.21486467 0.11995161 -0.15034486
-0.035867468 0.25191337 0.09540443
-0.16443203 0.051107317 -0.1704972
0.1899114 0.08634923 0.111968115
0.17070097 -0.24250132 -0.026535146
-0.1419198 0.21041813 -0.04574651
0.13125436 -0.093773864 0.18637827
0.19150956 0.22758316 0.050792057
0.14837681 -0.30345863 -0.10798759
-0.14776464 0.28293347 -0.053150352
0.1551198 -0.19540921 0.04721924
-0.01937965 0.1296876 0.101735145
-0.07852728 -0.24668512 -0.019841738
0.15628348 0.24455673 0.07724554
0.2597474 -0.12477479 0.008519035
-0.12697463 0.21424982 -0.026101535
0.18877243 0.15379211 0.08325109
0.020862035 0.17041862 0.15832806
0.030849276 -0.120356485 -0.22224832
-0.25359488 0.017386246 -0.2124969
-0.20861915 -0.031802077 -0.1607411
0.04554268 0.12630264 0.1846525
-0.15646991 -0.18035227 -0.111831896
-0.0875407 0.27375692 0.031732682
0.15154408 -0.08785461 0.1766902
0.11217652 0.10926356 0.15593308
0.068495326 -0.013981736 0.1970896
0.18749925 0.23450357 0.053978544
-0.13273722 0.11670525 -0.1354953
0.11043993 0.20106894 0.12078047
0.001737292 0.17105216 0.13385728
-0.10011392 0.15265508 -0.093006834
-0.0026112748 -0.27666578 0.0716367
0.0671773 0.03148499 0.20091555
-0.15388124 0.17414893 -0.06549682
0.24429451 -0.045856543 0.11884225
-0.053123772 0.054568887 -0.23753424
-0.13437216 -0.108707786 -0.14520727
0.02689623 -0.08636151 0.13491699
-0.044399522 0.22061414 0.080656245
0.018122165 -0.06276069 0.12652135
0.010207614 0.26929888 0.036949854
-0.1428601 -0.14028582 -0.101281196
0.13279995 0.26811036 -0.0023671084
-0.12746179 -0.25383085 -0.21490441
-0.21234688 -0.1638014 -0.18153957
0.19675292 0.05284757 0.10998796
0.15673515 -0.06293711 0.19450548
0.037418064 0.3105875 -0.15923604
0.13522294 -0.118519604 0.15339385
0.18146183 -0.027805772 0.1577921
-0.024171053 -0.13902187 0.013431557
-0.013729416 -0.24831408 0.06312755
0.005345351 -0.15700015 0.09868676
-0.016816692 -0.24395557 0.059694454
0.03526155 -0.14930065 0.13801761
-0.024556499 -0.23999749 0.050239243
-0.19986251 -0.15174149 -0.16405226
-0.0503275 -0.14716306 0.02842711
0.12764105 -0.24427505 0.009927851
-0.19021733 -0.15658817 -0.15226145
0.2093154 0.08495018 0.09910495
0.045982905 0.09191218 0.18104331
0.06312729 -0.13434604 0.1744972
-0.121470846 -0.28394297 -0.0794779
0.01717518 -0.15797956 0.113752134
-0.06402105 -0.16179796 -0.007062448
-0.1567383 0.16460174 -0.07032585
-0.01436171 -0.22512157 0.06512894
-0.19524471 -0.16541046 -0.15978391
-0.10374723 -0.26669332 -0.15070562
0.046987828 -0.113583066 0.15740281
-0.13427642 -0.10957419 -0.14519009
-0.15877451 -0.1640811 -0.11281335
-0.00015524954 -0.11508555 -0.18501472
0.21116254 0.028210193 0.10687319
-0.20720284 0.005593661 -0.1548571
-0.020449668 -0.27137724 -0.16356696
-0.26217568 0.1365798 -0.20904982
0.027120268 -0.23380227 0.11358888
0.11395055 -0.0064229374 0.19933538
-0.15963437 -0.26733214 -0.12644632
-0.028691895 0.28849924 -0.027739735
0.1021127 0.25148377 0.09789608
-0.1119684 -0.1594385 -0.09237042
0.2603002 0.046048976 0.06027638
-0.19783533 -0.0037150225 -0.15058836
-0.21210001 -0.17527425 -0.18261406
-0.13239014 0.29629707 -0.02309621
0.16974857 0.2140091 0.07045932
0.109735586 0.076082274 0.17214508
-0.11735329 0.19729568 -0.0158072
-0.014395963 -0.012256342 -0.28463322
0.21331543 0.052951463 0.09718326
-0.04249002 0.11548877 0.026204532
0.04295014 -0.07740611 0.15661001
-0.075075 0.15017962 0.01760096
-0.20000502 -0.24542953 -0.18753469
0.0017659154 0.037879243 0.07971692
-0.1735422 0.062638305 -0.12830636
-0.17267929 -0.098472655 -0.13430312
0.0287456 -0.22216164 0.12081482
0.048547458 0.21030407 0.17200358
-0.14310387 0.0497116 -0.16818145
0.1115998 0.06217606 0.1746668
-0.11720903 -0.105309255 -0.13582201
-0.20230468 -0.18487822 -0.17120749
-0.22464947 0.13706483 -0.16082734
-0.11398165 0.18403412 -0.013090277
0.046725858 0.034501586 0.17503212
-0.20251581 -0.10226664 -0.16145639
0.031242436 0.24980254 0.13559383
-0.21196659 0.12956737 -0.1454574
0.14924474 0.06371272 0.14784592
0.08977553 0.17798194 0.14147101
-0.1436546 0.03458856 -0.16321407
-0.23153089 0.19588932 -0.16252199
0.2369804 -0.082750544 0.10552744
-0.019227272 0.2627795 0.06877715
0.11824149 -0.30676928 -0.060908873
-0.11301584 0.19674757 -0.0103074275
-0.22755584 0.12744585 -0.16572468
0.10333565 0.2616486 0.02954568
-0.20142514 0.25877953 -0.11922866
-0.10706349 0.28044814 0.0074854377
-0.18528633 0.06292091 -0.13456549
-0.011363629 -0.037522074 -0.26980177
0.21591559 0.13583142 0.07225671
-0.14265876 -0.18488903 -0.09465406
-0.07332238 -0.26439038 -0.17556553
-0.18592612 0.16601586 -0.10761394
0.21072392 0.068452366 0.101472735
-0.13256958 0.059668906 -0.16418476
0.16515313 0.00096533535 0.15580016
-0.117893256 -0.17631656 -0.061828684
0.14994867 -0.22143942 0.018842546
0.15251367 0.12179491 0.12243401
-0.2291677 0.08957626 -0.17238727
0.09060579 -0.1289266 0.18466859
0.26365903 -0.06558726 0.10104371
-0.2562726 0.15577267 -0.199145
0.0022940817 0.18151039 0.13583982
0.19965982 0.06769837 0.10992583
0.15119702 -0.115565635 0.14314474
-0.010291163 -0.2617253 0.06591265
0.20898944 0.22563173 0.038175188
0.15029298 0.003532637 0.1661927
-0.1023188 0.115556516 -0.17419896
-0.21712302 -0.18745965 -0.19053997
0.09403982 -0.03995924 0.21444164
-0.14762817 -0.117444396 -0.115384296
-0.24312188 0.12529044 -0.1859638
-0.20703217 0.10802257 -0.14173913
0.11978678 -0.20324482 0.06904405
-0.23217669 -0.10991287 -0.20045312
0.105615586 0.18852879 0.12596396
0.20174064 0.038783994 0.10934375
-0.17368425 0.045791868 -0.14141762
-0.1371916 0.25385743 -0.03440751
0.017181415 -0.30967817 0.0262611
-0.2826658 0.057552103 -0.25697008
0.08123119 0.21870765 0.14414808
0.027147718 -0.31354105 0.012400839
0.108260244 0.07145009 0.17447048
0.10909923 -0.24072832 0.0310982
0.19180539 0.03256126 0.119974874
0.11878787 0.049942177 0.16990803
0.17695151 0.2007271 0.071049534
0.014284584 0.3248368 -0.19212836
-0.101205766 -0.19690752 -0.042909537
-0.13473482 -0.13456069 -0.12583828
-0.014372933 -0.20245714 0.067864686
0.27388692 -0.08476444 0.06724357
-0.13949214 0.22169375 -0.041261293
0.13955373 -0.23832 0.0067708595
0.14623663 -0.28997222 -0.064766966
-0.2519943 0.09640058 -0.20085783
-0.14527136 -0.18839271 -0.098431684
0.12955698 -0.22767635 0.029263675
0.24085943 0.13399379 0.05573891
0.12905836 -0.26211646 -0.013984153
-0.14470077 0.17992434 -0.053015757
0.078798875 -0.08713717 0.19428928
-0.099565454 -0.29042298 -0.052150562
0.18342586 0.25992778 0.00758218
0.21773672 0.06684197 0.09580853
-0.056289293 -0.14175123 -0.13576245
-0.043396052 -0.27688074 0.019747674
0.11263766 0.15437707 0.13587297
-0.16943891 -0.2500937 -0.13693784
0.1273186 0.21176137 0.106122024
-0.10938505 -0.27326375 -0.06266995
0.1368067 0.17347339 0.11073111
0.07648883 -0.14069743 0.18732816
-0.12388842 -0.1287263 -0.1253178
0.12494236 0.102180295 0.1501647
-0.28405344 0.01347175 -0.25206345
0.20815256 0.24601921 0.035884768
0.22299506 -0.17978571 0.0060167387
0.13488626 0.017852176 0.17119905
-0.23772763 -0.031330556 -0.1980419
0.06225424 -0.022248639 0.18807754
0.16960832 -0.27750173 -0.0699589
0.032699887 0.31358916 -0.16776542
0.12116963 -0.05328124 0.21851765
0.13913323 -0.17136958 0.09209269
0.03809481 0.17149882 0.17315245
-0.004682953 -0.13084307 0.08899041
-0.08931209 0.13165268 -0.09938344
0.03528345 0.08849181 0.16689588
0.22249512 -0.1089003 0.092560366
-0.09377486 0.15041067 -0.016641797
-0.23931286 0.08889276 -0.18549025
0.19783166 -0.10562153 0.116923936
-0.27138227 -0.04173953 -0.24250066
0.27117553 -0.017993245 0.0820128
0.090786055 -0.015939653 0.22187176
-0.11187377 -0.21189423 -0.05841895
-0.19211128 0.21939415 -0.109076366
0.041817926 0.29347268 -0.089962676
0.15184794 -0.30947244 -0.09455318
0.089433946 0.23542604 0.13059276
-0.07928593 -0.10510522 -0.17138715
-0.024380429 -0.2514006 0.049081255
0.00042182347 0.026363052 0.11461524
0.06740169 0.0761118 0.20153455
0.25143704 0.13383867 0.042374868
0.16162772 -0.091883354 0.16366182
-0.25704458 0.07754895 -0.20962615
0.067026675 -0.06913856 0.18851368
0.17821401 -0.13863385 0.09848909
-0.19571272 0.19663003 -0.116459675
-0.26842237 -0.03125256 -0.23742853
0.2654018 -0.075854115 0.019715397
-0.2088098 0.19068657 -0.13399276
-0.22420558 -0.0725159 -0.18568522
0.010980706 0.24413346 0.13587396
0.16700096 -0.21108113 0.01665543
-0.070838444 -0.19223104 -0.0033649164
5.767347e-05 -0.12696163 -0.17461334
0.13370973 0.04073036 0.16155146
-0.038838815 -0.23375507 0.032664742
-0.19065173 0.15087147 -0.11551686
-0.20489961 0.0038810333 -0.15383853
0.050333392 0.18894598 0.17254344
-0.0012013369 -0.25555936 0.07832672
0.19185738 -0.038587015 0.15583792
0.029576816 0.28701282 -0.051559195
0.028479101 -0.24474981 0.09847839
0.14709128 -0.04532788 0.19533542
-0.11212956 0.013644308 -0.21114291
0.0748048 0.19204949 0.15150069
0.037652582 -0.28981805 0.033052545
0.18720089 -0.13444097 0.09569727
0.14154452 -0.07635571 0.19716913
-0.02061083 0.12839141 0.09999806
0.12717295 0.17685081 0.11594419
0.03830198 -0.13956985 0.14310123
0.01301492 0.1396105 0.144516
0.20073393 -0.24045423 -0.050940376
-0.27277026 0.016909266 -0.23716696
-0.10089513 0.3019755 -0.050075702
0.27246034 -0.022075947 0.083308704
0.12915918 -0.25526726 -0.0053832442
0.067365795 0.079895586 0.19990283
0.11947988 -0.22387746 0.04314301
0.009761681 -0.09165725 0.112284906
-0.26809722 0.117267534 -0.21899344
0.023780739 0.14280143 0.15872036
0.12754284 -0.13400964 0.14839388
0.115044065 -0.16282469 0.12459219
-0.11462371 0.3026031 -0.043961283
0.19195428 -0.10384058 0.123959735
-0.19661072 0.14673688 -0.12366794
0.057957243 -0.0077951695 0.18431517
-0.23995152 -0.03643094 -0.20151679
-0.18028416 -0.1860996 -0.14309269
-0.14813125 0.19315563 -0.055812526
0.10920435 -0.2338391 0.039742034
-0.2085536 0.17880225 -0.13510513
-0.04512683 -0.15315253 0.03437471
0.19538526 -0.038359877 0.15291144
0.21242239 -0.08991676 0.12091621
-0.10916412 0.24368078 0.0003295366
0.03740099 0.22784464 0.16532153
0.008977831 0.021609826 0.12501946
-0.039821096 0.16220428 0.07944364
0.14631265 0.2461905 0.08385525
-0.06973984 -0.23867768 -0.007591766
-0.09150077 0.06721534 -0.19701938
-0.05346624 0.13129658 0.020875223
0.07399243 0.25518787 0.06149154
-0.015407607 0.034627467 -0.2803351
-0.18017606 -0.25194225 -0.21804184
0.0989867 0.2736758 -0.008752168
0.07428224 0.22479092 0.14653437
0.09247816 0.25014192 0.10690859
0.0052030976 -0.07050458 0.10899984
0.06098847 0.035159934 0.19341636
-0.11137492 0.30953208 -0.092382014
-0.22181873 -0.0012210496 -0.173971
0.27468556 -0.03489986 0.088819884
0.060111783 -0.14382982 0.1705782
-0.14434376 0.30379233 -0.06020487
0.1292893 0.09597626 0.14986028
0.03996161 0.13679385 0.178762
-0.1874145 0.2446672 -0.09998215
0.007544922 0.23436518 0.13614938
-0.00045844025 0.17206185 0.13116111
-0.17660974 0.033113357 -0.14746939
0.26652548 -0.12033371 0.042203058
-0.07324158 0.09859577 -0.17781217
-0.13414435 0.02923886 -0.16301866
-0.20178476 -0.05872453 -0.15523359
-0.1920052 -0.22549738 -0.16291666
-0.0813583 0.054939386 -0.21775474
-0.027083797 0.26814526 0.053896267
0.18011893 -0.2535657 -0.049041416
-0.23799245 -0.019607818 -0.19696066
-0.23771851 0.16747105 -0.17391248
-0.21050124 0.20782264 -0.1340841
-0.24359491 0.14827384 -0.18378215
0.12736768 0.13335444 0.13484083
-0.0638162 0.17474754 0.05016945
-0.01068682 0.21149649 0.12282014
0.01775047 0.2952861 -0.090237685
0.07052792 0.30446896 -0.15496336
0.06815505 0.2470666 0.12856841
0.06485979 -0.15799461 0.17495205
-0.084196724 0.14509067 -0.016763296
-0.18665752 0.024060056 -0.14183523
0.12547964 0.2928084 -0.08103681
-0.111169405 0.112403676 -0.12869586
-0.17096977 -0.17998055 -0.13039689
-0.015638672 0.14713679 -0.10420448
0.23460418 0.044357814 0.081115715
0.027860919 -0.095124125 -0.2370473
0.08116013 0.29607904 -0.12398235
-0.10017749 -0.25386253 -0.048499633
0.151469 -0.07152429 0.19437674
0.009425061 0.032257702 0.12688532
-0.063408576 -0.24237524 8.4530955e-05
0.14658928 -0.17822836 0.0766861
0.045993775 -0.09829438 0.15798125
0.02410762 -0.29437542 -0.08225535
-0.0776337 0.20710438 0.036360182
-0.18851104 -0.23719007 -0.15985203
-0.09785602 0.19172186 0.008539813
0.2319599 -0.18838406 -0.016606772
0.18175068 -0.106763 0.12877876
-0.0028039722 0.18676765 0.12993547
-0.2642404 0.08081023 -0.21846649
0.24684644 0.083826706 0.073531196
0.16927598 0.2366029 0.06946241
-0.11912517 0.18170711 -0.019972762
-0.11795644 -0.251658 -0.23962255
0.18310407 -0.031698823 0.1585468
-0.15294237 -0.14451207 -0.10295401
-0.01807689 0.12774988 -0.19411719
-0.033630375 0.15845959 0.08693888
0.079222806 -0.21564287 0.089784965
0.19704646 0.18325956 0.06461236
0.09035914 -0.15100081 0.16178623
-0.2757628 0.11056367 -0.2357544
0.20708306 -0.056400493 0.1547712
-0.011256842 0.07835091 0.0992054
0.061299156 0.102084 0.19440933
0.12749535 -0.08091498 0.20416792
0.03431871 0.15847588 0.1727557
-0.037739012 -0.2915987 0.017481187
0.12129296 -0.09365721 0.19473507
-0.25878173 0.123159595 -0.2063216
0.14297032 0.034448177 0.15722303
0.07930319 0.1151517 0.17618693
-0.019941872 0.29134083 -0.048680257
-0.22021121 0.22484456 -0.14447935
0.053541157 0.08415438 0.18980226
0.016698288 -0.12389434 0.117275104
0.19156505 -0.14706874 0.07578157
0.18962923 0.10307542 0.104846075
0.08523608 -0.19043268 0.116363496
-0.09407105 -0.2667104 -0.17161265
0.19393839 0.23975097 0.048271857
-0.11249552 0.1008175 -0.17046212
-0.20627938 0.07283597 -0.14504254
-0.14180191 -0.001604844 -0.16522731
0.0030571811 -0.1526579 -0.115018174
-0.02235113 -0.26997027 0.04943476
0.13298519 0.23814943 0.097286485
-0.16640286 0.18160859 -0.080666095
0.21429145 0.08903038 0.09386333
-0.11858082 -0.27942926 -0.07522034
0.13932332 0.12540832 0.13001329
0.1819812 -0.2250001 -0.0144728515
-0.081067204 -0.013129111 -0.24896191
0.18053897 -0.10427917 0.1328314
0.071635045 -0.19498225 0.12282003
0.008711196 -0.25701174 -0.23039965
-0.033541124 0.07785867 -0.22545578
-0.07886958 -0.24483848 -0.020057488
-0.08515111 0.29350215 -0.02735624
0.20053598 0.16187966 0.071543194
-0.12347849 0.05899801 -0.20395304
0.107051596 0.11792662 0.15570033
0.18423866 0.25232542 -0.041137103
-0.02671595 0.2218233 0.103497155
-0.0030211199 -0.30611506 0.047050197
-0.24978414 -0.03686365 -0.21418795
-0.09670227 -0.28054252 -0.04727784
-0.0028403369 -0.30005863 0.050682686
-0.26112095 -0.08153624 -0.23415796
-0.13829464 0.30145115 -0.039706357
0.0883785 0.16724738 0.14708982
0.08608662 -0.29693964 -0.09845815
0.11034378 -0.0037199724 0.20084363
-0.15465903 -0.13198794 -0.10984379
-0.044867467 0.30740473 -0.101510644
0.2295701 0.14396583 0.05921525
-0.1544075 0.19689876 -0.06341499
-0.07653944 0.14073522 -0.01242845
0.12967105 0.23629323 0.10056267
-0.122351244 0.2785026 -0.012368896
0.20080826 -0.23352656 -0.042218406
0.13715929 0.15645146 0.11793419
-0.03784913 0.124689706 -0.14847681
0.15067601 0.21431525 0.08604311
0.14064683 -0.020707838 0.18556587
0.06255617 0.2941712 -0.10371546
-0.019011078 -0.1305163 0.012909654
0.21100692 0.097711176 0.09234622
0.17278174 -0.09772416 0.14728522
0.11474263 -0.21810214 0.054730915
0.16661176 0.059926987 0.13436206
-0.21000169 0.18495262 -0.13621756
-0.09416519 0.06500092 -0.19834211
-0.19349433 -0.15541616 -0.15632334
-0.0014211207 0.094609044 0.12052972
0.113624245 0.16874549 0.12890069
-0.01653716 -0.25807267 0.05833927
-0.09834643 -0.21060234 -0.040899973
-0.09764458 0.14944772 -0.028147576
-0.18899803 -0.21418482 -0.15768382
-0.12076236 -0.18613295 -0.066700615
0.007964046 -0.26308087 0.08917754
-0.03672358 0.28806123 -0.02162965
0.14965624 0.24892849 0.078446075
-0.22599833 0.20576386 -0.15422349
0.08026033 -0.15409501 0.16693777
0.12812684 0.08908771 0.15368123
-0.1897326 -0.17959689 -0.15443042
0.038816966 -0.31639805 -0.0017190034
-0.0033457219 -0.22157565 0.07969719
-0.07186024 -0.27318898 -0.13948056
-0.032021843 0.24288552 0.09924393
-0.1090753 0.3096542 -0.09245924
0.053669382 -0.28609532 -0.1380535
-0.16030142 -0.23153342 -0.122957475
0.120560944 -0.0024756338 0.19251223
-0.22969355 0.11314031 -0.17020337
-0.23433167 0.15413211 -0.17118384
0.02089741 -0.27051616 0.07260438
-0.013361945 -0.14604375 0.07600602
-0.25340417 0.020394497 -0.21188673
0.16069268 -0.17703612 0.06551979
0.17124055 0.016213335 0.1435775
0.14110163 -0.03977975 0.1966783
-0.041172735 -0.06801109 -0.22448501
0.082473546 0.10211001 0.17969052
0.16363372 0.2686781 -0.015109727
0.14058962 0.25501883 0.056003954
-0.030277455 0.118191265 0.08091687
-0.2172159 -0.23410247 -0.21894318
0.1016902 0.17336063 0.1351699
-0.1462381 -0.05576364 -0.16069116
0.086099744 -0.1297928 -0.14652629
-0.15180439 -0.1328962 -0.10837315
0.12480107 0.035261348 0.17103179
0.12546918 -0.02338417 0.19901241
0.1007789 -0.109458655 0.19221978
-0.19245754 -0.06101322 -0.14846775
-0.021044446 -0.27838513 0.045844514
0.18020238 -0.24669975 -0.040405124
0.061242398 0.10232793 0.19433975
-0.03779133 -0.14208947 -0.0329291
-0.0057792137 0.29101416 -0.05310309
-0.26457065 -0.06799445 -0.23694405
-0.051165253 0.24691217 0.07516061
-0.2109987 0.23062266 -0.13195662
-0.029378748 -0.28274548 -0.12301857
-0.26502347 -0.044753827 -0.23470522
0.1908721 -0.21462694 -0.009306104
-0.113003165 0.079261124 -0.19631569
0.060917582 -0.10266109 0.17660484
0.14121492 -0.10463316 0.16481733
0.048021104 -0.2729419 0.045140207
0.027869675 -0.13173689 -0.13737774
0.09098344 -0.0493395 0.21051815
0.13819359 0.105989 0.13929538
-0.13490383 -0.2665494 -0.094608776
0.024020476 0.23571032 0.15269822
-0.17527981 0.29995695 -0.100003004
-0.01415068 -0.31277347 0.011112733
-0.11100698 -0.20324925 -0.056259863
0.088330746 -0.27444592 0.0069928933
0.17094219 0.18090937 0.08376929
0.006996588 -0.19541152 0.09614636
0.008210945 -0.25881115 -0.2483678
0.06752383 0.0028657739 0.19788703
0.23212788 -0.1758001 0.002863236
-0.06634795 0.24493617 0.055436842
0.03603763 0.22745273 0.16425453
-0.016159425 -0.155771 0.07123411
0.09957895 0.0028957038 0.20600598
0.11999218 -0.18951225 0.08628452
-0.12592861 -0.26166004 -0.1803616
0.20209794 -0.10786252 0.11065261
-0.19611728 0.12319142 -0.12588933
-0.07793478 -0.28075343 -0.023214312
0.22083217 0.02237822 0.10201852
0.02129944 0.15200606 0.15665461
0.031818356 -0.11592802 0.13764827
-0.07255325 0.24862643 0.047919538
0.033037655 -0.012990565 0.15170267
0.15435515 -0.08398791 0.17763726
0.13992608 0.009166897 0.17127651
0.14834368 -0.22155601 0.020138474
-0.19736595 0.18221502 -0.120332025
0.09509049 0.20824626 0.1338237
0.21144576 -0.19585085 -0.0039812955
0.2295108 -0.0075857746 0.10932902
0.007808404 -0.2519135 0.09033388
-0.00639169 0.06504507 0.07708604
0.18749556 -0.18852176 0.026850607
0.034163367 -0.24171314 0.09722047
0.059564702 -0.019898744 0.18491165
-0.06838689 -0.29776517 -0.055645023
0.2427752 -0.13114038 0.049414836
0.1107783 -0.116006956 0.17675778
0.08889706 -0.24005035 0.050120622
-0.1411885 -0.12818313 -0.10731716
-0.005178899 -0.09681736 0.09248028
0.14144404 0.02182515 0.16424474
-0.0030683286 -0.18612373 0.08435537
-0.053224 0.26831964 0.06253832
0.2123847 -0.09771691 0.11401368
0.1503171 -0.19389391 0.053461086
0.13885438 0.07319098 0.15253581
-0.1698295 -0.1181672 -0.122575544
0.20096095 -0.21969348 -0.024805883
0.19901657 0.15999074 0.07342422
-0.21078838 -0.22623773 -0.19909929
0.12628764 0.1841322 0.11340294
0.15066825 -0.014121543 0.1749493
0.023467476 -0.14495671 0.123407446
-0.07189038 0.09785282 -0.22678512
0.24394424 0.0047778967 0.09210573
0.14443564 0.047051515 0.15025792
-0.20226438 -0.035506025 -0.15303333
-0.13017644 -0.099592164 -0.14337493
-0.034780517 -0.2704331 0.03342564
-0.09955645 -0.28807074 -0.051853515
0.23528986 -0.07089431 0.11981517
-0.19587968 -0.18857333 -0.16340931
0.07899119 -0.22937484 0.072571
0.0056913816 -0.1046673 0.105481066
0.028286133 -0.18837172 0.124324545
-0.26920977 0.025261916 -0.23158301
-0.16359647 0.19113478 -0.07590928
-0.11124043 -0.24615091 -0.061761968
-0.18837792 -0.2567227 -0.16792242
0.056050565 0.12391866 0.18849948
-0.13339685 -0.17878638 -0.08202817
-0.17854522 0.07616867 -0.12449882
-0.19537422 0.08793691 -0.12929034
0.07852453 -0.25688413 0.038088348
0.048373174 -0.13076167 -0.19506411
0.12081706 0.07922411 0.1630752
-0.18540265 0.00059869315 -0.14582671
-0.18822125 0.26255402 -0.108448625
-0.052758195 0.17666414 0.06459493
0.18746404 0.06887295 0.119538955
-0.023385886 -0.25867778 -0.24864218
0.021473275 0.1478215 0.15637206
0.029268492 -0.024397954 0.14548135
0.0063049006 0.14574614 0.13664906
-0.02302599 0.21891814 0.10788121
0.116122216 0.25587663 0.04461709
0.24844182 0.08241661 0.07303865
0.058256626 0.025608355 0.18875349
0.017004883 0.2934702 -0.07866413
0.11678296 0.25320223 0.08530676
0.25036547 -0.15321365 0.009902709
0.13509022 -0.25124145 -0.005606787
-0.047362767 -0.26313373 0.018160632
-0.03623807 -0.3025163 -0.027051952
0.1577671 -0.1609498 0.08855976
0.13223134 -0.00719749 0.1858
0.15918402 0.055622023 0.13947628
-0.089299686 -0.2957118 -0.059232086
-0.05883592 0.31462494 -0.11540708
-0.24400322 -0.14917678 -0.22039554
-0.026629051 0.28153366 -0.0010931906
-0.10655179 0.3054847 -0.059073173
-0.165169 -0.1603447 -0.12056719
-0.13106188 0.22552173 -0.029977625
0.06751762 0.24638125 0.13124594
-0.15329973 0.026830535 -0.17152071
0.07017527 -0.15724866 0.17200509
0.12029955 -0.16899823 0.11203623
-0.1490436 -0.18120585 -0.1024018
-0.11661412 -0.09584272 -0.14078742
-0.011610091 0.13420634 0.11225723
0.07683212 -0.13588598 -0.15915804
0.050296288 0.3045687 -0.14404988
-0.20426854 -0.020764435 -0.15381585
0.1205925 0.12596606 0.14277945
-0.17527398 0.26328087 -0.08900422
0.1431915 0.22933067 0.09202883
0.13495566 0.22226265 0.09934084
-0.21476251 -0.10359061 -0.17733507
0.08990931 -0.1783459 0.12749866
-0.13814187 -0.24503541 -0.09615298
-0.0748208 -0.08442396 -0.18115225
-0.19248207 -0.20213237 -0.16069335
0.13963325 -0.04251004 0.19950728
-0.041587003 0.22685465 0.08502153
-0.020553716 -0.11495211 -0.19435343
-0.25218102 -0.12075801 -0.22744295
0.019136831 -0.25563946 -0.23283306
-0.25585458 0.13280194 -0.20139542
0.13045007 -0.16583759 0.106918775
0.12983997 0.008537159 0.17966172
0.0098218685 0.28592676 -0.0396563
-0.036168166 -0.18698989 0.04176826
0.18995844 0.24890043 0.050484583
0.081841744 -0.15950471 0.15865453
-0.21159483 -0.19838975 -0.1847708
-0.17526433 0.26582238 -0.09030855
-0.10078754 -0.2197685 -0.045144573
-0.223099 0.2153273 -0.14934212
-0.028891318 0.102321886 -0.2136945
-0.15692519 -0.15741807 -0.10963323
-0.15386905 0.060735334 -0.16595314
0.11815344 -0.11708074 0.16946936
0.12028421 0.22974485 0.110420115
0.07910693 -0.22250688 0.0811803
0.11825164 -0.24952534 0.011708137
-0.061896935 0.18651393 0.054061238
-0.044900566 -0.287487 0.01169395
0.28039503 -0.023850197 0.0700807
0.07456624 -0.2865092 -0.13725236
0.069343336 -0.20500487 0.1121655
0.04552108 -0.16920035 0.14877196
0.18382244 -0.21276517 -0.00060551043
-0.123603694 0.20098738 -0.023384007
0.0683882 -0.2598906 0.043388102
0.15087214 -0.15275781 0.10514979
0.08475902 0.215087 0.14249924
-0.030536953 0.3050561 -0.10077297
0.101089284 -0.11569468 0.18549949
0.19238769 0.040652372 0.11578275
0.10129828 0.069289945 0.17994386
-0.111664966 0.10001716 -0.14897852
-0.043902207 0.0032670083 -0.23815663
-0.10788954 0.17322646 -0.0065813246
0.08437289 0.23162337 0.13603005
-0.06484618 -0.25765932 -0.2293058
0.01262964 -0.03385226 0.12297798
-0.010808762 0.2853015 -0.025825597
0.11046122 -0.13256098 0.16448501
-0.03736043 0.154624 -0.116109684
-0.017479999 -0.29397947 -0.08291879
-0.07181375 -0.10945531 -0.1664594
0.12835819 -0.3105896 -0.07485254
-0.16406302 0.2139402 -0.073738776
0.002732032 0.101661064 0.12671575
-0.22925346 0.124503106 -0.16826044
-0.0011571498 -0.13939726 -0.07186552
0.16927274 0.090854906 0.1243311
-0.01784335 0.13788176 0.10470347
-0.15336128 0.15133482 -0.06759962
0.16458672 0.20720054 0.076938316
0.025121048 0.28997815 -0.06325123
-0.14157932 -0.013290215 -0.16635944
0.0069093127 0.1570097 0.13879164
-0.110299215 -0.053874668 -0.20156895
-0.018824093 0.304702 -0.10598901
-0.13414606 0.17637372 -0.039899908
0.13074966 -0.088441774 0.19335149
0.0041533834 0.113658205 0.12999487
-0.0897392 -0.22760057 -0.031915423
-0.22034784 -0.07077656 -0.18052216
-0.26297706 0.011420913 -0.22526239
0.11165426 0.28299978 -0.043893956
0.16406047 -0.29106888 -0.08218376
0.022509485 0.24797963 0.14588274
0.2237236 -0.0075215404 0.11391008
-0.09349431 0.22776952 0.018511279
0.2573328 -0.03806786 0.104457915
-0.04365179 0.026186924 -0.23806871
0.027377078 0.21204202 0.15771776
0.14029577 -0.003919122 0.17817768
-0.050400503 0.09576291 -0.22333586
-0.18867634 0.20609045 -0.10628109
-0.1446686 -0.15345891 -0.09470731
-0.01491474 0.011205072 -0.2825443
0.13641013 0.030471632 0.16418119
0.20818283 -0.22151102 -0.033604726
0.13750422 0.13963087 0.12505452
-0.0846274 -0.2645053 -0.029831449
-0.03209342 0.26864526 0.054017022
-0.26252356 -0.011749254 -0.22749273
0.054585934 -0.122597255 -0.19760442
0.25299108 -0.01705444 0.09598323
0.26453048 -0.08592611 0.07829323
0.24769546 0.037409745 0.07410764
0.21726947 0.04373648 0.09493598
-0.05365545 -0.04933917 -0.22899252
-0.24515542 0.06960491 -0.19532989
-0.2722918 0.074212804 -0.23450498
-0.16722196 -0.19550815 -0.12746987
0.014944788 0.0015089675 0.130239
0.20245129 -0.06417221 0.15786496
-0.10113386 -0.16305675 -0.05532429
-0.08661216 -0.100880735 -0.17687067
-0.0523329 0.1431078 0.061069537
-0.06497424 0.24483912 0.05718686
-0.02900845 0.15016289 -0.1898669
0.009860732 0.30480063 -0.12235203
-0.13186939 0.024125498 -0.16687712
-0.01969758 0.10721377 0.078760274
0.01943563 -0.10862507 0.12264295
-0.24927971 -0.042467833 -0.21422006
0.1902411 0.059217244 0.11596639
-0.11096395 0.13747206 -0.10877457
-0.13670938 0.29849517 -0.033744425
-0.10237418 0.09775469 -0.1859498
0.12606378 -0.20071557 0.06660905
-0.022836423 -0.25443363 0.050698575
0.25220323 0.02942558 0.074273236
0.24849135 0.09652537 0.066831715
0.047813803 0.24694872 0.13811567
-0.14604291 0.0017085773 -0.1702659
0.20047343 0.06392575 0.10874103
-0.17620653 0.02219133 -0.15628542
-0.022534579 -0.26114053 -0.22326611
0.15293796 0.13352227 0.117006354
0.031207826 -0.0929972 0.13964471
0.14648451 0.013138433 0.16432191
0.01372521 0.25581425 0.080347754
-0.028674962 -0.14843427 0.05606186
0.02510365 0.2751482 0.012456663
0.02243305 0.0021061855 0.1399225
-0.24196938 -0.09271072 -0.2109338
-0.007879791 0.086726874 0.111282736
0.052506156 0.26992953 0.019961478
0.08865243 -0.22157867 0.07377581
-0.13957635 0.02083464 -0.16187702
-0.15356007 0.14043063 -0.0788966
0.16919947 0.033194628 0.13732818
0.12043502 0.17277227 0.122409195
0.085507326 0.011690052 0.2126865
