# .PCD v0.7 - Point Cloud Data file format
VERSION 0.7
FIELDS x y z
SIZE 4 4 4
TYPE F F F
COUNT 1 1 1
WIDTH 1000
HEIGHT 1
VIEWPOINT 0 0 0 1 0 0 0
POINTS 1000
DATA ascii
0.114020884 0.24813774 0.028713688
0.13034536 -0.13290653 0.062080465
0.09865534 0.21190058 0.032427173
0.14357725 -0.15275045 0.06342351
-0.27475983 -0.15156163 -0.17155766
-0.10987355 -0.102971494 -0.047738392
0.23761104 0.16133273 0.032475606
-0.14381716 0.025774388 -0.072515555
0.16061729 0.27278748 0.017127099
0.24875878 0.1564144 -0.1622204
0.13213949 -0.096193925 0.033379707
0.12818055 0.03559436 -0.16591223
-0.12234369 -0.29370233 -0.03761902
0.01533955 -0.3018765 -0.024159439
-0.07973213 0.20868713 0.038426075
0.3349723 -0.039507516 -0.06868761
-0.18027443 -0.24614252 0.06619929
0.023452273 -0.24173366 0.07518082
-0.08675348 -0.14280958 0.05236414
0.13308613 -0.22397867 0.07009252
0.17171633 -0.07271932 0.055401456
-0.024029475 -0.31248868 -0.17152177
0.017657878 0.29568353 -0.16310228
0.26177338 0.08122514 0.03882771
0.13840589 0.14377074 0.0372152
0.22183336 0.1647475 0.0326771
0.16878134 -0.038997743 0.030804679
-0.3426701 0.005322058 -0.088768974
0.3102858 -0.08356785 -0.20103039
0.14211743 0.30445763 -0.027308952
-0.18499793 -0.2965965 -0.032915473
0.2533874 -0.1673468 -0.042971812
-0.2422015 0.17765683 -0.18580443
0.06915207 -0.18637522 0.0687953
0.25345993 0.15796642 0.03226765
-0.036468294 0.19560423 0.03820245
-0.1529227 -0.29118058 -0.021459011
0.035820544 -0.29739726 -0.031493098
-0.018930864 0.19141188 0.034101713
-0.092082284 0.24986005 0.03516018
0.2093493 -0.24052532 -0.13782525
-0.06258508 -0.20532884 0.074696936
0.110701725 0.14244518 0.022029283
0.1393477 0.16502303 0.035293262
0.19974591 -0.11200196 0.05799957
0.23800369 0.00670737 0.046215452
-0.15088463 -0.058785215 0.04991095
-0.2398833 -0.19175167 0.02489182
-0.28608203 -0.12910624 -0.16724141
0.11414034 0.122187406 0.013729912
0.20638806 -0.080951214 0.055024765
-0.31618905 -0.056336176 -0.08668867
-0.0074068024 0.19609006 0.03723033
-0.34065956 -0.007908604 -0.13048695
-0.27330387 -0.028640222 0.065731846
0.26498687 -0.014398164 0.047229346
-0.10800312 0.29646236 0.02027097
0.22152966 0.21459387 -0.17372505
-0.0659269 -0.29527012 0.025992904
0.04205817 -0.17151463 0.068341725
0.031635605 -0.30726916 -0.11805121
-0.16090262 -0.31024912 -0.15459119
0.22436593 0.09468637 0.03882672
-0.012581296 -0.23991325 0.07617339
0.17513928 0.1461961 0.035822704
0.14833511 0.24038744 0.028302722
0.00084762234 0.2637417 0.03094832
0.10174025 -0.2969506 0.029019123
0.23297766 -0.19744855 0.0124179
-0.23761176 0.11039303 0.052222814
0.048059784 -0.24457607 0.07464726
0.20772603 0.12015453 0.037095904
-0.20383865 -0.21202196 0.075537205
-0.324116 -0.036946945 -0.052737046
-0.3470608 -0.0013087067 -0.19146116
0.2402438 0.21108577 0.016861463
-0.025751721 0.21238199 0.036367696
0.16040759 0.26261628 0.025547395
0.17115428 0.27487722 0.013992486
0.059299715 0.31340572 0.0112207355
-0.16862759 -0.24452288 0.070495114
-0.013535695 0.16568275 -0.0935528
0.05377666 0.28685844 -0.23399515
-0.18538105 0.14357243 0.04760106
0.20166686 0.11838896 0.037445687
-0.21640867 -0.21618646 0.07122223
0.13385427 -0.2588125 0.066981174
-0.27412897 -0.010010984 0.06410137
0.16861574 -0.2936911 -0.12023445
0.14352451 -0.22370787 0.06973416
-0.21624243 0.1953435 0.043983
0.011364858 0.15418713 -0.0357421
0.22460662 0.17468788 0.031704027
0.0777524 -0.135059 -0.1584721
-0.18751822 -0.06096956 0.06585843
0.16374816 0.1728866 0.03381406
-0.19792776 -0.07760156 0.0676728
0.16385205 0.16934605 0.034125663
-0.3208651 0.04456564 0.03898723
0.23473676 0.21997482 0.016355384
-0.31275877 0.06794869 -0.19620875
-0.16371383 -0.2590068 0.06964361
0.15476687 -0.30986336 -0.06784274
-0.28884813 0.02110792 0.061696596
0.008143163 0.15493006 -0.09658397
0.18594736 -0.26668224 -0.11077872
-0.32125697 -0.06425604 -0.17111409
-0.01789919 0.2650368 0.03143394
0.15495856 -0.20235215 0.06746767
0.15277164 0.18719839 0.03289239
0.32010683 0.024830734 -0.12711848
0.25531816 -0.09098742 0.05434957
-0.15341265 -0.14962792 0.072651856
0.20677815 -0.24693389 -0.19903378
0.15559806 0.044107288 0.017940545
-0.14827393 -0.24135505 0.078449644
0.15386114 -0.06228993 0.029806746
-0.19288969 -0.2535358 0.059026897
0.14834397 -0.32092518 -0.115796484
-0.29642537 0.082383394 0.04854303
-0.1278191 -0.13009824 0.07009627
0.045377262 0.21061447 0.034246974
0.2180625 -0.14578684 0.060417295
0.28799218 -0.05791156 0.050361685
-0.018051134 0.19584617 0.03759128
-0.27314883 -0.15226805 -0.1498308
0.19894288 0.27245653 0.008205497
-0.025937544 -0.15544808 0.023430293
0.25581807 0.09947335 0.0373931
-0.27800626 0.06950289 0.057153344
0.14557289 0.24280621 0.028176183
-0.1496104 0.0031292809 -0.1389105
0.06781173 -0.12872261 0.022316312
-0.3132855 -0.024820905 0.054428633
-0.29355025 -0.080113575 -0.013811054
0.20876512 -0.24174105 -0.14544132
0.07214546 -0.16587354 0.06687522
0.13856845 -0.31951725 -0.09716128
0.23163575 0.014102254 0.045760743
0.18894853 0.28561753 -0.077731095
-0.1988038 0.19178511 0.04374141
0.24712671 0.1570443 -0.18516116
0.041474756 -0.27555034 0.077611454
-0.22049446 -0.24223348 -0.15450089
-0.03290283 -0.16478127 0.06815999
0.2611348 -0.052386925 0.050730813
-0.10151306 -0.11904578 -0.109205805
-0.1805042 -0.28993878 0.03748083
-0.22510324 0.21211937 0.008662156
-0.096632086 -0.15124111 0.070976734
0.09205904 -0.14275861 0.033743665
-0.015876507 -0.28832895 0.07315845
-0.20099574 0.038550917 0.057440143
-0.113803685 0.1936678 0.04085194
0.20008634 -0.10969518 0.057782825
-0.30685866 -0.08616139 -0.15965016
-0.16814072 0.21938837 0.040305696
-0.13441923 -0.06731294 -0.05321346
-0.25397825 -0.12499335 0.07368099
-0.19564706 -0.11364692 0.07080497
0.23423193 0.22252078 -0.023444192
0.17268084 -0.1451762 0.061815493
-0.06365281 0.23377447 0.035679992
0.17501813 0.15150169 0.035354376
0.10737015 0.21746522 0.031653795
-0.2346679 0.19520856 -0.038473524
0.26650095 -0.13580763 0.04672953
-0.02869395 0.19560094 0.037954282
0.07087135 0.18067677 0.036095377
0.15655275 0.07495372 0.027534382
-0.037213538 -0.3015102 -0.024597488
0.14973716 -0.0947691 0.049144506
-0.27730343 -0.100120544 0.05058032
0.23701912 -0.19303814 -0.0389537
0.0012404247 -0.30888894 -0.094603464
-0.14961131 0.04312849 -0.18812743
0.33005545 0.006242995 -0.12852556
-0.2995847 -0.064676136 0.0135659855
-0.13066468 0.2831681 0.025818514
0.08642023 0.28646085 0.02618752
-0.008260108 -0.18844536 0.07145819
-0.15088494 -0.17796649 0.07509286
-0.17892312 -0.30370808 -0.10340476
-0.0866996 0.25823236 0.03424186
-0.16966042 -0.23810397 0.07304365
-0.2897564 0.085850045 0.051114623
-0.119903974 0.24537581 0.036449246
0.19420543 0.2279631 0.027086962
0.16071822 0.3020251 -0.022660349
-0.11218684 0.23845235 0.036816694
0.19175227 0.12475326 0.037196994
-0.07806717 -0.22585528 0.07701914
0.06191435 0.14550182 -0.1018599
-0.14524867 0.3058118 0.009741736
-0.20950946 0.1916111 0.0440993
-0.07319505 0.13208309 -0.02964229
0.0029336384 0.2929734 -0.1859554
0.032072894 0.2826018 0.028271997
0.18892732 -0.09188005 0.05655416
0.012019306 -0.1771907 0.06980636
0.1935624 0.26138908 0.015482539
0.21875979 0.062546946 0.041866563
0.17029433 0.089974575 0.040977668
-0.2004104 -0.008564065 0.061610352
-0.17506048 0.2400487 0.03868832
0.060127683 0.29566446 -0.15455689
0.14526367 -0.033715203 -0.038537905
-0.11539362 0.14103204 -0.015294241
-0.33822405 -0.021443825 -0.17373358
-0.23999052 0.18683966 -0.037506375
0.19045025 -0.026546774 0.05069555
-0.096546024 -0.18296406 0.07379761
-0.23487341 0.13665351 0.049801067
-0.18962212 -0.302762 -0.10488266
0.29439747 0.04297064 0.039594688
-0.28886724 0.07800409 0.05308429
0.30116257 0.08048719 -0.024804955
-0.008686547 0.26819685 0.030857416
0.21493469 -0.10909524 0.05725295
0.1773478 0.066041276 0.04288148
0.2197645 0.2419078 -0.06955508
-0.1620334 -0.05198891 0.04030992
0.0360688 -0.27218226 0.07748567
0.19744886 -0.15713555 0.062086523
0.20846298 0.09802667 0.039039545
0.14083605 0.07264776 0.0075966865
-0.09702731 -0.21589167 0.07674002
-0.2490548 0.06890055 0.05628103
-0.051403027 0.14360309 -0.0301288
0.18826775 0.29345176 -0.030709766
-0.2411642 -0.19146974 0.004531453
-0.10440916 0.12953664 -0.017129196
0.12974314 0.1704713 0.03511638
0.0124487765 -0.29665542 0.06571631
-0.20988159 0.22847755 -0.19142847
-0.20633012 -0.28532976 -0.13179296
0.14700265 0.00035710604 -0.052468784
0.26082793 0.12132906 0.035288833
-0.19758545 0.184716 0.044330936
-0.2903237 0.056100328 0.055475082
0.23207387 -0.20193796 -0.067367986
-0.18768956 0.26239946 -0.2205948
-0.2966368 -0.016724147 0.06313651
0.07147907 -0.14314957 -0.1556464
0.29216933 0.09805551 -0.0027217963
-0.26900625 0.03236545 0.060168177
0.23194706 -0.1161998 0.057341207
-0.16137502 0.19952914 0.0418535
-0.13671738 -0.044025958 -0.05796639
-0.16678055 -0.01945369 -0.12007513
0.056753132 0.17632937 0.028538864
-0.122620136 -0.1775126 0.07414825
-0.2266128 -0.22569327 -0.102872714
0.18963358 0.27772966 -0.12507379
-0.1604365 0.037907418 0.029054943
0.12977104 0.10520943 0.013115096
-0.044863332 -0.25612196 0.07864846
0.22026621 0.24896842 -0.00086329144
-0.21847178 -0.24303688 -0.13570412
-0.2812202 0.119176134 -0.10424174
-0.019884475 0.2861335 0.029621108
0.15996481 0.1314735 0.03761725
0.19358343 -0.038826395 0.051687364
-0.1805353 -0.21716586 0.07904875
-0.15740529 0.31175438 -0.080667265
0.17604381 0.017725024 0.026258063
-0.19615738 -0.24073984 0.06385386
0.3438641 -0.017530438 0.016327813
0.21045582 0.25911087 -0.048018556
-0.083488755 0.14318883 -0.19914275
0.3358984 -0.00336554 0.023279319
-0.093612455 0.22114272 0.037762716
0.20601328 -0.23843275 0.0535529
0.1663529 0.0991851 0.040285144
-0.05881645 0.30206585 -0.11451441
-0.03863789 -0.14631361 -0.10471568
-0.055537906 0.1480906 -0.085855424
-0.17316915 0.10235807 0.05087383
-0.323713 0.029879617 0.042989917
-0.13952535 0.18709826 0.042261798
0.036994107 0.29655463 -0.1666288
-0.26873896 0.09639339 0.05446418
-0.08409708 -0.30207682 -0.1059608
0.29033634 0.06847109 0.037081648
0.2255115 0.23770934 0.012299047
0.14150722 -0.31232646 -0.026901614
-0.07548616 -0.28465173 0.07398578
0.01832184 -0.22148454 0.07354351
0.26926404 0.13468847 -0.025785385
0.2670588 -0.14883383 -0.12310526
-0.10214514 -0.29676473 -0.05297256
-0.025305886 -0.19699037 0.07276381
-0.17514291 0.03622196 0.05209798
0.33601335 -0.022053735 0.021560624
0.15852161 -0.1347013 0.061336894
0.22586685 -0.20750397 0.043011867
-0.11237085 0.13659339 0.031236913
-0.32059246 0.06089644 -0.18918334
-0.26880264 -0.14029118 0.0160687
-0.21649154 -0.14702807 0.074440815
-0.2342154 -0.033553015 0.06491592
-0.14015272 0.30682674 -0.10351216
-0.20154177 -0.24384473 0.062348336
-0.2463339 0.007760554 0.061631564
0.27064392 0.120103255 -0.16097835
0.10048292 -0.12449765 -0.029301682
0.09122101 0.19213603 0.034424223
0.09270009 -0.29206735 0.061448492
-0.09986063 0.19729398 0.040082272
-0.18289569 -0.15528844 0.07410146
0.19505908 -0.20231317 0.06618192
-0.25329587 0.13706425 0.050353535
0.2696989 -0.14031145 -0.009686827
0.10284223 -0.19923449 0.068859056
-0.1385415 0.09610826 -0.0089918515
-0.055680517 0.13994478 -0.09320571
0.25595465 -0.11729824 0.05666967
-0.23474245 -0.19610001 0.06451016
0.27643254 0.1109733 0.035710245
0.0950606 -0.283867 0.0671542
0.09598203 0.28111833 0.026356896
0.33212253 -0.043829404 -0.06404331
0.19627903 0.109930456 0.03837123
0.30490178 0.035191953 0.032059804
-0.07758775 -0.19411217 0.074182555
0.2738287 -0.13577205 -0.061313268
0.11018953 -0.15953517 0.06509389
0.19539386 -0.09790915 0.056883875
-0.29470405 -0.06818044 0.037615683
-0.29787236 0.0035671755 0.059556607
0.312198 0.043171264 -0.10236383
0.0968186 -0.16860457 0.066327356
-0.13317002 0.15446016 0.044958744
-0.35562748 0.013753836 -0.15463956
0.21186565 0.00443245 0.047254447
0.040034156 -0.23373264 0.07393965
-0.08336972 0.3049844 -0.10811651
-0.2569063 -0.008881215 0.06344862
0.026428321 -0.2783201 0.07833971
-0.20446798 0.23698573 -0.19247533
0.049711302 -0.29046726 0.03855384
-0.16691789 -0.057662785 0.06061204
-0.18237065 -0.30836797 -0.15774275
0.19852516 0.06649015 0.042162538
-0.27017915 0.12404225 0.050528884
-0.2919316 0.10233114 -0.1024537
0.18342116 -0.13745587 0.060786195
0.06481616 0.16432828 -0.031769153
0.15312105 -0.14314617 0.062261563
0.3043023 -0.06416446 0.042166617
-0.19548875 -0.03327184 0.06365095
0.108344615 0.1201255 -0.042212043
-0.19815218 0.16812284 0.04582485
-0.014823985 -0.19127126 0.07191874
0.17072071 -0.2883478 -0.06715699
-0.2640374 -0.17033355 -0.18175222
0.22270973 -0.055522084 0.052239783
-0.039410524 0.17748235 0.026701348
0.23639187 0.05352005 0.042103972
-0.24705882 0.16905433 -0.21011302
0.23441844 -0.120300084 0.057624992
0.08898826 -0.222059 0.071332924
-0.026585083 -0.30248043 -0.022907628
-0.058478802 -0.29956767 -0.02797644
-0.21363597 0.14787422 0.048121642
-0.12564455 -0.10390648 -0.17102504
0.2833 -0.11977693 -0.034229483
0.14958873 0.12595639 0.03843976
-0.14342685 0.1392059 0.046644572
0.16091433 -0.08965713 0.057255294
0.22005528 0.053639065 0.04261598
0.22349407 0.15228583 0.03373336
-0.3337259 -0.035274606 -0.17731456
-0.05412355 -0.3072787 -0.13877727
-0.3168029 0.060002785 0.039059293
0.20473057 0.22999913 0.024019362
0.2766483 -0.12182507 0.04411902
0.16664855 -0.26756802 0.050842162
0.08236171 -0.13711837 0.03355115
0.1674696 -0.07962811 0.05615229
0.025451194 0.25207165 0.031198999
0.23362415 -0.03854701 0.050380044
0.22872716 -0.20783414 -0.08330928
0.112780534 -0.108261004 -0.03427929
0.26019466 0.14809678 0.032929353
0.079614885 -0.18622403 0.068445794
-0.0219994 -0.31021747 -0.13374284
0.09355849 -0.28824183 0.064529255
0.019257754 0.14231613 -0.09685077
-0.33348998 -0.0358492 -0.17450443
0.15477432 -0.17064172 0.06465515
-0.08144735 0.15390742 0.023856295
-0.17651491 -0.18252406 0.07631769
-0.007794938 -0.2698148 0.078680396
0.23123606 0.19355652 0.029813806
0.048703503 0.22751193 0.032637183
-0.0446232 -0.15604104 0.03298793
0.16270933 -0.30232742 -0.15234673
-0.17668763 -0.0011142087 0.060190216
0.1491703 0.010690983 -0.04602155
-0.060801312 0.15265985 0.0146285035
0.27591822 -0.097526684 0.054271452
-0.09969887 -0.1508113 0.07103835
0.25747025 0.14608409 -0.1163541
-0.17407238 0.2876489 -0.12295768
0.3232277 0.006337847 0.026915599
0.25684425 0.12196776 0.035361804
-0.2933994 0.012314024 0.060615692
-0.17223069 0.061949924 0.049238462
0.22577906 -0.17009218 0.062331457
-0.13506901 0.26278058 0.035387322
-0.023532486 0.140594 -0.09429395
-0.09462232 0.120711826 -0.02861487
-0.17585027 -0.0869464 0.06779741
-0.044150338 0.21359022 0.036849342
0.3271966 0.024728373 -0.054677363
-0.18863776 -0.14055635 0.072976105
-0.2234524 0.21189348 -0.06518018
-0.14840733 0.042574126 -0.0054797875
-0.24124686 0.16938041 0.047092848
-0.27633664 0.12779798 -0.08051934
-0.18015334 -0.063381635 0.06583889
-0.13119444 0.26334673 0.035213143
-0.002218915 -0.28473476 0.07655161
-0.16626157 0.008496758 0.0030441554
0.07761511 -0.15745305 0.065951206
0.11345492 -0.28185853 0.06462619
-0.120408714 -0.24899113 0.08043362
-0.16598669 0.30414447 -0.025823927
-0.15825714 0.013098551 -0.0025425227
-0.20941466 0.1459904 0.048154734
0.17140236 -0.28638878 -0.05004397
-0.18102083 0.04982567 0.055797778
0.17113538 0.11367473 0.0388424
0.048031844 0.1374042 -0.16961044
-0.15604113 0.030850321 -0.06507115
-0.17819533 0.20565586 0.041847985
0.1416094 -0.15884304 0.06402624
-0.17549051 0.132036 0.048310224
0.09796259 -0.2738424 0.07190148
-0.22158948 0.18705374 0.04489214
-0.22889847 0.1508147 0.04834861
-0.29488567 -0.03243469 0.061994936
-0.015348005 -0.28868568 0.072922364
-0.05047772 0.20847669 0.037508145
0.31583568 -0.027092183 0.033582762
-0.25407627 0.05415817 0.057752606
0.015712291 0.13673635 -0.16853717
0.14228828 -0.007563943 -0.16542196
-0.1256014 0.25431693 0.035834823
0.121269815 0.10754076 -0.03578924
0.1307421 -0.146019 0.06323337
0.21956475 -0.018917447 0.049085103
0.31478515 -0.0032736338 0.036413822
-0.22769436 -0.10117228 0.07072233
0.29463497 0.030492246 0.039560966
0.010753987 -0.30940565 -0.11442435
0.15755728 0.20165403 0.031452928
0.10260106 0.26751453 0.027355
-0.12054363 0.09479295 -0.02509421
0.15552865 -0.005224402 0.016495213
0.08929846 0.14324254 0.020703616
-0.11736721 -0.09468848 -0.051554393
0.18572523 0.19645606 0.031014232
-0.25595155 0.16174218 -0.03478844
0.13487801 -0.09744334 -0.15146519
-0.15537074 0.30888772 0.0062435702
-0.11607656 0.31043643 -0.04175651
-0.008710729 0.16114204 -0.20728898
0.22458316 0.21438529 -0.14846961
-0.2464872 -0.15176404 0.072581396
-0.1726039 -0.058073863 0.065125264
0.064761855 0.15555038 -0.037861213
-0.028689284 0.24829088 0.033268865
-0.113172814 0.30072773 -0.19947927
-0.1854459 0.27071783 -0.09618254
-0.15757693 -0.043808717 -0.046289347
-0.16019697 -0.18580674 0.07608631
-0.13033646 0.100785196 -0.014014392
0.24655883 -0.17694625 -0.0121490015
0.080277994 -0.16337512 0.06639194
0.07015442 0.1417317 -0.15639676
-0.16632707 0.18494244 0.043310188
0.16755803 -0.24740002 0.060506284
-0.18829018 0.26242182 -0.19531359
0.24812625 0.17088363 -0.026163926
0.13803115 0.30388656 0.008910765
-0.0063291267 0.19778183 0.03704522
0.19169025 0.27406886 0.008854659
-0.06377372 -0.30516788 -0.12157879
-0.26117408 0.110693134 0.052949984
-0.23069084 0.11267176 0.05179904
0.13314547 -0.15846115 0.06426368
0.10359425 -0.2229057 0.070940405
0.20668116 0.16031668 0.033556737
-0.1609248 0.016073024 -0.06360062
-0.073749185 -0.27875862 0.0795846
-0.19077821 -0.20815995 0.079054676
-0.14127459 0.04426895 -0.14266525
-0.22463219 -0.119318716 0.07223799
-0.25546432 -0.079658166 0.069697164
-0.055784583 0.1724693 0.026219366
0.19299157 0.2609576 0.015812794
-0.21877858 0.15134084 0.047978844
0.2385713 0.1553237 0.0329794
-0.18072324 0.27908936 -0.07235087
-0.20732531 -0.087639 0.06886625
0.24307923 -0.14851528 0.059859317
0.16086063 0.108105056 0.039666243
-0.21079472 0.053043313 0.056465738
0.22304393 -0.21986905 -0.16304877
-0.16946174 -0.0033415514 0.053350322
-0.15093482 -0.0027536629 -0.06469622
0.32634443 -0.050883617 -0.010105091
-0.07283085 0.23513702 0.035852045
0.163442 -0.1178196 0.059678998
-0.24004252 0.118033305 0.051620923
0.23564146 -0.09771862 0.055577405
0.14237781 -0.18486223 0.06631563
0.17083909 -0.07966392 0.056047108
-0.2438229 0.051931515 0.05762226
0.023959018 -0.2304976 0.074164726
-0.1345876 0.20166892 0.040805582
-0.14809221 -0.046256162 -0.11561358
0.13932641 -0.31792524 -0.07931666
0.08612409 -0.12144259 0.023348546
0.20820457 -0.18929064 0.064601526
0.0400544 -0.13619088 -0.04910396
-0.01660617 0.15473448 -0.15665194
0.07565705 0.26965004 0.02802794
0.30442566 -0.016502738 0.04159126
-0.20645055 0.124437004 0.04997615
0.14414605 -0.25718644 0.06438889
0.2277726 0.0010982848 0.047042068
0.2803463 0.11316174 0.033767752
-0.27726135 0.12823066 -0.031221831
-0.26464373 0.048515614 0.058591798
0.13680202 0.19055137 0.0331045
-0.01305489 -0.22703594 0.07504297
-0.09245236 0.22391994 0.037478555
0.19672035 0.2480414 0.018869458
0.1662836 0.043388415 0.019146783
-0.13338089 0.15284918 0.045108605
-0.08707052 -0.1885362 0.07398893
0.048072755 -0.29437253 0.0043133176
0.09163738 -0.27752942 0.07038849
-0.14806211 0.3057039 -0.13604121
0.010602102 0.24897271 0.0319507
-0.083004855 -0.3009628 -0.087287925
-0.2696755 0.033753928 0.060065527
0.28681406 0.082074165 0.03406695
0.01932806 0.22337294 0.033946905
-0.05589101 0.28634143 0.03075517
-0.06800679 -0.19969387 0.0743705
0.17253108 0.24058764 0.02751156
0.25747892 -0.1593251 -0.0023048536
0.04320621 0.15681224 -0.039919645
-0.18143588 -0.19735666 0.0777952
-0.1522722 0.0066370224 -0.0021611333
-0.23644523 -0.20791583 -0.08999956
0.14878821 -0.12910458 0.061150845
0.2440759 0.12914863 0.035131536
0.093698375 0.13377994 0.016197998
0.021652509 -0.18278395 0.06999594
0.01369064 0.23235163 0.03332874
-0.22790231 -0.2254066 -0.12362029
0.08392213 -0.14921509 0.06279273
0.2452138 -0.1784117 0.0050296644
0.16041006 -0.24044104 0.06533718
0.24243383 0.21118873 0.014925514
-0.25348175 0.16088305 -0.1588067
-0.16076165 -0.19115925 0.076581605
-0.10661797 -0.30123794 -0.12812872
-0.33254346 0.012160565 0.040293973
-0.19519317 0.07342685 0.05415171
0.15483153 0.008047589 -0.1034377
-0.17401142 0.08469582 0.05247134
0.18697932 0.110279866 0.038637295
0.06667683 -0.1742918 0.06779904
0.008852219 0.18287757 0.02617822
0.043855935 0.30846626 0.017647354
0.2903817 -0.11387717 -0.17185345
-0.14308186 0.090652406 0.024119483
-0.05278641 -0.17575389 0.07175381
-0.062820606 0.13761428 -0.030887477
-0.079646856 -0.13162446 -0.10935307
-0.0814068 0.26656362 0.033332486
-0.17364001 -0.035279892 0.05741139
0.08116937 0.13952409 -0.15283193
0.11405318 0.106235445 -0.1606488
0.1087045 -0.30904114 -0.052897055
0.02963838 -0.16523896 0.034718186
0.20594913 0.16812152 0.03288498
0.15735064 -0.3071143 -0.10247955
-0.1350387 0.109773815 -0.0060094325
-0.22133268 0.1072628 0.05197854
-0.28369504 0.029487148 0.06089564
-0.00013205007 0.23217182 0.033787947
0.3071699 -0.079402745 0.035672624
0.076257065 -0.20173582 0.06993298
-0.23263249 0.0040792916 0.061519828
-0.054595694 0.20807104 0.037676018
-0.09354373 0.3066203 -0.09895468
-0.22940303 0.13472526 0.04979654
-0.34354734 0.00711047 0.03206909
-0.13688502 0.2978135 0.015042118
0.24106476 -0.0892051 0.054647073
0.24341401 -0.04411624 0.050561834
0.19746071 0.10653681 0.03863621
-0.24250224 -0.19105183 -0.0153656965
0.27174786 0.084655136 0.038200956
0.06086353 -0.251422 0.07484503
0.04701538 0.2856805 0.02751867
-0.24962331 0.1698054 -0.08503871
0.019051807 -0.14688535 0.021227777
-0.16737172 0.26886946 0.029222481
-0.12272359 -0.27159435 0.074896924
0.24912581 -0.17885266 -0.16744496
-0.045689967 0.13685642 -0.10831352
-0.002888212 -0.18000296 0.0705354
-0.15467621 0.17159776 0.04412371
0.14051338 -0.077366516 -0.09600071
0.043382157 0.30526686 -0.087948196
-0.29334262 -0.117617466 -0.17113586
-0.34967986 0.008541498 -0.16728978
0.068716064 -0.1733124 0.06764726
-0.3281352 -0.050253652 -0.15252705
-0.02854655 0.30529305 0.023810137
0.15438023 0.14044261 0.036999203
-0.23019998 -0.2127827 -0.029190138
0.094932176 -0.31534207 -0.12519296
-0.046423387 0.28102028 0.030926626
-0.19300734 0.002225108 0.06041435
-0.17163648 -0.30930144 -0.15608469
-0.13882068 -0.055115663 0.007919395
-0.19876711 -0.23029865 0.06843613
0.19243772 0.22720242 0.027762331
0.26320457 0.048973974 0.041649092
0.0010269016 0.29716092 0.027970836
-0.0040378305 -0.18794025 0.071277864
0.17687902 -0.050485514 0.053258985
0.17340243 0.19821197 0.03125095
0.25095728 -0.1739111 -0.11403582
-0.18292588 -0.14959167 0.073596075
0.045722425 0.26350424 0.029532755
0.23461804 -0.104597256 0.056222674
0.30890474 -0.002134616 0.039526917
0.06530054 -0.13933271 -0.09575224
-0.16593015 -0.073620565 0.06629442
-0.02323793 -0.19125 0.07218746
-0.11053678 -0.21939588 0.077485114
0.15252188 0.28320557 0.010928561
0.21074085 -0.23657125 -0.092056155
0.19581588 -0.25051564 0.053313803
-0.29437673 -0.03364486 0.0620664
-0.23725666 0.08228382 0.054712605
-0.23894121 0.18660474 -0.08680492
-0.28606886 -0.093043186 -0.0024166154
0.16583234 0.076022334 0.027142102
0.16120824 -0.2989852 -0.04941876
-0.102283634 0.19479105 0.04038503
0.2508658 -0.09480078 0.054830857
0.054247346 0.26499754 0.029126277
0.32842472 0.033486545 0.016285468
0.19433479 -0.12045953 0.058925424
-0.20787963 0.08814293 0.053249538
-0.21418545 -0.2623688 -0.13140768
0.22740331 0.03453054 0.044079896
-0.18947496 0.15730803 0.04650916
0.32569593 -0.056338146 -0.1255505
-0.21241017 -0.16089527 0.07554577
-0.21017268 -0.036129586 0.06437516
0.20958202 0.22932164 0.022694284
-0.07229846 0.22150105 0.037047856
-0.3036569 0.0861905 -0.07446276
-0.229322 0.2036104 -0.03949388
-0.05625951 0.17239064 0.026483417
0.23028761 -0.20039153 0.046405744
0.2239648 -0.2125165 -0.009360543
0.25613743 -0.16645448 -0.13289753
0.10257457 -0.2505034 0.0734287
0.1895938 0.07906802 0.041329198
-0.22919926 -0.053408347 0.06652136
-0.23262334 -0.115881175 0.072187446
0.21581955 0.21595334 0.026266495
-0.039651502 0.14967485 -0.02895887
0.044583477 0.24128638 0.031545088
-0.19286005 0.057985775 0.05545092
-0.34870353 0.01941916 -0.062527694
-0.04722221 -0.18478951 0.072378546
0.2517184 -0.08144073 0.053614814
-0.2600777 0.13673605 0.050599206
-0.0036676954 -0.295673 0.0683753
-0.14850794 0.087873764 0.030497722
0.22596638 -0.18138017 0.060594317
-0.1428656 -0.0020253756 -0.013053869
-0.13733357 0.24715036 0.036849666
-0.16523339 0.15227056 0.046180986
0.30662766 -0.08092801 0.018252466
-0.023956442 0.24818172 0.033127137
0.25727627 -0.09037395 0.054232895
0.2378821 0.19587646 -0.12363876
0.16354753 0.003850053 0.018414704
0.29454434 -0.10733692 -0.17273371
-0.09479801 -0.13557611 0.026624804
-0.27025408 -0.08899962 0.07100097
0.080223516 0.16096827 0.02876512
-0.23905334 -0.08295949 0.06946551
-0.26615834 -0.08541746 0.07055183
-0.14010775 -0.037792314 0.0021951606
-0.032817315 0.16214365 0.010898802
0.022718668 -0.30290598 -0.08399135
0.14122945 -0.23828977 0.07110364
-0.31110966 -0.046518262 0.0075975475
0.12193614 0.14570826 0.036647808
-0.022526994 -0.25302237 0.07765788
0.13072312 -0.30953458 -0.03167749
0.24185438 0.044582408 0.042723957
-0.21229258 -0.22382192 0.06987023
-0.31404608 0.068813555 -0.16888276
0.24105614 -0.18865778 -0.09089935
0.16275452 0.02739812 0.016345609
-0.23040786 0.20378058 0.009621343
-0.040853914 0.23587151 0.034762662
-0.16467065 0.30433565 -0.0749944
0.024761776 0.18535815 0.033930752
0.32161704 -0.06450854 -0.1706327
-0.16873322 0.23292437 0.03911962
-0.10812585 0.30691737 -0.083780825
0.096715204 0.15472877 0.03207249
0.106540725 -0.29062113 0.063362725
-0.26191115 -0.046770845 0.06697974
-0.119675055 -0.15791216 0.07230937
0.045464844 0.29248744 -0.19367857
0.112234145 -0.13117145 0.032850992
-0.17013346 0.0029273825 0.052576825
0.2244379 -0.11779463 0.057722878
-0.16900876 0.011394009 -0.05842085
0.17867708 0.27949253 -0.22402018
-0.13382176 0.11906959 0.03564516
-0.0075340797 0.17869893 0.024872389
-0.19166577 -0.27748463 0.055244565
0.33569172 0.0015735811 0.020431451
-0.15906487 -0.23005164 0.07989091
-0.14858381 0.2605094 0.03602111
-0.090681866 -0.10625414 0.006254098
-0.11806681 0.105667844 -0.07909113
0.28746346 -0.07373196 0.050594028
-0.31339732 -0.05773744 -0.06983186
0.2791962 -0.1328783 -0.20671983
-0.2187035 -0.22759959 0.018299729
0.21584545 -0.20381714 0.05722344
-0.112088956 0.110904396 -0.02075748
0.1189267 0.15355685 0.036967568
0.08947167 0.12669896 -0.21359797
-0.290034 -0.1066251 -0.09515098
-0.061123088 0.20823081 0.03786984
0.22575922 -0.21692243 -0.1980131
0.23330285 -0.052060697 0.051592167
-0.14296028 0.12526557 0.047868792
0.20929018 0.24179465 0.017963147
-0.080173664 0.28863212 0.03132907
-0.22942509 -0.19706309 0.0686435
0.006415888 -0.18769176 0.070920765
-0.2648811 0.01664473 0.061434902
-0.13322659 -0.13841356 0.07100797
-0.1145765 -0.10152189 -0.11334478
0.30644724 -0.056693297 0.042886373
0.33242762 -0.012295493 0.024349723
0.2423191 -0.15835916 0.057682194
-0.23251697 0.1947966 -0.1376995
0.12453472 -0.0916921 -0.038000148
-0.11475815 -0.25806615 0.081003815
0.21149561 -0.17688854 0.063393846
-0.10589812 0.26142585 0.034573
-0.19169334 0.13544989 0.04852387
0.08213934 -0.26386443 0.07526951
-0.10425922 0.22089855 0.03812404
-0.25905323 -0.17153285 -0.10368433
-0.2165942 -0.114117794 0.07151771
-0.050497964 0.29476812 0.029834358
0.2347574 -0.015963633 0.04833627
-0.30139413 0.08458607 -0.17548327
0.34165874 -0.033989176 -0.20000504
-0.28790277 0.060504556 0.05624879
-0.13801724 0.1398675 0.04641137
-0.2867468 -0.095719494 -0.019718893
-0.1798437 -0.23242253 0.072452575
0.2460615 -0.072549924 0.053006507
-0.28167373 0.11940947 -0.079543464
-0.23392569 -0.11385128 0.07204923
0.13519882 0.23729523 0.02899813
-0.32546797 -0.039230358 -0.07482525
0.32135144 -0.061216544 -0.07391653
0.05051036 -0.31502467 -0.16732357
0.002285554 0.22321723 0.03450708
0.02982178 0.13472308 -0.10485812
0.07658005 -0.27381718 0.07266045
0.2778932 -0.07903712 0.05256416
0.07820337 0.18443447 0.035525557
0.1205247 -0.24975933 0.07278683
0.16293144 -0.17137867 0.064457044
0.191943 -0.16563584 0.06301923
0.10007582 0.13287875 0.017196665
0.076307185 0.1890966 0.035171673
-0.0031349484 0.25920942 0.03147901
0.10712365 -0.10502588 0.02302314
-0.059577998 0.22009335 0.036766164
0.1619979 -0.2267931 0.06941598
0.24945168 0.17227335 0.031122709
-0.20232332 -0.27349856 -0.03502013
-0.065898284 0.14501782 -0.08105828
-0.083945744 0.15517212 -0.01755816
-0.15539195 0.052268498 -0.18875499
0.27901664 -0.1138333 0.045584816
0.30660954 0.045190644 -0.19263253
0.28247607 -0.0663951 0.05129266
-0.29329455 0.06919175 0.0517017
0.21448882 0.07656265 0.04075497
0.18260306 -0.055775885 0.053546365
0.23197724 0.000773679 0.0469358
-0.08967165 -0.116195835 -0.050636556
0.33068705 -0.045442417 -0.047037527
0.15096994 -0.059942156 -0.09686015
0.049639598 0.31389198 -0.010113077
-0.101903126 0.15641108 0.03960361
0.1900939 -0.26052412 -0.09313187
-0.101110555 0.17520759 0.042087108
-0.2207458 0.20424744 0.043335807
-0.049827334 0.1846782 0.03515744
-0.04887912 0.23681465 0.034934774
-0.28613997 0.11048118 -0.12840694
0.2658141 -0.14523277 0.021955239
-0.21742688 -0.25574756 -0.15078072
0.20594236 0.10448368 0.038545582
-0.050996345 0.22209252 0.036313884
0.14147456 0.049204025 0.0054097334
0.15445237 -0.25564912 0.061758284
-0.08002875 -0.23889214 0.07824243
0.04273353 0.29946816 0.026430203
-0.16464077 0.13874328 0.047365136
-0.17685929 0.27943602 -0.22227298
-0.3143226 -0.032582626 0.051575467
0.2492402 0.16121653 0.03211377
0.15521893 0.07587517 0.027494613
-0.12254559 0.16006461 0.044120487
-0.23511222 0.057082817 0.056885377
-0.16625622 0.2947938 0.011541014
-0.0053456966 -0.30444092 -0.019842386
0.07297615 -0.26386538 0.07556353
0.30216134 0.055852823 -0.21123703
0.049857486 -0.16449861 0.06206724
0.065812685 0.25989887 0.029209506
-0.3166365 -0.04371765 -0.025643209
-0.13786311 -0.094281 -0.039305713
-0.2214802 -0.008907022 0.062317196
0.23609321 -0.16797855 0.05882696
0.018381298 -0.31234664 -0.17196995
-0.0027314185 -0.15149431 -0.09942234
0.017165253 -0.29887933 0.011762088
-0.015385764 0.2919997 -0.20061928
0.12887469 0.30735403 -0.0030891558
-0.18704215 0.16512522 0.045736633
0.22220391 0.009997031 0.046428856
0.30262315 0.07207773 -0.071164265
-0.22232386 0.0052222423 0.06108711
0.10319775 -0.29260722 0.06224863
-0.3020389 0.029392648 0.052551348
-0.14370316 -0.0062482827 -0.0012897011
-0.21765946 0.137603 0.049163174
-0.19577767 0.04692911 0.056527596
0.03334215 0.25093773 0.031046452
-0.17128071 0.17029953 0.044771068
-0.20222986 0.031331103 0.058122486
0.029134544 -0.23911268 0.074766375
-0.3375507 0.04913605 0.019421734
0.18502139 -0.26511917 0.03700994
-0.2878909 0.11151974 -0.029289821
-0.15263535 0.0039869244 -0.0019124332
0.08256736 0.23311113 0.031055925
-0.07494172 0.28932595 0.031100623
-0.11458645 0.19432043 0.0408191
0.056918174 0.1839584 0.036185008
0.3060216 -0.008287315 0.041493393
0.2958937 -0.02374677 0.046220068
-0.20544967 -0.26003775 -0.038520865
-0.23327409 -0.21157457 -0.07219102
-0.3138319 0.04690541 0.04283475
0.17576739 0.09846779 0.040047403
-0.17916118 0.26523006 0.026769623
-0.07124898 -0.3008147 -0.06678989
0.10807018 0.25274554 0.028492723
-0.10868029 -0.131268 0.03089547
0.3036673 0.0069181654 0.03964343
0.090088606 0.1698505 0.036440663
-0.030967064 -0.18805559 0.07214919
-0.32414973 -0.064967364 -0.19962968
-0.19506256 -0.1077247 0.070260555
-0.1803613 0.1174088 0.04976622
0.20837167 -0.14017287 0.060227934
-0.12556435 0.22043762 0.038848624
-0.09510409 -0.19880433 0.075159244
0.123743296 -0.2802518 0.06202557
-0.05004631 0.17719057 0.027133932
0.19399498 0.20925164 0.029610703
0.02990869 -0.29097095 0.059558224
-0.16943677 -0.033383574 -0.11457852
0.07643241 0.15490066 0.022818131
-0.14000101 -0.032866172 0.0009595696
-0.055331476 -0.2962387 0.027664226
-0.16414422 -0.16633119 0.0744812
0.09089887 -0.21190746 0.0703696
-0.28334954 -0.036597367 0.066759974
-0.2103465 -0.24496445 -0.014327707
0.32151833 -0.054383736 0.0346161
0.016197158 -0.19118743 0.07091762
0.21050394 0.01365482 0.046477035
-0.20739616 -0.07210418 0.06748588
-0.21698178 0.22018082 -0.115491234
0.20695838 0.26063293 -0.09330238
-0.12007914 -0.16428459 0.072888836
-0.22178668 0.21167155 -0.13948296
0.101165555 -0.11315538 0.025219947
-0.05857905 0.14487986 -0.14106096
-0.18694887 0.20135036 0.04251107
0.24735565 0.19297104 -0.008428043
-0.17816152 0.2793059 -0.17208692
-0.19302794 -0.25095567 0.060134448
0.34990978 -0.011128529 0.014353839
-0.2562545 0.1615617 0.035633862
0.25771695 0.041276503 0.04250887
0.10300199 0.09967594 -0.17028955
0.113162234 -0.14327249 0.06355213
-0.15940379 -0.048485644 -0.1732992
-0.21289612 0.12422585 0.050202437
-0.17346933 0.18229179 0.043773804
-0.24227326 -0.006016274 0.06272634
-0.31650096 0.07082611 -0.04325049
-0.24377413 0.17804697 -0.11091159
0.22992873 0.085786924 0.03944032
0.20765974 0.121400155 0.036987245
-0.045723423 -0.29237303 0.06899008
0.26839346 -0.108144306 0.055457726
-0.09543804 -0.25464463 0.08013749
0.16537926 -0.2368078 0.066113345
0.22567259 0.20241743 0.02920565
-0.27637482 -0.15085398 -0.19334954
0.20552382 -0.19662097 0.06534003
0.31139144 0.010297999 0.033282638
-0.00074170885 -0.31102777 -0.13238439
0.023024196 0.30240336 -0.09567946
0.17792307 -0.14590813 0.061714023
-0.12838756 0.10273394 -0.074488945
-0.017178798 -0.15047418 -0.038170967
0.27297732 0.112102084 -0.20630246
-0.14407723 -0.27069214 0.06825914
0.25341865 -0.012063829 0.047391918
-0.1476316 0.31179637 -0.06948711
-0.21325232 0.079811215 0.05416166
-0.17943841 0.27921548 -0.121936426
0.31992045 -0.06281502 -0.05670083
0.22758937 0.21573678 0.022676658
0.06735212 -0.25486815 0.07494419
0.18724173 0.27830207 -0.14911012
0.013733126 0.17015389 0.018324802
-0.031701576 0.16548973 -0.03352517
-0.045705 0.2605956 0.03271881
0.008430629 -0.24451691 0.07591001
0.19646549 -0.25998378 -0.19803481
0.15603304 -0.30852574 -0.08509161
0.046450816 -0.1395347 0.026023963
-0.015031386 0.22916679 0.03453212
0.32768482 0.006271669 -0.15280117
0.21139023 -0.23487122 -0.07447441
0.07183533 -0.27420223 0.072233126
-0.29079846 -0.081479855 0.002882798
-0.1394373 -0.04604828 0.0021140364
0.042647462 0.29194686 0.027101804
0.041472815 -0.31014305 -0.13391079
0.12858996 -0.3159712 -0.08252543
0.2610642 -0.1581579 -0.11938543
0.13910563 -0.05375466 0.019012336
0.0913215 -0.22491871 0.07151249
0.0017575346 -0.27544624 0.078873865
0.26870903 0.057495747 0.04071562
-0.2686477 0.13510495 -0.2064867
-0.09581461 -0.123435244 0.014786103
0.27274346 -0.0608076 0.051107176
-0.066983245 -0.30856442 -0.17833064
0.2700157 -0.14561228 -0.16080947
-0.06779763 0.24752936 0.034589756
-0.27320653 -0.102375895 0.06352414
-0.29768047 0.060359478 0.050430212
0.14083527 -0.31472522 -0.04343182
0.19272533 0.04264244 0.044470377
0.29565573 -0.06905147 0.04596609
-0.31539342 0.022635357 0.04890289
0.105703175 0.17396687 0.035575017
0.17368136 -0.27866066 0.023959167
0.1495197 0.04515423 -0.034742936
