# .PCD v0.7 - Point Cloud Data file format
VERSION 0.7
FIELDS x y z
SIZE 4 4 4
TYPE F F F
COUNT 1 1 1
WIDTH 1000
HEIGHT 1
VIEWPOINT 0 0 0 1 0 0 0
POINTS 1000
DATA ascii
-0.05867885 -0.16905026 0.13883665
0.16325574 0.0074087037 -0.083172806
0.066800065 0.12715587 -0.21939513
0.27293485 -0.066438615 -0.18742976
0.11418106 -0.06453538 0.15876034
0.2152242 -0.0041041835 0.07149724
-0.24233063 0.16091767 -0.07698919
-0.2290955 0.15104528 -0.00016435752
-0.23131405 0.10394566 0.091123424
0.26063547 -0.12750679 0.022127116
-0.19904694 -0.112337545 0.07158059
-0.28073373 0.032127015 -0.15662134
0.12558495 0.023377344 0.07481756
-0.08963979 0.24742576 -0.2366677
-0.05860548 0.030775871 0.18082318
-0.015937714 -0.0023551146 -0.29287198
-0.14353125 0.23940417 -0.18506542
0.011381737 -0.07062945 0.21039222
-0.16628882 -0.15791708 0.07758028
-0.039279584 -0.2238131 0.1340669
-0.06882517 -0.024906067 0.17595212
-0.07842209 -0.1534742 0.13165627
-0.013188084 0.045710564 0.120812505
0.20038562 0.07009197 -0.08465672
0.032026194 -0.030147426 0.21027291
0.13370873 0.08444769 -0.18938713
0.092865676 0.13514851 -0.22218996
0.16651012 -0.09926566 0.09678447
-0.092537664 0.07083745 -0.23820297
-0.15757181 0.18356054 -0.06297802
-0.20795444 -0.056642137 0.08292704
0.011123613 -0.021965 -0.2880605
0.07316873 -0.16761251 0.11555926
-0.14403191 0.052451108 0.15399739
-0.07949059 -0.19921298 0.117303036
0.28767738 -0.06455962 0.048410513
-0.06586776 -0.023674484 -0.29549944
-0.23840505 -0.11678287 0.044814248
0.09208187 0.01574761 0.11223963
-0.07419457 0.07917014 0.093250684
0.10127358 0.020730337 0.09613385
0.027890688 0.22142985 -0.26130992
-0.17675598 -0.14091118 0.07639545
0.20068084 0.1578985 -0.24637684
0.2609689 -0.1687974 -0.008445789
0.20836473 -0.17518643 0.024324674
0.11276667 -0.017494319 0.16584216
0.12786298 0.056095015 -0.21822841
0.04427406 -0.19556308 0.112182744
0.08741111 0.07935548 -0.24218841
-0.29655132 -0.055607602 -0.01887285
0.05698504 -0.21142694 0.096275754
-0.20674658 0.030923342 0.10770405
0.004679669 -0.17219849 0.15467447
0.084253386 0.20098482 -0.25700146
0.12248412 -0.14976726 0.094328836
-0.10367955 0.17923707 -0.10258156
-0.25693062 0.013679002 0.06611951
-0.14782508 -0.08390381 0.110848695
-0.03472279 0.10378087 -0.21746258
-0.21821971 -0.103579365 0.06269504
0.10673004 0.056171156 -0.22848289
0.2968218 0.041834984 -0.07493664
-0.06003771 0.18060245 -0.15606745
-0.13809423 -0.03136906 0.13243826
-0.008833493 -0.1240773 0.1822374
0.2206868 -0.0010631762 0.061764598
-0.124693155 0.11448819 0.055030882
0.20652807 -0.17457338 0.026160032
0.14574446 -0.13058436 0.09044555
0.25318527 0.0621517 -0.08734137
-0.107727736 -0.065662265 0.14038427
-0.10259919 0.22755238 -0.18799166
-0.098470174 -0.17741829 0.11244487
0.15297616 -0.17859791 0.051962852
-0.09076651 0.04543074 0.16873462
-0.13885628 0.11009442 0.07321247
0.0012710607 -0.0973608 0.19631018
-0.11242592 0.12781985 -0.079283945
-0.16927548 0.11502302 0.08322746
-0.009234483 -0.1732563 0.16725492
0.13962927 0.07192708 -0.17992635
-0.018002117 -0.12314703 0.17701374
0.14803167 -0.23066022 -0.022383606
0.21292306 0.036238406 -0.008529405
-0.046600014 0.16296381 -0.19354132
0.029225027 0.20598696 -0.2309741
0.07753742 -0.03783817 0.19371212
0.20473321 -0.19502936 -0.1316327
0.09301569 0.027308222 0.08826268
-0.20379135 0.1471807 0.04090095
0.11985392 -0.05891378 0.15858467
0.14578894 -0.1389383 0.084643394
0.059044015 0.21532378 -0.26942632
-0.21277831 -0.00013486986 -0.25135517
0.17855337 -0.093788184 0.09351244
-0.07677857 0.20697992 -0.1633685
-0.17119284 -0.1166711 0.08700053
-0.13744396 -0.01727284 0.13705184
-0.16872269 0.09025634 0.122590914
-0.180143 0.11004843 0.096147664
0.025934257 0.08943118 -0.24493136
0.2610515 -0.056898575 0.07635141
0.12471074 -0.0950573 0.13046938
-0.06584028 0.06829529 0.1097433
0.28176337 -0.037578702 -0.16404007
0.06471378 -0.0062369565 0.17464589
0.10208159 0.10098753 -0.20622948
0.30681825 0.03608166 -0.08589764
0.22564314 0.13758342 -0.22170962
0.12544921 -0.10167681 0.1253547
-0.21391982 0.0907 0.10739664
0.26014927 -0.08755036 0.0549883
0.025517963 0.20812826 -0.23286803
0.012970168 0.037893914 -0.26962343
0.022566 0.09018305 -0.24462898
-0.28166428 -0.0042793294 -0.08100236
0.18010733 0.09542822 -0.1363447
0.11473494 -0.18989241 0.07232026
-0.13998747 0.14559832 0.0021980044
-0.04763047 0.0091077285 0.19393411
0.15636767 0.097601905 -0.15751573
-0.17710991 0.002457735 0.119156756
0.06294065 -0.19541718 0.103290305
0.19447467 0.062482018 -0.07871132
-0.028259298 -0.07887001 0.1841296
-0.15824258 -0.16038069 0.0816714
-0.10803877 -0.11532869 0.12531027
-0.0384491 -0.11549009 0.16703628
-0.085396506 0.21382906 -0.17155188
-0.22809966 -0.06856283 0.06263895
0.04173701 -0.06854131 0.20667242
-0.21130073 0.10318542 0.09663801
0.06506211 0.17349978 -0.20865814
0.093502104 -0.0698355 0.16819048
0.13519903 -0.108634576 0.11337084
-0.09319173 -0.11489645 0.13435291
0.16948964 0.05111096 -0.07538421
-0.062912375 -0.07434233 0.16468409
0.14675076 0.030747078 -0.14246109
-0.01953769 0.22916967 -0.24580528
-0.1411613 0.027901229 0.14836237
0.13726956 0.14438327 -0.18963617
0.19055615 0.03783506 0.0029327786
-0.23473293 0.010278456 0.08181636
-0.18213825 0.062780395 0.13373293
0.20854948 -0.20872004 0.0009695469
-0.26600868 0.13167526 -0.21835117
0.008053732 0.15772511 -0.21985263
-0.09362724 -0.04527664 0.15495926
0.2465647 -0.07688146 0.07483236
-0.053916626 0.08108672 -0.2056127
0.012613674 0.15419303 -0.21950401
0.28118703 -0.055358957 0.059956834
0.25863168 -0.13263816 -0.16673678
-0.025207398 0.21087582 -0.2051085
-0.1459762 -0.13110606 0.09780912
-0.13015996 0.05620395 0.15650256
0.08049468 0.11797138 -0.2182613
0.1617338 0.18190508 -0.26931828
0.21854495 -0.13982256 0.044376016
0.12880169 -0.008401 0.13693313
-0.04942874 0.058979098 0.117793515
-0.12913774 -0.17577702 0.09452811
0.28692964 0.0027627575 0.0037952585
-0.11010809 0.09510944 -0.1533337
0.26008013 -0.07927889 0.061032083
-0.2958784 -0.030667394 -0.1255304
0.08216312 0.14098713 -0.2216139
0.08103513 0.15844272 -0.20747626
-0.23473163 0.09297067 0.10321261
0.19273724 0.00914948 0.059475645
-0.12670349 0.078254804 0.12958224
0.15284626 0.016405279 0.071008146
0.15055275 -0.018383266 0.14282563
0.081343986 -0.11587233 0.14487283
0.25441453 -0.15813583 -0.15463883
-0.031486537 0.19827586 -0.1833483
0.14522532 0.05611262 -0.16000693
0.16625735 -0.049103245 0.13161331
-0.19877242 -0.07273615 0.08361428
0.26353982 -0.07858383 0.058444813
-0.04965078 -0.020877618 0.18867023
-0.09089958 0.048185077 -0.2126106
0.15362643 0.16550767 -0.23085536
-0.19962145 0.13377038 0.06485903
-0.0583192 -0.11967721 0.15385216
0.055073887 0.028173927 0.11142925
-0.1777691 -0.055381913 0.10142346
-0.2619517 0.041487977 -0.006068092
0.17472456 -0.21598968 0.017367436
-0.028489836 -0.10847039 0.17511567
-0.1985956 0.12271527 0.07756657
0.101148084 0.042266037 -0.22268414
0.14737473 -0.20528731 0.03765419
-0.14118049 0.16862716 -0.043563053
-0.09537841 0.06680031 0.13216154
-0.12773636 -0.06990263 0.1271031
-0.11503197 -0.19553249 0.09707295
-0.047327094 0.008269758 0.1943938
-0.00071701873 0.076672256 -0.23093717
-0.12122478 0.051778786 0.16033542
-0.009208086 -0.18162203 0.1614625
0.11409373 -0.048015542 0.17059363
-0.25770143 -0.055337194 0.046957806
0.25699553 -0.039090067 0.08652949
0.03190884 0.12027993 -0.20499747
0.2734416 -0.038264114 0.072794884
-0.019172726 -0.22389092 0.1340954
0.014428822 -0.18731293 0.13472973
-0.055231445 -0.17315114 0.13967843
0.12494441 -0.14513406 0.09571611
0.19819584 -0.21047156 0.004326492
0.14305413 0.16753942 -0.22801903
0.011824243 0.025979478 0.14426425
0.2831079 -0.110165626 -0.009313795
-0.045870293 0.049623862 0.13436608
0.1585093 -0.025023624 0.15010706
-0.087028585 0.18912475 -0.13115272
0.19765626 -0.15392615 0.048814867
-0.1474271 0.12941912 0.039784838
0.13151528 0.12423488 -0.18469556
-0.20773138 0.036935803 0.10912187
0.15634799 -0.16100106 0.06163189
-0.23909117 0.15729113 -0.021121828
0.009632296 0.14082967 -0.21548024
-0.17834519 0.14645106 0.025664823
0.01554195 -0.062395126 0.21535929
-0.25846773 -0.09808137 0.032055944
0.03143077 0.0033221995 0.17718141
0.08571954 -0.0105852615 0.16964145
-0.17990625 0.18370658 -0.048608422
-0.2510092 0.068432815 0.06463481
-0.16246969 0.15593274 -0.003925452
-0.18814282 -0.002796368 0.11093199
0.26035717 -0.10927479 -0.20905998
0.03203114 0.012419765 0.15840127
0.050339997 0.21097344 -0.25491807
0.18516815 0.1435983 -0.20728745
0.04245915 -0.03326023 0.20581047
0.025456663 0.02249876 0.14234816
0.09235722 -0.029243074 0.18434255
-0.15870734 0.24215546 -0.18065937
-0.06597613 0.031302746 0.17993034
0.09384107 -0.17100008 0.10075326
0.17518267 -0.11149919 0.084228024
0.22562194 -0.18479364 0.010170124
-0.1268422 0.12819003 0.02874984
-0.112589166 0.070120014 -0.11485165
-0.03769723 -0.016658086 0.19711125
0.26686326 0.0586031 -0.08915305
0.14210825 -0.15183492 0.078448415
0.20828545 -0.16709748 0.03068953
-0.047902413 -0.053290978 0.18000568
0.22905026 -0.16313739 0.023579976
0.2619729 -0.1495461 0.0049531255
0.052259117 -0.08913413 0.18180807
-0.0065943603 0.18942158 -0.19406573
0.16024199 -0.22115584 0.021985428
-0.07107229 0.05966158 -0.2346771
-0.12732784 -0.0002075128 0.14823917
-0.20757551 0.1370884 0.05867678
0.01954612 0.029903127 -0.2660003
0.07299276 0.11910776 -0.21654546
-0.23934895 0.18583687 -0.16708685
0.086828016 -0.08963562 0.15842015
-0.09220561 0.057088453 0.1497087
-0.21633308 0.17933324 -0.015848221
-0.26035815 -0.06541344 0.04190807
0.20308965 0.05483741 -0.039660946
0.109018825 0.030413246 -0.2120656
-0.15829694 -0.17035408 0.07864968
-0.2989456 -0.07634953 0.0139134
-0.12721246 0.019696426 0.15427619
0.12660824 0.13827445 -0.19224001
0.07250941 -0.21908835 0.08297179
0.124572545 -0.061427876 0.15331693
0.005289749 0.10087719 -0.24548103
0.28769162 -0.033398192 -0.12531851
0.14616978 -0.23164716 0.021867365
0.07204321 -0.12129895 0.14545514
0.0011123556 0.13724676 -0.20600322
0.07030121 0.18721636 -0.2200114
-0.057461653 -0.0008722263 0.18997842
-0.2115399 0.09148411 0.10718
-0.19410984 0.179206 -0.030184604
-0.15755852 0.2476723 -0.19821084
0.0322442 -0.23575479 0.092934296
0.19735631 -0.051277515 0.11469601
0.11750718 0.17955077 -0.23551793
0.0070748404 0.245032 -0.29806626
0.112820506 0.06488956 -0.23004581
0.21920136 -0.22821516 -0.016909843
0.038279686 0.16875842 -0.20426315
-0.04497195 0.027297255 0.17890128
0.17753382 -0.10119183 0.08959204
0.052381445 0.13049345 -0.21878919
0.013151482 -0.19823056 0.1272519
0.17674784 -0.054382663 0.12024212
-0.05019351 0.19904384 -0.17007579
-0.07107291 0.06945445 0.11083681
-0.08140061 0.22987548 -0.20660679
-0.2848679 0.023626408 -0.20164871
0.22881475 -0.007578421 0.06959474
0.27097973 -0.09965907 0.03494954
0.2501528 -0.1653471 0.0063931854
0.2312502 0.117808886 -0.18542778
0.13539958 -0.15039393 0.0843831
0.29608673 0.06727325 -0.12586632
0.19419879 0.060709238 -0.062714264
-0.14931978 -0.0018952606 0.13453288
0.27789673 0.08744114 -0.15468219
0.14043647 0.046867266 -0.16094898
-0.21555404 -0.0679693 0.07435718
-0.016227936 0.05537355 0.10328015
0.0116960285 -0.20592204 0.12238218
-0.19977288 0.22999415 -0.15120922
0.19628933 0.04575637 -0.016843595
0.09936183 0.09503986 -0.20380639
0.2392297 -0.12778863 0.04353285
-0.08317697 -0.06320596 0.15585823
-0.21365827 0.06943104 0.111596376
-0.022104092 0.1375299 -0.19072153
-0.14793588 -0.10382019 0.104812704
0.29265165 0.025348186 -0.2652084
0.17740482 -0.23258758 0.0024449024
0.26650265 -0.1118233 0.029317098
-0.15541562 0.23201789 -0.16233236
-0.07639849 0.066362165 0.120584525
0.22032481 0.08872386 -0.11946665
-0.021628281 -0.13014086 0.1727412
-0.009389507 0.01375955 0.18289356
-0.16954605 0.24193326 -0.18408172
-0.025759943 -0.18837121 0.15280664
-0.08345235 0.14511022 -0.14677073
0.09583078 0.08519362 -0.20704442
-0.08810825 0.06861767 0.12371487
0.13687381 0.179145 -0.24741584
-0.12974161 -0.036137708 0.1360209
-0.12876406 0.14191258 0.002276996
0.19898474 0.008967224 0.055742532
-0.28833717 0.00046039192 -0.13045748
0.09380187 -0.16266358 0.10653379
-0.11446139 0.18455046 -0.09329128
-0.11079729 0.033472296 0.16825873
-0.11845126 0.008973223 -0.23157473
0.16491732 0.14880031 -0.204503
-0.2525492 -0.03509056 0.056991402
-0.09723751 0.23080605 -0.19808933
-0.29359445 -0.044966478 -0.0563646
-0.2144454 0.22101167 -0.11807029
0.0061371974 0.20856036 -0.22101444
0.26423833 0.09100283 -0.15291178
-0.037242573 -0.10499835 0.17090315
0.22685085 -0.06528709 0.09635603
0.2694996 0.02645712 -0.025913194
-0.20609494 0.15360543 0.029428776
0.097586654 0.15637769 -0.2026091
0.06524633 -0.022331877 0.18819222
-0.29122737 -0.0476395 0.022333363
0.16654733 -0.10763502 0.0909768
0.06397078 -0.03434944 0.19561091
0.17977208 0.031727284 0.022359468
-0.14768673 0.18858847 -0.07963442
-0.23028515 0.092906624 0.10393179
0.2490736 -0.19244307 -0.017038735
-0.19797044 -0.14943594 0.040670652
-0.1538301 0.08168876 0.13323298
-0.2602816 0.102186896 -0.124226674
0.2747803 -0.1429674 -0.03338165
0.29896495 0.039323803 -0.071269095
-0.08285932 -0.0054223794 0.17337023
-0.19820645 -0.12917916 0.06703656
-0.005423593 0.085705355 -0.2299617
-0.22280632 -0.06381711 0.06835507
-0.25688475 -0.0671818 -0.08688372
-0.08488749 0.06346456 -0.23214498
0.2628824 0.007749929 0.016242329
-0.106675394 0.004033766 -0.2389166
0.14364715 -0.0023893274 -0.16686465
0.2693308 -0.124522805 -0.09277792
0.15792462 0.11009459 -0.16469845
0.021397866 -0.053842675 0.22143604
0.26404557 0.023380704 -0.016114008
-0.14353606 0.21505955 -0.13585986
0.0011445106 -0.070895694 0.2041672
-0.23196416 0.21710113 -0.17169295
-0.15572809 0.22071598 -0.13928548
0.007682337 -0.03743095 -0.313949
-0.027791679 -0.019545078 0.20219138
-0.052836753 -0.07979879 0.16909757
0.041966498 -0.100548334 0.18149446
-0.19803108 -0.08937754 0.07907144
-0.22045963 0.23433043 -0.17406236
0.18619673 -0.12397483 0.076305225
-0.2399555 0.17184591 -0.092206545
0.2924622 0.005870307 -0.0057849395
0.119822316 -0.12810428 0.11124714
0.2811222 -0.04710479 0.066066764
0.04701866 0.010659555 -0.26010558
-0.09595183 -0.12491408 0.12969285
-0.10384635 0.12105939 -0.0712564
-0.26608232 -0.050543338 0.04325141
0.071591385 0.015067308 0.12707208
-0.27371296 0.05057041 -0.10738319
0.09374745 0.14257018 -0.2011005
-0.042845823 -0.14369377 0.15594122
0.017813211 0.0068209977 0.17905338
0.24078743 -0.10349203 0.05954748
0.075257875 0.21375939 -0.276911
-0.2102519 -0.08260863 0.07376501
0.21321851 -0.10805183 0.073085845
0.22964934 0.026767993 -0.0003730848
0.2914632 0.0612527 -0.11066283
-0.2177918 -0.01183131 0.08641728
0.005717273 0.03994603 0.12004833
0.19819449 0.12181808 -0.1718229
-0.16093263 -0.16637047 0.07826188
-0.057604432 -0.020702288 0.18394789
-0.16272973 -0.1564748 0.080149375
0.28125113 -0.06361532 0.05384573
0.08007872 -0.17453258 0.106542714
-0.11682575 0.011769897 -0.33842707
0.21452512 0.15428454 -0.2481651
0.28330854 0.067889884 -0.118721046
0.031282764 0.1299391 -0.2110466
-0.2282735 -0.10032627 0.05702135
-0.008994532 -0.14376205 0.17624168
0.24779008 0.05903356 -0.07749702
0.007618754 0.026362753 0.14625342
0.018513625 -0.017734 -0.29373166
-0.1934771 -0.12716173 0.070480555
-0.197944 -0.069492705 0.08508383
-0.29083607 -0.02216542 -0.10419872
0.19951682 -0.035397857 0.12304704
-0.02870107 0.15288912 -0.18782388
-0.084539995 -0.1546636 0.12762612
-0.29527745 -0.04333741 -0.09512371
0.07597071 0.20575383 -0.26120076
0.17984661 -0.22713391 -0.050402
0.11279706 0.11176259 -0.20960915
0.18117227 -0.24429424 -0.009468056
0.052682504 -0.21494512 0.09694008
0.063015446 -0.22951607 0.08160117
-0.077238604 0.18946627 -0.14224984
-0.17913298 0.099043064 0.10897517
-0.07672197 0.18357879 -0.14144526
-0.21699739 -0.04392663 0.07714904
0.03498168 0.23764871 -0.3020458
0.02141289 -0.12328403 0.18094282
-0.12201835 0.22798868 -0.17612132
0.20646301 0.11510072 -0.16367567
-0.08768937 -0.05168004 0.1566033
0.26188546 -0.14128543 -0.12372848
0.20988181 -0.007125328 0.08111101
-0.002800542 -0.19986875 0.13686328
-0.09838834 -0.1700447 0.11470356
-0.06792947 0.05973151 0.12842235
-0.28615987 -0.026195789 -0.029773295
-0.103208326 0.041033693 -0.19567132
-0.07850059 0.05356044 0.14783706
-0.20077386 0.13309263 0.0653563
-0.23835063 -0.1062884 0.046667118
0.04257056 0.031560898 -0.2694893
0.20867129 0.07768604 -0.090386234
0.14610909 -0.20584895 0.03819872
0.15626708 -0.14420168 0.073294036
0.124560185 0.009048042 -0.19121194
0.14655592 -0.13104899 0.08952849
-0.18790066 -0.07238222 0.09024665
-0.047959194 0.1424769 -0.17814675
-0.11119884 0.17458647 -0.07529343
-0.16120538 0.13299228 0.04161201
0.119517066 -0.19815472 0.0630945
0.1530625 -0.039535433 0.14793678
-0.161651 0.19221455 -0.07779106
0.031715397 -0.17971277 0.12813722
0.1664583 0.05595922 -0.15029374
0.2339751 0.10796889 -0.16732794
-0.0049439883 0.008656084 0.19029124
-0.1772264 0.054771885 0.13407852
-0.06285412 0.20334692 -0.16516896
-0.21578978 -0.102749325 0.064402945
-0.09669007 0.047653764 0.16661772
-0.23803669 -0.025511302 0.069232926
0.19307746 -0.09805075 0.08969598
-0.12300292 0.19134882 -0.101422004
-0.0909028 -0.14817618 0.12575094
-0.20109189 -0.018400282 0.09626279
0.13563989 -0.2005439 0.049572006
0.13516343 -0.10028111 0.11916639
0.12753008 0.104038894 -0.20328192
0.114466146 -0.13146843 0.11286777
0.25530007 -0.026101327 0.07530601
-0.10433692 -0.12011666 0.12609825
-0.08105439 0.24052632 -0.22836213
-0.27867442 -0.08240884 0.024802964
-0.07734127 0.004942018 0.17978707
-0.13013805 0.033036567 0.15651833
-0.1655337 -0.1315334 0.08594334
-0.26833627 -0.0150375 0.050665427
0.10425714 0.08039622 -0.20314221
-0.11601298 -0.020947224 0.14881635
-0.21043363 0.18852198 -0.038293395
0.06679421 0.22062941 -0.28523806
-0.07317397 0.22518028 -0.202521
0.18733847 -0.17302082 0.041551083
-0.24191143 0.18781565 -0.18279101
0.19743164 0.0984279 -0.1279983
0.078025214 -0.09482775 0.160105
-0.0011783668 0.0072128605 0.1904798
0.26676834 0.01377673 0.0015090128
0.042351443 -0.09249301 0.18815175
-0.10222864 -0.005816745 0.16162567
-0.13508362 -0.0908939 0.11640275
-0.20764758 0.0047985697 0.098327145
0.1066089 0.023796398 0.086433575
-0.043171618 -0.10876577 0.16621652
-0.08259355 -0.040058672 0.16314669
-0.11249208 0.18328041 -0.0920171
-0.28874952 -0.05918897 0.025177963
-0.010266579 -0.21592791 0.1303612
-0.066167556 -0.014891432 0.18054907
-0.25131783 0.06804123 0.08578279
-0.18897596 0.14013593 0.04541115
-0.247692 0.025945552 0.07534183
-0.10141874 -0.13130079 0.12449632
-0.15798385 -0.11086427 0.09666951
-0.04672199 0.07211186 0.08947375
-0.12752065 -0.08904028 0.12149669
-0.0003184184 0.041946076 -0.26587078
0.26252574 -0.09695604 -0.23887867
0.096040234 -0.08422773 0.1578637
-0.070138715 0.046990994 0.15562434
-0.14744999 -0.01435986 0.1319198
0.084778726 -0.20678255 0.0827174
0.19872177 0.16240188 -0.25419176
-0.026962565 0.05859939 0.10380828
0.0622904 0.054671742 -0.23349376
-0.23894979 -0.015080728 0.0721875
-0.038302682 -0.07124443 0.1803854
-0.27195802 0.062205292 -0.14283395
-0.20550193 0.1898368 -0.04419053
0.21806486 -0.09134121 0.082533985
0.075646915 0.16777197 -0.20887426
0.2666948 -0.008455324 0.04648742
0.19736978 -0.0422935 0.11958117
0.23980947 -0.08792202 0.0706452
-0.13487816 0.20821512 -0.12771058
-0.25046307 0.13025 -0.07078138
-0.19738969 0.05095957 0.120275974
-0.13701522 0.14661475 -0.0018063792
-0.28985852 -0.036479786 0.009252389
0.053643487 -0.19002898 0.11163589
0.086236276 0.22023477 -0.29720813
-0.039356638 -0.03763339 0.1898281
0.12529854 -0.22025645 0.043573443
-0.05424089 0.056231756 0.12650765
-0.06343193 -0.004970114 0.18516685
-0.2493863 -0.03256013 0.059808373
0.2689028 -0.052326676 0.07264804
0.15642726 -0.17771578 0.050144773
-0.10364898 0.2510907 -0.23487456
0.15989354 -0.093127705 0.105895914
-0.12070417 0.08666908 0.10863713
0.26002765 0.03538612 -0.037739325
0.11870938 0.00033001348 -0.18974741
0.06976663 0.21054311 -0.26680607
0.05343233 0.0027015544 -0.25661778
-0.23266715 0.03433052 0.08858815
0.19907197 -0.23368421 -0.012150896
0.0015243186 -0.06777607 0.2053325
-0.29367173 -0.032245193 -0.10888983
-0.16734341 0.021455508 0.13071293
0.27057633 -0.058980577 0.06634223
0.06464603 -0.15676978 0.12713209
-0.09320842 0.079605885 0.10485568
0.03154925 -0.087503955 0.19944367
-0.19083291 -0.047403753 0.09597362
-0.17772065 -0.0453552 0.10445837
-0.010284058 -0.058284275 0.20108825
-0.070774086 -0.13936512 0.14047429
-0.0011750064 -0.004135814 0.20094985
-0.12841673 0.18817522 -0.09145243
-0.097581126 -0.03888324 0.1545017
0.30387154 -0.043921072 0.031048927
0.20352137 0.14794803 -0.22813056
-0.1687072 -0.05543692 0.10684733
-0.2274696 0.08341689 0.10470818
0.20950353 0.059883516 -0.054073334
0.23918904 -0.11930756 0.04936978
-0.092750326 -0.18492764 0.113626696
-0.1731639 -0.08101768 0.09650427
0.21144624 -0.17920412 0.019999418
0.13010176 0.0056297015 -0.18149124
-0.22976959 0.044225853 0.09305464
0.22263452 -0.11415706 0.0613667
0.0932831 0.039442364 -0.22268032
0.09048956 -0.18007043 0.09695815
-0.087585226 0.20056051 -0.14329787
-0.09279694 0.12780537 -0.1127345
-0.12183551 0.10933449 0.06356918
-0.05210924 0.18828283 -0.1616878
0.29753947 -0.0384752 -0.08934722
0.18358679 -0.11391618 0.08204591
0.28615314 0.0861384 -0.157473
0.04235677 0.16204062 -0.2050799
0.23688982 -0.19217658 -0.1585154
-0.013501271 0.1507062 -0.2004689
0.04505545 0.09144214 -0.24945891
-0.24819644 -0.04216049 0.057308108
0.04837367 0.17065132 -0.20675857
-0.06663955 -0.1223062 0.14807063
-0.15469435 -0.05655039 0.114925675
0.11776835 -0.035574127 0.17193654
0.15622237 -0.13584083 0.079100154
-0.07111959 0.21105051 -0.17531326
0.11495877 -0.24009131 0.037488792
0.1889249 -0.08762552 0.09579526
-0.12625752 0.03937674 -0.16929716
-0.014090325 0.23239878 -0.25590798
-0.17566463 0.15611242 0.0043773497
0.062874086 -0.17002335 0.11987518
-0.09963884 0.008126213 -0.24533054
0.2712467 -0.13275611 0.010443013
-0.24834006 -0.09122555 0.04065699
0.033486005 -0.020811375 -0.2935281
0.05297458 0.11915535 -0.20643657
-0.2350063 0.118774794 0.022002682
0.14482075 -0.044343 0.15068586
0.16151723 0.10672574 -0.16141029
-0.08576028 0.09558117 0.067678094
-0.23587483 0.11984264 0.0031228433
0.15849283 -0.15199155 0.066275924
-0.013281159 -0.07942187 0.19295345
0.05348304 -0.2403302 0.05925056
0.2363128 -0.071299896 0.0846762
0.19796602 -0.1861964 0.023424586
-0.25475818 -0.05869644 0.04765171
0.18747818 0.03124155 -0.119589165
0.18969509 -0.23927452 -0.011852352
0.03159931 -0.1043342 0.18816385
0.10062334 0.1697247 -0.20644847
0.20753635 -0.05971232 0.109057665
0.07950293 0.15364873 -0.2062076
-0.12927695 -0.14067261 0.10496579
0.2723702 0.08433666 -0.14477903
0.04172502 -0.08135764 0.1981122
0.05558868 0.0059480076 0.15601163
0.17689511 -0.10562133 0.087248355
0.1044341 -0.07932514 0.15540932
0.13395193 0.04088884 -0.2198449
-0.26283354 0.14158164 -0.21428527
-0.21486866 0.113353156 0.084338784
-0.19609648 0.10634047 0.096618585
0.030118847 -0.065281644 0.21554242
0.16694443 -0.2355475 0.00786747
0.21201965 0.09540623 -0.12752001
0.034671262 0.17823754 -0.20093869
0.15780322 0.02385891 -0.12335776
0.09984545 -0.116611235 0.13223006
-0.089792326 -0.21000677 0.10788509
-0.16901772 0.17581886 -0.039816845
0.055320315 -0.050636444 0.2081327
-0.045241717 0.12638658 -0.1859747
-0.0724075 0.23362967 -0.2201029
0.03544464 0.09646346 -0.25353637
-0.18224448 0.23651324 -0.16864915
0.055874523 0.015853982 -0.2619471
-0.25835982 -0.05889026 0.045351356
-0.28659895 0.012033428 -0.16588986
-0.05537969 -0.023198348 -0.29617012
0.116157316 0.013841107 -0.19518903
-0.13539831 -0.021392321 0.137046
0.08920585 0.21011311 -0.2787011
-0.08552835 -0.015382543 0.1687801
0.031575434 -0.09595072 0.19378334
0.073087975 -0.14232679 0.13234259
-0.23093429 0.16385819 -0.0067905746
-0.22334127 0.1437818 0.034569003
-0.27585343 0.0015821515 0.043011922
-0.012300526 -0.11310296 0.1834468
0.2679459 -0.048039995 -0.29498598
0.26229474 -0.06773148 0.06740656
-0.23769589 0.056309965 0.090443276
0.14740457 0.02415419 0.0020748093
0.026184797 -0.2402964 0.09270535
-0.105893135 0.11874371 0.034086037
0.11682747 0.0016401126 0.124502935
-0.07747626 -0.014909631 0.1737558
0.12448345 -0.04489831 0.16515699
0.2068503 -0.13510466 0.056696855
-0.06379338 0.05472597 0.1358238
-0.23984669 0.13439919 -0.019682838
-0.009242468 -0.05424267 0.20292468
-0.07962875 0.10117616 -0.18467666
0.0118101025 -0.14485793 0.17165713
-0.0779498 -0.084255956 0.15268531
-0.17750849 -0.10665139 0.08621214
-0.042523388 -0.09664664 0.17023726
-0.11709983 0.036601838 0.16541311
-0.15504618 0.047277994 0.14583497
0.18705001 0.13844097 -0.19809966
0.009203689 0.19848554 -0.20266607
0.1452208 -0.021411583 0.1524498
0.15053533 -0.11137689 -0.26511002
0.28146517 -0.08837153 0.035504285
0.15461975 0.0054134186 0.09205924
0.042338002 -0.15697205 0.13798487
-0.048932865 -0.19154099 0.13794482
-0.113032416 -0.045677446 0.14319175
0.2181497 -0.09941183 0.07617736
-0.20417206 0.16670749 0.0016838541
0.12982479 0.10209312 -0.20193467
-0.14085855 -0.041366313 0.12778056
0.07432577 0.03852969 -0.23700225
0.20662567 0.09225789 -0.11761562
-0.19246249 0.011315106 0.10995117
0.085984476 0.18679291 -0.22945397
-0.014701317 0.0022063823 0.19920595
-0.10834587 -0.1647306 0.11031879
-0.08319164 0.22714895 -0.19991963
0.058963038 0.11734496 -0.2068948
-0.19353887 0.23367654 -0.15921138
-0.035721622 -0.009332948 0.20049345
0.08251688 0.21522525 -0.28464097
0.25137246 -0.21674912 -0.048278417
-0.0012088866 -0.13274296 0.18421775
-0.08819255 0.17678525 -0.122982875
-0.23642908 0.19579783 -0.1623889
-0.11227463 0.12684333 0.009045747
-0.11823577 -0.15202643 0.108189374
0.2745727 -0.082567036 0.044851836
0.11538374 0.051305827 -0.22460768
0.22023958 0.11151829 -0.16548036
-0.0024301158 0.21542215 -0.2292585
-0.273014 0.013347683 -0.03572253
0.25534377 -0.03732363 0.08631958
0.1923588 0.16468865 -0.25463682
0.06491208 0.02105772 -0.2635568
0.17833433 -0.18290652 0.03983834
0.11391425 -0.22491331 0.04874072
0.09341591 -0.04453477 0.18493834
0.19891505 0.07643394 -0.10202699
-0.07774883 -0.05456424 0.16170639
0.17498669 0.11106259 -0.15705921
0.06059599 -0.00481155 -0.2517115
0.22158147 -0.10315188 0.07072456
0.013482411 -0.17870525 0.14155458
0.0016051313 -0.24108359 0.102599785
-0.24851994 0.104698084 -0.03332521
-0.063405134 -0.06308935 0.16776074
-0.15260714 0.06813826 0.14502253
0.06298764 -0.21236037 0.09225819
-0.02101288 -0.09831074 0.18265006
-0.045251373 0.24987194 -0.2707609
-0.29965916 -0.06523038 -0.044114925
0.13536356 -0.14196822 0.09022836
0.24297945 -0.20774329 -0.020939713
-0.12631482 0.027488245 -0.13623329
-0.16794303 -0.09808281 0.09452322
-0.24744761 -0.11940909 0.035989676
0.004228538 0.0034543541 0.19217345
0.009506366 -0.09265236 0.20266634
0.137241 -0.01082872 -0.16432649
-0.13768363 0.099978745 0.092884935
0.23115885 0.14076926 -0.231772
-0.09296183 0.19736698 -0.13331285
-0.13061593 0.23486173 -0.18436544
-0.031247048 0.036139894 0.15201432
-0.17949831 0.13330211 0.05299691
0.03199065 -0.15169151 0.14899452
-0.14334013 -0.12100425 0.10241982
-0.1878267 -0.14203973 0.0694116
-0.18821946 -0.14194985 0.06920356
0.19773215 -0.16194291 0.042507175
0.12553714 0.19600302 -0.27404192
0.07310497 0.028275147 -0.26564363
-0.033511102 0.23282495 -0.24401695
-0.09248446 0.024009198 -0.26272714
0.15614147 -0.11911511 0.090710945
-0.21354416 0.23483783 -0.19302028
-0.004619136 -0.07307261 0.20005634
-0.18762383 -0.0125722755 0.10833989
0.1455061 -0.08038782 0.12528928
-0.14896452 0.007521231 -0.30873504
-0.2532322 0.13488078 -0.17054173
0.11431817 -0.08931857 0.14100961
-0.029338896 -0.2167778 0.14214303
-0.25817543 -0.007962114 0.058884386
0.15750457 0.030011741 0.003548699
-0.07078861 -0.14782766 0.13792971
-0.27545318 0.053038597 -0.16746812
0.06908444 -0.06333208 -0.28797993
0.12992811 0.019494599 0.0798146
0.05274896 -0.24035582 0.08039102
0.07292526 -0.083066344 0.17115694
0.2586815 0.06523313 -0.09718098
-0.11650406 0.1124654 0.05374335
0.052454676 -0.12161422 0.15735693
-0.08527783 0.051486816 -0.22223787
0.19912022 -0.013205961 0.10046634
-0.2185149 0.20595604 -0.07338551
-0.15214477 0.079879686 0.13564512
-0.20620224 -0.0038802046 0.09629355
-0.17731215 0.035022546 0.1274582
-0.15777865 -0.07110318 0.108710304
0.1232405 -0.03409668 0.1673436
-0.14422722 0.07293702 0.14212596
-0.25804693 0.03217218 0.07099289
-0.08846429 0.009292239 0.17441587
0.15789704 -0.14150494 -0.20905316
-0.10597006 0.060594603 0.15165976
-0.04914109 -0.059145622 0.17750669
-0.071491465 -0.03488158 0.17136264
-0.07727414 0.014873438 0.18280451
-0.2720638 0.099577986 -0.21677466
0.097164236 0.12137663 -0.21701469
0.071902506 -0.1260121 0.14267156
-0.18766983 -0.022615986 0.1053018
-0.14888059 0.21185662 -0.12587625
0.28238702 -0.015967967 -0.23973483
0.12404801 -0.0909807 0.13377273
0.07207893 0.01349824 -0.2586264
0.13535684 -0.18310878 0.061821323
-0.19776459 -0.029580925 0.09715361
-0.067549855 -0.088450775 0.1576716
0.15308233 -0.0058192597 0.11576934
0.14984351 0.17693724 -0.251471
0.13770343 -0.17273696 0.067256264
0.29792514 -0.059867915 -0.019080337
0.21531056 -0.13009556 0.05435031
-0.17890182 0.20584576 -0.09401207
-0.10643214 0.09152642 0.08944767
-0.11227593 0.19777922 -0.12146066
0.057498183 -0.18763964 0.111480504
0.1753014 0.03858795 -0.13687812
0.0728652 -0.06634239 0.18237956
-0.16288981 0.21550044 -0.12403864
0.2492379 -0.010215777 0.061510906
0.05449295 0.1793079 -0.2084541
-0.20883824 0.19985166 -0.062240258
-0.018375525 -0.08172203 0.18920651
-0.04871354 -0.16201827 0.14692648
-0.2348437 0.13128573 -0.009197648
-0.27035013 -0.06764178 0.034955457
-0.10805183 0.105801165 0.061659425
-0.055082712 -0.009727032 0.18875173
0.12275811 0.20558083 -0.29157546
-0.23527996 0.2073308 -0.17538266
-0.17767534 -0.035487693 0.10744289
0.24010791 0.07278356 -0.10024113
-0.013889869 0.0808008 -0.22701886
0.0013314178 -0.1924107 0.1394939
0.004221924 -0.16083847 0.16503161
-0.21009795 0.114516124 0.084138766
0.17070976 -0.13226278 0.073395185
-0.2968912 -0.05477666 -0.060229994
0.24928732 -0.058266148 0.08586764
-0.06694642 0.23688355 -0.23026547
-0.25271255 0.07154281 -0.014389047
0.20774712 -0.11045457 0.0752537
-0.07048042 -0.17444037 0.13013597
0.29423553 0.004873688 -0.14241719
-0.25849223 0.11395904 -0.15975557
0.004147048 0.010296735 0.18100439
0.13655312 0.20244904 -0.2943058
0.20718211 0.15759607 -0.2500338
-0.040507507 -0.16439229 0.15114178
-0.21301123 0.1404198 0.049221154
-0.019032758 -0.23062558 0.12549047
-0.2078215 0.002560204 0.09746257
-0.0019942806 -0.12991744 0.18459372
0.13197076 -0.22606294 0.034650523
0.15712336 -0.14116305 0.074762665
0.109109 0.09341 -0.20131734
-0.16869234 -0.03700742 0.11237943
0.298947 0.07668303 -0.15073204
0.04891815 -0.12525265 0.15691374
-3.047964e-05 0.030350177 -0.2540463
0.0113769 -0.15786888 0.16018343
0.05328828 -0.1207217 0.15748239
-0.22928314 0.21243925 -0.10713855
0.060879573 0.17010912 -0.20853421
0.09394802 -0.19602254 0.08339565
0.28192857 -0.09114671 0.033123393
-0.107790165 -0.07565032 0.13735244
0.10452325 -0.23477206 0.048846915
-0.1237774 0.08698041 -0.11754768
-0.26850152 -0.06566611 0.036769718
0.067477144 -0.21695237 0.08699886
-0.21083584 0.079281725 0.115991466
-0.27979243 -0.0060886997 -0.042804994
-0.29187864 -0.008856354 -0.15521449
0.10814463 -0.18012838 0.08391798
-0.09558572 0.1017301 0.03487421
0.10596096 0.21513847 -0.29986057
-0.19823234 -0.008497892 0.10061265
0.24199985 -0.18461393 0.0009857287
-0.06694136 0.027171811 0.18177441
-0.09977037 -0.004271143 0.16356379
0.018234959 0.12753145 -0.1985846
-0.030886702 0.001369297 0.19910057
0.1682896 0.11606192 -0.16272631
-0.24350825 0.101552814 -0.022815326
-0.22135313 -0.12277864 0.055059277
-0.03809776 -0.2236778 0.09198514
0.28077337 -0.0836661 -0.12144629
0.11593391 0.13215774 -0.1948464
0.11848371 -0.011907122 0.15079503
-0.26826757 -0.095735505 0.026763545
0.123137206 0.09371051 -0.19901992
-0.120811425 0.12273296 -0.05426408
-0.06750915 0.025663685 0.18240938
0.0224166 0.16162032 -0.21720643
0.14065106 -0.08128227 0.12824589
0.094808936 -0.026293002 -0.40047947
-0.21848871 -0.07793549 0.06992759
0.011255322 -0.15073518 0.1680238
0.24856946 -0.18088982 -0.005899565
-0.057336636 0.065915234 0.10896841
-0.11449583 0.24458581 -0.21460664
0.052438222 -0.113124184 0.16282266
-0.08888665 -0.21646504 0.106492765
0.26155692 -0.033740778 0.078633964
0.26133934 0.01071031 0.011268564
0.2761485 -0.12965973 0.0055879904
-0.13586691 -0.14332515 -0.012461224
-0.21406402 -0.03403208 0.08156526
0.24070415 -0.1735689 0.01013184
0.10448405 -0.14865595 0.10834789
-0.22218859 0.030904222 -0.30790964
0.28245935 0.1126347 -0.23726304
0.21729039 0.13859884 -0.21827662
-0.0365702 -0.22885445 0.13418359
0.04279505 -0.01810308 0.19695547
-0.024301311 -0.03879316 0.19851755
-0.09800877 0.23933578 -0.21482164
-0.05342277 -0.21918955 0.12696287
-0.24703035 0.13924517 -0.046534
0.27513912 -0.05401518 -0.21707568
-0.048125476 -0.08303111 0.17095685
0.24327642 0.04491549 -0.045998093
-0.1773862 0.024394384 0.12556313
-0.28880098 -0.07917155 0.019157518
-0.0576242 0.18303218 -0.153889
0.21483482 0.0856216 -0.109592594
0.032774273 -0.024440467 0.2062651
-0.18526798 -0.062195476 0.09487907
-0.16537881 -0.16660894 0.07552148
0.24776123 0.12726322 -0.21537824
-0.16819112 -0.14764433 0.0795179
-0.0143722715 -0.045807127 0.20237371
0.08553479 -0.07887693 0.16696939
0.011793379 -0.22210346 0.1098661
0.013900154 0.22511344 -0.2595674
0.066493414 0.16169775 -0.2072425
-0.13794768 -0.10668428 0.10994922
0.100380994 0.011020323 0.11634522
-0.20152348 0.21631518 -0.10031742
0.09822857 -0.10556769 0.14128901
-0.05477735 -0.04436976 0.1785501
-0.04487979 0.051348273 -0.2428694
-0.15126818 -0.14910966 0.0892371
-0.23374262 0.0003341801 0.08053083
0.14554574 -0.08880662 0.11944443
-0.17821808 0.22076857 -0.12462162
-0.0133679435 -0.033544313 0.20665357
0.18715331 -0.060596578 0.11068104
0.16673243 -0.20248388 0.0319477
0.30483484 -0.022113852 -0.05868044
0.021310408 -0.0637061 0.21842732
-0.019167269 -0.1802802 0.15918782
0.106947966 -0.10089061 0.13819398
-0.088742 -0.20986488 0.108556844
0.092005245 0.036902495 -0.2216656
0.07828176 0.20368089 -0.25852817
-0.060592376 0.24402621 -0.24887367
-0.034166854 -0.18360293 0.14918795
0.19509183 -0.20065567 0.014273118
0.10890371 -0.042352393 0.17803834
0.04972363 -0.22736835 0.090270676
-0.13701004 0.05329541 0.15673521
-0.052964646 0.23322746 -0.23205657
-0.15152301 0.10351406 0.094828896
-0.28693733 -0.025407394 -0.049155667
-0.11847328 -0.19151317 0.09621128
0.01833871 -0.0154973045 0.2014327
-0.20768674 -0.12421449 0.06283328
0.09411272 0.04980609 -0.22758117
0.27142528 -0.06787369 -0.21523853
-0.09796048 -0.09831861 0.13645838
-0.1695807 -0.021465626 0.11650599
-0.28889975 0.050377533 -0.23577893
0.18640235 -0.077614404 0.1014997
0.24978215 -0.124447644 0.03755503
-0.20602354 0.16092809 0.014582432
-0.2213062 0.15778004 0.014665822
-0.18037802 0.13342468 0.053327333
-0.29125288 -0.009540125 -0.13500623
