# .PCD v0.7 - Point Cloud Data file format
VERSION 0.7
FIELDS x y z
SIZE 4 4 4
TYPE F F F
COUNT 1 1 1
WIDTH 1000
HEIGHT 1
VIEWPOINT 0 0 0 1 0 0 0
POINTS 1000
DATA ascii
0.2793017 0.049775016 0.024477867
0.059388615 0.2485654 0.05234222
0.15175419 -0.113337755 0.022275656
-0.123267986 0.0793212 -0.0012964845
-0.09068327 0.22546616 0.062534764
0.29236528 -0.0891904 -0.052065752
0.22537795 -0.23217028 -0.14381987
0.15726636 0.011494707 -0.10420913
0.23376325 0.00837192 0.025660599
0.2661952 -0.06715292 0.01898401
-0.028952982 -0.3133886 -0.19407055
-0.08555736 -0.13024816 -0.17190295
0.20970134 -0.0009556724 0.02698179
-0.16486539 0.27371892 -0.12999733
0.128113 0.2006024 0.04442008
0.07295685 0.31172287 0.0454165
-0.22754404 -0.031234168 0.05873903
-0.20152286 0.26156694 -0.14439486
-0.22514789 -0.15571962 0.051639237
0.13349189 0.21444343 0.044777915
-0.0070480914 0.32159987 -0.1148314
0.070676036 0.152013 -0.015068109
-0.15217672 0.20292786 0.06598475
-0.0030986303 -0.22467358 0.030826397
-0.1932414 0.021986151 0.05907281
0.26467964 0.16791882 0.032161973
0.04657157 0.32984197 -0.00203964
-0.10797731 0.1260229 -0.11161042
-0.169996 -0.068766475 0.05225113
-0.24909197 -0.15771122 0.053359564
0.2625426 -0.20948587 -0.16284409
-0.21150543 -0.21372032 -0.05328036
-0.2331604 -0.05978384 0.057582054
0.1847529 -0.20835698 0.017366275
-0.016026208 0.21943875 0.05648934
-0.2192238 0.1846972 0.07009958
0.05918045 0.26312464 0.053165395
-0.2142927 0.24123386 0.04487871
-0.26918197 -0.057435866 -0.21132037
0.12100452 0.12325241 0.028448408
-0.15823194 -0.022652108 0.038908664
0.30833167 0.046428423 -0.15678279
-0.047102463 0.2672994 0.0615262
-0.13418683 -0.0916838 0.048238937
-0.0040326407 -0.20512813 0.03198171
0.2540324 -0.036534574 0.021616116
0.08088476 0.24890383 0.050716754
0.05483633 -0.22739986 0.02624437
0.13143057 0.10289762 0.02070038
0.21018575 0.06695542 0.030717775
0.052267026 -0.1467917 -0.104974754
-0.2555793 -0.0012597435 0.062548116
-0.12800609 -0.23549826 0.039776664
0.27950993 -0.119061984 -0.12987684
0.29745573 0.015070262 0.021161946
-0.050749265 0.16147517 -0.18566088
-0.2750752 -0.037599094 0.062019896
0.038901005 0.28409466 0.055882547
0.06929013 -0.12625644 -0.19407615
0.11914325 -0.16706747 0.024678094
0.22994603 0.080546565 0.029963015
0.23783301 0.06008306 0.028222732
0.279655 0.09892509 0.02682537
-0.16262138 0.027844435 0.05117759
-0.0899167 0.2650849 0.0646771
0.3042555 -0.048556056 -0.010488403
-0.123385176 0.06845755 -0.0040850937
0.21035218 0.08959336 0.031965163
-0.19927438 0.024015617 0.05964689
-0.29305544 0.04360821 -0.008514796
0.0006414678 -0.30299997 0.02618714
-0.13995153 -0.1637299 0.044677246
-0.2937943 -0.14188465 -0.10837168
-0.23800251 -0.094701484 0.056010164
0.15621418 -0.23394227 0.018126683
0.03072398 0.16341 -0.07099088
0.11883845 0.29743454 0.015580838
-0.0064594606 -0.23005185 0.030782817
0.13701971 0.2796874 -0.13113116
-0.25287843 0.048444185 0.06510272
-0.23076558 -0.19710359 -0.082820795
0.2635113 0.08681865 0.027744927
0.13547312 0.27936462 0.048233934
0.15190257 0.06830994 0.015455787
0.259041 -0.16553001 0.013044276
-0.18236591 -0.16602892 0.04779437
0.08153037 -0.122566685 -0.16763766
-0.119701155 0.2752625 0.0142181935
0.20942229 0.21641727 -0.08807697
-0.1494761 -0.038523514 -0.16828059
0.25289002 -0.07280869 0.019687498
0.046616726 -0.28625613 0.023602217
0.24928036 0.14074427 0.031829454
0.01701829 -0.20423654 0.030424528
0.04422384 0.17645943 0.049494985
0.22011678 0.16238786 0.03526253
0.29834494 -0.0051256013 -0.13695574
-0.17401686 -0.23020875 0.043590482
-0.19019914 -0.009199143 0.057106737
-0.27768758 -0.15427992 0.043536387
-0.0877427 0.21990527 0.06200117
-0.22226751 -0.03506689 0.058121014
-0.1886148 0.013179996 0.058229823
-0.101418555 0.13354927 0.012950896
0.2308057 -0.23893702 0.00018816639
-0.20997186 0.08708845 0.0639686
-0.00627774 -0.31113714 0.023944056
-0.11584385 -0.29474145 -0.12300063
-0.13056454 -0.06565132 -0.051534206
0.28493595 -0.10460725 -0.10467594
0.019672012 0.15041582 -0.070868045
0.26711076 -0.1952239 -0.11684489
0.14549972 -0.12614584 0.024936
0.324473 0.08686147 0.009599368
-0.058103304 -0.19071965 0.03691899
-0.32418248 -0.11584435 -0.17002966
-0.054920983 -0.33324176 0.015086333
-0.14623562 0.049643513 0.012827397
-0.2945414 0.04677008 -0.04489924
-0.029498314 0.31171963 -0.10083138
0.23861319 0.172746 0.034422297
0.21573684 -0.0762708 0.022334607
-0.28482932 -0.1489458 -0.03758264
-0.31463447 -0.12363671 -0.11766583
0.12454749 -0.16307448 0.024487505
0.17670275 0.22898087 0.04228182
-0.07624235 0.14370935 0.04982402
0.13734928 0.07751938 -0.2047104
0.19276008 0.14616176 0.03645179
0.038471807 0.15000862 -0.011932088
-0.044130992 0.20616888 0.057903167
-0.20926906 0.13613296 0.066639744
0.26190126 0.16960903 -0.2049435
0.16145092 0.04046901 0.019452881
-0.23609346 -0.19276118 -0.11253891
-0.0015262217 -0.3144498 -0.09057677
-0.20369852 -0.029345643 0.05702011
-0.21364346 0.23942994 0.06292862
-0.21706812 0.22412145 0.06364667
-0.006215867 0.16360083 0.044469863
-0.13513598 0.09959596 0.05891781
0.13459562 -0.1387404 0.025069455
-0.2424398 0.03683218 0.06365935
0.01622435 -0.19070026 0.031236392
0.271751 0.16284448 -0.16993473
-0.24770427 0.22307034 0.058970597
0.27405557 -0.13363187 -0.1550269
-0.30472985 -0.13218522 -0.10272241
0.15749367 -0.2582915 0.016677009
-0.19833322 0.00032031987 0.058257893
-0.07869233 -0.32075578 -0.00031932024
-0.2137189 -0.057761166 0.056207057
0.12128881 -0.087656125 -0.114352286
0.19947328 -0.12011899 0.021144249
-0.11201667 -0.22945653 0.038888667
0.1797 -0.25012025 -0.09465444
0.05665961 0.19223198 0.049418718
-0.09575224 0.27884978 0.06317024
-0.25517824 0.021753812 0.06379497
-0.22301386 -0.20308185 -0.010766023
-0.27411473 0.12359177 0.032683473
0.09476452 0.20755784 0.04735786
-0.31280726 -0.08786388 0.030379372
0.17356102 0.11809925 0.036361203
-0.24233545 -0.1853888 0.0462294
-0.10530654 -0.3042191 -0.1277015
-0.012408768 0.25044623 0.05793577
0.2504067 0.18103734 -0.026912544
0.28710762 0.0014660732 0.021197464
-0.09218084 -0.17252137 0.040536854
0.20414948 0.070615515 0.031383827
-0.17553581 0.27217418 -0.15379289
0.18732227 -0.025969654 0.023369452
-0.081079245 0.16701026 0.058552865
0.09691557 0.31485644 -0.14451076
-0.2333288 0.23913302 0.051265668
0.012709283 0.25987145 0.056538455
-0.20834917 0.10957173 0.06509362
-0.05060424 -0.1335048 -0.18237618
0.011799356 0.19215323 0.05284632
0.24597582 -0.18638192 0.011041917
-0.23987049 -0.17552811 0.05166369
0.07807795 -0.2944322 0.016861467
-0.07993273 0.13609998 0.008993143
0.038028836 0.24681672 0.053877614
0.2740417 0.1284515 0.026673965
0.18746707 -0.13627598 0.02116425
0.01995101 0.1627995 -0.070201516
0.1855234 -0.11670047 0.022400524
-0.12191549 -0.1215988 0.045639325
-0.20619558 0.09423577 0.06407747
0.021499505 -0.14143445 -0.11742224
-0.14210449 -0.047314156 -0.11960742
0.18077329 -0.1641309 0.020127447
0.12522785 0.101138614 0.015557839
0.081431635 0.32860807 -0.13493949
-0.23172887 0.24318856 -0.009449751
0.22462231 0.15372686 0.034436334
-0.07908347 -0.24518268 0.035496797
0.14709385 0.047253396 -0.039938845
-0.18763171 0.16167107 0.06640406
-0.052680694 -0.33361417 -0.14026211
-0.08388969 -0.23568703 0.03639253
0.14319427 -0.016477969 -0.10713026
0.31296462 0.04855326 -0.12240351
0.12290003 -0.27671602 -0.031617384
0.26519585 0.007972004 0.023234764
0.008954243 0.33050346 -0.17287607
-0.24465951 -0.13258655 0.05441594
0.16526873 0.22127688 0.042728554
-0.16334169 0.10659073 0.06148594
0.14670013 0.21098746 0.04357626
0.19153897 0.05649482 0.031563226
-0.19113836 0.13640708 0.06526855
-0.20624533 0.18896249 0.06934397
0.015109262 -0.2877888 0.025927642
0.15321988 0.15391922 0.03990745
0.31826574 0.13048258 -0.09430307
0.1151142 -0.20037048 0.023137242
-0.28357062 0.17708188 -0.15639032
-0.05853745 0.2296299 0.06030883
0.25825274 0.09763708 0.028747499
-0.026365077 -0.26593253 0.030313127
0.113361984 0.26291978 0.04901105
0.2654589 0.053223997 0.025727648
-0.30030355 0.027054405 -0.053565256
-0.16961409 -0.044614196 0.053565282
0.18390965 -0.026847713 0.021755327
-0.22252461 -0.01707727 0.059141308
-0.10964977 -0.29722902 0.0014720295
-0.068512075 0.26619154 0.06310332
0.15749824 -0.08596117 0.020390555
0.13434908 0.28117105 -0.20473467
-0.03275134 0.31073096 -0.106439486
-0.033845104 0.23835428 0.05890504
0.15525849 0.22791155 0.0438621
0.10922591 0.2796806 0.04767071
-0.21835485 -0.048931498 0.05705255
-0.18991561 0.21510838 0.06733938
-0.22327152 -0.107499294 0.054173645
0.15120487 0.20227636 0.04274758
0.29499975 -0.06443954 -0.11328499
0.16495197 -0.1853221 0.020162137
0.07880683 0.13578576 0.030714078
-0.26533622 0.18959156 0.015222056
0.017451037 0.28295046 0.05745947
-0.26021135 -0.17254762 -0.19994186
-0.0013200764 -0.22102818 0.030892443
-0.12743284 0.25167972 0.06680124
0.06227161 -0.29008034 -0.09019839
-0.17049746 -0.24963592 -0.035628412
0.10000781 -0.11976404 0.0032533617
0.025885057 0.3244525 0.044218544
-0.23185074 0.037281703 0.06287414
-0.18935892 -0.2141556 0.045654863
0.10031934 -0.2340997 0.022393227
0.19764462 0.22808951 0.040629994
0.21407498 0.046632264 0.029292043
-0.32561517 -0.11367929 -0.09353105
0.2753573 0.16117369 -0.024988703
-0.14964376 0.13667585 0.062110294
0.21042128 -0.19154385 0.016337492
-0.25289577 0.006008259 0.06274595
-0.15476772 0.024093302 -0.048808016
-0.07841314 -0.19879337 0.03802242
0.06844016 -0.29556748 -0.0012081615
-0.09967262 -0.117396906 -0.049798004
-0.1989223 0.25420392 -0.070760645
-0.13500217 0.12746851 0.06047927
0.034159612 0.3398652 -0.16070041
-0.19488013 -0.07006664 0.054081686
0.25060794 -0.102196306 0.018229954
-0.059028305 -0.33837894 -0.08384327
-0.07745729 -0.32370195 -0.035428274
0.1278318 -0.26938727 -0.1237586
-0.29605135 0.049916614 -0.08161065
0.26018947 -0.1888471 0.0060011433
0.22842105 0.032240506 0.02739407
0.1879268 0.1779855 0.038591083
-0.16486165 0.11001242 0.06179162
-0.056016754 -0.2388784 0.034082446
0.3253064 0.05406911 -0.023994131
-0.17037839 -0.09296307 0.05093778
0.021167595 0.19734323 0.052418355
0.1924234 0.03351199 0.030218424
0.035734203 0.2389872 0.05361865
0.038367663 -0.19127955 0.02950986
-0.21477322 0.20257401 0.068117596
0.017005423 -0.31337926 -0.03219816
0.19719559 0.18316378 0.03816961
-0.31592688 -0.0442444 -0.09226871
-0.034923326 0.15544336 0.04505633
-0.054649975 -0.33839962 -0.091747425
-0.117389485 0.26947024 0.067021735
-0.089108616 -0.25686926 0.035614867
0.07308534 0.25963476 0.05190849
-0.2879881 0.14157166 -0.117906906
-0.033757538 0.1428201 -0.07872848
0.15288858 -0.12401811 0.024489844
0.28473926 -0.07131401 0.017333532
0.15493572 -0.20962115 0.019576196
-0.028799472 0.17489782 -0.18659554
-0.110987715 -0.16000482 0.042669572
0.069103256 -0.22571687 0.025246847
0.16401348 0.08600084 0.03530808
0.26648653 -0.14934978 -0.20858
-0.22441907 0.1293945 0.067424566
0.32201654 0.06964678 0.011401487
-0.118757434 0.23251626 0.06507357
-0.2860157 0.09262252 -0.10118657
0.23435731 0.19500032 -0.041669242
0.29719657 -0.012535207 0.01964824
-0.025925428 0.30324152 0.06190271
-0.2920399 -0.13561647 0.04694691
0.11471079 -0.14580975 0.024865715
-0.1865198 0.23561391 0.07042743
-0.13392799 0.16794857 0.06264571
-0.32062232 -0.05121465 -0.13331085
0.09004322 0.1876877 0.046615034
-0.0355158 -0.20280924 0.03452099
-0.2859151 -0.07147887 0.05637227
-0.14924526 0.27934554 -0.12446929
-0.012591463 -0.3203028 -0.08111125
-0.14645933 0.059592713 0.048074193
0.30678126 -0.04616648 0.017045598
0.16144706 0.031275984 0.0141485585
-0.034106355 0.14785548 -0.06689773
-0.12480491 0.15042886 0.06097458
-0.0817508 -0.31978276 -0.20406942
0.2425774 -0.20922184 0.006534365
0.2728823 -0.20330736 -0.06911468
-0.30106524 0.028601998 -0.07192202
0.24807991 -0.15215632 0.015645934
0.103391975 -0.11026502 -0.16843623
0.15271583 -0.24579264 0.017737133
-0.0058860853 -0.28877088 0.027477875
0.3173439 0.060253896 0.014051944
-0.08044303 0.27586037 0.06455211
0.2829514 -0.06404228 0.017875152
-0.03841043 0.16913942 0.055317085
0.0689106 0.32476285 0.044407193
-0.027731683 0.1664397 0.0497374
0.24074617 -0.17602761 0.014799115
0.22249764 -0.14100645 0.01822191
-0.15814897 -0.012197704 0.042306576
0.10965054 -0.28348386 0.018936045
0.16847803 0.18174969 0.04028566
0.288462 0.14908275 -0.15351379
-0.15668073 -0.20834374 0.043478087
-0.2610338 -0.1701239 -0.055911377
0.00728068 0.30730394 0.059590463
0.1777227 0.059952285 0.03281102
0.08025209 -0.29201183 -0.027005268
0.31065217 0.0007459713 -0.038453154
-0.012308412 -0.20699933 0.0325114
0.036435727 0.3064121 0.05706756
0.26641014 0.16711633 -0.012023658
0.106802724 -0.2774774 -0.13073744
-0.23351978 -0.19484831 -0.09731387
0.25841472 0.17407183 -0.019463334
0.048447106 0.23491162 0.052419577
0.22698927 0.20168771 -0.02500128
-0.02373056 0.25618607 0.059121322
-0.2875776 -0.11433507 0.051680263
-0.06347206 0.28789562 0.06392134
-0.17366682 -0.20697506 0.044852447
-0.038932536 0.24270166 0.05953464
0.025906643 0.18451945 0.0513431
0.07636489 -0.28231242 0.021547757
-0.07094893 0.29525322 -0.10390122
0.32626003 0.12352948 -0.08676053
-0.13538112 0.08519596 0.047741167
-0.038911782 -0.16422404 0.011214949
0.18758605 0.13714935 0.036346436
0.0021442054 -0.29369017 0.026590237
-0.31546545 -0.08454382 -0.0037365693
-0.013715276 -0.32349166 -0.055717465
-0.25925347 -0.10661552 0.056975037
0.18232569 0.05125376 0.031975977
-0.0076646456 -0.21581426 0.031668346
0.13155028 0.08569316 0.008520195
-0.2053666 0.03878246 0.06093219
-0.12037927 -0.24639757 0.03858698
-0.19122049 0.08909783 0.062647685
0.16425502 0.16669513 0.039773542
0.19733997 -0.1598281 0.019100275
0.0054153055 -0.2525266 0.028626498
0.16123691 -0.039514076 0.01344744
0.053061865 -0.26129165 0.024497515
0.0936368 -0.11651302 0.00206734
0.091376446 0.27857697 0.05105041
0.046992294 0.1640393 0.043809686
-0.11567245 0.13295712 0.059305537
0.16546696 0.2437571 0.04396225
0.028896544 -0.30969405 0.023655178
0.14589429 -0.12208844 0.023519186
-0.2758707 0.19458959 -0.13148762
0.20270652 0.02180264 0.028782574
0.13197748 -0.23480111 0.01993348
0.063173965 0.2094272 0.049875945
-0.045663547 -0.22087051 0.03429204
0.22994688 -0.024862561 0.024105746
0.26493555 -0.14910473 0.014525932
-0.20203386 0.06253085 0.061997347
0.32706636 0.122547396 -0.01671996
-0.24452466 -0.16661845 0.05251399
0.09048347 -0.27822933 -0.23155718
-0.0053554913 -0.2649428 0.028761324
0.22097285 0.14347665 0.034143984
0.049200397 -0.17875531 0.029378299
-0.24007374 -0.1751563 0.051699847
0.13100997 -0.2705913 0.0180193
-0.26656428 0.2068562 -0.050762158
-0.015766615 0.23173614 0.057152413
0.21481284 0.07112643 0.03059606
-0.041108485 -0.29396373 0.02755434
-0.19018154 0.06545774 0.061254
-0.15217598 -0.045801017 0.040762153
0.16458404 0.02646977 -0.04174563
-0.20953758 -0.089699835 0.05411348
-0.06893142 -0.32014912 0.01858223
0.121132836 -0.24716061 0.020074675
-0.15138192 0.2482812 0.0684431
-0.07946096 -0.26839256 0.03423704
0.2732732 -0.12229495 -0.21425699
0.02030968 0.25685227 0.05578978
-0.15205088 0.01228089 0.010085082
-0.27777803 0.11550409 0.010512266
-0.14887771 -0.0678637 0.050685685
-0.12979124 -0.063639954 -0.114691764
0.07052711 0.30318403 0.04743331
0.16798474 0.066264 0.026167106
-0.0687633 -0.3000069 0.02567797
-0.05666043 -0.20767693 0.035865758
0.27900335 0.008599207 0.022213772
-0.043133102 0.27396682 0.061592434
0.21760118 -0.1779973 0.016542573
-0.21535066 0.11181754 0.06575489
0.22342496 -0.1156445 0.019559888
-0.10836288 -0.16219465 0.0423465
-0.26329172 0.0853669 0.06795131
0.21591842 0.107869186 0.032552652
-0.2117322 -0.20556886 0.04784201
0.24161752 0.074613355 0.028739935
0.06184583 0.3173395 0.04608021
-0.11603223 -0.08900529 -0.1832892
-0.10025861 0.29088148 -0.14700674
-0.27753347 0.14140143 -0.02932995
-0.2728236 -0.13411699 0.053516306
0.11878512 0.2949902 -0.19546188
0.17973198 -0.24555536 0.015683303
-0.12082841 0.28910983 -0.1383239
-0.15488584 0.21249656 0.06672439
-0.26809436 0.16896781 0.001308365
-0.0061908658 0.23576868 0.05664457
-0.10590119 -0.30274925 -0.109843045
-0.14914617 0.103112645 0.06020736
-0.20226984 0.094914086 0.06381606
0.31881434 0.12935048 -0.02468887
0.051719256 -0.14135194 0.001065024
0.20107299 0.08437273 0.032383624
-0.11526677 -0.2961916 -0.14076355
-0.10824281 -0.29693466 -0.039017204
0.15472919 -0.17381486 0.021581434
0.31702822 0.10504951 0.015076519
0.08216166 0.24226904 0.050249547
0.07933549 -0.23717172 0.023827147
-0.28493005 0.022661157 0.06612245
0.15338789 -0.22184573 0.019015962
0.16387747 -0.0013708012 0.01656232
-0.27516642 0.100833036 0.034905236
-0.27252033 0.12561318 0.04402316
0.14167668 -0.03131612 -0.056490984
0.3099006 -0.022579232 -0.018570872
0.17050204 -0.18235855 0.019901354
0.05763033 -0.27014863 0.023655623
0.24544258 0.10771369 0.030286623
0.29978347 0.044919133 0.02264172
-0.26846308 0.18143672 -0.007800214
-0.13200243 -0.06798389 0.009565251
0.23309313 0.04617071 0.027811132
0.290578 0.10129892 0.023215258
-0.09174366 -0.122057244 -0.17431451
-0.25887805 -0.16320607 0.053801905
-0.05485211 -0.13798508 -0.060085654
-0.29317084 0.05979012 -0.07734034
0.07592571 -0.28781116 -0.1544773
-0.0027640923 -0.20156245 0.032085072
-0.24041009 0.041268237 0.06375138
0.14214388 -0.17921746 0.022244064
-0.23161171 -0.1963403 -0.08126049
0.17011896 0.007245829 0.01484402
-0.13398232 0.022384685 0.006865861
0.0738625 0.3162894 0.04444405
-0.14544551 -0.085721195 0.049431417
-0.18516363 -0.05301911 0.054287717
0.22603081 -0.16426711 0.016659627
-0.14599645 0.26557896 0.00674965
-0.14340444 0.1627202 0.06308077
0.14723846 -0.22999005 0.019033724
0.19947304 -0.08756707 0.022951372
0.19055317 -0.053738914 -0.24627188
0.091915086 0.26187238 0.050593123
-0.1459584 0.021244703 0.010117106
-0.10238909 -0.19052508 0.040317446
-0.01660899 -0.17509332 0.034613445
0.039819654 -0.18865128 0.029545397
0.12795883 0.28729042 -0.16323777
0.15167451 0.057069354 0.013442034
0.26774466 -0.13699096 -0.24005394
-0.22259074 0.05936579 0.06339308
0.17115805 0.014351424 0.02072211
0.25976703 -0.11963989 0.016560202
0.29003957 0.08796766 0.0241391
-0.07104802 0.12594184 -0.0030287937
-0.11803989 -0.1145793 0.045739174
0.2851297 -0.059298236 0.017972436
0.11607649 0.10776522 -0.14844397
0.06673881 -0.13765737 0.00288553
0.039632715 0.1851241 0.050327048
0.040693324 0.29260188 0.056216717
0.28846532 0.077498935 0.025036871
-0.18154174 -0.23962753 -0.011892433
0.14040086 -0.03350661 -0.1783714
-0.21256143 -0.09493401 0.054052427
-0.15978916 0.11888387 0.06189754
0.29308555 -0.10045433 0.0058976617
0.121546045 0.293428 -0.1217625
-0.108579405 -0.1741564 0.04169933
0.07084422 -0.14791842 0.013158785
-0.17086546 0.124640845 0.06306377
-0.16691531 0.12593944 0.06283533
-0.23119618 0.24455345 -0.029919047
-0.0024304679 -0.1784768 0.03334156
-0.14226927 0.2308317 0.06677865
0.025426755 -0.20835151 0.029551495
0.042505905 0.32761008 0.04274293
-0.26098692 0.19961153 0.04788114
0.044522922 -0.24549368 0.026027998
0.17288716 -0.03303562 0.01839968
-0.2154894 0.020970996 0.060717218
-0.0042968164 -0.2171501 0.031334486
-0.044436805 -0.15610883 0.005924575
0.18114597 -0.009165231 0.018114848
-0.2740866 -0.0059010214 0.06370521
-0.15456276 -0.046406154 0.014355577
-0.15607856 0.13880014 0.0627196
-0.3144259 -0.059428055 -0.04542793
0.030538358 0.20253679 0.05199098
-0.20377618 -0.2144753 0.04673901
0.18684997 -0.25076205 -0.033718806
0.25712392 0.17464288 -0.06740344
-0.06416798 0.1372882 -0.12880476
-0.00310305 -0.30272365 0.026491074
-0.12932616 0.15922955 0.06181
0.3069391 0.022263344 -0.11505829
-0.2004216 0.0145288035 0.05920784
-0.1536671 0.10415557 0.060610283
0.20635301 -0.2301508 0.0109338835
0.17167449 -0.20661928 0.018463805
0.027044939 0.23399542 0.05400615
-0.276556 0.08787036 0.06682374
-0.23404433 0.12414008 0.06786719
0.086851634 -0.10472044 -0.11968154
0.16702895 -0.104582354 0.024489544
0.009655645 -0.30756786 -0.10191128
0.18650138 -0.0028162363 0.028653441
-0.08113459 -0.12989664 -0.052727688
0.06872294 -0.28205073 0.022145964
0.10251608 0.27293155 0.050396934
0.23606113 -0.2315491 -0.14487302
0.26859206 -0.14821753 -0.18025672
-0.003827409 -0.3209783 -0.039764762
0.15423349 0.19079839 0.041878514
0.21438718 0.013006584 0.02739909
-0.16235779 -0.2484309 0.041685294
0.22336668 -0.027114743 0.024484575
-0.07980417 -0.20263912 0.037914988
-0.07927094 -0.31882727 0.016522538
0.09384491 -0.11275984 -0.055385847
-0.051221598 0.25870293 0.061364315
0.190101 0.23210607 -0.20088644
-0.014440037 0.2937803 0.06049938
0.21044454 -0.07488108 0.022817075
-0.10716549 -0.2956753 0.027007237
-0.17592265 0.24214667 0.069980524
-0.115568 -0.10067803 -0.17157665
-0.20088035 0.25971153 -0.12585038
-0.0011810164 0.24473853 0.056760143
-0.016726883 -0.2481432 0.030564087
0.18432099 -0.24431066 0.015402177
0.21026903 -0.24068514 -0.06994035
-0.080146104 0.21624584 0.06121789
0.1321815 0.14684325 0.041122053
0.14318416 0.09127287 0.021876112
-0.28153205 -0.15364867 -0.18992285
0.106084004 0.1441935 0.03846944
-0.2546102 0.044737067 0.06503
0.20402008 -0.12889974 0.020307902
0.12914294 0.06640831 -0.16081151
0.20813999 0.2058316 0.03859135
-0.28527263 0.09099105 -0.082760155
-0.13332927 0.22595958 0.0658242
-0.33350706 -0.0906261 -0.14815456
0.07698824 -0.1556646 0.013436707
0.17815557 -0.22190592 0.017118342
-0.112188995 0.21465135 0.06357874
0.0070017427 0.29480323 0.058916837
-0.032732762 -0.31009135 0.022703918
-0.22383912 -0.08627003 0.055396706
-0.17738147 0.110107355 0.06275382
-0.22574954 0.060709786 0.063710056
0.022554826 0.20961183 0.05299377
-0.270365 0.21732756 -0.16203068
0.1397237 -0.07441154 0.007108841
0.265432 -0.01172395 0.022121131
-0.13311306 -0.24447308 0.039668735
0.29920563 0.117381975 0.01833632
-0.1426225 0.20817351 0.06554583
-0.3076006 0.0115143685 -0.11865668
-0.08723705 -0.15797327 0.04096661
0.109908134 -0.10556012 -0.1128912
-0.095142 -0.22964998 0.037587587
0.21790531 -0.24547309 -0.022353463
-0.058299817 0.13118272 -0.002829846
0.19500376 -0.08855945 0.0232391
-0.29479814 -0.13346054 0.046088453
-0.2424809 0.1503828 0.06997129
0.20428881 0.035282902 0.029408952
-0.16588113 -0.25029364 0.04185083
-0.09326268 -0.2417658 0.03677115
-0.20451254 0.18552528 0.069020875
0.090672165 0.21237633 0.047937483
-0.134195 0.075044066 0.005287042
0.0887119 0.32199234 -0.15211235
-0.07815778 -0.23257844 0.036125727
-0.04743912 0.15222044 0.003917856
-0.16457562 0.037926283 0.057765502
-0.13447192 0.06778508 0.006868266
-0.12410604 -0.29106858 -0.19002938
-0.24217461 -0.18697685 -0.076311834
-0.10749889 -0.19950317 0.040208388
-0.16846332 0.028157648 0.05751953
0.20378545 0.058363803 0.03073048
0.20478703 -0.23648256 -0.1571929
-0.2953795 -0.1395939 -0.032595012
0.25965127 -0.1424531 0.015301041
0.1532532 -0.021918299 -0.10575912
0.14511213 0.025846777 -0.054824825
-0.058096934 -0.27929437 0.03199659
-0.13551834 -0.20833698 0.04185903
-0.21363918 -0.21338989 -0.18445827
-0.26841074 0.07122715 0.06755705
-0.23299488 -0.047607705 0.058245566
0.05999387 -0.21835212 0.026352134
-0.15233502 -0.080434315 0.05025283
-0.12655336 -0.05800018 0.0046187295
0.11636848 -0.22463837 0.021690238
-0.25964198 0.030613424 0.06463022
-0.1900217 0.002823179 0.057761714
0.31152812 0.08068444 0.015901126
0.12353199 0.2092842 0.045252457
0.18317989 0.08185346 0.033611916
0.21578573 0.19354412 0.03732448
-0.079819016 0.14684585 0.01203795
-0.22497447 0.106511116 0.066194564
0.18172412 0.24216898 0.026527962
-0.19765124 -0.22641747 -0.09500525
-0.11073058 0.14695011 0.05970429
-0.18789712 -0.20353857 0.04613156
-0.28515923 -8.188134e-05 0.06487461
0.17125112 0.25045857 -0.05268475
0.16184825 -0.054758817 -0.04405154
-0.039535675 0.19744352 0.057065565
0.27547678 0.16179968 -0.047263004
0.18114448 0.04713897 0.03183968
-0.026461186 0.23123161 0.057944324
-0.16994269 -0.026241135 0.054609656
-0.18928452 0.051597457 0.060414873
-0.13872375 -0.09151418 0.04859537
0.27934778 0.0723441 0.025729116
0.08627548 -0.10056821 -0.17690252
0.08185151 -0.13028957 -0.052756052
-0.22156896 0.03572966 0.062002733
0.05283885 -0.13449775 -0.11599581
-0.2755804 -0.084516525 0.057171438
-0.18415347 0.0043351767 0.05739717
0.023666725 -0.17436576 0.013780757
0.10418747 -0.14027399 0.012211801
0.15756461 0.0601836 0.019569838
0.120467514 -0.2803306 0.013819883
-0.17679326 0.17457013 0.06629247
-0.12897918 -0.101573326 0.047292177
0.156607 -0.22456384 0.018618284
0.15654238 0.040123567 -0.16108997
0.07816075 0.20438978 0.048451997
-0.24678953 -0.04200509 0.05961089
-0.076579235 0.22196199 0.061261687
0.15636185 -0.24759658 0.017357439
0.17551106 -0.18484972 0.019380547
0.035127327 0.19383009 0.051155325
0.21879584 -0.22784117 -0.21178366
-0.18523966 -0.1812899 0.04716461
0.25235388 0.1692682 0.03317801
-0.015237567 0.25649023 0.058487583
-0.16685654 -0.09764474 0.050408274
-0.020410731 0.18537425 0.054932013
0.033275362 0.15402757 -0.1349477
0.0052182036 -0.31183782 0.025346437
-0.10808224 0.18430106 0.06157951
-0.03446206 0.30535275 -0.02553012
-0.28168446 -0.12911591 0.05068613
0.289061 -0.032841466 -0.18374367
0.16102785 0.018408792 0.014498286
0.23761413 0.14662865 0.03304757
-0.18208276 -0.23892832 0.006866444
0.17857859 0.24380665 -0.0694385
-0.3060169 -0.07488313 0.060050298
0.18103237 -0.24823503 -0.117918156
-0.19406267 -0.023972657 0.056580715
0.3271263 0.07721958 0.0042929277
0.31118757 -0.010971197 0.018665846
0.006185194 0.25762704 0.0569141
-0.3073751 -0.12652577 0.04492695
-0.012328201 0.16133045 -0.06781447
-0.037654303 -0.32075945 0.019667637
0.09535998 0.17117849 0.045290474
0.017535638 0.20062855 0.052877873
-0.04902839 0.19224606 0.057503767
-0.034357235 -0.22691399 0.03309239
-0.118309006 -0.2911166 -0.04818904
0.118680246 0.28489333 0.04759725
-0.11567755 -0.26563781 0.03715836
0.23454179 -0.23425148 -0.12056834
0.13686518 0.09380525 0.017264165
-0.11197276 0.22693324 0.06424452
-0.1389987 -0.27755457 -0.05023381
0.23759982 0.19022387 -0.20437546
-0.0710181 -0.14693677 0.011330451
-0.30745745 -0.12995754 -0.117535874
-0.0034456756 0.30679178 0.06038161
-0.20661731 -0.19314739 0.048141263
-0.16118957 -0.17656408 0.04558833
0.1361318 0.28017977 -0.15563048
-0.25303406 -0.1766511 -0.011925209
-0.26316893 0.07238799 0.06721991
-0.12240526 -0.0942705 -0.110044464
0.19091846 0.23167711 -0.17615944
-0.23477744 -0.18009074 0.051021215
-0.27013037 0.14514966 0.024832973
-0.17041835 0.23793958 0.06932609
0.19222216 -0.2432433 -0.12606122
0.11964291 -0.17724302 0.024074066
-0.21781926 -0.18712686 0.04933296
0.17390929 0.13040677 0.037017494
0.054095 0.29389775 0.053305015
-0.18799828 0.13717532 0.0650703
0.13866447 -0.07759841 -0.050030187
0.3080103 -0.009675603 0.018980877
0.28275585 0.15284568 0.025779352
-0.18884799 -0.23446685 -0.120007254
0.1330434 -0.24964277 0.019027531
0.2564918 0.0931389 0.0286323
-0.2545259 -0.1751498 0.0039610653
0.023169823 -0.2951612 -0.1627758
-0.05648886 -0.34043956 -0.06891103
-0.02580627 0.14682606 -0.0071927095
0.10749053 0.12255815 0.016918853
-0.17717297 -0.24526113 -0.163172
-0.0034339747 -0.2478102 0.029566074
0.15650034 -0.016341116 -0.045301016
-0.11263043 0.18991113 0.062237766
0.1060861 0.30715695 -0.11240237
0.17447601 -0.22082102 0.017461142
0.101047136 0.3090179 0.04077332
0.06376178 0.25443873 0.052333407
-0.133393 -0.08044705 0.016939506
-0.22969118 -0.19892927 -0.1573235
-0.026425518 -0.20357908 0.033782452
0.18467937 -0.13076976 0.021683052
0.26322052 -0.16280612 -0.2053221
0.20632896 0.14429146 0.035310637
-0.26481512 -0.06130648 0.05991775
0.039184272 0.29637232 0.056542654
0.081280895 0.13285545 -0.024644326
-0.10814658 -0.15022202 0.04299663
-0.27595258 -0.11940851 0.053379957
-0.22578493 0.19941257 0.06677218
-0.25355554 0.15614307 0.07113799
-0.048063073 -0.32034084 0.018883722
0.280842 -0.10664425 -0.16043286
-0.14356059 -0.12121001 0.047315337
0.22622389 0.09618412 0.03111664
0.29723847 -0.030215463 0.018662954
0.1044025 -0.2811255 -0.08448823
0.2551662 0.17550693 -0.14031304
-0.28732708 0.06325191 -7.332753e-05
-0.2729538 0.0800395 0.06839407
-0.28517878 0.11293407 -0.06355918
0.123436555 0.2386598 0.046892762
-0.090484455 0.2828967 0.018123243
-0.23020606 0.15957539 0.06954303
0.15094149 -0.04066524 0.0028031718
0.026720604 -0.23963104 0.027715107
-0.14632078 0.2699889 -0.03277903
-0.116690695 -0.24158 0.038571943
-0.007832374 0.3200818 -0.094098344
0.12377172 0.2511155 0.04755932
0.19170415 0.009007602 0.028912151
-0.19823995 0.007826793 0.058668725
-0.1017844 -0.17770521 0.040982034
0.08577551 -0.2855566 -0.13788754
0.15598714 0.216112 0.04315067
0.080933765 -0.29117045 0.02070567
0.27497104 0.103552364 0.027798055
0.04436184 0.3108836 0.05345664
-0.32911044 -0.110048026 -0.04672578
-0.02398734 -0.14467789 -0.054726522
0.24034746 0.09862661 0.030171277
-0.14137137 -0.24737027 0.04013965
-0.10589809 0.27602872 0.055731233
-0.30377716 -0.009553061 0.0024864196
0.100872874 -0.18801719 0.024910878
0.24103275 0.18863857 -0.08244322
-0.2901991 -0.00895917 0.06476745
-0.14656529 -0.015341716 0.008130663
-0.24296117 -0.103656605 0.055892926
-0.02542333 0.28078622 0.06061652
0.14350677 -0.19832425 0.021078901
0.24769317 0.15547246 0.032767925
-0.1435626 -0.27280992 0.011124281
-0.18320146 -0.22920215 0.044349276
-0.18507351 0.22403973 0.067835994
-0.106982395 0.27975607 0.019488456
-0.0114458 -0.31699905 -0.10673852
0.27388886 -0.00051366584 0.022099035
-0.23256855 -0.19504987 -0.04336105
-0.038246997 0.28782925 0.061989173
0.20493813 -0.014968317 0.026567845
0.2468751 0.042721853 0.026565356
-0.20329112 0.11847162 0.06520072
-0.18261719 -0.23823851 0.025441134
-0.1909311 -0.05779544 0.054463316
-0.14820203 -0.11234009 0.048164807
-0.18018442 -0.04517189 0.054342907
0.20733377 -0.2459903 -0.021481868
0.04747212 -0.2505398 0.025521515
-0.2933618 -0.06513006 0.061888218
-0.15729357 0.055742253 0.054038104
-0.24960028 -0.18174158 -0.1869364
0.25336313 -0.18018474 0.010431887
-0.036175307 -0.23212057 0.03294216
-0.17279968 -0.16058584 0.047365826
0.14647357 -0.0861851 0.011983792
0.12865628 -0.2178098 0.021132056
0.25990608 -0.20016478 0.004157373
0.15442698 -0.030909289 0.005861422
0.033985842 0.1708449 0.048140034
-0.043672014 -0.3331436 -0.10045958
0.27196667 -0.16940734 -0.058239542
-0.12404061 0.19592413 0.06344288
-0.18005365 0.08327839 0.061470088
-0.2743432 0.18952312 -0.0751204
-0.30516702 -0.13135952 -0.06538759
-0.15999664 -0.25894463 -0.04055587
0.045827776 -0.13917787 -0.17112659
0.18381026 0.20872447 0.040611684
-0.05253023 0.26876023 0.062021688
0.23331907 0.068764575 0.02905061
0.12705079 0.28779867 -0.18786909
-0.096924566 0.1303369 -0.11827644
-0.22310725 -0.09548473 0.054828852
-0.15816824 -0.14088073 0.04733918
0.107463114 -0.12700701 0.008872128
0.2235137 -0.004396179 0.025734773
0.22415155 0.20304759 -0.12157394
-0.06264775 0.21842635 0.060000855
-0.27215806 -0.16128829 -0.13753676
-0.110153705 0.10488055 -0.059693296
0.17396148 0.15894423 0.038600516
0.3037449 -0.027638527 0.018308777
0.21962428 0.09481037 0.0315451
-0.304941 0.0067936005 -0.06437515
0.004870299 -0.32178205 0.0013749035
0.036598917 0.18504792 0.050554484
-0.21061431 -0.09768007 0.053751014
0.24288025 0.11914297 0.03111802
0.20687428 0.19710469 0.038203437
-0.021423528 0.2090001 0.05632323
0.27821267 -0.13172607 0.014477554
0.23669808 -0.098779105 0.019481577
0.06737582 -0.28645986 -0.19750641
0.07585566 0.25176084 0.051258966
0.21076563 0.13471222 0.03443844
-0.11239129 0.09200361 -0.0011764435
0.19909218 -0.16584438 0.01863093
-0.029836299 0.27083337 0.060401656
0.017724141 0.29531464 0.05812669
0.03339544 0.16464263 -0.13152264
-0.2107306 0.1030266 0.06491193
-0.2113563 0.053484958 0.062208127
-0.20073892 0.13116197 0.065711595
-0.0040891794 -0.27850613 0.0279112
0.2337725 0.11362273 0.031506997
-0.16080098 0.024765722 -0.16974296
0.2041653 -0.106065944 0.021566173
0.15895227 -0.17624673 0.02112291
-0.12690187 -0.25958577 0.038353752
-0.014307459 -0.19374785 0.03340253
0.12943116 -0.10025289 0.0046302676
0.16097668 0.25237522 0.04478422
-0.07068779 -0.12161933 -0.18273643
-0.1558791 -0.022296207 -0.05194021
-0.2728203 0.0972656 0.06934016
0.25190067 -0.235658 -0.057938885
-0.1889055 0.2578352 -0.07560029
0.29818064 0.1424045 -0.1190471
-0.10914412 0.2078805 0.062970676
0.30637717 -0.047598142 0.016996425
-0.27694133 0.17964017 -0.07990544
-0.07526803 -0.3242262 -0.09488307
0.09363194 -0.1282446 0.008562526
0.10169429 0.22530334 0.047813263
-0.10196079 0.19049962 0.061454907
-0.13510284 -0.1851538 0.043115962
0.24719247 0.08483909 0.028881954
-0.31153962 0.00318792 -0.14116435
-0.002168469 0.19567573 0.05411027
0.19492657 -0.11138401 0.021977255
0.107314415 0.17802542 0.044756655
0.044063903 0.16437061 0.044337228
0.017701233 -0.15514988 0.0028993476
-0.105462454 0.18364567 0.061341017
0.03919858 -0.23481481 0.027028276
-0.2608505 0.06790708 0.06679425
0.24334976 0.18656912 0.03482843
0.022058042 0.3313273 -0.12920174
0.17139494 0.034719978 0.02824889
0.10071101 0.31266078 -0.047247693
0.14945367 -0.022955278 -0.22369128
-0.007526332 -0.20596123 0.03220352
0.03907153 0.14720482 -0.02704466
0.28068328 0.113392316 0.0251236
-0.32169405 -0.03611169 -0.1813986
-0.25066638 0.08562299 0.06699937
0.081081145 -0.11745517 -0.061319925
-0.02654508 -0.3367307 0.011961736
-0.21441634 0.15750271 0.06822145
-0.1984594 0.14887933 0.06652025
0.21262553 -0.0020619212 0.026696851
0.21312177 -0.13384812 0.01933741
0.03959784 0.31019527 0.055282235
-0.101730555 0.20288152 0.062124975
0.027323695 0.24631171 0.05466889
0.15578488 0.19364369 0.041917715
-0.21221709 -0.07074999 0.05537007
-0.2394836 -0.15230674 0.05292385
-0.25462577 0.21946688 0.0045523588
0.09206913 -0.18815446 0.02557717
0.10880705 -0.18519583 0.02446172
0.15288185 0.14159155 0.039248865
0.029892877 0.32667232 -0.0005272394
0.17052573 -0.068461254 0.02277134
-0.15598132 -0.26404563 -0.17311141
0.14682484 -0.0067057847 -0.10442206
0.06800549 0.2232924 0.050277676
-0.25314355 0.21434155 0.059782576
-0.26519838 0.2232515 -0.12243251
0.16664898 -0.12529841 0.023366345
-0.009070473 0.1795815 0.053743947
0.22734301 0.1330063 0.03307653
0.23769386 0.03748223 0.02697657
-0.2288107 -0.053141054 0.057618115
-0.068259075 -0.33013937 -0.00498388
-0.15521216 -0.24249576 0.041468278
0.085789405 -0.27689385 0.021127084
-0.05983811 -0.12810639 -0.1255617
0.04786987 0.21031006 0.051097285
0.2898944 0.1492255 -0.12723315
0.20208561 0.22307917 -0.07120814
-0.11046674 -0.25665477 0.037259668
0.037801493 -0.2152567 0.028221091
-0.17453787 0.009687778 0.056958936
-0.1385244 0.056288276 -0.055618756
0.20195359 0.19699526 0.03857396
-0.015566947 0.24433567 0.057838228
-0.22933309 -0.12363724 0.053740792
-0.14232036 0.050788846 0.042544194
-0.09287596 -0.21853098 0.0380324
0.12331617 -0.27817142 0.018186819
-0.25241312 0.08505784 0.06710127
-0.08579992 0.29142693 -0.10574932
-0.10138753 -0.15457764 0.04223688
0.1813878 -0.06233438 0.025737382
0.121487126 0.16462483 0.04292875
0.09138907 -0.17681633 0.026258405
0.07734005 0.22842276 0.04984905
-0.055929825 -0.17172407 0.037808158
-0.0980521 -0.17361629 0.040923778
0.10320828 -0.28293443 -0.061584063
