# .PCD v0.7 - Point Cloud Data file format
VERSION 0.7
FIELDS x y z
SIZE 4 4 4
TYPE F F F
COUNT 1 1 1
WIDTH 1000
HEIGHT 1
VIEWPOINT 0 0 0 1 0 0 0
POINTS 1000
DATA ascii
-0.098658025 0.14966056 -0.12788874
0.030176736 -0.08643346 0.15607777
0.14182091 -0.24647188 -0.008110342
0.20018403 -0.07754096 0.11284689
0.14015914 -0.11240243 0.11255719
-0.13446179 0.2337739 -0.14298046
0.20908368 -0.05981396 0.120004125
0.27288783 0.021649597 0.00013789134
0.11101103 -0.20936036 0.044521667
0.15946329 -0.066113085 0.14983165
0.053089965 -0.25989702 0.030135322
0.11147448 0.23905899 0.011889488
-0.09718618 -0.14510213 0.109631814
0.0671343 -0.033789255 0.14805736
-0.1677024 0.16477332 -0.12269862
0.1195195 -0.08989659 0.15022129
-0.26872566 0.04295191 -0.11410372
0.17985672 0.058632944 0.15231757
0.15130626 -0.18274482 0.03923765
-0.20393106 -0.18232182 -0.017499326
-0.12142779 -0.25675282 -0.13503546
-0.0587873 -0.18845175 0.14062141
-0.19996615 0.033457913 -0.09517957
-0.06710965 0.15528925 -0.1738395
0.16592632 0.13963118 0.10688879
-0.18527772 -0.02882698 -0.030431086
0.14975405 -0.09851923 0.12742889
-0.020637019 0.24778073 -0.078278914
-0.1949049 0.05737424 -0.08409728
-0.19528697 0.2042654 -0.1642619
0.2707503 -0.06610461 0.05450009
-0.060012575 -0.20032477 0.13849251
-0.007036511 -0.2794126 -0.0112315165
-0.026232269 0.17722042 -0.11359332
-0.14289446 -0.05528636 -0.08539995
-0.24969272 -0.11549348 -0.007893333
0.20892383 0.15422255 0.044376407
0.081716426 -0.27361315 -0.00444474
0.20155856 0.09452997 0.11772009
-0.0063038575 0.15793641 -0.15917926
-0.20279546 -0.15446426 0.04228306
-0.19433616 0.19224043 -0.15639299
-0.10707089 -0.07365849 0.060163483
-0.0063423645 -0.17072625 0.1551136
-0.24274312 -0.024308246 -0.0568136
0.059652556 -0.10998378 0.16344212
-0.1523917 0.08007599 -0.12390393
0.2051045 0.25083062 -0.033447795
-0.26517937 -0.036180377 -0.06406814
0.18799062 0.17283176 0.07495449
0.100967735 -0.21153398 0.048069563
0.28515056 0.18229805 -0.13437302
-0.047567148 0.18236817 -0.12240272
-0.17259422 -0.22888224 -0.15074928
-0.12443035 -0.16754098 0.10552298
-0.15609033 -0.032960366 -0.040072683
-0.023341428 0.30213308 -0.11282075
0.011796956 0.20743714 -0.049830865
0.25084987 -0.024821782 0.08276252
-0.09422236 0.13591965 -0.1288536
-0.20733875 -0.1182034 0.022608085
-0.07279443 0.2909297 -0.1378408
-0.24275501 -0.1816074 -0.11297768
0.18660338 -0.18682817 0.011256065
0.20127705 -0.13419962 0.054748673
-0.10018463 -0.26828936 -0.13813737
-0.25959456 0.08298215 -0.13239305
0.19385009 0.17685424 0.06213792
-0.17510316 -0.008311306 -0.07309204
0.034165714 0.2948143 -0.07144446
0.020859962 -0.25525367 0.06223982
0.2200712 0.07424604 0.087814376
-0.077899575 0.17724733 -0.1329762
-0.16234513 -0.23917197 -0.1723782
0.07888356 -0.04063775 0.15974106
-0.15250102 -0.10924429 0.052442405
-0.10599027 -0.07684199 -0.12766616
0.20307593 0.18277872 0.04214602
-0.14301267 0.012520886 -0.14497352
0.18248597 -0.043777507 0.15208857
-0.11462138 0.11544967 -0.13124803
0.22231863 -0.16404662 0.009439223
0.14783709 -0.1463531 0.07183296
0.064951316 -0.098958865 0.16862848
0.11065331 0.06556042 0.11606889
0.08703541 0.19385 0.02346516
0.120793454 -0.17623787 0.0658952
-0.10660379 0.12958457 -0.13537757
-0.037988544 -0.24336612 0.06178807
-0.2283749 -0.0038802396 -0.05990836
0.041841272 0.26946622 -0.051214933
-0.2163953 0.079918705 -0.10278244
0.05570999 -0.28233412 0.0071056117
-0.07788475 -0.21158357 0.103631295
0.25158715 -0.10020247 0.05665502
0.07298907 0.2668912 -0.02964318
0.0422291 0.1734377 -0.07165885
-0.16725244 -0.02380368 -0.116646275
-0.006163451 -0.29064852 -0.049673975
-0.054941893 0.07920179 -0.21861155
-0.153604 0.039992515 -0.15694046
-0.117902674 -0.09246233 0.06455094
0.2234117 0.0058310092 0.119756445
0.05262158 -0.017263228 0.12875755
0.15699832 0.059997495 0.14920805
0.08013721 -0.2623051 0.0073078275
0.23515303 0.10616423 0.020069905
-0.0645229 0.22530048 -0.09291794
-0.044554405 -0.28478223 -0.09741633
0.14329414 0.22405218 0.04139479
-0.2015171 0.047187574 -0.080930054
-0.124751024 0.033912152 -0.1560022
0.3033533 0.066039294 -0.09160015
-0.28275955 -0.077672206 -0.053063046
0.13143058 -0.10349632 0.12757845
0.09698655 -0.15419073 0.10076706
0.09639757 0.10924652 0.080541626
-0.105615355 -0.10223193 0.0783414
0.14970228 -0.013770786 0.17767552
-0.11681033 0.1498986 -0.13674231
-0.041025255 -0.22461988 0.12310587
-0.08710955 -0.21554147 0.073051706
0.209825 -0.111337066 0.069068015
0.0019145517 0.21164449 -0.056280345
-0.2091649 -0.09458002 0.0071753687
0.040185485 0.2575874 -0.045110133
-0.008189949 -0.26449656 0.03981774
-0.058326203 -0.22197762 0.10158692
-0.16471525 -0.120156504 0.051178254
0.14019588 0.21889472 0.042514402
0.089778885 -0.101214044 0.14972484
0.12024439 0.26642445 0.0010078802
0.19029388 -0.08625773 0.10826119
-0.08036652 -0.19287777 0.13253018
0.018289445 -0.27514136 0.04925048
0.13090208 -0.17335151 0.0612447
-0.17430948 -0.19622937 -0.014067598
0.18203263 0.26787454 0.007302482
0.22385652 0.17458478 0.0070513203
0.09464449 -0.0047393325 0.14820689
-0.24265248 -0.18535678 -0.12614343
-0.25246048 -0.1659278 -0.069368035
0.12760125 0.13485478 0.085140094
0.01272657 0.19695391 -0.08909462
-0.1001471 0.1024843 -0.17271736
0.09148626 -0.22060241 0.046448953
0.05056439 -0.20135802 0.08734315
0.17172007 0.047357954 0.15639816
-0.29164785 0.022548318 -0.1165221
-0.019900326 0.17509425 -0.1082414
0.1805923 -0.118439384 0.08533623
0.21276031 -0.08523038 0.09657404
0.111210406 -0.2239052 0.030540135
-0.19302095 -0.20840015 -0.107740186
-0.19465783 -0.17106734 0.039149445
0.25556862 0.19873017 -0.07333667
-0.07559642 0.1826037 -0.13173035
0.077862546 0.098462045 0.05104763
0.22133012 0.19455314 0.0017326137
-0.261309 0.02719502 -0.09982858
-0.13458298 0.21345675 -0.13079454
0.00043028974 0.20512393 -0.06293232
-0.037694976 0.27256283 -0.10419882
-0.09132955 -0.17561246 0.12560394
0.08043407 -0.17967966 0.089937836
0.021758743 0.22224744 -0.035623755
-0.0023331924 -0.09377494 0.13961607
-0.25217107 -0.012360089 -0.07008474
-0.22228129 -0.024580454 -0.043499332
-0.085855044 0.024673922 -0.20465964
-0.1363156 -0.17204365 0.09633147
-0.20612255 0.16309126 -0.14637546
0.12093952 -0.1915209 0.05311946
-0.021528978 0.25978863 -0.08609998
0.14097902 0.2379667 0.031508114
-0.18457289 -0.181776 0.019044856
-0.0707861 -0.15442722 0.13222581
-0.12282044 -0.2615711 -0.15467803
0.13155703 0.1667976 0.06840442
0.20116211 -0.12679884 0.061628833
-0.101373434 0.26228085 -0.13891742
0.11743245 0.112568855 0.092054784
0.13001762 0.06515528 0.12875812
-0.05016966 0.25493315 -0.10157507
0.22682494 -0.07051082 0.098602414
0.003477823 -0.20708568 0.116156
0.17586437 -0.057931297 0.14687003
-0.073777966 0.23164228 -0.10269347
0.12500826 -0.08655223 0.15406448
-0.007298207 0.19300595 -0.101539366
0.1796239 0.2589937 -0.04992867
-0.21282479 -0.030685784 -0.03373637
-0.18909219 -0.117798656 0.034089245
0.05099291 0.2732051 -0.047589175
0.16152327 -0.18748766 0.02818453
0.19043204 -0.09320917 0.100822814
-0.017290609 0.20479906 -0.100921236
-0.10691135 -0.15840638 0.111410476
-0.18486698 -0.17445725 0.044580612
-0.12233638 0.14177048 -0.13538854
0.062013865 0.26933485 -0.23325299
0.22333735 0.12027695 0.03498917
0.13581014 0.08713171 -0.18525179
0.2106162 -0.13184913 0.04962503
-0.12343881 -0.10048733 0.06583541
0.19143455 -0.15070052 0.044005256
0.20164022 0.11638428 0.09827981
0.060535584 -0.19952111 0.08449137
0.22517803 0.14304246 0.019127088
0.052568454 -0.12709188 0.15419044
-0.06778944 -0.14647873 0.12935607
-0.20164518 0.03357752 -0.078474954
0.21136048 -0.12356668 0.056646526
-0.14536731 -0.13300645 0.07136659
0.24203579 -0.12232553 0.036090754
0.019641917 -0.061708428 0.13438617
-0.26202136 0.14194973 -0.17588688
0.0025839296 0.17947058 -0.09929858
0.22420035 0.09877265 0.056848686
0.14110914 0.11524111 0.10565805
-0.05432176 -0.28143358 -0.10295305
0.08143807 0.12526542 -0.16773033
-0.0056039426 0.30291077 -0.10188998
0.13680367 0.11208018 0.1047994
0.09984048 -0.098241165 0.14517787
0.032348927 0.16859236 -0.08279981
0.010240462 -0.18259136 0.13132109
-0.048882592 0.29942054 -0.12759909
-0.115535654 -0.17686093 0.109709494
0.05770595 -0.084542945 0.17262919
0.19502792 0.11171433 0.123776525
0.25146952 -0.045701295 0.083456054
-0.08785395 -0.18065564 0.1281627
-0.16248868 -0.017595293 -0.056030847
-0.25657168 -0.10970109 -0.017423773
0.09483285 0.25802463 -0.010253258
-0.23601206 0.02402941 -0.08166
0.018191034 0.16344243 -0.095303826
0.20644972 0.23329046 -0.0934949
0.0899806 -0.010528037 0.14870162
0.23981795 0.06533782 0.0502169
0.025660682 -0.22565864 0.080715746
0.27776974 0.15508509 -0.088785656
0.15215302 0.050196625 0.15201174
0.024245359 0.21625128 -0.030407365
-0.17537086 -0.058202896 0.0069398736
-0.1796398 0.1319821 -0.110733815
-0.28568044 0.11396295 -0.22607523
0.019576829 -0.09223147 0.15276428
0.29953694 -0.004905923 -0.04409385
0.10633456 0.090666 0.09814198
0.2359274 0.06370379 0.059142172
0.09303034 -0.09382532 0.15358573
-0.053230647 0.20972449 -0.08887892
0.18158828 -0.1587506 0.03803515
-0.03757329 -0.18799353 0.14715932
0.16792667 -0.1877242 0.02352532
0.045358166 0.2932917 -0.06333286
-0.07588475 -0.084031194 0.08646584
-0.09230905 0.22230986 -0.108970635
-0.009340384 -0.24967034 0.09055084
-0.06815133 0.19452539 -0.10392272
-0.026175525 0.23965067 -0.076933615
0.1700145 -0.09228086 0.1175899
-0.2732858 0.022958022 -0.10496939
0.080663845 -0.27992472 -0.009485146
0.30105224 0.1154393 -0.11008074
0.03648508 0.305075 -0.07614614
0.072238415 0.27425298 -0.03456748
-0.11709404 0.2258427 -0.12702937
-0.10399926 -0.070707336 0.02723401
0.083111055 0.16183443 0.040265016
0.073431484 -0.048693687 0.16109926
-0.11317238 -0.26120743 -0.13613768
-0.05384509 0.0029463544 -0.24907036
0.19273205 -0.08973741 0.10276514
-0.07529651 -0.066067494 0.038851626
-0.044446476 0.22462401 -0.079605356
-0.15273003 -0.24192235 -0.14871143
-0.06508312 -0.263075 -0.056822117
0.1589604 -0.015499059 0.18088959
-0.21092042 -0.07087488 -0.008258172
0.18628782 0.06631161 0.14929262
0.002045255 -0.2752517 0.019819612
-0.046934634 0.14226274 -0.17244719
-0.029811751 -0.13379264 0.14610621
0.17711735 -0.0069326 0.17657673
-0.16061592 -0.031249542 -0.11276216
-0.1946904 -0.16369496 0.045918223
-0.13931301 -0.1903465 0.06943891
0.18526527 -0.13579318 0.06408394
-0.11773989 0.16584644 -0.1181837
-0.110975996 0.18853581 -0.11035329
0.22230497 0.05423376 0.0920753
0.16175845 -0.2105024 0.008932134
0.09772085 0.038898114 0.123847865
-0.0057803816 -0.18088037 0.14620645
-0.12960964 0.00905871 -0.14660585
-0.048170533 -0.23263264 0.08180237
-0.17225769 -0.23582627 -0.17791131
0.06065093 -0.20645753 0.07695907
-0.059733387 0.1518157 -0.12429107
0.06331047 0.2737635 -0.040009767
0.066230066 -0.03304202 0.14702483
0.23358232 -0.06660171 0.09341904
0.049749803 -0.12810203 0.15531717
-0.15315047 -0.23641478 -0.11932476
0.04473942 0.27244928 -0.26161644
0.019900769 -0.18129513 0.12698483
0.1358953 0.12103366 0.098812334
-0.13956077 0.11541455 -0.13091625
0.04241296 0.22094737 -0.021565879
-0.052653648 -0.17578304 0.14401853
-0.04895728 -0.17960402 0.14480521
-0.19271542 -0.07049031 0.0032085266
0.19388275 0.09998176 0.13061544
0.016012229 0.24847278 -0.055144247
0.21766369 -0.056219805 0.113822475
-0.21418849 -0.1438491 0.03301109
0.11966927 -0.1099733 0.1216313
-0.28291354 -0.14943846 -0.070224166
-0.28345528 0.07451657 -0.14261818
0.18156138 0.20152971 0.06559242
-0.11054171 0.09693631 -0.17505096
0.102671385 0.26570207 -0.009850069
0.21158437 -0.13839504 0.042863403
0.12719086 0.28157145 -0.013512136
-0.24217802 0.09532709 -0.12865077
-0.24127276 0.1632997 -0.16909331
-0.033688862 0.15953304 -0.11804629
0.15335779 0.03965666 0.15626624
-0.17316383 -0.22069229 -0.10692917
-0.03605557 0.29163864 -0.114658274
-0.17418505 -0.1710406 0.061786875
-0.21344113 -0.08811347 0.0005259768
0.07607822 0.23237664 -0.006828234
-0.016857974 -0.24689732 0.08698635
0.21113142 -0.10887516 0.07030786
-0.10652953 0.21465482 -0.1134884
-0.1647846 -0.19535038 0.006088884
-0.23476835 0.0795124 -0.11434548
-0.2024892 -0.21536666 -0.15371557
0.0902005 -0.25318474 0.012262364
0.12830515 0.21464267 0.037438918
0.08033993 -0.17245919 0.09687731
-0.124598056 -0.22793692 -0.038100947
0.13207287 -0.16583839 0.066658415
0.24698342 -0.005561306 0.0744113
0.059815124 0.25682014 -0.03203126
0.27464545 0.1859913 -0.1054977
0.018195419 0.30470985 -0.0876796
0.20252511 -0.189223 -0.0018253593
0.1677087 -0.10591821 0.10687072
0.0998804 -0.24767904 0.013506845
0.16501342 -0.14709972 0.05924648
-0.27773172 -0.076356985 -0.04788765
0.26516598 0.027566493 0.013750566
-0.09784514 0.11486161 -0.17771015
-0.10604691 0.24210678 -0.12974603
-0.18046461 0.09523306 -0.11843386
-0.08818559 -0.18841183 0.12905625
-0.1945251 -0.046762872 -0.0122732185
-0.15532178 -0.08150965 0.033890802
-0.2051541 -0.048866685 -0.017834008
-0.077798955 -0.15871078 0.13030493
0.10201325 0.24212667 0.0039559994
-0.056837633 -0.24408719 0.025522491
-0.096317954 0.2869561 -0.1505608
0.27622956 -0.03019705 0.016318671
-0.27197024 -0.08457433 -0.03922495
0.17353539 0.09450104 0.13898036
-0.1381841 0.26156655 -0.16214347
-0.16387607 -0.048219994 -0.010272046
0.20642106 0.011983995 0.14655508
-0.21082583 0.104581706 -0.11408864
0.17143309 -0.16164991 0.042707127
0.23071204 -0.03398366 0.118303664
-0.17108372 -0.09720412 0.03323339
0.03815147 0.28099152 -0.06054002
-0.04800029 -0.17238048 0.14484292
-0.08265326 0.18503657 -0.122938424
0.1014805 -0.24768391 0.01272631
-0.04844613 0.26698095 -0.10773958
-0.14962347 0.13530917 -0.124463916
0.090258434 -0.15447223 0.10521997
0.1496393 0.21151128 0.05303985
-0.20730789 0.02824517 -0.0709974
0.2318614 0.22319324 -0.035293676
0.014351339 0.1474645 -0.14385481
-0.035018906 -0.18550487 0.14759882
-0.08477732 0.28670108 -0.14299011
-0.2605016 0.09493851 -0.14019258
-0.032346174 -0.15301697 0.14898029
0.19414185 0.0149362 0.16956387
-0.13744947 0.049055126 -0.16279814
-0.1999926 -0.05480487 -0.010935288
-0.13939327 0.0673558 -0.16865239
-0.21266568 -0.030946402 -0.033477094
0.020374864 -0.19467588 0.11358813
0.25178042 -0.10685629 0.048708543
0.07053487 -0.197459 0.08114422
0.031558283 -0.057522934 0.13951738
0.2585509 0.0018794273 0.039186183
-0.18905541 -0.03871753 -0.0136133
0.08523705 0.14941405 0.04566475
0.13765304 -0.1326429 0.09030102
0.23676352 0.12890856 0.0039733886
-0.2672346 -0.12596183 -0.029856987
-0.20181529 -0.03108663 -0.026419804
0.25888693 0.1320996 -0.038887925
0.056119237 0.025313199 0.10531
0.024632545 -0.27997175 0.0402459
0.11066921 0.21933341 0.023275008
-0.21188462 0.026666155 -0.067744955
0.119210094 0.091834314 -0.13576983
-0.19894384 0.17214505 -0.14722547
-0.076085195 0.28616247 -0.13707991
-0.02860383 -0.24302228 0.07978689
0.0103823505 -0.101372726 0.15237156
0.27385148 0.13495035 -0.06819571
0.15070112 0.06380818 0.14286302
-0.015532936 0.1488694 -0.20154917
-0.17095798 -0.012895754 -0.058505025
-0.29483354 0.049377386 -0.134761
-0.1326584 0.26971528 -0.16351108
0.045611683 -0.29901487 0.007826705
-0.086198114 -0.0719632 0.035403587
-0.020745985 -0.19990386 0.14346209
-0.0936853 0.17044152 -0.13427618
-0.21556951 -0.090770274 0.00075975555
0.0027356003 0.19089556 -0.09823756
-0.054577477 -0.27766645 -0.089996256
0.13338862 0.06334753 0.13201623
0.046289694 -0.17242087 0.119811006
0.13327163 0.051574387 0.13904476
-0.08410395 0.01675822 -0.25256118
-0.106973015 0.25412032 -0.13759118
0.14184648 0.19495337 0.058024734
0.16032286 0.24444696 0.029256852
0.059777554 -0.12514743 0.15078045
0.21875647 -0.12726562 0.047486067
-0.09202548 0.0323391 -0.20777753
-0.025964431 -0.102219395 0.12952346
-0.1965399 -0.13306464 0.038516194
-0.03506124 -0.28438193 -0.0790263
0.30067882 0.006597917 -0.051655583
-0.1321288 0.021132883 -0.2027156
-0.14393824 -0.04959781 -0.054084916
-0.20007005 -0.13382658 0.03670676
-0.041653864 -0.13803332 0.14105585
0.0018704601 -0.17651479 0.14289063
0.18058816 0.19013858 0.07332392
-0.07881546 -0.12708576 0.11056478
-0.17869475 -0.07913485 0.01743762
-0.13926831 0.16476345 -0.114177495
-0.10902542 0.26925638 -0.14804536
0.08998326 -0.12398263 0.130699
-0.026861144 0.13661811 -0.1639144
0.13167767 0.07530232 0.12370078
0.07231865 -0.2846824 -0.00751348
-0.22742605 0.063747436 -0.10011072
-0.15656908 0.26119855 -0.17373647
0.1687923 0.07542661 0.1447575
-0.03419214 0.2965636 -0.11643176
0.13135685 -0.15565935 0.07559917
0.080685966 0.060255043 0.10001002
-0.22932315 0.16750716 -0.16395225
0.062026627 -0.14258103 0.13475424
0.12758355 -0.24262019 0.003529134
-0.17010964 0.13784923 -0.109738976
-0.07959762 -0.09171883 0.08871858
-0.2586882 0.071035005 -0.12459993
-0.016711911 0.16624945 -0.11154461
0.13621628 -0.22705655 0.01300137
0.292845 -0.030653793 -0.018469142
-0.025873143 -0.2802267 -0.047801614
0.17436956 0.16370918 0.09778322
-0.10361706 -0.061346598 -0.21422377
0.28178382 -0.015959706 -0.0017561147
0.24105453 -0.055093296 0.09633957
0.15257485 0.28434557 -0.007524053
0.08582917 0.03466808 0.11875773
0.27272177 -0.06169333 0.05156844
0.25725368 -0.06349818 0.075446025
0.21364138 0.10249266 0.08424999
-0.1443972 0.15162598 -0.11121916
0.12103567 -0.13007642 0.10400801
-0.18881077 -0.15102077 0.054320406
0.10721657 0.042085238 0.12802653
-0.013365769 -0.18521339 0.14949071
-0.14247851 -0.25256142 -0.1695817
0.13172509 0.07691467 0.122758366
-0.11542555 -0.22019488 0.005863967
-0.22348122 -0.17782144 -0.04346118
-0.14718932 0.21599127 -0.14042567
0.22443819 -0.019603912 0.12519172
-0.20828126 -0.10638304 0.0148671875
-0.2021806 -0.2214461 -0.18229358
-0.21425922 -0.16383678 0.027608696
-0.039427407 -0.17219023 0.1464854
0.25522828 0.010542643 0.042304695
-0.1536717 -0.22519499 -0.080311805
0.1160877 -0.24834238 0.004937034
-0.22099026 0.05988569 -0.093645744
0.24201937 0.045257147 0.05457388
-0.09757876 0.24613371 -0.12673564
0.011134194 -0.20275396 0.11280617
-0.0361345 -0.26935843 -0.027448429
0.23464054 0.22669187 -0.04239592
0.07094348 0.19683085 0.011324909
-0.26377913 -0.09594474 -0.02772441
-0.0057450626 0.322963 -0.12457962
0.050748408 0.18366332 -0.014025937
-0.05482814 -0.27390102 -0.0770373
-0.2337282 -0.13107696 0.012867246
-0.06649821 0.10988 -0.170691
-0.13437952 -0.11654557 0.06849525
-0.115668006 -0.11473766 0.07942902
0.090458125 -0.17733562 0.08612107
-0.13324074 0.27154145 -0.18139338
-0.12513912 -0.07684918 0.05047763
-0.22251706 -0.024232557 -0.04385978
-0.2731874 -0.056478295 -0.05696276
-0.24002503 -0.15591432 0.0066513633
0.15138875 0.14330804 0.09532517
-0.1215051 -0.19066514 0.10013776
0.0915863 -0.25647873 0.008039449
-0.26330334 0.13081697 -0.16364594
-0.13777052 0.25410235 -0.1573736
0.12743583 -0.2320394 0.013701893
-0.122132935 0.07952254 -0.16979556
0.100260064 -0.14392881 0.1069967
0.07790079 0.11301735 0.0386459
0.27736774 -0.09396209 0.037624724
-0.18398081 -0.19647643 -0.03223537
-0.20722316 -0.16050728 0.03567767
0.12976435 0.20566572 0.043794442
-0.24979717 0.07288639 -0.12000497
0.17451765 0.0056451345 0.17207685
0.042319726 0.19239505 -0.06367393
0.13819765 0.2650251 0.010572257
-0.013753168 0.11239235 -0.21251892
0.03921619 0.18319677 -0.070373304
0.2635324 0.058956154 0.00074854173
0.053319424 0.0016820155 0.11777359
0.1845344 0.08431298 0.13996133
-0.26695338 0.09881262 -0.14667787
0.28591508 0.14942619 -0.10188483
-0.16515471 -0.18489845 0.042640936
0.043419797 -0.05330611 0.14459693
0.046715368 -0.100521825 0.17521001
-0.019670654 -0.10602768 0.13586688
-0.10495537 -0.019817097 -0.17529972
0.06333213 -0.17326881 0.106879346
0.25220174 -0.033891805 0.081807725
0.095624246 0.08996163 0.09168245
-0.14509864 -0.20268045 0.01517746
-0.029146757 -0.23562886 0.105138905
0.064078584 -0.28947026 -0.005649905
0.2598231 -0.083023846 0.05997356
0.21238951 0.145719 0.041815247
-0.0040761237 0.27215418 -0.0823462
0.091402605 -0.22593892 0.041052863
-0.28521562 0.043140404 -0.1248154
-0.27145502 0.086401865 -0.14207987
0.10859604 0.1464265 0.06594305
-0.14830038 -0.15103486 0.080362916
0.1780894 0.026008599 0.16516186
-0.04448052 -0.060383346 0.05522565
-0.052416135 -0.24648778 0.024879737
-0.11483027 -0.077072956 0.057236705
0.08835275 0.24977012 -0.009436195
-0.17597239 0.19265026 -0.14483908
0.07231216 0.05421693 0.09827428
0.12640914 0.10649457 0.10149015
-0.13261469 -0.14015536 0.08387875
-0.048334565 -0.22999462 0.090902165
-0.23207898 0.043723386 -0.09101769
-0.17280537 0.18035425 -0.13538188
0.12169462 -0.14014761 0.09519701
0.29843992 -0.016420241 -0.036627397
-0.14971977 0.15005204 -0.10985173
0.2282016 -0.16404077 0.0055956165
0.0582348 -0.005534665 0.12528817
0.08995382 0.19383216 0.025351547
0.08164564 0.2412202 -0.31618813
-0.12662147 0.0661842 -0.1695516
-0.13170025 -0.15194371 0.09158029
-0.12569031 0.011739097 -0.15832695
-0.12262111 -0.2653781 -0.16787857
-0.10989492 -0.062345315 0.0049131354
-0.079239376 0.29485765 -0.14435329
0.20071006 -0.09744611 0.089109115
0.1835504 0.030162832 0.16641359
-0.18811128 -0.050550707 -0.0058647892
-0.004884866 -0.05833326 0.116584904
-0.044575136 0.23929107 -0.08853971
0.049639214 -0.11277747 0.16770981
-0.03460742 0.19834186 -0.08911169
-0.10712409 -0.15531938 0.10941197
0.12644076 0.1277942 0.088655956
-0.118469365 -0.20159142 0.06666217
0.1345339 0.23028658 0.032000974
0.1465096 -0.0011160832 0.17367792
-0.0479904 0.15629609 -0.119569756
0.022661833 0.16705018 -0.098967016
0.0040181475 0.28298086 -0.08367842
-0.031282187 -0.25786123 0.022163985
0.06112406 0.21426892 -0.005510964
-0.23527935 0.10299104 -0.12884371
0.19983408 -0.030089984 0.14852549
-0.1904517 -0.20035502 -0.057612177
0.11237163 0.07730559 0.11008403
0.17725112 0.13386576 0.114744544
0.20235617 -0.19120437 -0.0033506027
-0.008638635 -0.11006877 0.14539582
0.008717743 0.2643924 -0.06944027
-0.09786283 0.13340262 -0.17757052
0.16772532 0.24863106 0.025652524
0.046292886 -0.24618588 0.048024513
0.06006875 0.1547007 -0.006606266
-0.09484344 0.019703124 -0.20388934
0.18039027 -0.024294533 0.16790825
0.18676466 -0.17638573 0.019802984
-0.16295904 -0.23128736 -0.12773922
0.22395027 0.22882901 -0.02216803
0.013524338 0.14888161 -0.14524269
-0.16813242 -0.1528026 0.06868368
0.08805568 0.090309806 0.08660953
0.14898226 0.17909779 0.072180964
0.00247994 0.16880025 -0.1016328
-0.16419879 0.24092755 -0.1664073
0.17159484 -0.17696771 0.0298903
0.2322472 -0.14673254 0.019103896
0.1681767 -0.12450776 0.08740879
0.07132329 0.15470503 -0.043180384
-0.123813145 -0.24284253 -0.08977089
0.298157 -0.017798558 -0.035415847
-0.027026583 0.2568751 -0.08787391
-0.21056367 0.12397717 -0.12562379
-0.21944074 0.20754811 -0.18371065
0.08917508 0.11917508 0.06990637
-0.23568632 -0.06749792 -0.026212309
-0.07460823 -0.2634115 -0.07505031
-0.009234292 -0.1288233 0.15633227
-0.04600106 0.12081467 -0.16661492
-0.043287434 -0.11443111 0.12576146
0.10661808 -0.16973533 0.08116477
0.08612986 0.09654216 0.0816095
0.1098565 0.19963218 0.03464181
0.15618563 0.16330606 0.086341225
-0.30044523 0.051604204 -0.1570922
0.09390481 0.21986166 0.012182078
0.05436103 -0.23097916 0.055945404
0.162071 0.039565366 0.1589325
-0.07772736 0.27414602 -0.13088235
-0.20093238 -0.042934686 -0.018701427
-0.25217965 0.15864408 -0.17633106
-0.20082292 0.11612985 -0.1146281
0.19401841 -0.13081022 0.0635175
0.16010632 -0.10985703 0.108453386
0.21228646 0.1887008 0.022182629
-0.18152145 0.066246405 -0.11557128
-0.23177364 0.12729204 -0.14125626
0.090512395 0.054600716 0.10973832
0.077533476 -0.2505311 0.021261899
-0.03402949 -0.07480918 0.1077997
0.06958466 -0.09146992 0.17080154
-0.08176798 0.3091675 -0.1679601
-0.14485113 -0.12717187 0.06817923
-0.11954878 0.005848733 -0.19622554
-0.045449287 0.11273433 -0.21705465
-0.027509443 0.17723289 -0.114421055
0.25761792 0.055364113 0.017194651
-0.038254462 -0.23969486 0.07438289
-0.061961226 -0.21339262 0.12565655
-0.18270235 -0.12160349 0.040493365
0.22247843 -0.17102572 0.0018238121
0.13994658 -0.106437385 0.12146228
0.20210716 -0.0845386 0.10350381
0.08764263 0.27391163 -0.024462126
0.072945766 0.0075833043 0.12682451
-0.031290747 -0.15494826 0.14928742
0.07174619 -0.025003701 0.14571999
0.044692036 -0.14192042 0.14689578
0.099734545 -0.09118116 0.15236901
-0.12805897 -0.12031903 0.07483376
0.276507 -0.0626669 0.04712555
0.11346513 0.089554876 -0.0694009
-0.037907645 0.19886616 -0.09203047
0.077085935 0.16557567 0.033322435
-0.07881843 0.008658647 -0.25141138
-0.15251638 0.11372173 -0.13342158
-0.1353318 -0.20605522 0.020622728
-0.015856503 -0.13335244 0.15481035
-0.13495708 -0.21345496 -0.0050518448
0.051979974 0.17234486 -0.020402264
-0.12946273 -0.186172 0.09676843
0.050759647 -0.21557118 0.072965026
-0.22559758 -0.11864353 0.011137724
0.08906585 -0.012754411 0.14945808
-0.20168303 -0.024793748 -0.030131854
-0.21735452 0.0918521 -0.110599935
0.089865 -0.20425202 0.06151628
-0.1237564 -0.030165447 -0.17533714
0.029720422 -0.021555848 0.11662952
0.102375425 0.2790138 -0.018072769
0.059607998 -0.10209638 0.1692724
0.012475451 -0.04608837 0.12035295
-0.03956106 -0.20422937 0.14710155
-0.13803126 -0.22866443 -0.06470359
-0.07304019 0.30278915 -0.1469913
-0.21382463 0.18164586 -0.16252355
0.09391959 -0.083048314 0.1656444
-0.21292299 -0.04995986 -0.022167567
-0.033390943 0.09725506 -0.21166858
0.101772524 -0.020390384 0.16223401
-0.09283037 0.15839261 -0.12645777
0.06620208 0.22944973 -0.011408491
-0.19534302 0.012816949 -0.06584783
-0.20907332 0.064117454 -0.08853925
0.22778374 0.068400934 0.07418927
0.14738083 0.11771015 0.10819913
0.1879295 0.15138683 0.08873179
0.14748204 0.111392364 0.11207575
-0.15997204 0.102708355 -0.1299361
-0.14106467 0.024736011 -0.1507106
-0.29734805 0.026088858 -0.124494635
0.14537363 0.17080805 0.074864246
0.08123258 0.2778175 -0.030938497
-0.05737504 0.24708103 -0.1014673
-0.045538314 0.17715949 -0.12364098
0.07264738 0.14139406 -0.040230893
0.040745586 0.24492534 -0.037107922
-0.11700803 0.2800939 -0.15971716
-0.20816162 -0.027245402 -0.03281651
0.08608649 0.13746606 0.0534093
0.1640664 0.13561249 0.10811864
0.050545122 -0.07382078 0.16155592
0.09097514 -0.22178924 0.045733713
-0.27128422 -0.0057710907 -0.086343005
0.1257356 0.23655985 0.022562036
0.017587349 -0.02511149 0.092400745
-0.19114971 0.04887967 -0.10228036
-0.18427664 -0.18914565 -0.006663923
0.28777286 0.12159329 -0.08807738
-0.24676205 0.07526989 -0.11949061
0.17836535 0.14530751 0.10756215
-0.019526849 -0.22205241 0.12029726
0.08050768 -0.06427373 0.17504904
0.06936179 -0.21534546 0.0631549
-0.15371436 -0.061120708 -0.088410474
0.27881065 0.047032684 -0.02731455
0.15414721 0.28103963 -0.0022010494
0.030528767 -0.20670968 0.095891215
-0.25297555 -0.16734245 -0.07930057
0.1695053 -0.06396195 0.14644897
0.22027355 -0.031186786 0.13216443
0.17192003 -0.20755348 0.0042977864
0.21095508 -0.15272276 0.029060047
0.00054845266 -0.23156773 0.09851486
0.21306005 0.23805548 -0.0047676098
0.008868855 -0.09808311 0.14941329
0.2898343 0.1520534 -0.11389308
0.088726684 0.16993685 0.038984165
-0.15569106 -0.021591129 -0.05046009
-0.23937991 -0.020012334 -0.05724537
0.1829501 0.2241331 0.049024902
-0.16391402 0.04080936 -0.10117831
-0.14753035 -0.061831273 9.147002e-05
0.22013049 0.16112515 0.020228352
0.06955673 0.15493248 0.011383513
0.16112739 -0.14924192 0.060176514
-0.119029775 0.17447671 -0.11026042
-0.230321 0.15746652 -0.15853202
-0.10714206 -0.19786148 0.10019107
0.26264963 0.13248783 -0.046103556
-0.20933364 -0.0066043227 -0.04602698
0.21300367 -0.06465389 0.113474034
-0.20095013 -0.1220439 0.029030168
0.11931895 -0.08389191 0.15918277
-0.04505986 -0.09081649 0.11037099
-0.13791652 -0.06922497 0.03766293
-0.0986787 -0.17143552 0.12108934
-0.006775534 -0.28051496 -0.014688076
-0.026613878 -0.1392485 0.1514539
0.1586157 0.0029598423 0.17414166
-0.03054752 -0.23027967 0.12168207
-0.09835144 0.18640229 -0.10639662
0.17926088 -0.013936596 0.1777749
-0.0713641 -0.27424133 -0.107808344
0.095601015 -0.13400064 0.11847607
0.016122092 -0.11581568 0.16477701
-0.2311407 0.11152963 -0.1313365
0.16287631 0.067905284 0.14730622
0.10588281 0.10250531 0.09070523
-0.04726349 0.12683563 -0.16743012
-0.2123805 -0.2105229 -0.16163333
0.042184636 0.16389266 -0.07567773
0.05994108 -0.029216122 0.14067388
-0.2451288 -0.14039473 0.0022121037
-0.04703507 -0.07409772 0.09901116
-0.25328982 -0.11512563 -0.012453402
-0.1261594 -0.1984277 0.06417714
-0.045943923 -0.07899446 0.10266767
0.10190497 -0.09917038 0.14296883
-0.24722226 0.16699624 -0.17645405
0.28573668 0.13832648 -0.0919869
-0.01900619 0.16282038 -0.117820844
0.18287224 0.21485245 -0.20129159
-0.2927172 0.08076855 -0.1628015
-0.07459109 -0.26291615 -0.0732545
-0.13662425 -0.18203522 0.09188151
-0.25331 -0.15932879 -0.035614636
-0.05916808 0.09437342 -0.21669671
-0.048932403 -0.22162905 0.11961953
0.047111757 0.19591658 -0.01170569
-0.054280754 0.29737285 -0.12983267
-0.20726424 0.12000798 -0.12110866
-0.12654608 -0.19111072 0.08953689
0.10942916 -0.084586084 0.16017887
0.16835885 0.2268593 0.04685238
-0.29200166 -0.06707623 -0.077244714
0.2010292 0.21601063 0.028301612
0.13556665 0.10718328 0.10696007
0.0544073 0.013539603 0.11131556
0.21200785 -0.15965419 0.020911155
0.26817784 0.13801415 -0.058993973
-0.11319069 -0.0017316159 -0.19272795
-0.14602932 -0.17691652 0.08533213
0.04963738 -0.104276724 0.172579
0.03958933 -0.14919372 0.14436594
0.039020464 0.26897308 -0.052730836
-0.21091612 0.08798239 -0.104126684
-0.21647973 0.0003431595 -0.054813158
-0.022414658 0.31382564 -0.12058289
0.2411663 -0.08824528 0.074689694
0.02172725 -0.24959429 0.06486584
-0.047914214 -0.2363309 0.0690945
-0.18162932 -0.034701966 -0.047418658
0.24121979 0.18596451 -0.035836205
-0.17971474 0.07839319 -0.12156882
-0.05712888 0.104619 -0.18108682
0.039055087 -0.09237098 0.16536649
0.19957078 0.19129339 0.04477426
0.13572346 -0.22617938 0.014074062
-0.150669 0.14378436 -0.10854015
0.2529174 0.16081388 -0.040964648
0.04391574 0.31257123 -0.08100037
0.14637874 -0.0331575 0.1823807
0.16826317 -0.10364185 0.10852896
0.08750874 0.010927992 0.13416423
0.15825182 0.18520294 0.07445152
0.032430336 -0.29217634 0.013874202
0.11901083 0.082997546 0.11091621
-0.108259335 0.20261471 -0.10733454
-0.19993886 0.10416493 -0.106839545
0.061356604 -0.042669725 0.14970392
-0.21267587 -0.20468941 -0.13276407
0.20020722 -0.054447334 0.13072313
-0.1619878 -0.024049692 -0.045652885
0.14193779 0.037770044 0.15294507
-0.029648172 -0.19370934 0.14879529
-0.058131553 0.2005023 -0.09451075
-0.10256166 0.056375638 -0.1640033
0.083282314 0.10514824 0.068124056
0.11900921 -0.048337094 0.18167217
0.05071136 0.19184032 -0.008126047
-0.09535288 -0.15109067 0.11442551
0.03389437 0.16706456 -0.13601168
-0.036931783 -0.2581775 0.010938767
0.20991753 -0.10088266 0.079776205
-0.029312145 -0.17061602 0.14898326
0.1898033 -0.0574857 0.13649589
0.032393552 0.17807254 -0.07880634
-0.09593583 -0.22694701 0.016660335
0.298904 0.04897498 -0.07540606
-0.17046455 0.07372838 -0.12226794
0.10040108 -0.15912293 0.09429791
-0.18412839 -0.19283882 -0.019548722
0.13024527 -0.1130941 0.113562
-0.09960546 0.23819432 -0.123246714
-0.10821237 0.12931176 -0.17127249
-0.1024813 0.18391453 -0.10785244
-0.11562847 -0.21649036 0.018689178
0.017535662 -0.116973504 0.16638522
0.22843406 0.2317839 -0.032403663
0.08232498 0.10698035 0.051715475
0.06981671 -0.12224544 0.14619082
0.06957704 0.14651835 0.0058988906
-0.13583808 -0.25830755 -0.1742593
-0.08672861 0.27903736 -0.1396191
-0.06465416 0.26298746 -0.11574626
-0.251604 0.060740717 -0.11383574
-0.2375978 0.11536835 -0.13780358
-0.057685263 0.27336553 -0.11753176
0.24917446 0.19135666 -0.059149444
-0.145614 -0.04855312 -0.021099089
-0.07162247 -0.14267746 0.124598205
-0.06466654 -0.17080274 0.13888258
-0.28508726 0.12280429 -0.19779035
-0.1643189 0.052585687 -0.10989597
0.09954813 0.27813596 -0.019359898
-0.12301856 -0.2578324 -0.14171842
-0.040766537 0.27146858 -0.10551186
0.07410466 0.12950693 -0.17273352
0.2514693 -0.067012854 0.07826886
0.06954512 0.1815273 0.01966127
-0.056087274 -0.2552301 -0.012811001
-0.18265921 -0.2220708 -0.14269245
-0.2644385 -0.11754506 -0.026387833
-0.17508717 -0.17784451 0.050005894
0.21814238 0.16010956 0.024414297
0.15636347 0.23196961 -0.18773128
-0.23572299 0.1713796 -0.1704018
-0.053868 -0.12145953 0.12320389
-0.014016543 -0.28612804 -0.047619894
0.18372974 0.00071669265 0.17321178
-0.1274383 -0.17665431 0.10217108
0.13777828 0.25483957 0.019269394
0.29168817 0.10953311 -0.089838475
0.2989797 -0.059342273 -0.015901497
-0.08857601 0.13917387 -0.13044854
0.22593291 -0.12167817 0.047020443
0.1554662 -0.017490735 0.18031041
0.1516895 -0.22106765 0.0071882596
-0.13082984 0.030251727 -0.1489571
-0.16352773 -0.047220565 -0.029225731
0.23662159 -0.15921393 0.004237398
-0.13090259 -0.0028500974 -0.13945845
0.18236569 0.12611726 0.11598132
-0.09980716 0.26283458 -0.13824604
-0.0051272674 0.28935605 -0.09340313
-0.24291658 -0.06838923 -0.030320197
0.19649313 0.03772412 0.1552122
-0.11791134 -0.079516806 0.056730565
-0.018741943 -0.17285359 0.15330978
-0.017006697 -0.2723418 -0.0038776512
-0.03727284 -0.21979442 0.13726602
0.029788006 -0.14149153 0.15794137
-0.23329492 -0.093917556 -0.008730952
-0.098239236 0.106793806 -0.17387588
-0.24350242 -0.123373225 0.00061946595
0.11888528 -0.26016715 -0.009165369
-0.035300557 -0.27460998 -0.044654585
-0.015989486 0.26789856 -0.0874333
0.20211686 -0.15772113 0.029461047
-0.042709425 0.2366095 -0.08572255
0.06331464 -0.2577564 0.024303619
0.14968266 -0.020682098 0.18015066
-0.12489711 -0.08945093 0.05823688
-0.11241182 -0.22356762 -0.0007589338
-0.12341542 -0.25030854 -0.11564225
-0.1872957 -0.14145815 0.049520995
0.07096203 0.24953653 -0.020471824
-0.22333024 0.18799068 -0.17246106
0.22311959 -0.041391563 0.12150665
-0.17601255 0.10238035 -0.10619132
0.14132668 -0.20093417 0.031106565
0.21668805 0.10465227 0.07061928
-0.23311247 -0.16772585 -0.02143022
-0.1407252 -0.034214955 -0.040408857
0.07078123 0.14917561 0.008829409
-0.11265146 -0.16331743 0.11068563
-0.20805332 0.0052957903 -0.052895755
-0.08060345 -0.10344315 0.09514721
-0.10430196 -0.11189419 0.08501792
0.25656694 -0.042629093 0.07460381
0.12306073 -0.16040444 0.077443935
0.18749449 0.05380873 0.1558355
0.1526987 0.25802898 0.018857198
-0.19548713 -0.113996 0.02768415
-0.017917305 0.210767 -0.07313055
-0.15379739 -0.027227009 -0.11816793
0.06936224 0.1384681 -0.11728155
0.10834707 0.2382543 0.010364836
-0.27288517 -0.085925385 -0.040005255
-0.030633993 -0.122032195 0.13848096
0.02028644 -0.18749581 0.120679274
-0.10885071 0.13994613 -0.13158217
-0.16114755 0.0049601565 -0.077764094
0.2673809 0.050495304 -0.0011872429
0.21014442 0.21985877 0.008057368
0.031285774 -0.28896615 0.023259366
-0.085667074 0.037944883 -0.2554702
0.0205487 -0.2089902 0.09944855
0.19606324 0.1997976 0.04741328
-0.06532564 -0.25932682 -0.04391238
0.19178294 0.14301164 0.08691408
0.13823268 -0.1307808 0.09144041
-0.055585757 -0.2626762 -0.038427133
0.08455914 0.22978108 0.00018892193
-0.07110117 0.26686665 -0.12222895
-0.08415852 -0.2638112 -0.09354483
-0.08808955 -0.18357016 0.1284402
-0.23261988 -0.03690376 -0.042705372
-0.015921718 0.28376257 -0.09696499
-0.18612391 0.106526725 -0.10486818
0.18654975 0.09613685 0.13466333
-0.07383717 0.17962581 -0.13434072
