# .PCD v0.7 - Point Cloud Data file format
VERSION 0.7
FIELDS x y z
SIZE 4 4 4
TYPE F F F
COUNT 1 1 1
WIDTH 1000
HEIGHT 1
VIEWPOINT 0 0 0 1 0 0 0
POINTS 1000
DATA ascii
0.067387074 -0.026930787 0.16617076
0.16057962 -0.17814182 0.08158037
0.13103358 0.028317977 0.14534047
-0.1205656 -0.09129056 -0.31969914
0.21621282 -0.22697656 -0.28532577
-0.24842462 -0.03596205 -0.31085983
-0.28653258 0.0078064175 0.042501148
0.08259993 -0.035625 0.157606
-0.0974499 0.12009039 0.12134486
0.25745323 0.017988432 0.07864015
-0.23080918 0.18378711 -0.27852213
0.0068343324 -0.08251251 -0.28978974
0.19975214 -0.0041807503 0.09450485
0.12893133 -0.18500948 0.09505378
0.012566878 0.11421218 0.17813525
-0.088987425 -0.03468431 0.1594072
0.06686698 0.062375844 -0.3001978
-0.25087082 0.13281274 -0.20298149
0.22511195 0.04553068 0.050252773
-0.27247214 -0.01627133 0.040598724
0.14558722 0.06934751 -0.2726624
-0.21009417 0.22171493 -0.10250629
0.26014405 -0.16416676 0.017282564
0.09615651 0.017927252 0.16189937
0.027527966 -0.15537715 -0.31051323
-0.045975517 -0.00536506 0.1747062
0.058835533 -0.12619343 -0.2740468
0.232494 -0.17963389 0.046270184
0.22495966 0.04559651 -0.30245247
-0.045684006 0.025831452 0.1680429
0.09774703 -0.14275862 0.1255689
0.060444817 -0.032076996 -0.27162388
0.035274006 -0.105604716 0.16574928
-0.17439456 0.21736825 -0.25428987
-0.10178052 0.1498523 -0.1742677
-0.027559426 0.13739145 0.15283126
0.22124384 -0.13965043 0.05919032
0.06282319 0.024579389 0.18385479
0.04381197 -0.131867 0.1585798
-0.037856553 0.024212439 0.17234597
-0.004624154 -0.0752053 0.19892271
-0.10724445 -0.09705648 0.082596615
0.03742365 0.075531684 0.19912286
-0.024769528 0.15105076 0.1373255
0.089288056 0.022665694 0.16632523
-0.17169127 -0.056470346 0.1224356
0.07945351 0.09376014 0.16681677
-0.28593236 0.04241966 0.034873877
0.17377144 -0.21866208 -0.27821732
0.16362512 -0.21427235 -0.28727475
0.10241068 0.023566192 0.15975998
0.15222539 -0.02288775 0.1197069
-0.07178904 0.11411155 0.1355972
0.080345675 -0.17823336 -0.3121401
0.13405384 -0.06494788 0.12115335
-0.14276388 0.19171235 0.07677133
0.1921727 -0.22662514 -0.21478288
0.27861312 -0.11473664 0.026640873
0.2527773 -0.057537414 0.06422604
0.020608272 0.011928544 0.20452611
-0.10523739 0.09784789 -0.23071109
0.08954715 0.04369796 0.1709525
-0.15632407 0.15730003 0.08229318
-0.15068221 0.07646113 0.10401237
0.08617013 -0.046311133 0.15465207
-0.08697126 -0.10582804 0.09938809
-0.22421792 0.20386404 -0.15784569
-0.004437428 -0.1376948 -0.29831982
-0.052768316 -0.0067231697 0.17157537
-0.2621171 -0.02014531 0.047940474
0.09047237 0.0088856565 0.16269135
-0.106700316 0.03995379 0.13417369
0.24964987 0.03491319 0.013229819
0.008554118 -0.09189559 0.1827941
-0.08786687 0.123380564 0.12546137
0.2871551 -0.1028957 -0.059828345
-0.10020006 0.04657798 0.13600722
0.037284162 -0.13940285 -0.2714131
0.12493748 0.06069337 -0.27198067
-0.045955967 -0.046728913 -0.28967455
-0.1689347 0.20720424 0.022712372
0.14748363 -0.20728637 -0.13605846
0.030093875 -0.005663505 0.19671011
0.16455208 -0.09475239 0.09413144
-0.19782446 0.22855186 -0.19004019
0.2665404 -0.1391946 -0.29768875
-0.05783935 -0.09421586 0.18812138
0.109161586 -0.117895305 0.1242799
-0.067958556 -0.09117185 0.18235087
-0.18524241 -0.06330272 -0.25721812
0.287957 0.018335296 -0.076206736
0.08703686 0.038641855 0.17091753
0.05079678 -0.017458942 0.17744006
0.31911725 -0.035585288 -0.07625814
0.27112907 -0.13664435 -0.05158798
0.17810318 -0.040707354 0.09860882
-0.09836426 -0.012244825 0.14977719
-0.24646139 0.10420254 0.041299373
-0.086688995 0.007174265 0.15142787
0.05868005 -0.16885722 0.041004453
-0.07488853 0.16728829 -0.04318132
0.22968218 -0.23144527 -0.11143772
0.012618153 0.12651514 0.16771263
-0.17797501 0.11742217 0.07870739
0.11985883 0.053444766 0.1572888
0.32745475 -0.01906105 -0.091716416
-0.21888204 0.18801141 0.03691526
0.18312337 -0.22270963 0.009983277
-0.17278555 0.16018438 0.07321878
0.27508613 0.023904849 -0.046253968
-0.20038769 0.16393147 0.05445469
0.21366459 -0.031985525 0.090892084
0.020645622 0.023890905 0.20193297
-0.09090753 0.13735987 0.12087504
-0.22729601 -0.045105137 -0.2929225
-0.031695854 -0.019778542 0.18505922
0.0458063 0.10967491 0.1705481
0.06743507 -0.04541249 0.16206707
0.14728037 -0.02273943 0.122943565
0.23513535 -0.14043695 0.05378438
0.014695209 -0.14982377 0.13921064
0.30108133 -0.051454782 -0.18724412
-0.10711226 0.013416842 0.13975947
-0.13325635 -0.057970606 0.14215559
0.30867416 0.0077253236 -0.050442934
0.0383521 0.08204348 0.19817005
0.2591062 0.03082053 -0.25687256
-0.08661861 0.09062202 0.13324402
0.25320953 0.0034694108 0.079887405
-0.23750846 0.09738675 0.04946836
-0.115142934 -0.04400323 0.1482465
0.17609383 -0.076580845 0.09260522
-0.045580674 -0.12373983 -0.34999222
0.038439255 -0.096452095 -0.28580698
-0.13221006 -0.03919761 -0.23434366
-0.13811496 0.12797178 0.09910684
0.006040548 -0.13075767 -0.28862885
0.2587478 0.010782318 0.078668006
0.13949616 -0.18244062 0.090079114
-0.23595905 0.17090736 0.032034293
0.17142554 -0.15513198 0.08208958
-0.09876172 -0.100727566 -0.34823963
-0.2070865 -0.053849928 -0.2058164
0.2874237 -0.049662482 0.040063377
-0.00850606 0.1141819 0.16751029
-0.032850306 0.15716116 0.06266599
6.612896e-05 0.010882507 -0.27748203
0.08451207 0.049290765 0.17689542
0.068625204 -0.1731615 -0.27487883
0.23446256 -0.22727905 0.018837025
-0.2416612 0.1642258 -0.12182467
-0.15277056 -0.0773548 -0.300018
-0.034683846 -0.09049951 0.19899204
-0.12105908 -0.01874859 -0.25088412
0.2690842 -0.017068846 0.0643389
-0.18002434 -0.057364874 0.118425876
0.20224643 -0.2198255 0.04982152
-0.11774355 0.19389789 -0.26808736
-0.22016741 -0.04818956 0.011567762
-0.22104742 0.08297077 0.06251676
0.09247088 0.089961775 -0.2993251
0.15474999 0.06597559 0.13210788
0.082595445 -0.17920668 -0.38201424
-0.08573606 -0.10055526 0.17542994
-0.043181106 0.14117113 0.14412269
-0.012638 -0.1379954 -0.39309534
0.2956836 -0.06851254 -0.221887
0.16500135 -0.04877831 0.10510454
0.14081857 -0.204402 0.042308092
-0.051330157 -0.019736426 0.17514384
0.20681748 0.03904471 -0.17419504
0.12977874 -0.1996244 -0.2218574
-0.29067856 0.056172665 -0.27788836
0.016640553 -0.014379914 0.20303814
0.2676477 -0.14652358 0.020352818
0.05461805 -0.16197558 0.14792116
-0.22165388 0.029715363 0.075741924
-0.09842094 0.08918709 -0.25096652
-0.04643128 -0.10043469 0.19523473
0.0361665 -0.013243314 0.1895622
-0.07831938 -0.10120555 0.17931332
0.08203017 0.059044734 -0.30088535
-0.16544117 0.21173063 0.0073095243
0.15291084 0.029323751 0.13205537
-0.034725238 0.0022254214 0.17872551
0.004184505 -0.072480716 0.19111794
0.107830934 -0.1901277 0.10496433
0.05493783 0.06548202 0.19955187
0.16180526 -0.038455646 0.10970007
0.29324865 0.000603278 -0.2992844
-0.2753721 0.07247023 -0.1969546
-0.17737448 0.0163988 0.103658356
-0.13579722 0.17027631 0.09103921
0.05701662 -0.037516456 0.16935511
-0.23164043 0.011065155 0.07453004
-0.15665144 0.16388012 0.08090165
-0.12275275 -0.026955752 0.14068335
-0.24775533 0.09364798 0.043283053
-0.21339568 0.07540545 0.067889996
0.12510194 0.02417825 -0.2609907
-0.093208335 0.167754 -0.119294606
-0.04369115 0.11438893 0.14971356
-0.12733954 0.19805011 0.05708508
-0.013316362 0.018442152 -0.2764443
-0.17818904 0.21628252 -0.009459755
0.032748494 0.053792667 0.20151123
0.08199093 0.059867673 0.1828406
-0.015005562 0.011721596 0.18660152
0.107808046 0.096293285 -0.41035843
-0.16145958 0.21281482 -0.21365295
0.052449826 0.078327164 -0.30933005
0.112493195 0.053530566 0.16088113
-0.0028841759 0.101574495 0.17310013
-0.15867405 0.20371284 0.03307251
0.14369209 -0.07333845 0.112866566
-0.076720394 -0.00914998 0.16002192
-0.25426444 0.02408142 0.05621757
0.050997626 -0.15194313 0.15143968
0.22725405 0.026621323 0.093126625
-0.17451923 0.13677523 0.0766647
-0.13116236 0.06292887 0.11681647
0.039873324 -0.16071945 -0.3713794
-0.2055218 0.21657693 -0.04286648
0.27992466 0.006817052 0.060589436
0.21418802 -0.18540245 0.052415185
-0.20653266 0.21690843 -0.019049436
-0.124765605 0.196936 -0.2602006
-0.27222398 0.04180942 0.04261534
-0.16932099 0.109397076 0.08741792
-0.11210921 0.03974946 0.13149005
-0.24524191 0.12918067 -0.08166768
0.24078496 -0.20761032 -0.11225134
0.2567373 -0.14205857 0.034170303
0.17601706 -0.21506661 -0.33345246
-0.077381015 -0.10997845 -0.35362318
-0.25567678 0.09820725 0.037958443
-0.22270906 -0.026765967 0.09021164
-0.15249689 0.13549484 0.09020835
0.20963673 -0.04625678 0.0904363
-0.00028423234 0.10910353 -0.29862514
0.17228653 -0.10164841 0.0913979
0.009192146 0.13896793 -0.32356673
-0.046978 -0.057986315 0.18569002
0.17957729 0.06523545 0.014418387
0.18945374 0.060962368 0.073014446
0.0072532697 0.13816139 -0.3039876
0.21530503 -0.23089796 -0.019774446
-0.2447363 -0.030257896 0.07935936
-0.28801835 0.042570278 -0.1819452
0.058997743 -0.10574339 -0.26741964
0.11925759 0.08130367 0.15451638
-0.15535434 -0.02075439 0.12288086
0.15578039 0.07553411 0.029678531
-0.110404156 -0.09250627 -0.2934644
-0.23014696 0.16975968 -0.09067563
0.2786396 -0.10789813 -0.19293502
-0.25824136 0.1120851 -0.098871075
-0.045180455 0.012538604 -0.28851038
-0.15832515 -0.006834999 0.11834236
0.04517103 -0.14664106 0.15522623
-0.06718349 -0.04469773 -0.29367
-0.26551014 0.042818084 0.04690711
0.24347779 -0.19950932 -0.23219031
0.19395775 -0.22731946 -0.0038561714
-0.047675364 0.10016472 0.15080999
-0.23600172 0.17361072 -0.16674109
-0.025351737 0.057196293 -0.29871696
0.1295782 -0.13331418 0.10729969
0.22751963 0.038096912 0.093761176
-0.11754171 0.0032905473 0.1367087
-0.051576376 0.16526465 -0.30738258
0.08904663 0.0017883123 0.1614656
0.018354349 -0.12261443 0.16983488
-0.25398594 0.12219896 -0.23034695
0.12383891 -0.00996255 0.14013185
-0.0024843744 -0.011339298 0.19795486
-0.08358424 0.06850166 0.13960442
-0.22952276 -0.04414056 -0.08669228
0.11271513 -0.0065832376 0.14800635
-0.26467466 0.10338946 0.013112235
-0.13988028 0.04688409 0.1159201
0.025398102 -0.08209924 0.1754403
-0.099805206 -0.08438196 -0.28613392
-0.23992938 -0.039636876 -0.09517838
0.20554835 -0.0088631185 0.093463644
-0.21506433 0.0991492 0.062617525
0.2698505 -0.08430132 0.044202395
0.3010396 -0.005361661 0.03908609
0.24461685 -0.19221005 -0.1895306
0.09468848 0.10196992 0.13331209
0.222884 0.045634624 0.09231699
-0.07186683 -0.08119217 0.17819838
-0.25127828 0.061071053 0.050899252
0.10663376 0.09680109 -0.36338276
0.03196292 0.054669753 -0.2735832
-0.16532533 -0.04335249 -0.15687254
-0.22667791 0.020404803 0.07510382
-0.015083749 0.07646343 -0.2621235
-0.076283574 0.15654156 0.1240666
-0.09085143 0.13173431 -0.17351371
-0.0486725 0.118006214 -0.27841052
-0.07441502 0.12396212 0.13212293
0.06854952 0.009111097 0.17383583
0.1185347 -0.19475925 0.091440514
0.27885383 -0.0946656 0.033150606
-0.09560202 0.09019945 0.12880373
0.11577261 -0.19195391 -0.120083995
0.027867774 0.1176472 0.17930196
-0.00010647279 -0.0125008505 0.19940877
0.07959765 -0.17790875 -0.28894418
-0.29746467 0.023473335 -0.13980044
0.051787734 -0.0060449354 0.18050158
-0.20958808 -0.052767325 -0.0019958063
-0.2919183 -0.0171399 -0.1846046
0.12668756 0.08812303 0.029934201
-0.121324554 -0.006106829 -0.22897929
-0.28160098 0.051702943 -0.07277596
0.26715216 0.027338954 -0.15063068
-0.011295621 0.11173776 0.16663629
0.034125935 0.12817787 -0.3626425
-0.1489756 -0.04025601 0.13035828
0.06630518 -0.13099045 0.14752494
-0.30271474 -0.012468304 -0.14748415
-0.046744734 -0.034649182 0.18071324
-0.12232424 0.1891118 0.079361156
0.09808521 0.069200605 0.17423652
-0.15786503 0.06916843 0.1019802
-0.14608079 0.091198534 0.10311667
-0.0022698503 -0.122593775 0.18032852
-0.2926385 -0.016827652 -0.0709431
0.039672446 0.086353496 0.1978939
0.007009948 -0.041207988 0.20039178
0.24377607 -0.19809315 0.024578812
0.035581227 -0.015452383 0.18916164
0.008142284 -0.14698815 -0.37500265
-0.07806804 -0.030123828 -0.27534297
0.2449071 -0.0013922295 0.08356774
0.29810667 0.0041424753 0.020468531
0.23477767 -0.16159283 0.04955504
-0.17921686 0.2133476 0.0006256678
-0.14721538 0.092728585 0.10221139
0.017209813 -0.15091187 -0.31946033
-0.047342435 0.05671379 -0.2898378
-0.17903537 -0.06598876 0.04556246
0.24626465 -0.10679705 0.056389976
0.07973235 -0.1211944 -0.2603711
0.29053146 -0.060069848 0.035238195
-0.21887228 -0.04874904 -0.10061613
0.097761005 -0.11238949 0.13300097
-0.04191438 -0.08571313 0.19429964
-0.06694799 -0.11449339 -0.34461406
-0.23918447 -0.012423799 0.07719246
-0.23141068 -0.04189707 0.08912531
-0.19985908 -0.056977943 0.050927382
0.28404382 -0.09933202 -0.3036381
-0.24315314 -0.026922736 0.079407334
-0.12662354 0.19774097 -0.032027774
0.3217993 0.0012853144 -0.10431216
-0.04536183 0.16257527 0.114420995
-0.09612764 0.15680818 0.113996625
-0.24015637 -0.039540593 -0.07260282
0.09165925 -0.18312898 -0.022240369
0.21413043 0.04321066 -0.1807547
0.11474957 -0.090895995 0.12728089
-0.23854655 0.060514726 0.05760782
-0.13629507 -0.07122404 0.14351538
-0.04930635 0.14864275 0.1391165
0.08131365 -0.05604949 -0.2715103
-0.15735812 0.1093248 0.09346855
-0.12567985 0.19733196 -0.1453083
-0.29326278 -0.0020642248 0.03603014
-0.11401279 0.19228312 -0.107642174
-0.28251797 -0.021207446 -0.017235333
-0.1712778 0.08615155 0.09150496
-0.0561348 -0.0021562239 0.16888095
0.10588685 0.01351852 0.15575546
0.004765968 0.02542697 -0.30207512
-0.04958223 -0.078420654 0.18883741
0.004282077 0.09943628 -0.3003527
0.15445803 -0.1645692 0.087681636
0.17960787 0.03221746 0.11550152
-0.13820381 -0.0037170346 0.1278145
0.0948747 -0.15352128 0.124789566
0.15332565 0.060770635 0.13936594
0.062253732 0.060377132 0.1949987
-0.13635625 0.12976775 0.099603176
0.07942472 0.070460655 0.1888773
-0.024604304 0.025866253 0.17867044
0.104549125 -0.011362248 0.15199551
0.028393026 -0.09249613 0.17055663
0.021257611 -0.09844693 0.17314003
-0.24052045 0.15071331 -0.0037093821
-0.055652615 -0.11938084 0.08066779
0.12984598 -0.11248322 0.11222846
-0.19869764 0.12403984 0.06648603
0.07834989 -0.011363235 0.1640923
0.026374878 0.038913224 0.20154168
-0.08934862 0.017135693 0.14791127
-0.0052523813 -0.11217173 0.18521194
0.049096353 0.1135252 -0.30347213
0.18160443 0.021553436 0.11159865
-0.23153722 0.047603656 0.063639835
-0.13021155 -0.07193889 0.14674126
-0.08078014 0.15588473 0.12194065
0.2563645 -0.1223695 0.04416075
-0.10089805 0.11870823 0.11990677
-0.06643374 -0.11471695 -0.3680349
0.24733713 -0.04320218 0.069362305
0.11961701 -0.15552774 0.10829956
0.03970935 -0.033354953 -0.29236934
-0.07763288 -0.061806403 0.17105734
-0.25179058 -0.024548609 0.056272935
0.030699536 0.12441553 0.15960094
0.16100267 -0.2131363 -0.2184067
0.21651675 0.014519679 0.09365968
-0.034545694 0.011602103 -0.2864984
0.014575027 0.039842475 0.19538668
0.294575 0.013256086 0.00035165696
0.16522273 -0.058054265 0.102689125
0.20704639 -0.07232504 0.08550977
-0.19456238 -0.03481272 0.106167585
0.058773585 0.07036164 0.19872755
0.026068164 0.02569472 0.20427406
0.14456607 0.06040689 -0.26163653
-0.0035424794 -0.14193128 0.05655197
-0.25937757 0.10043101 -0.0634194
0.15388726 0.07635259 0.09554644
-0.14825284 0.109392844 0.09804909
0.20623785 0.024802828 0.096464306
0.09535389 0.043517917 0.1673169
-0.06647293 -0.004993414 0.16428326
-0.14325786 0.021073585 0.11985099
-0.12071466 -0.02980381 -0.27598482
0.12192189 -0.15930702 0.105882086
-0.1639659 -0.072510764 -0.26255044
-0.02004248 0.15161861 -0.32432175
0.21772172 -0.13944133 0.06056264
-0.22875458 0.18249021 -0.26031452
-0.25098008 -0.034855988 -0.03645009
-0.09117172 0.07590325 0.13416071
0.08728024 -0.1356667 0.13407497
-0.07685008 -0.07113188 0.17348973
-0.17086989 0.18343906 0.06940275
-0.19036491 0.18257698 0.055578172
0.18628791 -0.024201022 0.09736017
-0.26175576 0.051265232 0.047082867
0.08839152 -0.16211642 0.12687637
0.22040598 -0.23884352 -0.14328052
0.0890766 -0.18201141 -0.25714815
0.13248548 -0.20079558 -0.010257138
0.24860275 -0.18929607 -0.096289374
-0.26354933 0.10281379 -0.18813735
0.15570077 0.07556763 -0.3948588
-0.2609151 -0.021064004 0.047912322
-0.025496326 -0.11593137 -0.29445162
0.13411862 -0.20150287 -0.05485047
0.318887 -0.019889968 0.009348046
0.25042284 0.03457802 -0.008851803
0.24698697 -0.06440033 0.06499695
0.24464074 0.037080523 -0.18060383
-0.18753894 0.18988398 0.0552192
-0.13816178 -0.0836763 0.07935074
-0.1594179 -0.067300275 0.13099226
0.084826976 0.085324176 0.17264378
-0.29834267 0.03568161 -0.26204407
-0.05616594 -0.11915895 0.10261342
-0.009480526 0.053769503 0.1802082
-0.16746657 -0.06270551 0.12592852
-0.28942245 0.04307755 -0.24673563
0.28046378 0.017830806 0.02658322
-0.18955451 0.012017921 0.0984705
0.22826391 0.012903914 0.09207784
-0.02384244 0.14494024 -0.27981246
0.024265124 -0.15091556 0.16338824
-0.15904254 0.20132244 0.04568472
-0.004023088 0.04839581 0.18413548
-0.08926081 -0.10483803 -0.29283825
0.17174658 -0.049430232 0.100583546
-0.27789226 0.037736703 0.039953507
-0.12681283 0.07301223 0.11680933
-0.29331154 0.045250688 -0.26114857
-0.19446449 0.06283988 0.08489722
-0.26383203 0.090659104 -0.06534134
-0.014489142 -0.06427534 -0.27868176
-0.16667752 0.19451374 0.068792984
-0.18619557 0.12769604 0.07229373
0.23602374 -0.08753929 0.06436185
0.04923623 0.056556694 0.20043077
0.26157027 0.029753856 0.0056931465
0.21758987 -0.04176078 0.087977156
0.18390101 -0.22304595 -0.26936144
-0.18124753 0.14258786 0.07209608
0.056741234 0.11792863 -0.30950227
0.089772254 -0.11874109 -0.24169698
-0.1989894 -0.05735373 -0.015942499
-0.14242546 0.20457874 0.0010151009
0.015417411 -0.10733277 0.17407198
0.10092745 -0.0014378784 0.15549129
-0.27106747 -0.026163446 -0.14419344
0.2235176 0.032257676 0.093953855
-0.27687442 0.061203543 -0.093545586
0.17685983 0.06641167 -0.29439926
0.18042324 -0.14917801 0.078750506
-0.122039914 0.11870811 0.10924033
0.013197834 0.13723418 0.12041496
-0.24059197 0.12610625 0.039478324
-0.14800157 0.15018834 0.08926748
-0.0073288474 0.13770401 0.15358931
-0.063896105 -0.0858424 0.18323681
-0.16543184 -0.03940832 0.12186928
-0.13927358 -0.030081753 0.13303122
0.089162156 -0.12550214 0.13534826
0.20414622 -0.22107662 0.048847206
0.25795782 -0.042350464 0.06540316
-0.19985996 0.0151531985 0.09258638
0.08929953 -0.056604333 0.1500121
0.12813546 -0.1989134 -0.1761679
-0.24206838 0.15279855 -0.26651335
0.08138256 -0.06440807 -0.27837226
-0.17197855 0.039731227 0.10128656
0.046882454 0.009818479 0.19026825
0.23000243 0.016224217 0.092082135
0.17001049 -0.03370956 0.10555638
-0.0037385104 0.06166148 0.1813821
-0.1837179 0.21314631 0.00096842967
-0.13700555 -0.08417646 0.013173042
0.17446692 0.046396125 0.12229873
0.10589253 0.00014084732 0.15379202
0.21451904 -0.22911334 -0.00048725688
0.19371794 0.053978264 -0.22677971
-0.045937113 0.12679714 0.14587097
-0.048194405 -0.041745577 0.18152903
-0.13560605 0.18389887 0.088161655
-0.029577492 0.11414754 0.1568888
0.22986212 -0.23187616 -0.21769053
0.13177992 0.08591998 -0.40269506
0.23450285 -0.18197702 0.044051167
0.19117606 -0.118352205 0.08143158
0.108598955 -0.19045985 0.08306839
0.015617232 0.0026137505 0.2040415
0.1524359 -0.20942907 0.00654456
-0.06535558 0.054064866 0.1519539
0.04645942 -0.04048275 0.17489904
-0.14268523 -0.026323961 -0.23616233
0.14008687 -0.14041738 0.09876436
0.12988774 -0.0011316183 0.13868053
0.18046468 0.046523467 -0.21270406
0.10751269 -0.1360848 0.12088913
0.109597705 0.0037262547 0.15268025
0.13062687 -0.05022124 0.12697859
0.3130887 -0.04329177 0.002278495
-0.1362299 -0.04404598 0.13761581
-0.06956816 0.056651466 -0.25732714
0.099758625 0.014960456 0.15883416
-0.08557136 -0.10643457 0.033280335
0.29363385 -0.07123118 -0.264997
-0.016569206 -0.07648306 0.20507017
-0.05933155 0.08299053 0.14867738
-0.2407849 0.13895565 -0.07974177
-0.09753717 -0.029342981 0.15392828
0.31247696 -0.0012606211 -0.029496605
-0.20843987 0.0904023 0.067677535
-0.16124569 0.0100641595 0.113178745
-0.1980948 0.15041701 0.06055701
-0.05074964 0.01655958 0.16751115
0.059319727 -0.07131387 0.16142723
-0.26018873 0.12594962 -0.28480595
0.16100153 -0.14700736 0.08887458
0.05024114 -0.053799853 -0.2994284
0.15561236 -0.13913834 0.090969354
0.2421678 -0.1979379 -0.18602565
0.07249711 0.11157347 -0.32391056
-0.22376516 -0.030183058 0.09042265
0.0477918 0.081724316 0.20300166
0.2685024 -0.058126613 0.053093404
-0.2528028 0.08435225 0.04268608
0.049251936 0.1216326 0.075714186
-0.15803513 0.055819187 0.10481085
0.11565218 -0.054450724 0.135625
0.06839917 0.03990016 0.18548976
0.19299853 0.016063936 0.102885604
-0.24079537 0.07099861 0.054494686
0.047634512 -0.1519835 -0.26980728
-0.08600966 0.1223351 -0.1744708
-0.084174365 0.1638326 0.11810115
-0.28649244 0.054771654 0.003280028
-0.17988226 0.04712872 0.095684476
-0.03518269 -0.12823966 -0.34099573
-0.09800064 0.10480142 0.12440496
0.19271366 -0.14940132 0.07104702
0.22805323 0.04425749 -0.038060397
0.18118517 -0.22186984 -0.20068479
-0.10681039 -0.09724446 0.060572222
-0.10810889 -0.0966811 0.12643339
-0.1415213 -0.082222566 -0.33767846
0.14497726 -0.206202 -0.35142666
-0.114064485 0.016438281 0.13559268
0.16820444 -0.059062183 0.10051268
-0.17642805 0.15749292 0.071828745
-0.21562794 0.13446763 0.053111337
-0.23029916 0.18304664 -0.21216094
-0.011484024 0.12807886 0.16297568
-0.19746432 0.21149006 0.0056256806
-0.28648368 0.04141784 -0.23033375
0.20201151 0.055527553 0.043404665
0.027962642 0.13017796 0.14813036
-0.23383218 0.18431328 -0.11604632
-0.024074342 0.06795274 0.16974908
-0.015551371 -0.014545459 0.1920626
-0.20872608 0.22047028 -0.23462845
0.06362981 0.1097081 -0.30590063
0.20325544 0.048210766 -0.20244035
0.01763042 0.025887994 0.19997466
-0.15846188 0.08392775 0.09845752
-0.07545726 0.17559887 -0.3383715
0.30246872 0.012055661 -0.15117702
-0.08888855 0.16055454 0.1168305
-0.18807507 0.16905797 0.061679382
0.21945392 -0.23843041 -0.120671384
0.2552086 -0.1643139 -0.174827
-0.24692968 0.14292829 -0.20005223
0.14748676 0.037878696 0.13728896
0.049893565 -0.02129532 -0.26911858
0.2918722 0.013423133 -0.26429382
0.10884986 -0.098133415 0.12932238
-0.06910785 0.16817738 -0.2405224
-0.12602724 0.16977549 0.0960781
-0.21675892 -0.04966464 -0.28379005
0.24152853 -0.19711214 -0.16291358
0.0083382325 0.039845373 -0.30542916
0.20438863 -0.064982735 0.08850692
0.025408885 -0.046065107 0.1851601
0.2286502 0.04399999 -0.05049042
0.04543624 -0.1253454 0.15890475
0.29385084 0.015784778 -0.2344684
0.15649809 -0.11466352 0.09446162
-0.2318042 -0.025500365 0.08534605
-0.21144038 0.20817229 -0.085225604
-0.22815077 0.19375736 -0.16092125
-0.11008685 0.06296979 0.12744123
0.039343614 -0.019820213 -0.2721875
-0.17895539 0.03547892 0.098696284
0.043326207 0.12240681 -0.3046172
0.20414495 0.054604463 -0.02272256
-0.2809285 0.0516923 0.035374295
0.068695925 -0.17319131 0.049444117
0.2794947 -0.12004929 -0.066922024
-0.21017718 0.018187715 0.08671858
0.25100502 -0.022148378 0.073476866
-0.21679263 0.21283239 -0.25150722
0.13009743 -0.1544703 0.10177978
0.20736217 0.0043972046 0.09412615
-0.110311344 -0.016761115 -0.25474396
-0.020573772 0.15184894 0.03287963
-0.11554078 0.0614116 0.12502904
0.060515065 -0.16965166 -0.35337022
0.1063872 -0.17963515 -0.14450835
0.097625025 -0.15310206 0.12311286
-0.07654692 0.17607084 -0.24533421
-0.025459977 -0.1245292 -0.3008454
0.08908835 -0.17849642 0.1224136
0.21467207 -0.19021502 0.05124112
0.22575583 -0.05943788 0.07783865
0.0024959182 0.1418659 0.06200944
-0.26879707 0.09356522 0.03235334
0.13006511 -0.1997491 0.055924103
0.19951822 -0.11346 0.077734314
-0.084889494 0.03177447 0.14696358
-0.09200784 0.18276088 0.07857069
0.1843264 -0.013087103 0.101351455
0.11223422 0.09354695 0.14455803
-0.008992259 -0.04176924 0.2013146
-0.033847503 0.15756294 0.12861997
0.11343614 -0.19255216 -0.3549979
-0.24355584 0.1400557 0.03493766
0.037829358 -0.15983477 -0.30158132
-0.08713066 -0.019249072 0.15697485
0.07870346 0.10888774 -0.38058928
-0.02484448 -0.13271399 0.08373158
-0.21443073 0.22268416 -0.1338058
-0.03566538 -0.043646686 -0.27227232
-0.054621574 -0.11982743 0.036563676
0.15086539 -0.1268592 0.09511639
-0.2721331 0.009951991 0.049571984
-0.044201363 0.08758018 0.15530957
-0.06679744 0.12341586 0.13608463
0.22515558 -0.166796 0.052113034
-0.10329948 0.18764724 0.01972629
-0.0029360924 -0.08650929 0.19114415
-0.22043577 0.16331017 0.041526422
0.035309047 -0.15874417 0.13389444
-0.11554028 0.13678102 0.10857325
0.010046621 0.053130507 0.19020101
-0.25256944 0.13361755 -0.1549123
-0.21067578 -0.052296385 0.0866201
-0.30443668 0.01435706 -0.24916756
0.05865181 0.11756452 -0.37852582
-0.10649765 0.090796724 0.12317564
-0.09661473 -0.071160175 0.16352415
0.25780597 -0.051686365 0.06318266
-0.23143949 0.18188804 0.031917877
0.01964066 0.04916349 0.195907
-0.015359354 -0.13681808 0.11419856
0.2721441 -0.09532023 0.037224844
0.24476677 -0.066104434 0.06548238
0.005563234 0.081655756 0.18171027
-0.16290425 -0.07297037 -0.33212093
0.300606 -0.05099438 -0.17153548
-0.21899892 0.19283353 0.03580444
0.138738 -0.08841146 0.11237675
-0.017599571 0.0583999 0.1751011
-0.11685804 0.024598608 0.13240235
-0.16849945 0.04553966 0.10177371
-0.17849532 0.07551642 0.090186514
-0.18990394 -0.06128597 0.08144674
0.23193623 -0.11872716 0.05947041
-0.06725301 -0.11436146 0.13797486
-0.089137524 -0.010211121 -0.24420531
-0.16130656 0.21274923 -0.23658963
0.23255475 0.042310607 -0.17290291
0.19950369 -0.028423192 0.09290686
-0.12007848 0.044350237 0.1264653
-0.17607984 0.19379686 0.06222736
-0.2564996 0.123531744 -0.15781999
0.03397569 0.005830648 -0.29499507
-0.010529804 -0.006695447 0.19287989
-0.016626164 -0.12928168 0.16633224
-0.2211922 0.21420841 -0.13095278
-0.2647065 0.09118904 -0.04151325
-0.18448162 -0.016159473 0.10718203
-0.010479558 0.14747985 0.13553576
0.1319687 0.08583772 0.044817887
0.22365783 -0.20336547 0.045134656
-0.04772583 -0.09725136 0.1938856
0.124893695 -0.19751026 -0.08586201
0.079643585 -0.11302033 -0.25301713
0.15608716 -0.20043907 0.07829678
-0.27291217 0.09580289 -0.29239017
-0.17631118 -0.04552434 -0.12970662
-0.14862512 -0.013834457 0.12476477
-0.042709775 0.011872182 0.17259136
0.08956887 -0.111999296 -0.23155087
0.16766816 0.07038896 0.022141453
-0.07694026 -0.09052597 0.17767753
0.25796792 -0.04122133 0.06563323
0.17288753 -0.19054747 0.070868544
0.16525146 -0.10941785 0.09175881
0.13336715 -0.1648563 0.09712175
0.18717296 0.06089249 0.1143654
0.0187539 -0.03698765 -0.308748
-0.045218725 0.034408923 0.166404
-0.24778126 0.14333773 -0.17589962
-0.22941661 0.1827067 -0.23643242
0.0025831799 -0.002013196 0.19847554
-0.18588084 0.22338374 -0.15205179
-0.29235163 -0.01695248 -0.11618318
0.08384451 0.10666269 0.09710303
0.1775313 0.06612133 -0.31734574
-0.08893788 0.1814318 -0.21444264
0.067773625 -0.014262068 0.1696692
0.04621716 0.050746735 -0.27644792
0.17199513 -0.15415235 0.08206295
0.04544822 0.12327877 -0.32385564
0.123294614 -0.19681883 -0.04123556
0.12597424 0.07342348 -0.2811361
0.29057375 -0.029633438 0.043561444
0.033977363 0.06755244 0.19912581
-0.24932484 -0.006431121 0.06647478
0.24931328 -0.10843921 0.053570025
0.1952004 0.00065019453 0.097685724
0.14846365 0.025146034 0.13390815
-0.2552897 0.0748243 0.04401758
-0.15520412 0.076840095 0.10164809
-0.05564779 0.024287688 0.16335236
-0.20973007 0.20702597 -0.06687693
-0.16978012 -0.06044655 0.1242687
0.31455615 0.0068249726 -0.15903723
0.24716564 -0.05377335 0.06712114
-0.10698241 0.14662202 0.110743165
-0.21099749 0.20985654 -0.28603318
0.16086128 0.073297575 -0.27035248
0.23773497 0.040068015 0.020941436
-0.116742894 0.05651423 0.12549147
0.17277785 0.053458266 -0.23954119
0.14833137 -0.11938287 0.09858554
0.0065303445 0.044483818 0.19031447
-0.08827222 0.034245618 -0.26059684
0.16467704 0.07168358 -0.28639853
-0.024343798 0.05466835 0.17251442
-0.1688201 0.018927982 0.10742314
-0.0013731497 -0.049016044 0.20674087
0.0036815659 -0.13327387 0.17397602
0.21431173 -0.12320925 0.065583706
0.06267356 0.0002459656 0.17501529
0.120904654 -0.19578467 0.025426546
-0.28261295 -0.017525846 -0.0017695181
0.12124123 -0.19593003 -0.27653557
-0.22547367 0.11739184 0.051601484
-0.06788079 -0.041690785 0.17158614
0.14125596 -0.01981954 0.12755269
0.11104256 -0.19151637 -0.2854159
0.22490384 -0.12122898 0.061608855
-0.2200472 0.06469382 0.06642838
0.03227245 0.121524855 -0.298062
-0.22579941 0.19335552 -0.27759662
0.26090914 -0.15182897 -0.29382747
-0.23574594 0.037973188 0.06324506
-0.25894699 -0.028216716 -0.3260548
0.19309664 -0.22702448 -0.23770534
-0.07779179 -0.04351781 -0.29598853
-0.20043486 -0.056729 0.095026255
0.034759197 0.07705575 0.19744514
0.032615133 0.031106163 0.20639727
0.24001901 0.039079554 -0.04582809
0.05937437 -0.169159 0.01889059
-0.23688014 0.17391832 -0.14288512
0.19725618 -0.13933155 0.0712835
-0.15824646 0.090780936 0.09707067
0.2140021 -0.12943505 0.064030394
-0.10803258 0.0839741 -0.22574385
-0.101080015 -0.07658862 0.16245523
-0.08268292 0.17283207 -0.21217257
0.13132302 0.0023581977 0.13857864
0.26078022 0.030095905 0.027721263
-0.2738587 0.08409912 -0.12182251
0.13656908 -0.1752375 0.09250807
-0.1258494 0.13999683 0.10267013
0.25490198 -0.1668491 0.028532255
-0.14451766 0.20008402 0.053193726
0.09662683 -0.17108287 -0.16146477
-0.05456225 0.15189257 -0.2551605
-0.14528467 -0.0021564984 0.12390156
-0.29134437 -0.00877626 -0.27015078
0.07089428 -0.091664635 0.15269211
0.07534408 0.067317374 -0.30423862
-0.21759664 0.2130644 -0.2274
0.03994959 -0.122029014 0.16152258
-0.18689358 -0.046421442 -0.12797837
-0.10481881 0.16057953 0.108786605
0.2258445 0.045214586 0.028284121
-0.2507708 -0.034947224 -0.05890672
0.26690587 -0.1361429 -0.18379746
-0.24907282 -0.03568097 -0.24123618
0.014348721 -0.039918017 0.19715296
0.026682682 0.052254774 0.19878452
-0.24212906 0.15264572 -0.22134963
0.13157688 0.023158342 0.14365196
-0.126309 0.090945154 0.113148056
-0.13664426 0.20207715 -0.298867
0.2825955 0.020655507 -0.2494843
-0.020574724 0.07235313 0.17055386
0.18299931 -0.2226552 -0.24651474
-0.12891683 -0.07273875 0.14757133
-0.055888526 0.011059513 0.1661186
-0.14915314 -0.05354275 0.13316786
-0.1433325 -0.07663224 0.14114575
0.12377028 -0.13375933 0.110947385
0.17024018 -0.09435042 0.09214525
-0.048759732 -0.057900753 0.1847719
-0.13547032 0.2000194 0.051346235
0.013976467 -0.14200675 0.16869321
0.26923543 -0.0066885487 0.06717908
-0.23050974 0.14473462 0.040498428
0.05786276 -0.16591017 -0.26567438
0.26191586 -0.12581526 0.03534287
0.22438243 0.04584652 0.07233462
0.0820622 0.07456079 0.18839689
0.12606515 0.013297056 0.14462152
-0.025965368 -0.1322288 0.12751599
0.15957022 -0.030228637 0.113160424
-0.30557764 0.0026130087 -0.2356376
0.1603433 -0.12450477 0.09135952
0.21677221 0.02593008 0.09439393
-0.2104043 -0.052414574 0.06439399
-0.045467034 0.021170137 0.16916952
0.2652005 -0.16169031 0.005511952
-0.10697035 0.048985038 0.13206644
-0.021283526 0.15215588 0.07723229
-0.127581 0.01977605 0.1280451
-0.036121476 -0.106417134 -0.28969592
0.07915108 -0.086821854 0.14884245
0.006092745 -0.13916567 -0.29538432
-0.13713345 0.20228834 -0.22912562
0.3121193 0.003121135 -0.21476051
0.28974676 -0.09064755 0.025455868
-0.16613205 0.0914174 0.09295227
-0.18659024 -0.04680753 -0.15019329
0.048704434 -0.11056147 -0.2812713
-0.13783291 0.02290991 0.12218842
-0.04410864 0.16203284 0.0260477
0.16378312 0.05986526 -0.25223535
-0.23774564 0.174272 -0.118934736
0.20258872 -0.1987491 0.054042134
0.16410689 -0.21447982 -0.029218214
-0.24083337 -0.03924691 -0.005327863
-0.21618712 0.20650615 0.030884745
-0.14021409 0.0071242 0.12443365
0.12079235 0.009568761 0.14702842
0.23138945 -0.21763131 0.029947173
-0.14521101 0.09545438 0.102625564
-0.12838435 -0.08790745 0.10970659
-0.1105449 -0.019614978 0.14524066
-0.03601812 -0.12787852 0.11934691
-0.11096564 0.0761196 0.124126166
0.3052985 0.0062933005 -0.034437682
-0.14302757 0.06898643 0.10950705
0.0104324445 0.1384311 -0.3938491
0.057432186 0.0036586428 0.1799405
0.010659054 0.12477804 0.17116323
-0.3005527 0.012170948 -0.23474647
0.04707233 0.030190991 0.19601189
-0.21839848 0.1865602 0.037476365
0.16703005 0.07066595 0.044162445
-0.15361248 -0.070239045 -0.24360642
-0.0094649 0.05327248 0.1803246
-0.10018396 -0.073449805 -0.26068464
-0.23000887 -0.043931443 -0.04168101
0.04864146 -0.10221151 -0.2744107
-0.18891372 0.017567888 0.09758227
-0.027064426 0.15465689 -0.3231788
-0.20040849 -0.037980195 0.10391087
-0.1430313 0.0023415561 -0.19892377
-0.11455972 0.18541653 0.0852641
0.09810945 0.05342553 0.16819374
0.24556579 -0.17586887 0.031977285
-0.09619905 -0.10183586 0.046938475
0.07081971 -0.03557865 -0.2645915
-0.077852674 0.04438529 0.14776213
0.13235754 -0.06781142 0.12155093
0.110489614 -0.15371338 0.11464543
-0.10511216 0.18720406 0.083637595
-0.15161553 -0.05643936 0.132558
0.07045294 0.05673647 0.19032627
0.23013112 -0.22764415 -0.14280084
-0.0133729875 -0.028695859 -0.30152184
0.083208025 0.106938735 -0.3942391
0.077616744 -0.06513639 0.15521745
-0.050723236 0.114102155 0.14622866
0.10869081 0.07526485 -0.28571597
0.13010517 -0.0918032 0.11712847
-0.2416146 -0.025391461 0.08010505
0.21229622 -0.23533301 -0.19726464
-0.17806661 -0.06640806 -0.021156242
-0.13807955 0.20269763 -0.09209165
0.17375499 -0.005912387 0.10994457
-0.056775752 0.04442011 0.15838902
-0.27704656 0.08574624 -0.27225614
0.04602163 -0.082020715 0.16502672
0.041817993 -0.09808857 0.16430779
-0.045324206 0.019353643 -0.27842346
0.30382475 -0.0698632 -0.090780534
0.2438757 -0.06289212 0.06648186
0.18342462 -0.067018054 0.092328794
0.27374348 0.01680217 0.05077274
-0.23512994 0.17325447 -0.19085959
-0.26126933 0.11385185 -0.13688435
0.27951032 -0.044000346 0.048621736
-0.061681315 -0.08582708 0.18434942
0.18656605 -0.17016727 0.06856114
-0.16458894 -0.05171305 -0.20977825
-0.2070048 0.09455704 0.067650065
0.22930482 -0.1941459 0.044597905
0.070400886 0.11248039 -0.36300907
0.09850162 -0.18608966 -0.2253259
-0.04335079 0.14650236 0.14213191
0.26151702 -0.14845839 -0.17332043
-0.056806367 -0.053253513 0.17969713
0.22953936 0.04361542 -0.08264823
0.20728669 -0.17018029 0.058161877
-0.24932331 0.03349204 0.057033498
0.043685038 -0.010778712 0.18481906
0.15167539 -0.11210586 0.09820663
-0.008648697 0.1466883 0.025231741
0.25916094 0.029862301 0.04766366
0.3013416 -0.051571287 -0.19456448
0.09259761 0.053952746 0.17256324
-0.20594944 -0.054342642 -0.29827017
0.10847072 -0.12931272 0.121928506
-0.13608718 0.1512131 0.09505573
0.080311365 0.09371793 0.16587779
0.15891469 0.03250522 0.1289542
-0.11694378 0.04320287 0.1282975
-0.20041089 0.1273219 0.06499004
0.05994394 -0.13320428 0.1502752
0.05731314 0.009271847 0.18217517
-0.15231635 -0.034761652 0.1274718
-0.24497853 0.14101014 -0.0055557867
0.03937634 -0.05632182 -0.29428875
0.20378216 -0.0924058 0.08147965
-0.23507668 0.0020972304 0.07508343
-0.20749629 0.21145287 0.0049645146
0.23660731 -0.046240833 0.07510494
-0.010936318 0.14006156 0.15137038
0.16152847 -0.21336414 0.03711538
-0.2723913 0.015030592 0.048494745
0.0978942 -0.18582757 0.09660842
0.017450629 0.09524169 0.18474153
-0.044623144 0.08626956 0.1553826
0.2921456 0.012513664 0.01850215
0.122873515 0.02349862 0.14931415
