# .PCD v0.7 - Point Cloud Data file format
VERSION 0.7
FIELDS x y z
SIZE 4 4 4
TYPE F F F
COUNT 1 1 1
WIDTH 1000
HEIGHT 1
VIEWPOINT 0 0 0 1 0 0 0
POINTS 1000
DATA ascii
-0.020139221 -0.06481707 0.1034657
-0.0029141223 -0.31367564 -0.036687072
0.25110716 0.027062396 0.021238014
-0.118561685 0.0379024 -0.17924972
-0.23541813 -0.16450642 0.009389124
0.20764384 0.17478994 0.07864607
0.069244854 -0.11987243 0.18579762
0.1625954 -0.15279822 0.12761475
0.035760146 0.22937484 -0.047384817
0.046755746 -0.20776877 0.08164489
0.15162688 -0.115434125 0.15401705
-0.038798537 0.118533894 -0.13678294
0.20140408 -0.030023381 0.0883286
0.2539871 -0.07351477 0.011825526
-0.029500334 -0.3151076 -0.036477372
0.13933687 0.04834252 0.13989161
0.094054915 0.1742617 0.027949823
0.19828753 -0.043062933 0.092033856
0.089247726 -0.0840373 0.18459004
0.1860846 0.06266766 0.11486969
-0.20999342 0.13871157 -0.1573323
-0.040112916 0.05089776 -0.22722273
-0.0019124441 0.25099146 -0.08706943
-0.015841244 -0.063694604 0.10568552
0.058662415 0.03306312 0.09448943
0.23796724 0.13741054 0.03387488
-0.04321629 -0.15460739 0.14538716
-0.22793998 -0.018924756 -0.06828526
-0.020309016 0.15632531 -0.07611227
-0.11494866 -0.15884878 0.09901103
-0.063833304 0.27569255 -0.14533412
0.23391089 -0.05050369 0.041376583
0.097070776 -0.13020688 0.16531287
-0.18522014 0.08845352 -0.10806581
-0.06873438 0.13915612 -0.09824811
0.24145095 0.05195322 0.036185995
0.09335457 0.020499403 0.1263141
-0.0116126025 -0.20703007 0.09459035
-0.0075596864 -0.17847736 0.13481404
0.22442937 0.14034076 0.05494347
-0.22924517 0.12121157 -0.15926346
0.21811712 -0.04256738 0.06408164
-0.16461097 -0.21442215 0.087818705
-0.20166658 -0.04438646 -0.033932008
0.016430791 -0.29258692 -0.009536405
-0.019125298 -0.24500148 0.057849254
-0.1443331 -0.08654143 0.026426267
0.061153658 -0.06454813 0.15894099
0.16859606 0.20279603 -0.051683452
0.21949907 0.025502775 0.06575007
-0.09527003 -0.16784987 0.118268386
0.10527375 -0.051843658 0.18097727
0.07859301 -0.11857806 0.18341996
-0.23290166 -0.15448467 0.015460618
-0.25818688 0.05126725 -0.13411108
-0.072893634 0.118976556 -0.14411427
0.07399321 0.096387036 -0.12236466
0.16860141 -0.09681896 0.13105802
0.030989194 -0.2502398 0.025717909
-0.084463164 0.045338795 -0.18275307
-0.2661843 -0.023905188 -0.09126348
-0.010887819 0.169101 -0.0693314
0.16487627 0.20468737 -0.1540075
0.07637562 0.03370852 0.10620027
-0.19969141 -0.08194223 -0.008435474
-0.24488747 -0.04967874 -0.060115337
0.05795706 -0.09472529 0.17569818
0.0015981096 -0.18398574 0.12503123
-0.064760104 -0.22027484 0.096869856
-0.027408214 -0.28341162 0.012241376
0.108422086 0.14443068 0.056961168
-0.20419668 0.009554707 -0.07347091
-0.06242401 -0.2355534 0.07657136
-0.28160146 -0.12887645 -0.064406805
-0.19078635 0.0024173562 -0.07005402
-0.0016351131 0.16964547 -0.11210145
-0.12510917 0.15910463 -0.112336196
0.06956942 0.068785265 0.027750919
0.05398681 -0.24853927 0.021553984
0.24048895 0.098101854 0.033166233
-0.05157622 -0.07613397 0.07184072
-0.10300525 0.17889868 -0.10992793
0.17827378 0.07899752 0.12675786
0.112102054 0.1893133 0.030627899
0.031140212 -0.15141729 0.16442789
-0.28172368 0.04342306 -0.14518072
0.111281805 -0.028933713 0.17036228
-0.1571362 -0.080133066 -0.042395134
0.21292505 -0.023216387 0.07243573
0.23479126 -0.103242286 0.037329923
-0.010192043 0.2774679 -0.109757334
0.18183881 0.114497416 0.12361747
-0.24810849 0.067382485 -0.13757049
-0.039207675 -0.19073315 0.12363999
-0.12935615 -0.25891387 -0.037903067
0.25279197 -0.078953266 0.013223772
-0.015478853 0.2696118 -0.10832686
0.052619204 0.24135926 -0.04354623
0.0026097468 -0.13789897 0.16601701
-0.122517355 -0.044522136 -0.19431004
-0.26239598 -0.09558141 -0.042593833
-0.11292163 -0.16208853 0.102481514
-0.118696764 0.15416849 -0.10477211
-0.009528539 -0.2372259 0.063642845
-0.25564358 -0.043502953 -0.07144939
0.087738015 -0.11208369 0.19034104
0.02442294 0.102864124 -0.15763432
-0.0285177 -0.12038703 0.13345219
-0.10238469 -0.086533144 0.04679955
-0.032477938 -0.07561405 0.101959966
-0.26392394 0.04792608 -0.13588981
0.14136097 -0.22963272 0.029131358
-0.14625554 -0.1286797 0.058186065
-0.13368395 -0.25191 0.050679065
0.26023364 0.10598826 0.0011975667
0.06769967 0.1354306 0.034869496
0.10943573 0.13308458 0.06494904
-0.15664738 0.17708758 -0.1454835
-0.11016459 0.038507853 -0.17901978
-0.20264584 -0.09709563 -0.00071954797
-0.19446719 0.07634917 -0.10661566
-0.28145012 -0.12969431 -0.0753417
0.093517125 -0.23743896 0.029463883
0.0806724 0.052726008 0.09691559
-0.0151124345 -0.1867799 0.1244182
-0.22471182 -0.05277345 -0.04431435
0.06588935 0.018246291 0.10896117
0.13286108 -0.017032674 0.17748407
-0.17028306 0.13088447 -0.12511916
-0.058796726 0.22760129 -0.11097309
0.09552527 0.08722571 0.08490547
-0.052233953 0.27988562 -0.14008966
0.049162854 0.31018946 -0.13694826
0.25228122 -0.12388675 0.0071282513
-0.087507814 -0.29117048 0.0026213962
0.21816055 -0.20046385 0.05562487
-0.05438441 -0.17536297 0.14882748
-0.098575905 0.048968975 -0.18052344
0.16452682 0.123047516 0.10575514
-0.24976362 0.0047393604 -0.098434895
-0.19656186 0.0020726775 -0.068966135
-0.24578619 -0.019594232 -0.08006997
0.06453338 -0.15347506 0.14994441
-0.16185011 0.11523127 -0.113250636
-0.15241924 0.19625278 -0.15490992
0.203957 -0.18604703 0.07643165
0.031586904 0.0987697 -0.15292318
0.06385028 -0.28676978 -0.026150325
0.22179057 0.106119156 0.058276474
0.21341388 0.07326351 0.07687529
0.18236491 -0.13103499 0.10982049
0.25977266 0.057617504 0.006407354
0.1810208 -0.15428956 0.11047999
-0.11582947 -0.23192015 0.09907461
0.07148118 0.19690485 -0.0020597917
-0.09689772 -0.28399843 0.00953494
0.16377665 0.059269197 0.14616448
0.119736195 -0.13233496 0.1580059
0.17902245 -0.020900456 0.12039139
0.21877325 0.154053 -0.116964765
0.004348398 -0.055568215 0.058291942
-0.26381922 0.04403173 -0.13331494
0.20733705 -0.10274041 0.07609033
0.12579352 0.0042164344 0.15898591
0.17135544 -0.17756002 0.093510285
0.109823644 0.05753899 0.11377622
0.17873481 0.101538055 0.12730794
0.13865702 -0.067175806 0.17488338
-0.296306 0.008777716 -0.1328919
0.22833937 -0.10410798 0.04638614
-0.032675814 -0.32041338 -0.04319136
-0.03755855 -0.23317538 0.076011695
0.05788381 0.24915396 -0.044953994
0.16099061 -0.052990764 0.14412649
0.1025183 -0.2570565 -0.0005723875
-0.19767526 0.16802473 -0.16774315
-0.005798722 -0.19265953 0.1140683
0.18137252 0.1914251 -0.16050242
0.05498501 -0.18249092 0.115943834
0.20770498 -0.12359749 0.07446204
0.033410124 0.1873813 -0.021999842
-0.22535144 0.077298574 -0.12836796
-0.14183614 -0.08363172 -0.024008537
-0.30619127 -0.10827305 -0.13536134
0.045598097 -0.2611457 0.0071100853
0.20492235 0.00567599 0.08526262
0.09153358 -0.17148705 0.117239624
0.052086964 0.014806192 0.101723514
-0.123114415 -0.25054932 0.0682917
-0.15693799 0.11295329 -0.11162765
0.06042893 0.15033169 0.020314163
0.13255273 0.06473856 0.124707356
0.27890244 0.027857313 -0.019859845
-0.20300452 0.16020235 -0.16636313
0.28109115 -0.027947651 -0.02398998
0.12485599 -0.057231467 0.1906008
-0.07975893 0.059468213 -0.18368825
-0.035271328 -0.16809596 0.15538336
0.0732907 -0.27724335 -0.023718907
0.1103906 0.1217729 0.07287254
0.20472284 0.04490344 0.08762912
-0.1241403 -0.1567506 0.09136969
0.008261941 0.1930986 -0.042888835
-0.2140762 0.19855899 -0.21622364
-0.18403271 -0.20897359 -0.11150923
-0.1671243 0.16144441 -0.14260049
0.20578031 -0.09480392 0.078709595
-0.2066772 0.07869544 -0.11648215
0.23981631 -0.09732785 0.030554306
-0.27673507 -0.12390712 -0.034200978
0.07969107 0.10455813 0.06292416
0.02806933 0.077468 -0.21238558
0.008938887 -0.23251715 0.05480814
0.20692688 0.16758518 -0.044547617
0.00811114 0.13637346 -0.13313043
0.29774147 0.019716889 -0.045161024
0.18254942 0.014731381 0.1173092
0.10703738 0.0914074 0.09009788
0.0892124 0.23114567 -0.011931181
0.105550595 0.17847511 0.03310948
-0.04533535 -0.2596381 0.043701034
-0.18215246 -0.14234169 0.04239564
-0.029517857 0.2781002 -0.12339182
0.028090063 -0.19598055 0.102392845
0.10696223 0.24563265 -0.009095745
0.09312954 0.045610435 0.110015966
-0.11710651 -0.1873745 0.11587036
0.17668632 0.07683314 0.12888375
-0.22527242 -0.09586136 -0.016999777
0.11236773 0.19102195 0.02971186
0.2135989 0.06263082 0.076050155
-0.21627167 -0.14260218 0.019207653
-0.120282866 -0.09509003 -0.0034589956
-0.24542277 0.16579416 -0.21575062
-0.21583924 0.1889704 -0.2007895
0.22358948 0.016582772 0.059504975
0.17470616 0.0434964 0.129906
0.15996537 -0.00053024286 0.14836276
0.123146765 -0.20525366 0.064607985
-0.03583644 -0.18019697 0.13810112
0.16870421 0.017003115 0.13696475
-0.22144644 -0.15030992 0.020619906
-0.12634958 -0.07413528 -0.051558916
-0.094204195 -0.1790063 0.12616783
0.1628135 -0.14686833 0.13656233
-0.059744902 -0.3096651 -0.023742417
0.0660937 -0.18580003 0.10758408
-0.18813549 -0.208684 -0.1741721
-0.003185249 0.19755195 -0.053587098
0.1067132 -0.12339291 0.17256603
0.00867761 0.26658186 -0.08984215
0.057854585 0.08244547 -0.19475074
0.20715353 0.12999932 0.07840385
-0.022741592 0.29551446 -0.13362166
0.050477345 -0.27343333 -0.005970549
0.059235904 -0.14810054 0.15844354
0.125725 -0.09064256 0.19188058
-0.1724491 0.21848474 -0.18291254
-0.24760032 -0.12508161 -0.013502797
-0.021006042 0.13311253 -0.1275008
-0.12436692 -0.25877813 0.04324919
-0.22806984 0.045357026 -0.10969531
0.10297909 -0.24338838 0.018984558
0.21895385 -0.15101159 0.05713638
0.04112929 0.1980606 -0.023580438
-0.2585607 0.051817417 -0.13471976
-0.1309331 0.12975463 -0.11086047
-0.04094366 0.12677875 -0.13616985
-0.057339434 -0.2608283 0.046989273
0.055486504 0.15278725 -0.011032919
-0.05652404 0.26063228 -0.13064907
-0.08300397 -0.09000374 0.07076202
-0.13260803 -0.26257184 -0.09282086
-0.16683762 -0.1106223 0.032488108
0.017458158 -0.029247351 0.10355974
0.08782765 0.17784895 0.021380689
0.08098994 0.11673536 0.055985495
-0.18154535 -0.055881187 -0.017637165
0.21653003 -0.106348276 0.062928855
-0.24028403 -0.13981587 0.0009776885
0.18299961 0.14471433 0.09559748
0.16720253 0.19779964 0.058046967
0.17738593 0.19831924 -0.1012522
-0.08534255 0.20183899 -0.112584494
0.03364087 -0.20356494 0.090357974
0.14123781 -0.07677168 0.17073037
-0.018059457 -0.105012715 0.13072783
0.23356523 -0.029467981 0.042982787
0.040653598 0.17242435 -0.0074239885
-0.045054536 -0.16586296 0.15136464
0.2402888 -0.031921368 0.033366177
0.27306968 0.0011412638 -0.011127613
-0.2605927 0.011155624 -0.10997339
-0.24204484 0.1711924 -0.21593554
-0.09415336 -0.17095482 0.12102838
-0.17392795 0.053119924 -0.10503105
-0.05445434 -0.095176354 0.09949176
-0.08317529 -0.30468497 -0.09528648
-0.04759084 0.22179209 -0.0995671
-0.11060719 0.18851537 -0.12131405
0.056507826 -0.22316042 0.05752932
0.01294092 -0.08090246 0.1364519
0.06614001 -0.017296793 0.1319805
-0.18596119 0.07819357 -0.10702132
0.0048608286 -0.09666945 0.14105521
-0.1582434 -0.1170197 0.04248478
0.019389462 0.2821546 -0.093065046
-0.17641576 -0.21486922 0.0016309833
0.28765714 0.058725048 -0.03523963
-0.054505553 0.23774125 -0.11455446
0.034299802 0.21859369 -0.041453432
0.024581196 0.23662947 -0.059700597
0.1256948 0.080754064 0.10971812
-0.16051058 -0.23554307 -0.061515342
0.0069337897 -0.30755192 -0.027783807
-0.24901417 0.014305684 -0.1040724
-0.0999951 0.10152217 -0.15144683
0.2185589 0.114520825 0.0628057
-0.28468513 -0.06091893 -0.08013354
-0.29454 -0.06701849 -0.084657475
0.050976876 0.15806396 0.008873651
-0.14211358 -0.24413969 -0.0028125797
-0.0008559637 -0.09996949 0.13926359
0.18933074 0.043309495 0.10926195
0.055523347 0.20716739 -0.019580387
0.13539319 0.08905004 0.11102503
0.040903173 -0.22225413 0.062009547
0.17097397 -0.19003865 0.076407336
0.16078353 -0.042514767 0.14497523
0.18815127 -0.12768702 0.101834014
0.031064622 -0.027686462 0.060858246
-0.11812708 -0.17621562 0.10799926
-0.10622112 -0.1006246 0.06755654
0.16311005 0.20462747 -0.17643803
-0.17337964 -0.15596005 0.05715434
-0.12539347 -0.097892165 0.052675147
-0.05990779 0.16474831 -0.0940034
-0.13822551 0.1120423 -0.116052456
-0.12971261 0.103015974 -0.15408689
-0.07958653 -0.14478976 0.11418071
0.13387588 -0.15941933 0.11969006
-0.20934999 0.1960073 -0.2053974
-0.010482544 0.21254994 -0.068222664
-0.06918586 0.1419165 -0.10033185
0.06876165 -0.015496178 0.13261786
0.17184916 -0.0922765 0.12671663
-0.22264837 -0.18515132 -0.23985669
0.2097544 -0.036291026 0.07621372
-0.20010735 0.14129403 -0.15222523
-0.11799815 0.23171756 -0.15414506
-0.32448328 -0.08935372 -0.108928084
0.011687434 -0.14997172 0.17188196
-0.20068537 0.15079138 -0.15872599
-0.22345664 -0.06210311 -0.037459116
0.025527582 0.27865466 -0.08606823
-0.024817925 0.27568817 -0.11862474
0.06948757 0.25338125 -0.039728273
0.21980159 0.16230457 -0.010528374
0.035145726 -0.23664102 0.04249734
-0.22020137 -0.18287732 -0.20241185
0.13970971 0.23095645 -0.031424213
-0.096624956 0.20764129 -0.12403771
0.07627684 0.17366391 0.01616399
-0.24135171 -0.12859243 -0.006968537
-0.15982313 0.14646901 -0.12797555
-0.18835536 -0.2085855 -0.030413123
0.1331773 0.22491716 -0.243978
0.092601106 0.2617849 -0.029307831
0.012089063 -0.11137616 0.15545681
-0.16717835 0.2263128 -0.18433745
-0.2508396 -0.09139468 -0.03737525
0.21025565 -0.013590828 0.0767122
0.120380424 0.05808536 0.120651305
0.0076746265 0.27806133 -0.097908475
0.13853449 -0.0016345395 0.17147054
0.111805506 0.24541256 -0.19834739
-0.1431139 0.20477617 -0.1540191
0.099366374 0.055708107 0.10779575
0.21397068 0.02822834 0.07369588
0.18826197 0.018124975 0.10942838
-0.24659397 0.04559283 -0.12252701
-0.2161305 -0.18169196 0.00063714734
-0.18981944 -0.008817646 -0.061785482
0.14888847 0.2111246 -0.2522773
-0.038848005 0.19634202 -0.077222615
-0.14171337 -0.20396514 0.10225293
0.015065581 0.25482532 -0.07791113
0.016588613 0.26773423 -0.08516775
0.23361048 -0.12356405 0.03791484
0.09786582 -0.010659453 0.14943147
-0.049542494 0.1697134 -0.085611716
0.26934004 0.042736076 -0.0067304224
-0.043793645 -0.2693644 0.03301396
0.19853504 -0.1199809 0.087594055
-0.08458719 0.11239422 -0.14788778
-0.072357304 0.090171486 -0.1916409
0.044443496 -0.076419264 0.15513532
0.05951748 -0.10949685 0.18671659
0.20234331 0.1574981 0.08554558
-0.17358117 0.01696037 -0.12040882
-0.025264125 -0.09032202 0.11635343
-0.02145099 -0.076977976 0.11038573
-0.15241128 0.1315306 -0.11329842
-0.06068716 -0.091672614 0.09297434
-0.26811126 -0.018969264 -0.09575503
0.07264765 0.0023524065 0.12380399
0.014972902 0.26299468 -0.083227314
-0.22391823 0.06444218 -0.11912278
-0.28834435 -0.118446775 -0.045658592
-0.2764972 0.0727882 -0.16047968
-0.26227883 -0.14536351 -0.0869185
0.19969921 0.024918802 0.09365524
0.11704922 -0.106928036 0.20161225
-0.023055112 0.21973096 -0.081447504
-0.21757615 0.060874823 -0.112486504
-0.023289232 -0.112700485 0.13209036
-0.12711556 0.044900157 -0.18567203
-0.18261646 0.037485607 -0.09716547
-0.16294165 0.18066396 -0.15209132
0.07701806 -0.17831194 0.114638045
0.2685409 0.112858534 -0.07809491
-0.08558745 -0.26319784 0.05153464
0.2969922 0.05633968 -0.050735418
-0.21607777 -0.008760324 -0.06669783
-0.04217734 -0.16579473 0.15329117
-0.10534069 -0.085899465 -0.031888124
0.18162425 -0.030534588 0.11620936
0.010908502 0.1802204 -0.051463
0.021446584 0.17374697 -0.04008695
-0.025142495 -0.30477756 -0.020440374
0.18012671 -0.20233063 0.05902316
-0.11001924 0.10285148 -0.15392368
-0.034551878 0.21555051 -0.08662973
-0.079844534 0.18732953 -0.099491686
-0.17107317 0.029808868 -0.12532006
0.10710487 -0.11074062 0.1888742
-0.071310624 -0.104457535 0.093919255
0.060256522 0.044698723 0.08810003
0.21699049 -0.083513916 0.0634941
0.21396922 0.041309968 0.074392855
0.11463515 0.14085706 0.06351154
-0.09279392 -0.0042029805 -0.21615878
0.03655366 0.13104331 -0.020957947
0.19453348 0.1778601 -0.21234009
0.20890583 -0.08172903 0.07499599
-0.18005316 -0.023917293 -0.048032068
-0.15028232 0.23834604 -0.18050729
0.07460524 0.09854259 0.027747903
-0.061539557 0.10834301 -0.16372097
-0.06402345 -0.18248425 0.14210448
-0.109076485 0.08757114 -0.14676724
-0.1565601 -0.007083403 -0.15392677
0.23513891 -0.12424271 0.03572221
-0.16614221 0.21489224 -0.17628707
0.050694652 -0.07991623 0.16166076
-0.20681657 -0.11601343 0.0085874
-0.23843223 -0.034432724 -0.06549728
-0.20010708 0.016073687 -0.078616865
-0.018582826 -0.15555573 0.16286133
0.086441815 -0.014835037 0.14429505
0.09196553 0.21458691 0.00059541705
0.16105393 0.082006425 0.13311805
-0.20187561 0.08421198 -0.116741695
0.23024933 0.14717242 0.045283288
-0.023866698 -0.22515808 0.08185649
-0.29741728 0.020114591 -0.14094083
0.26771605 0.020497596 -0.0025447507
-0.14728795 -0.11747372 0.050275333
0.02731875 -0.24326877 0.034563076
-0.0110943485 0.14100279 -0.12137259
-0.12256922 -0.022675259 -0.1571817
-0.22590104 0.022694122 -0.09364389
-0.22369288 -0.06401266 -0.03639288
0.20276801 0.16686061 -0.0905633
0.057754178 0.25984216 -0.05191459
-0.26815006 0.089429505 -0.16546409
-0.09456598 -0.27125442 0.034947213
0.15964639 0.1797928 0.06642537
0.012085906 -0.3064342 -0.026568176
-0.021109441 0.14245889 -0.12404207
-0.27304903 -0.047045276 -0.08108685
-0.018722579 -0.06395359 0.04788951
0.19384035 -0.12430129 0.09398865
-0.1505694 -0.016705273 -0.11500958
0.13142796 0.152823 0.06731419
0.074455746 0.05623437 0.090404086
0.13669728 0.10115545 0.10413577
0.21606018 0.146452 0.06698615
-0.27042064 -0.13736813 -0.061037965
-0.1593543 -0.15303521 0.064875685
-0.16764587 -0.062380377 -0.06145389
0.14318776 -0.16549765 0.11110156
-0.1376377 0.23112245 -0.16720845
0.028128484 -0.024492417 0.11058517
-0.022891741 0.16518563 -0.07328095
-0.07733316 -0.13024466 0.106372625
-0.17169596 0.17986947 -0.15757519
0.038244855 -0.07291698 0.14864084
0.0006082409 -0.11553391 0.15027152
0.18647541 0.041489895 0.11319403
0.24318004 -0.054253273 0.028099475
0.052479014 0.14974849 -0.017879412
0.22878614 0.06459389 0.054726083
-0.06010577 -0.31531385 -0.03358337
0.22173211 -0.0067569814 0.060884718
-0.19431351 0.1984774 -0.18608813
-0.14627954 -0.2403413 0.0087937275
0.029925039 -0.23646376 0.043815475
-0.26146364 -0.042822506 -0.07587119
0.123077944 -0.020009298 0.17269997
-0.09892175 0.16556521 -0.109485336
-0.019861508 0.20021567 -0.06671605
0.11422409 -0.18650202 0.08989328
-0.028072048 0.27687365 -0.12161465
-0.21927992 0.12650447 -0.15584294
-0.09345323 -0.21696573 0.1061769
0.040528864 -0.031573273 0.123624854
0.01802501 -0.2453294 0.03844604
-0.28284252 0.05004051 -0.15020132
-0.2764206 0.05118083 -0.14653556
-0.037814707 -0.23948896 0.06780379
-0.22911055 0.056669876 -0.117678456
-0.12074419 0.24318635 -0.16339819
-0.23109211 -0.17611511 -0.21517195
0.27475485 0.0809749 -0.018099468
-0.04761337 -0.078071006 0.08390701
-0.06914161 -0.12944983 0.11146876
0.09338787 0.26438826 -0.09100804
-0.00089884765 0.23956716 -0.07903206
0.080878325 0.20890774 -0.0033420662
0.25588986 0.08086288 0.012199444
0.109584466 0.0636268 0.10969887
0.057750367 -0.13518731 0.17372842
-0.043269735 0.11965603 -0.18388988
0.037279967 -0.061719835 0.14078069
-0.039336275 -0.13275424 0.13399617
-0.007439905 0.15618533 -0.06723651
0.24196951 0.020048568 0.03375756
-0.10812243 0.23596448 -0.15011612
-0.0003782537 -0.24248156 0.053238757
-0.25076726 -0.09742777 -0.033447254
0.27090767 -0.054607578 -0.011041045
-0.23152111 -0.040601477 -0.056801707
0.10480437 -0.11987432 0.17744145
0.16114874 0.12593786 0.10325841
-0.22654667 0.17341752 -0.19770053
-0.071379304 0.13391565 -0.1488223
-0.28309214 -0.12893963 -0.083549455
0.24509908 0.029494364 0.02984501
0.2252358 0.028907321 0.057837866
0.1990927 -0.20082101 0.05633613
0.0487683 -0.15534595 0.15284576
-0.27260008 0.03179686 -0.13146272
0.22481836 -0.14004165 0.04944278
0.08784845 0.07458336 0.087777905
-0.2184593 -0.056308653 -0.037762966
0.0031365992 0.18288206 -0.058494333
-0.0228654 -0.089230746 0.117292665
0.17237018 -0.06961376 0.12718599
0.10396492 -0.06455329 0.18393001
0.14831576 0.21800081 -0.14747404
0.22849147 0.14660057 -0.06955894
0.09737107 0.09202602 0.08308395
-0.14310895 -0.16224718 0.081918746
0.07775334 0.08653021 0.07318613
0.09073549 0.004128015 0.13504545
0.21580233 -0.06433615 0.06619006
-0.11297654 -0.24646531 0.08077811
-0.2566387 0.093631715 -0.16028434
-0.15123764 -0.21215242 0.097253196
0.053610545 0.22995636 -0.035539124
-0.08448945 -0.22966266 0.08960474
0.0939477 -0.23311162 0.03559978
-0.012449112 0.2353804 -0.084248185
0.10072191 0.21438698 0.0067189382
0.027204031 0.19094895 -0.02853802
-0.17424245 -0.2181353 -0.11493354
0.27009973 -0.0015466235 -0.00707911
-0.25726804 -0.05449501 -0.065495715
-0.10245359 -0.15318677 0.103927016
-0.01062257 -0.27005136 0.023881651
0.28864905 0.0021248828 -0.033488933
0.0027243579 0.16125146 -0.0586381
-0.16935079 -0.039677795 -0.08365928
0.17165267 0.10885522 0.1231146
0.1144574 -0.040169816 0.1797608
-0.075635865 0.016643135 -0.22077473
0.059692774 0.020770868 0.059734143
0.14658716 0.21791059 -0.16993208
-0.09509517 -0.10423093 0.07749197
-0.19667599 0.060488503 -0.09820949
-0.22707483 0.115167886 -0.15389137
0.17031473 -0.067106724 0.13022013
0.13561256 0.22452004 -0.20050617
-0.13168664 -0.15804477 0.08703742
0.1421145 -0.16946904 0.105478674
-0.20436434 -0.0023991633 -0.0643808
0.020093398 0.29259834 -0.105114296
-0.18844618 -0.11645213 0.021444863
0.24293506 0.1347923 -0.1569664
0.08536291 -0.20878565 0.07111279
-0.08658418 0.14737305 -0.10744316
-0.13978979 0.18906136 -0.14164335
-0.18369378 -0.04800919 -0.07222453
0.2543937 -0.095973834 0.010058326
-0.15281385 -0.09131564 0.029678177
-0.21587744 0.17827547 -0.18987557
0.14588137 0.11464352 0.10175198
0.07545165 -0.22200795 0.05532893
0.25477463 0.12514225 0.009508676
0.121007435 -0.11000773 0.19736305
-0.069166265 0.2678557 -0.14394854
0.18899335 -0.09537213 0.10236375
-0.056487244 0.08383421 -0.18494777
0.18672183 0.1175072 0.11423445
0.16511978 0.12375934 0.10532284
-0.08088872 0.19873428 -0.10753985
-0.13634911 -0.20883664 0.10701227
0.0070893797 -0.16287939 0.15425906
0.18725127 -0.0007535432 0.109852254
0.12722969 0.016310718 0.15219611
0.21376552 0.022100288 0.07365774
0.07970897 0.06399477 0.08901173
-0.031143202 -0.2516157 0.050982967
0.04004805 -0.25642952 0.014634236
-0.079116106 0.06400388 -0.18681613
0.20316382 -0.08510651 0.082916416
0.05107696 -0.01612159 0.12091335
0.22386262 -0.03917775 0.05615521
-0.15393688 -0.16988543 0.079416245
-0.31999525 -0.075900175 -0.1113758
0.037816398 -0.21818972 0.06848085
0.08105911 0.116963945 0.055886395
-0.22492275 0.021820266 -0.09241272
-0.22581096 0.12769717 -0.16108131
-0.04338331 0.25910333 -0.12067211
-0.09401714 -0.23782034 0.08472145
-0.052457027 -0.117562816 0.115248084
-0.14807843 -0.15836126 0.07601863
0.13105115 0.22877418 0.018233333
-0.05553379 0.24921505 -0.1226333
0.15934776 0.031136122 0.15091713
0.1908672 0.008510894 0.10524502
-0.3000938 -0.11302925 -0.057184067
-0.23714066 0.1792674 -0.2164052
-0.11116229 0.07703945 -0.18841213
-0.18592156 -0.050992195 -0.021157684
0.12809616 0.23795116 -0.08175283
-0.06284735 0.26422426 -0.13728774
-0.14106837 -0.21642487 0.10525791
0.17153782 0.19453776 0.060377337
0.060611192 0.12810296 -0.0025997653
0.008347709 0.20173733 -0.04838216
-0.07486793 -0.22217134 0.09588306
0.037576564 -0.13551094 0.1822892
-0.11211511 -0.20751432 0.12303329
0.24835685 0.14374158 0.015958132
-0.031221895 -0.30842024 -0.02619465
-0.26557893 0.066255465 -0.14880681
-0.25981182 0.12776151 -0.1843976
-0.10682612 -0.260343 0.052033428
-0.14053978 -0.2404306 0.08235203
0.17564784 0.11368462 0.12274561
-0.23184529 0.17632274 -0.20703655
0.17151047 -0.1297597 0.12520374
-0.0026583965 -0.22654447 0.067447364
-0.19868074 0.007115085 -0.0724367
0.21905506 0.0028161996 0.0651704
0.12247361 0.18269962 0.041979272
0.2842044 0.09928772 -0.08607451
-0.22685747 -0.030213958 -0.06028759
0.16448292 -0.040679406 0.13985236
-0.04722785 -0.10987167 0.11388384
0.18688253 -0.04980356 0.107765004
0.11082418 0.046251114 0.12171666
0.16412294 0.20927162 0.0053840163
0.07427381 0.055750273 0.09059196
0.07476823 -0.11526128 0.18849313
0.15360615 0.21816765 -0.080460675
0.07813032 -0.2563716 0.0053778887
0.0688454 0.007059597 0.11817501
0.13361305 0.23130135 -0.1185374
0.11479693 -0.16728914 0.11432251
-0.115381904 -0.28228143 -0.13814616
0.12426474 -0.16673005 0.113425024
0.036082044 -0.28639433 -0.0064614993
0.013104292 0.1324448 -0.1068761
-0.09879353 0.19810817 -0.11939313
-0.072691076 0.20850927 -0.10821092
-0.055351634 -0.15996608 0.14052604
0.025227284 -0.14244847 0.17805938
-0.14493594 0.021543084 -0.1288798
-0.06250913 0.22691594 -0.11307349
-0.16418974 0.1366186 -0.12463244
0.116362795 0.021701043 0.14129157
-0.16062368 -0.058334645 -0.06741618
0.09765466 0.25898126 -0.16813172
0.028899904 -0.091300316 0.1540595
0.20251568 0.0023976667 0.08848396
0.07822366 0.1509778 0.032081623
0.10693393 0.14220878 0.05737001
0.19085029 0.14014448 0.09833526
0.06394765 -0.27929208 -0.019814925
0.12727225 -0.07386457 0.19059029
0.038896497 0.23549868 -0.049174152
0.2203494 -0.0749484 0.059210528
-0.22522366 0.1758299 -0.1981836
0.16495532 -0.018026277 0.14039095
0.0141575085 0.30690208 -0.12317384
-0.19997135 0.018581094 -0.079720885
-0.24652305 -0.03154138 -0.07289565
0.071682975 -0.04916166 0.15625931
0.15274356 0.21544082 -0.025450815
-0.21692783 0.096895166 -0.13519937
0.09784292 0.12889215 0.059707906
0.2658176 0.109377824 -0.006908701
0.07005181 -0.27491918 -0.019849984
0.15028562 0.22285338 0.03520518
0.14470117 0.07137928 0.12875567
0.037439585 0.28262624 -0.08172049
-0.19936074 0.04735741 -0.09341038
-0.28998813 0.005256351 -0.1263025
0.21507002 -0.022182938 0.06946337
0.07018863 -0.09104782 0.17909114
-0.1163918 -0.07813106 -0.11685234
0.23266214 0.15651457 0.042375192
-0.25551736 0.08229415 -0.15222876
-0.1386532 0.071295634 -0.14186625
0.026820416 -0.077097654 0.1435064
0.16486412 0.05827394 0.1445771
0.21465471 0.06734509 0.07481031
-0.13148157 -0.06144921 -0.18199597
-0.016440641 -0.16690075 0.15326886
0.17071514 -0.08802558 0.12854253
-0.1633903 -0.012421141 -0.110433705
-0.10738432 0.14863583 -0.11185949
-0.16218083 -0.077333644 0.01144985
0.015772622 0.2904029 -0.10506629
0.14294091 -0.03689654 0.17044859
-0.06762532 -0.20666316 0.11506814
0.12572153 0.22099021 0.019588286
-0.12558627 -0.27207905 -0.12397009
0.13260885 -0.18172719 0.09188717
0.09642273 0.21615782 0.0026383647
0.16617985 -0.095663324 0.1345362
-0.14551987 -0.08321452 -0.10450203
-0.05989543 0.18931943 -0.08711521
0.17688473 0.06623846 0.1280402
-0.13036828 0.15130988 -0.11092425
0.18063955 -0.18311124 0.08375152
0.2508523 0.03290548 0.021908358
0.18993388 -0.18866801 0.07398298
-0.07992525 0.09859503 -0.14887814
0.22074504 0.1614314 0.05944892
-0.10243928 -0.21323305 0.1134431
0.2498274 0.054858807 0.019573886
0.06402487 -0.27172247 -0.013819806
-0.21553573 0.10946172 -0.14232479
0.113453984 -0.05156578 0.18536331
-0.0333286 0.11912395 -0.18283913
-0.00970666 -0.2440696 0.056234147
0.11812671 -0.07905174 0.1921208
-0.037707664 0.15827419 -0.080399014
0.120327026 -0.20175382 0.06985387
-0.20290673 0.095546365 -0.12473323
0.2007081 0.069110386 0.09458177
-0.28400227 0.04215687 -0.14592692
0.19696704 -0.11122321 0.09027343
0.26284993 0.13029848 -0.012952941
0.071600266 0.020461228 0.111446135
0.016306603 -0.19220576 0.110218495
-0.14022136 0.16733067 -0.12796864
0.16671239 0.17574356 0.07117188
-0.035493642 -0.265355 0.034050893
-0.07041452 -0.3101466 -0.043412793
-0.26054567 0.010096422 -0.109260544
0.23229365 -0.045438707 0.043926723
0.17659792 0.19504096 -0.027071502
0.03893334 -0.055117622 0.13766828
0.049749188 0.28640604 -0.078332454
-0.1945136 -0.16333869 0.047430605
0.20937549 0.08649359 0.08327694
-0.22745751 -0.0031136055 -0.07811769
0.09739475 0.1600137 0.039394226
0.07924814 -5.341344e-05 0.1298691
0.17005222 0.20495199 -0.08684076
0.08823652 0.24254039 -0.019925835
0.112267755 -0.16194315 0.121670835
0.123263635 0.03918141 0.13477796
-0.18507364 0.22571781 -0.19634186
0.11360701 0.10006159 0.08903309
-0.08199516 -0.26900774 0.041915957
-0.04630829 -0.21416442 0.10095521
0.22567315 0.0515285 0.05842457
0.08013923 -0.12265721 0.17787749
-0.1501214 0.15584743 -0.12736244
0.16159654 -0.08435905 0.1416044
-0.22495835 0.07576811 -0.12711327
-0.040857513 0.21912362 -0.09324353
-0.14771348 -0.12317537 0.053650405
0.27280706 0.02351159 -0.011804935
-0.26894155 0.1034191 -0.17499837
-0.008590751 -0.078441374 0.12012921
-0.07146524 -0.31099263 -0.062311437
0.02870127 0.16232017 -0.09925855
-0.18979137 -0.004390268 -0.10275974
0.06415499 0.24557728 -0.03836179
-0.2426919 0.08324356 -0.14405982
-0.005434154 -0.16630475 0.15188484
0.119209096 0.23790868 -0.19368045
0.24105996 0.06544693 0.03198543
-0.17172779 -0.07527972 0.0064215525
-0.23802473 -0.102848195 -0.021239169
-0.17781074 0.09199574 -0.10854609
0.11511813 -0.0550201 0.18656142
0.12521462 -0.13495086 0.15431127
0.17767215 0.02395213 0.12468198
0.030480845 0.22154512 -0.045965996
-0.08504378 -0.2505421 0.06811929
0.13223992 -0.21733765 0.046787564
-0.12333966 -0.18386184 0.10934587
-0.17242128 -0.21506816 0.062632665
-0.20568712 0.00057910394 -0.0665386
-0.19520302 -0.037507914 -0.038437773
0.1719474 -0.15928848 0.11947094
0.15242147 0.0440367 0.15161669
0.111081764 0.17880312 0.036686856
-0.019860854 -0.26414198 0.032959957
0.26230437 0.119656526 -0.0014073079
0.08351264 -0.25820774 0.0016434676
0.1448933 0.13434315 0.08841125
-0.25797078 -0.1477967 -0.16459934
0.11805493 0.17131509 0.0462737
0.105765015 -0.06483534 0.18465503
0.21219319 0.17770277 0.068742685
0.07024452 -0.17238173 0.124241255
-0.028237598 0.29050186 -0.13048886
-0.013373675 0.19247979 -0.06228876
-0.032331765 0.25324067 -0.10933829
0.15997866 -0.23266494 0.014661327
-0.13342577 0.25044516 -0.17674503
-0.19144392 0.05188063 -0.09780577
0.16013758 0.09331796 0.12521961
-0.11318852 0.07383292 -0.14206436
-0.17338297 -0.17237906 0.067708425
-0.21287192 0.13451399 -0.1566057
-0.025854923 -0.16747469 0.15435895
0.07694715 0.27760544 -0.08453344
0.11089721 -0.026698122 0.16866267
-0.256412 0.029159084 -0.1186838
-0.28706113 -0.10596519 -0.05280252
-0.1117045 0.017423207 -0.1763324
0.2420717 -0.12990351 0.02563767
0.09258668 0.12114755 0.061089076
-0.13775149 -0.0905438 -0.099527866
0.19533923 0.08924199 0.10322654
-0.06324055 -0.28099045 0.02105364
0.14320198 -0.06669049 0.16849555
-0.10463545 -0.28966722 -0.12418678
0.09726533 -0.1238764 0.17348748
0.03295576 0.14408493 -0.022671537
0.013385705 -0.05885174 0.12258119
0.06971636 -0.026717592 0.14048441
0.14449237 0.21017715 0.039388414
-0.07197342 0.07868873 -0.1914522
-0.17880462 0.22210768 -0.18959336
-0.15680102 -0.13474716 0.05486777
0.031569596 -0.13864104 0.18054402
-0.22781937 -0.12753664 0.0016176719
0.06462628 0.17691441 0.0060993787
0.0026658007 -0.15968366 0.15975332
-0.15761505 0.19913903 -0.1603227
-0.14000145 0.014206543 -0.17118715
-0.07330963 -0.14830944 0.12073925
-0.23536451 -0.004120595 -0.08288254
0.0076476336 -0.28834027 -0.0026971304
0.052399453 0.15894121 -0.014288515
-0.16087227 0.22271785 -0.17770964
0.18476167 0.19164412 -0.11581071
0.14349028 0.22157194 0.031377625
0.077730715 0.086588256 0.0731335
0.06731301 0.11354776 0.013398051
0.22432035 -0.1629132 0.04892982
0.020984821 -0.17062595 0.14029337
-0.23504978 0.039966933 -0.11100933
-0.15442868 0.039252616 -0.13251425
0.24999951 -0.012480884 0.020697784
-0.06914172 0.15077795 -0.098824255
0.092333786 0.18380845 0.020633921
-0.2777787 -0.018349713 -0.10277147
0.10273636 0.072363466 0.09939589
-0.26342925 -0.0843539 -0.050518706
-0.19535208 -0.111806765 0.01373099
0.12033522 0.24008161 -0.23004225
-0.17926303 -0.0012320989 -0.06747109
0.013355283 0.16202918 -0.04206012
-0.2897532 -0.058972545 -0.084855266
0.25930285 0.026696395 0.009655064
0.02030684 0.27081415 -0.08460205
0.12615854 -0.11142387 0.1901632
-0.12201118 -0.27349526 -0.11037096
0.22609384 -0.131013 0.048122827
-0.024276761 -0.101515405 0.124225415
0.035705723 -0.2998245 -0.021829275
0.10385173 -0.21982165 0.05132823
-0.08528547 0.056755032 -0.18306378
0.0650703 -0.109324716 0.19040775
0.17063387 0.10876333 0.12247622
-0.23237662 0.15546256 -0.1872552
-0.21721213 -0.13353229 0.012732615
-0.05897675 -0.27090988 0.03679112
0.23053361 -0.13665046 0.041560363
0.04527897 0.3065719 -0.106501795
-0.1293629 0.23757753 -0.16569293
-0.17446807 0.06513082 -0.1064446
-0.06670561 -0.26197115 0.049330596
-0.028367175 0.055167764 -0.22192585
-0.26795223 0.024949355 -0.123878434
-0.20471531 -0.01064673 -0.058277443
-0.14691867 0.060554013 -0.13856818
-0.16190916 0.1692799 -0.14406683
-0.09038539 -0.29622254 -0.049430024
-0.064133875 0.009599854 -0.22687629
-0.1129588 -0.16853456 0.106599614
0.046494253 0.077951826 -0.20092027
0.18549071 -0.11796373 0.10610477
0.013604043 -0.24885033 0.03865994
0.2212885 -0.029482849 0.060301565
0.14790118 -0.028187096 0.16391072
-0.28036106 -0.12856701 -0.04446201
-0.1456113 -0.0024096393 -0.11556947
-0.023473557 -0.07202492 0.04807017
0.011893093 -0.25922117 0.031587895
0.15229157 -0.07025801 0.15548174
0.0668458 0.0070011187 0.116845265
0.13124937 0.05264926 0.1315868
0.08977375 0.26446974 -0.13562319
-0.25193965 -0.0044533163 -0.09401606
-0.12185814 -0.26994014 -0.078682676
-0.14188398 0.21188691 -0.15774803
-0.14654522 -0.24308105 -0.15048377
0.10746606 0.15575925 0.04902532
-0.20763382 -0.1563434 0.033953376
0.10428955 -0.20745756 0.06859223
-0.011518018 0.16154802 -0.11771177
-0.067657165 0.12445332 -0.1440511
0.22556214 -0.099547945 0.050548304
0.16406015 -0.0633326 0.1392466
-0.10975763 -0.13848487 0.08947346
0.21732041 0.05772646 0.07053845
0.048527267 -0.072625585 0.15549202
0.032478105 0.19876742 -0.029954584
-0.109249055 0.24740453 -0.15823859
-0.012781571 -0.09735521 0.12941915
0.12447359 0.23791812 -0.12635423
0.020722946 -0.17670287 0.13160832
-0.15808237 -0.14068341 0.05780662
0.15027207 0.119924374 0.101362415
0.051889632 0.0034652147 0.05586506
0.2854167 0.08738684 -0.03572843
0.040179916 -0.2904901 -0.0125044715
0.17090188 -0.13776137 0.12563337
0.17448771 0.16044596 0.08415972
0.14770167 0.07827231 0.12637796
-0.1311238 -0.08501342 -0.16224757
-0.04492632 0.26486203 -0.12542948
-0.20197749 0.034259975 -0.08864865
0.15558012 -0.055705525 0.1516167
0.016687226 -0.30073604 -0.020216087
0.16189155 -0.031049028 0.1440226
0.16719185 0.08376107 0.13619207
-0.103174716 0.114134274 -0.15267977
-0.053470623 0.22631346 -0.106498525
0.21095459 0.15000898 0.07387905
0.2699426 0.03310523 -0.007790119
-0.13680762 -0.16370878 0.08717258
-0.15621501 0.048637327 -0.13727143
-0.11637395 0.26041567 -0.1714814
0.21524934 -0.03264954 0.06865505
-0.09339402 0.22815959 -0.1350158
0.23094216 0.11296181 0.046275023
-0.21658176 0.114064954 -0.14599949
-0.100813486 0.124591336 -0.15231568
-0.034781646 0.058762606 -0.22862701
0.1868591 0.020353084 0.11152928
0.06390302 0.04078153 0.093114704
-0.22939612 -0.109706685 -0.010924034
0.15570608 0.21132044 -0.1619426
-0.053111553 -0.15187205 0.1368572
0.07401449 -0.25883245 0.0026785876
-0.14807837 -0.06086991 -0.12805785
0.10570885 0.12195307 0.06955275
0.03073178 -0.025341963 0.11291341
-0.24006552 -0.103642195 -0.02212617
-0.16581264 -0.073870465 -0.030538198
-0.08276184 -0.17484176 0.13132322
0.12870434 0.23467703 -0.2622589
-0.14612553 0.19267073 -0.14830042
0.22662714 -0.16240494 0.04570386
0.17886233 -0.039299227 0.119638816
