# .PCD v0.7 - Point Cloud Data file format
VERSION 0.7
FIELDS x y z
SIZE 4 4 4
TYPE F F F
COUNT 1 1 1
WIDTH 1000
HEIGHT 1
VIEWPOINT 0 0 0 1 0 0 0
POINTS 1000
DATA ascii
0.01342306 0.2541284 0.13047053
-0.033195287 -0.2526645 -0.25980645
-0.06035592 -0.05608694 -0.03643277
0.0017896574 0.008887122 0.18111989
0.043497242 0.2643613 0.12565367
0.043836772 -0.040429723 0.006889928
0.09283695 0.13207981 0.117277965
0.08790874 0.22498108 0.15224011
-0.10342312 -0.27096063 -0.35853976
-0.0073165316 -0.33770597 -0.37227228
0.055117045 -0.22100845 -0.4407918
-0.007178823 0.23834854 0.10833283
-0.022088423 -0.29353213 -0.3099964
0.05201635 0.29319993 0.10306601
0.0017429988 0.02228042 0.19848529
-0.097929664 0.17122206 0.20725626
0.054845255 -0.021053499 0.13232617
-0.111000165 -0.23054637 -0.3547261
0.05747678 -0.2324664 -0.29632124
0.013012535 -0.023296215 0.043536063
-0.0721272 -0.0030738572 0.12516509
-0.087341554 0.01717784 -0.03620367
0.055858027 -0.12257762 -0.12616733
-0.10513151 0.10685939 0.20312792
0.058586303 -0.07630793 -0.062346935
0.06257574 0.019937307 0.18401992
0.086078726 0.06505077 0.2288545
-0.019501096 0.085901625 0.25688997
0.0368355 -0.31754607 -0.38277563
-0.10403705 -0.15131989 -0.318137
-0.1047304 -0.22956826 -0.32037935
0.11443052 0.07027142 0.20371728
0.065077975 0.033409785 0.20103519
0.0405091 0.21958545 0.0873089
-0.09246488 -0.18439947 -0.23921211
0.13261051 0.12499205 0.21768536
-0.11397212 -0.22786254 -0.3898876
-0.02189039 0.26105058 0.1331412
-0.06867607 0.2487922 0.14602001
-0.062891945 0.12776326 0.23765753
-0.101204306 0.21832168 0.17167503
0.050655194 -0.1481187 -0.15546146
0.0046006837 -0.23094402 -0.23215549
-0.050825704 -0.025771257 0.00994517
-0.108978376 0.0876675 0.17318775
-0.013874694 -0.2525373 -0.25683942
-0.07294979 0.21719171 0.17038843
0.0028303238 -0.15213886 -0.12627153
0.10010832 0.22971523 0.14771122
0.058399156 -0.1098851 -0.111497305
-0.10522401 0.16350666 0.21135597
-0.018231396 -0.30405995 -0.32472762
0.08365102 0.14204696 0.21565673
0.1180141 0.10412785 0.22870563
-0.019217275 -0.030035065 0.1269382
0.04421327 0.13133311 0.22680433
0.0018601287 -0.011242382 0.15502183
0.04644778 -0.22719234 -0.26510087
0.13980572 0.08158939 0.16976696
0.028258277 0.179404 0.07051578
-0.028890632 -0.34438163 -0.40186974
-0.00795247 0.2479811 0.12086466
0.013820154 -0.21222073 -0.20966083
-0.012126525 -0.19508497 -0.18111564
0.05714709 -0.19479915 -0.23614539
0.12545894 0.033863284 0.12969334
-0.12520884 0.13954304 0.17974548
-0.07367348 -0.048173472 -0.050695464
-0.04048676 0.06867751 0.24174511
0.061102252 -0.06379649 -0.048031043
-0.09748548 -0.100388035 -0.1813457
0.042624857 -0.22117239 -0.25024927
0.07555963 0.098404504 0.24947408
0.14428559 0.1931279 0.17218971
-0.050317902 -0.20254044 -0.2064035
-0.0027600073 0.1300556 0.23134625
0.11859821 0.035174374 0.14406991
-0.061491944 -0.021055434 0.003174336
0.019769669 0.15156694 0.07412021
0.0016730756 0.04238007 0.2245426
0.14036845 0.04604543 0.110595666
0.120029174 0.22919975 0.14659016
-0.06551183 0.051315535 0.19784564
-0.050655764 -0.25855777 -0.2761326
-0.07714085 0.21996163 0.16859773
-0.104849964 -0.1400055 -0.28655326
0.1189924 0.16995534 0.19174063
0.11837548 0.15897718 0.20013955
-0.08184255 -0.2954388 -0.34862006
0.127011 0.10698204 0.22310054
0.06639457 0.003356517 0.042616177
-0.04472456 -0.20029579 -0.1994683
-0.0082944995 -0.01602707 0.05163256
-0.048973188 0.0966857 0.25035727
-0.042781122 0.19685657 0.10040933
0.14462453 0.16691448 0.19210714
-0.043121368 0.15070103 0.10071104
-0.06945942 0.20031714 0.18296024
0.047873236 -0.19517519 -0.22030684
-0.08608605 -0.18820257 -0.23121065
0.028909786 0.055927992 0.24344239
0.07886197 -0.13132587 -0.21466959
0.01409396 -0.2729006 -0.29364353
-0.093501076 0.23189366 0.16076477
-0.06825279 0.27311757 0.12748177
-0.0087420875 0.0028280946 0.17143226
0.13712999 0.040975545 0.11311597
0.1405683 0.03451409 0.09037253
-0.100578 -0.20968959 -0.4362616
0.02561454 -0.30047563 -0.34299135
-0.029350335 -0.12982205 -0.10205218
0.030535128 0.011523688 0.18469046
0.05938281 0.26139033 0.12670709
0.120706126 0.009465452 0.10204102
-0.009798512 -0.23877229 -0.23931257
0.022713976 0.048536915 0.23389693
-0.016802292 -0.17373714 -0.15369403
0.013528597 -0.14446682 -0.118457004
-0.054616824 0.034475528 0.18798429
-0.007445999 -0.29638872 -0.31675175
-0.048617743 0.123070836 0.12890339
0.046822432 -0.27935553 -0.34309825
0.05588588 -0.034251858 0.0035601908
0.023669397 -0.022474661 0.042415127
-0.011466126 -0.114480354 -0.07592691
0.014186826 -0.29307598 -0.32185555
0.072819985 0.13794707 0.21959968
0.0060730567 -0.18431368 -0.16997814
0.1280829 0.13386677 0.21850659
0.06565069 -0.21617478 -0.3995706
0.044155 -0.009728045 0.15280361
-0.07220199 0.16878901 0.20715308
-0.0046512806 0.26358956 0.12990007
0.09845724 -0.0034577772 0.11799944
-0.0666367 0.008611336 0.14486799
-0.08516994 0.21537167 0.17269938
0.067731395 -0.14928998 -0.19271952
-0.05258637 0.1202741 0.14055724
0.09715536 0.024247285 0.15949945
-0.003758354 -0.17675938 -0.15775815
-0.050966658 0.003284685 0.15254511
-0.13680768 0.12124602 0.043986335
-0.061433088 -0.26987678 -0.29817373
-0.029574899 -0.005812626 0.055524193
0.002534878 -0.0707664 -0.018434301
-0.093242116 0.10555462 0.22664629
-0.099385 -0.24996367 -0.32580164
0.04710842 0.123149954 0.09647915
0.018365726 0.17403524 0.07120844
-0.12458412 0.11953766 0.16348019
-0.12529705 0.08601827 0.12735042
0.058052357 0.039007127 0.21294782
-0.0829258 -0.07846305 -0.10152196
-0.0877144 -0.02326507 -0.171251
0.096904196 0.15161854 0.2073682
-0.074842505 -0.10361659 -0.115411304
-0.07021809 -0.1517658 -0.16261531
-0.012377875 0.20351283 0.07092608
-0.027488928 0.206869 0.071561925
-0.13055083 0.1625201 0.0697166
-0.025518594 0.13745186 0.09538503
-0.008899962 0.056419596 0.24091718
-0.08227342 0.06076246 0.19073828
-0.10971898 0.154592 0.21041505
-0.03767958 0.20017968 0.090757996
-0.09524109 -0.04429966 -0.1372328
0.01963485 -0.17691457 -0.16431586
-0.09327803 0.069620416 0.18655726
-0.01529105 0.21318983 0.07485181
0.075689204 0.069933996 0.24486007
0.0668784 -0.054149147 -0.042549185
-0.08886053 0.14224143 0.22861633
0.047415253 -0.060530122 -0.025040321
0.12889087 0.07906902 0.19135503
0.13074552 0.2306413 0.14467855
-0.019344691 0.024094272 0.19607744
0.09059955 0.23130442 0.1472249
0.06131705 -0.18725725 -0.23491432
-0.0997253 -0.096975304 -0.2367882
-0.018125953 -0.3454447 -0.38001388
0.059936237 0.13968787 0.09200506
-0.03977101 -0.34513953 -0.38068065
-0.08268206 0.07110806 0.20259872
-0.054067384 -0.14955273 -0.14359637
0.11805923 0.18335308 0.18161832
-0.018685745 -0.11764341 -0.08201205
-0.07213698 0.17554022 0.2020113
-0.05081571 -0.03980777 -0.007087052
0.017335538 -0.22395577 -0.2279187
-0.07963436 0.2694293 0.12544179
-0.019423792 0.057752095 0.2390689
0.14448707 0.16874194 0.19072719
-0.0722169 -0.20900114 -0.23400572
-0.014037519 0.16769546 0.07817606
-0.05061256 -0.31515667 -0.34742725
0.079581976 -0.052642416 -0.072147034
0.08055683 0.19679514 0.10948285
0.06847824 -0.075529225 -0.25224817
-0.06148738 -0.04269725 -0.021576399
0.0037420667 0.2657653 0.12760712
0.06486178 -0.2193605 -0.2986863
0.09251786 0.12503621 0.22792651
0.002220436 -0.19781394 -0.18713856
-0.11670602 0.19063938 0.05325981
-0.07790391 0.17154351 0.20549212
-0.040453162 0.041323163 0.20806259
-0.08288283 0.04180316 0.006337648
-0.07118213 0.0362781 -0.12452106
-0.13697824 0.09617739 0.08287874
-0.0509927 0.11957473 0.24298348
0.07467428 -0.13367395 -0.18968716
-0.08743498 -0.101208486 -0.29984617
0.11264795 0.14874268 0.2083601
-0.031136787 0.07978128 0.2547429
0.06957751 0.09006594 0.25108314
-0.055433873 -0.19436906 -0.19938241
0.06856298 -0.21837768 -0.3177394
0.025252692 -0.32979214 -0.38456222
0.0033254607 0.021379746 0.19759054
0.096695065 0.0955774 0.24038745
0.12647714 0.22732265 0.14752854
-0.051001877 0.051442947 0.21186575
0.021332765 -0.13071309 -0.102293596
-0.12412842 0.1083578 0.15351832
-0.075558476 -0.024739752 -0.02824316
0.0723063 -0.16894037 -0.2441547
-0.0069284663 0.11636532 0.24207687
-0.0937358 -0.09474338 -0.15359318
0.118449904 0.14684436 0.20936479
-0.07700968 -0.0015533936 -0.0068469243
0.1013691 0.16133288 0.1291726
-0.049932156 0.18175589 0.09714975
-0.044125192 0.082629085 0.25113207
0.0652178 -0.26382795 -0.44163868
-0.087424606 -0.0016123293 -0.13274749
0.014311538 -0.3200797 -0.35961953
0.107850574 0.028965944 0.1529249
0.12768528 0.04597031 0.14320245
-0.029094443 0.19406377 0.07839523
-0.017838024 -0.26628426 -0.27437028
-0.07898909 0.037305474 0.16668896
-0.05669708 0.04640014 0.20073128
-0.09330817 0.041139323 0.1540051
0.09380177 0.2817682 0.09542882
0.13953957 0.099872865 0.19874689
0.11285907 0.16073073 0.19922417
-0.08949105 0.17846078 0.20110922
0.100443326 0.20531115 0.16625275
0.13644202 0.093954474 0.19689654
0.14560015 0.21494977 0.15548795
-0.037469283 0.14214498 0.10178851
0.07810896 -0.14090583 -0.2736904
0.0344077 -0.034479138 0.02255657
0.08228655 -0.104827404 -0.21549655
0.019596327 0.26275575 0.12869175
-0.08994854 -0.29072824 -0.3535822
-0.05071394 -0.18085817 -0.17929572
0.034521002 -0.054311182 -0.0048396927
-0.10462554 -0.17641278 -0.27644643
-0.13431543 0.15102634 0.10542035
0.0114900395 -0.12479558 -0.091622494
-0.007828849 -0.17311384 -0.15241982
-0.033179343 0.056987803 0.23309234
0.109044574 0.07780145 0.2217193
0.00018115138 0.30051666 0.09228968
-0.01926535 -0.009795944 0.15278988
0.0031572748 -0.24064146 -0.2447803
0.15873568 0.07831472 0.057068385
0.10286634 0.107448295 0.23779894
0.118749656 0.022708768 0.1252235
0.07216989 0.10199191 0.24700323
0.14778075 0.058698226 0.104174964
0.14007334 0.06344268 0.14099236
-0.049380764 -0.17489384 -0.1714173
0.0999576 0.17033069 0.17717996
0.056732997 -0.14341854 -0.15813555
0.16659579 0.15890639 0.13839854
-0.08226684 -0.087873206 -0.11171067
0.16565856 0.15946671 0.11741254
-0.09377047 -0.14176318 -0.19931516
0.16555694 0.1564886 0.17454308
0.05638146 -0.0983468 -0.091308795
0.09687626 0.14015348 0.13771595
0.08678116 -0.012035888 0.11965125
0.080255866 -0.07431873 -0.10995769
0.0776454 -0.15338497 -0.26426196
-0.02209819 -0.23380677 -0.23249911
-0.038474143 0.1341234 0.23096575
-0.04495273 0.10585387 0.25211942
-0.022080218 -0.18794614 -0.17342272
0.10368129 0.053454626 0.19338039
-0.029160533 -0.2341886 -0.2348998
-0.12842253 0.16589291 0.1883105
0.048813287 0.12426412 0.23183206
0.083817564 0.22678728 0.14917132
-0.11931149 0.19573765 0.18051061
-0.09360102 -0.057306487 -0.13021332
-0.09387471 -0.2552678 -0.320702
0.023701837 -0.029157737 0.033468187
-0.05569962 0.14087547 0.15332314
0.06483932 0.07521267 0.25073576
-0.016790591 -0.21953072 -0.21272774
0.15605028 0.09647859 0.12870684
0.07961455 -0.1054847 -0.24078041
0.12008844 0.12927927 0.22260417
-0.10123735 -0.14391978 -0.23321982
0.075697504 0.20009482 0.09958333
0.04511113 -0.031556394 0.018222667
-0.05184983 -0.31228122 -0.3444255
0.11416193 0.22083631 0.15340039
0.005647224 -0.23871197 -0.24289295
0.08895142 0.055884082 0.21325241
-0.07821868 0.04963606 -0.08269716
0.059843756 0.28559858 0.10825545
0.044036064 0.010080602 0.17936864
-0.053675886 0.11071517 0.24915354
-0.0938664 -0.022194814 -0.12046823
0.16412276 0.20342475 0.13309363
-0.014265668 -0.059230324 -0.0056689843
0.045521148 0.17702852 0.0737978
-0.01840504 -0.23521052 -0.23335142
-0.08229242 0.25840864 0.13973923
-0.018488249 -0.20053245 -0.18866333
-0.033117823 -0.20666385 -0.20119536
0.08223033 0.27613035 0.113757424
0.09884962 0.2479437 0.1339393
-0.02267194 0.06017014 0.24097669
-0.08283574 0.23323499 0.1589335
-0.061458874 -0.16306978 -0.16743192
0.076195434 -0.09913423 -0.13728805
-0.13144976 0.102664 0.11986146
0.065495536 -0.27610192 -0.430734
-0.020408731 -0.078115165 -0.03217238
0.034673307 -0.08064404 -0.041640002
0.040801316 0.12702565 0.0891049
-0.092510216 -0.110376246 -0.3002836
-0.018054567 -0.3448983 -0.40106088
-0.015371763 -0.22774321 -0.22387168
0.0027050755 -0.11836645 -0.08090072
-0.13130482 0.06953253 0.091715224
-0.061546504 0.034464955 0.1813715
-0.1250263 0.15247202 0.19179782
0.021278936 0.2734254 0.12044611
-0.07548206 0.013559034 0.14199091
-0.090763584 0.25109133 0.14594992
-0.09044882 -0.0011419399 -0.107733734
-0.08973515 0.19054465 0.19193555
-0.05405012 0.025579529 0.17748742
-0.01183286 0.14560026 0.082561545
-0.061498865 0.015962178 0.043107588
-0.083070986 -0.30559582 -0.36224243
-0.022821581 0.2991439 0.08726403
0.04498454 -0.011897123 0.045843456
0.01868893 0.22987257 0.09915336
0.10096106 0.04117505 0.17910789
-0.015613313 0.19006614 0.07477721
-0.03645698 -0.2857097 -0.30323496
-0.032895654 -0.26272184 -0.27266243
-0.103842705 0.12179495 0.22226313
-0.072171986 0.0016541524 0.0077855056
0.16717722 0.1928343 0.14845063
-0.06311895 -0.144452 -0.14649704
0.043800183 0.049640123 0.23241884
-0.13231441 0.17205045 0.1201907
0.06661118 -0.022064948 0.004647535
0.13817516 0.23451255 0.14116871
-0.029586649 0.001182151 0.064003706
-0.050845638 0.0023319775 0.044048045
0.0952597 0.16142456 0.17666818
-0.00061465456 0.07026013 0.25669545
0.16770956 0.17033055 0.14986385
0.096643955 0.07506868 0.23305288
0.035703015 -0.252219 -0.285717
0.090072945 -0.008251235 0.121579625
0.13160306 0.2555802 0.1093043
0.0060881265 0.11312366 0.24355438
-0.09196821 -0.012627888 -0.094725646
0.120550334 0.25897136 0.12390198
0.06551096 -0.2280578 -0.4102152
0.09754191 -0.013949555 0.104041286
-0.072239086 -0.30229667 -0.3473009
0.066403344 -0.18411756 -0.24518377
0.06717795 0.2538563 0.13184649
0.047486305 -0.26458672 -0.3215784
-0.014897953 0.11179432 0.2461613
-0.09257815 -0.011491279 -0.11331464
-0.0073600807 -0.32391027 -0.353715
-0.11334112 0.18005423 0.19771957
0.1396966 0.03189951 0.08922419
-0.0033748625 0.29946208 0.09886114
0.09098274 0.27129853 0.116768174
-0.1021971 -0.11959431 -0.2316902
-0.12543753 0.20292167 0.11649554
-0.008919625 0.063129306 0.24961697
-0.08793799 0.2620247 0.13134496
-0.061473988 -0.099243686 -0.089955665
-0.027205102 0.07058898 0.25264642
-0.0062340265 -0.10056495 -0.0566835
0.057827007 -0.17798518 -0.21139961
-0.08116412 0.01818497 -0.12526982
-0.09663355 0.06918098 0.17932029
-0.039907813 -0.23955265 -0.24628872
-0.06142423 -0.30549878 -0.34234935
-0.0067061074 0.1368612 0.08268877
-0.06154156 0.013738226 0.15620989
0.1009994 0.15656346 0.20329532
-0.04610107 0.15366536 0.21667726
-0.13378859 0.14197585 0.057247255
0.022671359 -0.3138687 -0.35869756
-0.006166299 0.1129593 0.10304616
-0.040058207 -0.120371595 -0.096872166
0.035420343 -0.20591027 -0.21911988
-0.072105855 0.08702805 0.23435752
0.004065226 0.29002953 0.109123364
0.15069067 0.1555551 0.19359401
0.0022601692 -0.11232855 -0.072962455
-0.091497734 0.25515682 0.09092378
-0.05085068 0.009331461 0.05254168
-0.09572577 0.057753064 0.1684184
-0.0944016 -0.13716443 -0.19649701
0.06571103 -0.105630994 -0.117472835
-0.061548125 0.041416205 0.18980788
0.0141149545 0.073685564 0.25787377
0.15100977 0.061053075 0.09095376
0.05479282 -0.30682555 -0.40976587
-0.07333375 0.24142255 0.15198097
-0.016488532 -0.1814352 -0.16352482
0.0047945655 0.1549818 0.07494466
-0.108037874 -0.20913698 -0.3199714
0.057093002 -0.18846466 -0.22603843
0.062758856 -0.2321635 -0.31275702
0.06682536 -0.047726285 -0.033120118
0.046366043 -0.30024707 -0.37483156
-0.117420994 0.060349524 0.123335764
-0.13160017 0.13566877 0.14786887
0.08657967 -0.011357805 -0.1283375
0.017632158 -0.14403562 -0.119041584
0.03481625 0.2535635 0.13130254
0.03448351 -0.047712203 0.004274318
-0.03562238 0.21198538 0.103697285
0.06733118 -0.104633264 -0.120007195
0.15297286 0.115174614 0.18009019
-0.028534137 0.13249727 0.23144698
0.072555795 0.1259269 0.22876379
-0.06147844 0.26570255 0.1326084
0.025033707 -0.2898129 -0.32702997
-0.05633045 0.25609758 0.13952503
0.07059355 -0.21536179 -0.32846943
-0.096804574 -0.07777719 -0.16314502
0.13971709 0.08768859 0.17943358
-0.05516236 -0.036764376 -0.007757784
0.04621638 -0.19459736 -0.2168662
-0.09373913 -0.028660716 -0.11716139
-0.073499575 -0.18415898 -0.20540527
0.13778113 0.019915963 0.07616658
0.057764433 -0.2634791 -0.3476987
-0.103951894 0.042157352 0.1345097
-0.080264084 -0.111749224 -0.1347034
-0.06915947 -0.028533109 -0.020677209
-0.028979188 -0.33208504 -0.36094812
0.044855937 -0.27774793 -0.33686095
0.13204922 0.07001304 0.1701607
0.0028220764 0.2739189 0.12147297
0.039449453 0.13970771 0.08181873
-0.12277966 0.16236599 0.1968173
-0.061429534 -0.28408933 -0.31579864
-0.02803755 0.2838552 0.11625929
-0.05100686 0.058333717 0.22035275
0.06586844 0.032458693 0.19925196
0.026614621 -0.07198214 -0.02488015
-0.001019125 -0.291997 -0.3126218
-0.03892777 0.11004585 0.24931629
0.15466096 0.1059348 0.15481916
-0.12467247 0.18718132 0.18112685
-0.07068019 -0.31352678 -0.35937133
0.080370486 0.11854813 0.23378538
0.07573469 0.029470703 0.18845758
0.0675109 -0.12314423 -0.15002912
-0.01838841 -0.24216765 -0.24231978
0.09448464 0.022741394 -0.013679209
-0.12780677 0.19304278 0.11161466
-0.072227105 -0.25197104 -0.2861861
0.067449674 -0.11704151 -0.14003475
-0.03689486 0.1132296 0.24673943
-0.10192476 0.16986771 0.20859094
-0.09282827 -0.043665964 -0.1809819
0.07539313 0.11054526 0.24025024
0.085790396 0.14839758 0.10139776
0.024853297 -0.25651383 -0.27935266
0.04677185 -0.27298242 -0.3329374
0.1350805 0.23469265 0.14126763
-0.029840128 -0.0015254732 0.1595161
-0.000865905 0.05151549 0.23595078
-0.099562325 -0.15278615 -0.3468917
-0.017286927 -0.04659172 0.009252965
-0.081897706 0.23415558 0.15816037
0.024126008 -0.116330884 -0.08388812
0.16177168 0.17048195 0.17299864
-0.08300647 -0.21127085 -0.25007328
0.00072401104 0.0969137 0.25629437
-0.007903256 0.2727802 0.12315509
-0.018716803 0.11738219 0.10833244
0.024748301 -0.2364207 -0.25114077
0.04343179 -0.016433818 0.14400297
0.057533022 -0.2386961 -0.3065021
-0.10389083 0.085378945 0.18276449
0.04617037 -0.18816149 -0.20727831
-0.028192015 0.2717289 0.12549491
0.0665572 -0.015698154 0.014095429
-0.103914715 0.15702862 0.21446247
0.067916 0.2901727 0.10416071
-0.07740251 0.027787296 -0.12252615
-0.007787652 -0.1868623 -0.17045963
-0.09768741 0.12434375 0.22644904
-0.0025344442 0.20884387 0.070107356
-0.008195302 -0.050131686 0.00784515
-0.011598107 -0.021048017 0.13996601
0.06522313 0.013872541 0.17409578
-0.022278782 0.016974594 0.18591161
-0.019451583 0.07184146 0.25535128
0.12669903 0.23290865 0.06203678
0.027670758 0.2673693 0.12456781
0.060695786 -0.2914042 -0.40899265
-0.1281729 0.17244682 0.07463315
0.03681393 -0.0023773971 0.16449435
0.13858895 0.105882116 0.21031362
0.02873864 -0.32220578 -0.37781838
0.07253164 -0.17802791 -0.33509773
0.10123634 0.13225733 0.22177055
-0.040487014 0.08684279 0.252466
0.123473845 0.054167338 0.16378622
-0.034620497 0.066461556 0.24383566
-0.12692162 0.066550225 0.10272323
0.08727764 -0.057271805 -0.14628838
-0.12937734 0.19257729 0.13321956
-0.103189506 0.24167834 0.14906713
-0.008175482 -0.056955233 -0.0009378149
-0.08272546 0.008227416 0.12746306
0.045588944 -0.10330303 -0.08404624
0.01119649 0.123750724 0.077934906
-0.0559776 0.23178205 0.15799665
-0.047878183 0.193536 0.11005221
-0.06690688 -0.119668595 -0.120209016
-0.050724994 -0.16710864 -0.16155647
-0.10471964 -0.13777247 -0.26336026
0.0021678773 0.19992594 0.06946113
-0.093918614 -0.30040693 -0.3702826
0.12965 0.024229877 0.10484563
-0.039916817 -0.2325312 -0.23741083
0.043839276 0.043033328 0.22355843
0.01338432 -0.11066858 -0.07316641
-0.10478747 -0.23485042 -0.32590446
-0.05574894 0.2196418 0.16721512
0.0993471 0.27209347 0.115528464
0.043912835 0.102605775 0.24868141
-0.06984918 -0.09539853 -0.09557506
0.05439781 0.044095587 0.22213759
-0.07223732 -0.29511455 -0.3385789
0.12667662 0.20285654 0.16612765
-0.09004236 0.21470596 0.17357619
0.13557719 0.18579394 0.17843051
-0.11144385 0.04567144 0.122206114
0.032854896 0.04254243 0.2256582
-0.071162075 -0.2547278 -0.2884656
0.15046386 0.111247264 0.18286456
-0.07474896 -0.02831742 -0.21505067
-0.12326772 0.08599803 0.13343903
-0.045809668 0.13016613 0.23453091
0.046955805 0.13540445 0.08723107
-0.061539922 0.0067237183 0.14769568
-0.09035198 0.120049186 0.23171572
0.057677384 0.06244677 0.2453883
0.03168866 -0.30877745 -0.36204356
-0.029096145 -0.26903817 -0.27977225
0.0019068453 -0.02472028 0.13754869
-0.029108983 -0.26206014 -0.27078712
0.05381524 0.00014387698 0.16207889
0.024818337 -0.2498122 -0.26994205
0.054316286 0.08494118 0.25507766
-0.040252015 -0.23181865 -0.23668091
-0.05063431 -0.28682265 -0.31159532
-0.039835718 -0.2959062 -0.31753957
-0.039880894 -0.26064137 -0.2729535
-0.070369124 0.097248815 0.24250019
-0.13615513 0.07283654 0.07295091
0.022994764 -0.011330206 0.15501189
-0.09386737 -0.24770017 -0.31240088
0.15674314 0.19034721 0.09053908
0.013326758 -0.09723369 -0.055181544
0.06918453 0.045002386 0.21450077
-0.007932374 0.24124096 0.112060085
0.032999154 0.12712902 0.23085381
-0.10497275 -0.1996304 -0.2956734
0.16181561 0.12590072 0.14446016
0.034867212 -0.113590844 -0.087859385
0.04571954 -0.122929364 -0.112106904
-0.10771731 0.20869583 0.055351898
-0.07892117 -0.056211527 -0.06988774
-0.0026613253 -0.33990902 -0.37655577
0.122410096 0.2374514 0.14013231
-0.032386467 -0.116336726 -0.08672026
-0.012655139 -0.20583583 -0.19520777
-0.02940126 0.24042541 0.13113746
0.0027732772 0.24094847 0.11245994
0.12948036 0.03646361 0.12421535
0.044023648 0.28862113 0.10715631
-0.00803541 -0.10493102 -0.06276129
0.036875952 0.08232428 0.2573438
-0.10387096 0.099800326 0.1986443
-0.12619829 0.16178423 0.042789117
0.024214005 0.23364198 0.10448441
0.08283028 0.23881312 0.1421033
0.016726954 0.10604732 0.24812984
-0.09325639 0.09116941 0.21059664
0.15437002 0.08468204 0.11614464
0.06587669 0.12891759 0.21076435
0.014164748 -0.23723596 -0.24395734
-0.105421975 -0.19613522 -0.3964083
-0.047478806 0.23905724 0.15181589
-0.0076177707 -0.24147256 -0.24337423
0.064506635 -0.27707952 -0.41191036
0.00859593 -0.32150882 -0.35712585
0.1572876 0.14669839 0.053311005
0.09428326 0.013203871 -0.05470554
0.052060775 0.22448967 0.094566315
-0.050601706 -0.32928807 -0.3652984
0.07835604 -0.099739455 -0.14636287
-0.040475033 0.09929989 0.25324833
-0.048050668 0.27558166 0.1240733
0.04551012 0.032362163 0.20884365
-0.085555084 0.040753536 -0.059024677
0.06897588 -0.11475891 -0.1408525
0.056247886 0.24626371 0.123334154
0.0130133545 0.04774844 0.23315495
-0.007681417 -0.22100645 -0.21603161
0.013125641 -0.050239854 0.007863915
0.035026185 0.27808332 0.115858346
0.035783436 -0.26558083 -0.3048125
-0.037756234 -0.007339473 0.1492077
-0.09861357 -0.075298935 -0.19934528
-0.05079564 -0.068024576 -0.04132501
-0.061543223 0.020626092 0.1645716
0.15733694 0.07679426 0.07365356
0.034596793 -0.06745433 -0.023183651
-0.09383027 -0.21042931 -0.27089328
0.012233327 0.035205133 0.21665275
-0.10190633 -0.19011746 -0.27148694
-0.018941764 -0.0074703693 0.057885874
-0.08857393 0.009311278 -0.10150764
-0.08175286 -0.16784878 -0.19999196
-0.015858116 0.011653423 0.18144159
-0.078030415 0.1594651 0.21469003
-0.028678197 0.04188144 0.21541995
-0.03985394 -0.28181797 -0.29972848
-0.09372783 -0.040997744 -0.118248984
0.030163286 -0.058980662 -0.008620088
0.03241248 -0.12462218 -0.1012078
-0.106193125 -0.16331784 -0.28376183
0.012492611 0.2782811 0.11742053
0.07237208 -0.13146806 -0.29508302
0.078232445 0.11625441 0.1250175
-0.02918641 -0.22027399 -0.21699218
0.023961645 -0.08278976 -0.0385197
0.11821777 0.066346906 0.19119602
0.027338564 0.21293262 0.07764525
0.15218215 0.18315946 0.17763107
-0.008115798 -0.07749088 -0.02739285
0.013849814 -0.21901284 -0.21884938
0.08834083 -0.04540913 -0.13468766
0.025179446 -0.31641364 -0.36531073
0.09689749 0.049660496 0.19639829
0.10611293 0.2163131 0.15745243
0.11837001 0.053921793 0.17240985
-0.05081628 0.23725984 0.15343824
-0.039789665 -0.33105695 -0.36254665
0.118951514 0.062190846 0.1837101
-0.11610238 -0.26233512 -0.41618672
0.014828024 0.10826482 0.24658668
-0.09662089 -0.0647277 -0.1932186
-0.072122216 0.017791376 0.150503
0.019109594 -0.09824509 -0.057913024
0.0773645 -0.009000246 0.0045471378
-0.044782955 0.2383074 0.1521817
0.11876426 0.12253461 0.22783546
-0.103900865 0.07814411 0.17468847
-0.048560914 -0.2790309 -0.30067313
-0.061552025 0.11847791 0.24462059
0.049739014 0.19268775 0.071528584
-0.05540984 -0.008498714 0.13437267
-0.0079754 -0.12552127 -0.08929938
0.07801642 -0.014574957 -0.1645351
0.05703771 -0.18220015 -0.21603458
-0.047226306 0.04114584 0.2022771
0.09228125 0.0018227705 -0.088013686
-0.104181334 -0.16499116 -0.2672768
0.05298861 -0.20366405 -0.24056047
-0.06787469 -0.22184497 -0.24523863
0.06727127 -0.09846781 -0.11014752
-0.10552277 -0.15201342 -0.27500805
0.035500478 -0.21917617 -0.23821801
0.003310153 -0.28164878 -0.2999438
-0.07219262 -0.10080096 -0.10659572
-0.029486066 -0.053504135 -0.0061106794
-0.09350685 0.099648096 0.21953449
0.04558808 0.23974745 0.11403476
-0.11421156 0.14563656 0.20948665
0.066898964 0.25265616 0.13247125
-0.07222026 -0.22337925 -0.251467
0.06806466 -0.17832585 -0.2412842
-0.036636148 0.08823655 0.25368914
0.041704744 0.070462026 0.25492918
0.051839944 0.28105962 0.11231576
0.0127763795 0.1825686 0.070218004
-0.1200499 0.11650982 0.17405567
-0.08297607 -0.1589848 -0.19280593
-0.076732405 -0.21681674 -0.24844663
-0.07217786 -0.027536297 -0.024772467
0.03482775 -0.10702758 -0.07864053
0.045153577 -0.038095478 0.009035988
0.0035432843 -0.34328628 -0.38353214
0.14842136 0.14587006 0.19945934
-0.06514438 0.17180651 0.12586091
-0.08020245 -0.03291793 -0.04829213
0.14571221 0.23992342 0.11702043
-0.083241746 -0.07605187 -0.10037864
-0.07357561 0.0016182365 0.12940691
0.003005867 -0.19970661 -0.18985367
-0.086155124 0.12913135 0.23334497
0.005374476 -0.08053231 -0.031333867
0.039277423 -0.1320448 -0.11786623
-0.11161357 -0.25387976 -0.37373295
-0.039798707 -0.32404137 -0.35351172
-0.029147616 -0.24115035 -0.24386403
0.1293235 0.19385266 0.17277463
-0.061667427 -0.100071765 -0.09115514
-0.07258049 0.19296657 0.18878695
0.09089137 0.17911655 0.11936276
0.066665 -0.028440643 -0.004800553
-0.13533999 0.14158548 0.07901129
-0.06359462 -0.08775859 -0.07813938
-0.07160494 -0.19670232 -0.21845837
-0.029449044 -0.07423362 -0.03212131
-0.072222024 -0.23046905 -0.26007476
-0.116460994 -0.24968743 -0.42579255
-0.1180763 0.071697995 0.13388874
-0.093816355 0.17445631 0.20448512
0.024119932 0.25378582 0.13080847
0.07905595 -0.1410822 -0.25160414
0.11889152 0.099501714 0.22817701
-0.07984556 -0.19193752 -0.22295946
0.04492176 -0.10640829 -0.08777259
0.044032365 -0.31330797 -0.38947904
0.078929275 -0.119395256 -0.19177675
-0.075837284 0.25956854 0.071648
0.042395953 -0.25592306 -0.300962
-0.023437666 0.23035146 0.097412705
-0.09233406 -0.16726407 -0.39096904
0.02971106 0.18036962 0.070389464
-0.13732497 0.11940012 0.08317406
-0.029325398 -0.14371549 -0.119617335
0.07728327 0.16533796 0.08824672
0.08358213 0.27510133 0.11443706
-0.10981568 -0.20762593 -0.33687618
0.15181652 0.04543641 0.056555115
0.07340533 0.28099945 0.110722624
-0.09390373 -0.28533047 -0.35368225
0.06882929 -0.2392758 -0.37262377
-0.0033235608 -0.25836727 -0.26684946
0.024435187 -0.12358865 -0.09388952
0.06677229 -0.041310012 -0.023696534
0.0026080704 -0.09112668 -0.045152865
0.045413196 -0.07721465 -0.046575513
0.12992606 0.2179092 0.15442692
0.0027495222 0.24768701 0.121266566
-0.0076604285 -0.22779034 -0.22509469
-0.043718837 -0.1101684 -0.085384086
0.13564332 0.17362675 0.18768156
0.015122956 -0.02398842 0.13857748
-0.09897056 0.2316919 0.16133174
-0.08464024 -0.13177478 -0.16528405
0.0354964 -0.11173299 -0.08579348
-0.10818117 -0.17331858 -0.31003642
0.014001506 -0.25270125 -0.26539427
0.13712747 0.1863937 0.17785811
-0.039465833 -0.2724134 -0.2876303
0.09838145 0.09393126 0.23943269
-0.029247746 -0.08449247 -0.044886302
0.067389846 -0.110867456 -0.12996875
-0.10396201 0.034854356 0.12635496
0.045511298 0.2532216 0.13163951
-0.018627986 0.27111045 0.12523945
-0.09402115 0.16237004 0.21369514
-0.07219543 -0.11571484 -0.1226969
0.00333532 -0.288501 -0.30916047
0.0030562524 -0.21329366 -0.2080428
0.07611524 -0.015595047 0.12464312
-0.008662314 -0.024043744 0.13659017
-0.0073380037 -0.33077303 -0.3629468
0.009189575 0.19136009 0.06943224
0.15757322 0.1985799 0.15786228
0.033679213 -0.030532796 0.1275647
0.0125089185 -0.031455263 0.12882
-0.019249398 -0.016521836 0.14419681
-0.09229117 -0.26589862 -0.32907882
-0.11452362 0.11038554 0.18398511
0.039720137 -0.26907343 -0.31609553
-0.029889572 0.025525494 0.19407395
0.009822521 0.24669702 0.1204939
-0.11462226 0.051726148 0.12093268
0.0029553655 -0.18613413 -0.17169167
-0.030422444 0.25374514 0.13934603
-0.018957598 -0.000586629 0.06652073
0.037824783 0.006757313 0.17647539
0.03627803 -0.3264768 -0.40973336
0.0016736946 0.09721115 0.2559962
-0.050800696 -0.06093986 -0.032727946
-0.02544666 0.12544735 0.10526282
0.104391776 0.19151852 0.16876133
0.034851 0.24682824 0.12250138
-0.0827034 0.14495945 0.22608067
0.0035965263 0.29533204 0.105125025
-0.06262985 0.1204275 0.24322051
0.0029803906 -0.19289483 -0.18073417
0.10115975 0.27949208 0.0894442
-0.07659847 0.25639606 0.14083947
0.067095645 -0.079765365 -0.08058063
0.00884769 0.113469794 0.24308078
0.08978366 0.20133756 0.13920152
0.06904955 0.08880321 0.25109944
-0.10148627 -0.1554331 -0.2426959
0.0833055 0.26299348 0.123670876
0.03612001 -0.31819773 -0.38261127
-0.09380685 -0.18835256 -0.24566305
0.047658086 0.17045526 0.07583057
0.07559668 -0.022232471 -0.011533537
0.019837901 0.27492493 0.11941513
-0.08302627 -0.24020365 -0.2844793
-0.114572905 0.08113029 0.1525375
-0.07027923 0.1399256 0.2289651
0.08609888 -0.057130493 -0.16866699
-0.0068061627 0.19496083 0.07187085
0.01460788 0.21727142 0.082383
-0.116390206 0.15856166 0.20396276
0.077815354 0.093697324 0.24838969
-0.071635835 -0.010406385 0.116756245
-0.078684956 0.101974115 0.23897938
0.0789682 0.15245362 0.09493328
-0.08302133 -0.23296587 -0.27587107
0.00343838 -0.3159746 -0.346117
0.029802127 0.28084117 0.11415715
-0.072235644 -0.28792024 -0.32984215
0.05817766 -0.137786 -0.34287602
-0.09187879 0.022862427 0.1339035
0.0121236 0.06171807 0.25144166
-0.110780895 0.034279186 0.111625426
-0.07223048 -0.26632395 -0.30361527
-0.064528815 -0.18923345 -0.20228349
0.15056926 0.10554366 0.17283453
0.008951073 -0.09253556 -0.047961533
0.022340275 -0.2789965 -0.30867368
0.12931876 0.11168902 0.22127335
-0.018915676 0.0044208416 0.17108728
0.026665445 0.25489295 0.13244274
0.1291414 0.060834225 0.16280824
-0.029828064 -0.008319456 0.15083694
-0.111754484 -0.2656383 -0.38348633
-0.07318613 0.22932015 0.16117835
-0.019655496 0.12903745 0.09685533
0.024296379 -0.14970887 -0.12982321
-0.04701587 0.1720718 0.09325625
0.06452719 0.1213686 0.2328417
0.067570865 -0.1293157 -0.16012795
-0.12928797 0.20226125 0.16106758
-0.0750561 -0.22933485 -0.261545
0.06787675 -0.1600826 -0.21050218
-0.10172397 0.18196435 0.1993719
0.15101509 0.17558454 0.18400285
-0.046263356 -0.04179981 -0.0049315137
-0.10470158 -0.18798405 -0.28528538
0.15238605 0.05148557 0.06470481
-0.10390487 0.15233801 0.21595262
-0.040133722 0.22982317 0.14563751
-0.13096562 0.14177646 0.032729745
0.08602341 0.1823684 0.10949123
0.09670602 0.068636626 0.22393738
-0.13793117 0.07449041 0.066046275
-0.018603442 -0.15205622 -0.12625405
-0.13431334 0.115965925 0.11551583
-0.088251315 -0.027438931 -0.0722943
-0.030399244 0.29497978 0.102269664
-0.0075536245 -0.26207873 -0.27090448
0.012453935 -0.018074926 0.14645068
-0.0932872 0.21078223 0.17680888
0.12138562 0.074305676 0.19747752
-0.06144697 -0.21297342 -0.22801174
-0.116537035 0.23060422 0.14666927
-0.011906723 0.29302815 0.108054526
-0.07217346 -0.0056399456 -0.00034813557
-0.061438467 -0.24875794 -0.2714482
0.044941884 -0.0053747995 0.055008408
0.013644668 -0.1715494 -0.15489131
-0.07210474 0.09468227 0.24177955
-0.09069122 -0.055210654 -0.21448013
-0.07217493 -0.012935397 -0.008486871
-0.07837239 -0.26227805 -0.30487332
0.07100824 0.004865632 -0.15817489
0.07397099 -0.18964629 -0.3220928
0.06388424 -0.0118500525 0.13954702
0.069041744 -0.24097626 -0.3821116
-0.13232653 0.16219161 0.09202021
0.033321194 0.035501294 0.21610855
0.07912168 -0.025440855 -0.17221235
0.046309106 -0.2076213 -0.23613822
-0.09148608 -0.19652106 -0.25081715
0.09972253 0.26642597 0.119810775
-0.10318215 0.18602931 0.009476328
-0.08306092 -0.2910157 -0.34490454
0.04522544 -0.2081463 -0.2352177
-0.015882082 0.05478055 0.2365569
0.1146651 0.24495667 0.13500987
-0.061460573 -0.15600272 -0.15885355
-0.08047672 -0.0054531437 0.113840476
0.054530844 0.024631657 0.1953063
0.15436716 0.22197679 0.114499085
0.03339263 0.022338968 0.19845833
-0.06149746 0.0085798055 0.035142757
-0.05266244 0.2458224 0.1470644
0.077616066 0.25359038 0.13125655
0.15630962 0.11765623 0.16742244
0.048685644 -0.28713056 -0.36005902
-0.051011965 0.10166963 0.24979603
-0.095905825 -0.21709235 -0.28236678
0.10925705 0.20039782 0.16932063
-0.029275527 -0.17160016 -0.15486526
0.070876025 0.20333557 0.089601405
0.03490565 -0.12022616 -0.097176574
0.06990667 -0.13663083 -0.17875712
-0.040436633 0.027530532 0.19107957
-0.10397229 0.027675163 0.11834171
-0.029498303 -0.046512086 0.002574791
-0.030635377 0.12667249 0.23603706
0.024888191 -0.26322073 -0.28876826
0.029945845 0.0766408 0.25732508
0.027989578 0.15792246 0.07391058
0.012292036 -0.20379049 -0.19784209
-0.091439135 -0.27813762 -0.3406191
-0.08654195 -0.107934445 -0.14270626
-0.12532437 0.07098052 0.11202147
0.16138548 0.16549087 0.1762232
0.060946006 -0.097221345 -0.09684328
0.08056696 0.13052207 0.22466078
-0.1099073 0.022809679 0.100986116
0.06414933 0.09743523 0.25107953
-0.13148288 0.11369058 0.12929589
-0.039889857 -0.25360748 -0.26406053
-0.12733592 0.077800356 0.11288229
0.02450429 -0.18959771 -0.18562615
0.09136264 0.26756233 0.11958264
0.022651654 0.061735477 0.2512869
-0.03643921 0.25499257 0.13885571
-0.07405841 -0.11548295 -0.12657517
0.06715248 -0.086086884 -0.09035706
-0.061418958 -0.32694456 -0.3689441
0.07322047 -0.1794712 -0.27260247
0.030967377 -0.20482902 -0.21230313
0.011084042 0.06409329 0.2543418
0.04394402 -0.011750558 0.15014835
-0.10388098 0.09255807 0.19078006
-0.098491564 0.20743321 0.17975064
-0.050645113 -0.27276966 -0.29388824
-0.07220681 -0.16607545 -0.1822244
-0.050771628 0.26705396 0.13076644
-0.10024197 -0.121330164 -0.2154246
0.075253256 0.25838888 0.12778348
0.0034895197 -0.32970697 -0.36460498
0.09274279 0.0003914198 -0.047766928
-0.13025695 0.16782366 0.17287147
0.02439993 -0.1695848 -0.1576297
0.004041665 0.064658925 0.25385195
0.14922547 0.091559134 0.15425554
0.1304447 0.24201176 0.13605124
0.017312821 0.25209343 0.12809724
0.04010587 -0.024637034 0.13385023
0.025215654 -0.323133 -0.37497875
0.088447064 -0.0137156835 -0.04585358
-0.09016341 -0.003055093 -0.06909617
0.056281682 -0.08553755 -0.072153084
-0.0018153436 -0.2114431 -0.20449221
0.10679169 0.0012670726 0.11433292
0.07316669 0.13174991 0.105817616
-0.044947788 -0.14282063 -0.12826425
0.049855765 -0.30988294 -0.39884374
0.043957323 0.023258662 0.19704092
0.0229642 -0.004638748 0.16382878
0.060075402 -0.16527843 -0.19709378
-0.09993595 -0.23792374 -0.3148486
-0.036281385 0.11855722 0.12323627
0.10910271 0.21261394 0.16003935
0.015295087 -0.11152698 -0.0747609
0.1116957 0.025735315 0.14216127
