# .PCD v0.7 - Point Cloud Data file format
VERSION 0.7
FIELDS x y z
SIZE 4 4 4
TYPE F F F
COUNT 1 1 1
WIDTH 1000
HEIGHT 1
VIEWPOINT 0 0 0 1 0 0 0
POINTS 1000
DATA ascii
-0.25627026 0.07562005 -0.13426235
-0.22044268 0.1560758 -0.1300118
-0.27760085 0.21561679 -0.19400667
-0.26484913 0.06401445 -0.14790146
0.104840025 -0.15441638 0.14025769
-0.16726156 0.02803977 -0.08105543
-0.106421344 0.020587256 -0.038124632
0.112155534 -0.1416386 0.15308812
-0.18541901 0.13823846 -0.10942609
0.098485924 -0.044916194 0.14195068
0.020758992 -0.12493973 0.08011424
0.00359873 0.06767957 -0.02425724
0.035352305 -0.15787525 0.021663267
0.13694236 -0.20420513 0.13359307
0.22266828 -0.08030756 0.14445612
0.15466005 -0.08233967 0.17819132
-0.29611665 0.24569105 -0.24862202
0.28250915 -0.1215775 0.0014482099
0.14848071 -0.04284022 0.16009445
0.1629078 0.0060460465 0.129048
-0.22123246 0.12287239 -0.11186492
-0.14902815 0.15356003 -0.12611474
-0.04473215 -0.06330592 -0.029688515
0.30363947 -0.08848281 0.0024783344
0.049233705 -0.06937712 0.11989031
0.115276225 -0.2086657 0.098423325
0.041904263 -0.16605589 0.061469857
-0.2312876 0.18632649 -0.16016772
0.053433117 -0.14381702 0.09849986
0.043777727 -0.09306553 0.11409177
0.2548639 -0.1419842 -0.0018479687
-0.3130149 0.08368925 -0.18261577
0.22733757 0.011388458 0.11516702
-0.2157348 0.10839269 -0.104754865
0.13758919 -0.040439226 0.15523058
0.11435489 -0.13021173 0.15645146
-0.021646209 0.00765885 0.01052749
-0.12665975 0.12033821 -0.08573599
0.16216238 -0.015729258 0.14798671
0.16537076 -0.11326648 0.1842628
-0.06074413 -0.017883943 -0.013701572
-0.18370032 0.15366006 -0.12355829
0.29371867 -0.13996936 -0.02595584
0.089611344 -0.20123652 0.06864762
0.2675542 -0.02107705 0.121426664
-0.29816267 0.09562642 -0.16020638
-0.17715825 0.096835986 -0.08464291
0.21336144 -0.09268764 0.14914626
-0.21083818 0.10480379 -0.10146117
0.18589133 -0.12962174 -0.018410856
0.032463092 -0.15577206 0.063108616
0.004093395 0.057175823 -0.01266457
-0.14088416 0.1671313 -0.1805934
-0.2600563 0.06112081 -0.145261
-0.05334282 -0.072427325 -0.08715592
-0.3499449 0.22129889 -0.22679034
-0.14617093 0.12384794 -0.0916519
0.29307455 -0.11770398 -0.0054432126
-0.22477476 0.06482633 -0.11318304
0.25949496 -0.060792174 0.10017055
-0.22850329 0.16257097 -0.13671342
-0.09812875 0.099923186 -0.064158864
0.2042592 -0.19216554 0.054783184
0.2823552 -0.113896124 0.0076767094
0.098584756 -0.20963298 0.05993708
0.043781184 0.030074947 0.017966479
-0.014427059 0.098925546 -0.085177675
-0.0031146053 -0.08734808 -0.007661588
0.18801863 0.033111747 -0.0658122
0.07426158 0.0060623963 0.110325634
0.21290186 -0.061614834 0.17283091
-0.20105535 0.13522321 -0.11003146
-0.28313214 0.14263654 -0.14451154
0.12158362 0.057139385 0.06748655
-0.043989755 0.04353696 -0.011381428
0.031253003 -0.07850025 0.10786855
0.30883026 -0.034604575 0.040878825
0.18736072 -0.18143465 0.038036138
-0.29307756 0.16431573 -0.15578392
-0.20605513 0.066058986 -0.09931498
0.043415286 0.006159923 0.037460193
-0.30293542 0.121976055 -0.15622765
0.18539456 -0.24625611 0.04609258
0.008184879 0.08881425 -0.099598885
0.1725415 0.05227371 0.055984247
-0.120864004 0.051920664 -0.04612784
0.017780215 0.08384818 -0.089004
0.017734706 -0.039137565 0.036750864
0.019790508 -0.017726006 0.036552347
-0.19942713 0.17048036 -0.14186876
-0.06740141 0.08035675 -0.04240511
0.15615071 -0.04539494 0.16393694
0.30290526 -0.014734618 0.049813993
0.18130052 -0.14265174 0.1589128
0.11486355 -0.2026421 0.107565925
-0.14228463 0.16509153 -0.20510972
0.12378437 -0.20870842 0.11101925
0.21683125 0.025633257 0.09140214
-0.2243425 0.19813077 -0.18017183
0.06735081 0.016432185 0.0333172
0.28152958 -0.012714322 0.09867408
-0.18828957 0.034444243 -0.09565732
-0.21628653 0.16812828 -0.14055103
0.2351721 -0.07153914 0.1312915
0.2980791 -0.14043152 -0.03362016
-0.2630868 0.15897611 -0.14270918
0.1601893 -0.073597774 0.17766623
-0.2826277 0.15676504 -0.14900611
0.2427752 -0.116531976 -0.018149067
-0.24563491 0.056629434 -0.13473721
-0.18807045 0.053677633 -0.08914094
-0.24865508 0.21415082 -0.28588104
-0.09911851 0.1055984 -0.068844736
0.15851472 0.060918145 0.0075989193
0.2127634 -0.070774265 0.1692765
-0.34875762 0.196471 -0.19018432
0.1546609 -0.009511108 0.14188826
-0.23258172 0.15344678 -0.13028313
0.17600094 -0.034464 0.1643027
0.082883224 -0.009904433 0.12146418
-0.0018485832 -0.024773372 0.025236782
0.09082937 -0.09529674 0.14462216
0.00023279084 -0.034314524 0.025982346
0.15112177 -0.1327201 0.18047921
0.115756474 0.036156826 0.095375344
-0.024065359 0.10129495 -0.1390851
-0.20743133 0.12691368 -0.10796026
-0.055417348 -0.045013137 -0.021654272
-0.12037631 0.076658025 -0.053061455
-0.04372482 0.06152172 -0.02255171
-0.11565418 0.14990208 -0.13612887
0.03252975 0.06254074 -0.02406769
0.046498474 -0.06776017 0.053213503
0.22390084 -0.1729944 0.0019566002
0.026302231 0.05913517 -0.016738437
0.044919096 -0.06918386 0.11717448
-0.21514307 0.17953828 -0.15222469
-0.29165462 0.23736973 -0.22867918
0.19261302 -0.15051238 0.13321045
0.2973074 -0.090593226 0.0111811645
-0.20094088 0.11123976 -0.09945033
-0.009391208 -0.07550661 -0.0008677165
0.2245859 -0.13424174 -0.016060608
0.10395263 -0.18511976 0.11553262
0.21036842 0.03041721 0.08417251
-0.019735178 0.05392735 -0.012523726
0.1704128 -0.14951763 0.1708834
-0.03601337 0.012752566 0.002851433
0.23280378 -0.038472533 0.15855095
0.1863294 -0.16167954 0.13392484
-0.35191864 0.10653958 -0.20282318
0.19140008 -0.18853617 0.058043983
0.2135301 0.033534266 0.07315268
-0.16806102 0.1524016 -0.12120166
-0.17853262 0.050181672 -0.0830932
-0.23388052 0.022109821 -0.19568114
0.08405119 -0.032012932 0.13125324
-0.38628864 0.14600785 -0.23623805
0.24622656 -0.06451317 0.11901678
-0.3363604 0.14123176 -0.32620975
0.19306383 0.0026126432 0.1332565
-0.29493475 0.22459705 -0.20420966
0.21865629 -0.10976672 -0.029811032
0.079984315 -0.12306822 0.1340469
-0.06257105 -0.06762118 -0.09570694
9.9110715e-05 -0.086150244 -0.001887903
0.13530062 -0.22996774 0.07705529
0.30407017 -0.103306584 -0.0111822225
0.109953806 -0.11636825 0.15544595
0.17059623 -0.1568493 0.16434167
0.041240532 -0.040803574 0.11407886
-0.2526781 0.12499273 -0.12587109
-0.0130968625 0.07942305 -0.039720654
0.18762311 0.04354956 0.06724943
0.13403769 -0.13031223 0.16982996
0.17451252 -0.2442111 0.06273484
-0.35088632 0.08440224 -0.24518712
-0.117217496 0.08358172 -0.05601533
-0.046711233 0.037462182 -0.008477884
-0.20214085 0.19876173 -0.20654775
0.20023891 -0.18506916 0.034772094
0.19023387 0.04337867 -0.05701616
-0.19098523 0.009059043 -0.12355382
-0.027999772 -0.034322266 0.0061152517
0.24457327 0.025504012 0.013774832
0.13332954 -0.08197894 0.1687856
0.14202183 -0.12954135 0.17491913
0.061704133 -0.18915446 0.042979762
0.0039432324 0.028940737 0.012131191
-0.09284851 -0.04673251 -0.072439514
-0.0992806 0.11647573 -0.07986002
0.1740467 -0.16811724 0.14875904
-0.06705085 0.0218723 -0.01355605
0.0717019 0.042346116 -0.0012465353
0.17456147 0.062006526 0.017038414
-0.26144668 0.19920371 -0.17521906
0.10697631 -0.12664388 0.1519708
0.31152397 -0.023786217 0.014376901
-0.07158046 -0.059938714 -0.06668451
0.22853935 -0.1478263 -0.008272784
-0.3015971 0.17751431 -0.16490468
0.29220757 -0.088165656 0.021793816
-0.12181352 -0.015742844 -0.067081586
-0.23127541 0.1406397 -0.122842014
-0.00028896157 -0.07177146 0.012789435
0.2456044 -0.04253476 0.13924478
-0.12230909 0.10178693 -0.068870336
0.20257771 -0.10700037 0.1546091
0.13550816 -0.16716489 0.16036703
0.31509426 -0.08893329 -0.016990637
0.20277502 -0.0640171 0.17693028
-0.11210341 0.15133484 -0.14996715
0.1397772 0.0135551365 0.11955835
-0.18309174 0.18786162 -0.18678844
-0.07077444 0.011977178 -0.016115855
-0.1932753 0.14279105 -0.11450059
0.11045265 -0.093339115 0.15683712
-0.28008762 0.22189896 -0.2040263
0.0963537 -0.013095455 0.12753552
0.123455554 -0.10731788 0.16451736
0.009570341 -0.037497167 0.031692404
0.0004002243 -0.09257251 -0.010366385
-0.035911925 -0.08036044 -0.0526045
-0.20730546 0.050945845 -0.104426295
0.070387095 -0.060910594 0.13235274
-0.3220669 0.1556216 -0.16720922
-0.23476547 0.058566503 -0.12368173
0.04177392 0.0034196384 0.03781497
0.04927655 0.0634969 -0.037339427
0.15751818 0.061012633 0.044631496
0.15232937 -0.06901783 0.17275535
-0.2868852 0.17271562 -0.15758319
0.029177142 -0.020506594 0.041358814
0.13377863 0.037897732 0.09252115
-0.295767 0.23830196 -0.22864206
-0.15795538 0.0907774 -0.07407588
0.08932059 -0.09248075 0.14383693
0.18532255 0.008515172 0.12635404
-0.2266475 0.19834796 -0.17956226
-0.2935457 0.11226998 -0.15177833
0.22490683 0.019952038 0.09914274
0.14607278 0.0066306335 0.1267901
0.23582304 -0.041763775 0.01941837
-0.22726169 0.042171847 -0.12687391
-0.28781095 0.18530056 -0.1657079
-0.07783186 0.11772067 -0.085891165
-0.046714444 -0.027515735 -0.005932417
-0.15953763 -0.00018962179 -0.09483617
-0.34730268 0.21970184 -0.21233372
0.02138976 0.010014389 0.027383722
0.16555244 -0.10060005 0.18762922
0.19319555 -0.1724507 0.11308499
0.049044333 -0.0031539027 0.04320416
0.17221135 -0.12833919 0.17840718
-0.1201953 0.14910816 -0.129268
0.09295438 -0.082603484 0.14627208
-0.20907919 0.15190153 -0.12467219
0.17395969 -0.15573405 0.15971377
0.032080293 -0.09089918 0.106424734
-0.16814992 0.07997883 -0.07512861
-0.33150852 0.17135042 -0.17449513
0.1410328 -0.11036832 0.17523989
-0.15053445 0.16666389 -0.15191962
-0.017476069 -0.08902293 -0.03690813
-0.25226244 0.101904795 -0.12540962
-0.3104967 0.22249727 -0.20221035
-0.06205742 0.06465023 -0.0283629
-0.35429788 0.18766282 -0.18950795
-0.1413799 0.14912063 -0.12079434
-0.32979283 0.12546532 -0.17477854
-0.23578341 0.03817498 -0.14269723
-0.18786502 0.18823706 -0.18116048
0.1615824 -0.07065083 0.17697275
-0.1428493 0.16220884 -0.14629582
0.10684662 -0.20971611 0.08032324
0.08669789 -0.15558003 0.12248877
0.040244594 0.004798707 0.036705784
-0.14925472 -0.015012329 -0.101715684
-0.05438184 -0.07139183 -0.06869245
0.24630402 -0.030937636 0.1465715
0.13975556 0.02415294 0.109078825
-0.25736222 0.21610184 -0.20135061
0.10117165 -0.032110196 0.13783999
-0.02451597 0.021296294 0.005680658
-0.073899016 0.0979966 -0.0594335
0.04044463 -0.16054267 0.067096666
0.2966807 -0.05349596 0.04461525
-0.14530505 0.12718712 -0.09484264
-0.19608513 0.0021687173 -0.15993392
-0.1212016 0.040602297 -0.046266485
0.12306362 -0.17768249 0.14218107
0.14490698 -0.22464605 0.11306202
0.11930251 -0.15774845 0.15110353
0.25953534 -0.11680961 -0.012168311
0.093626715 -0.05905792 0.14428355
0.04905603 0.050774693 -0.009005866
-0.07225892 0.13050666 -0.12688242
-0.3274818 0.20559949 -0.18913938
-0.0144291185 -0.06867183 0.0016073049
-0.19492085 0.09566788 -0.091686
-0.2161366 0.09593615 -0.103047796
0.095060475 0.037035283 -0.0038110788
-0.12950207 0.118072666 -0.08458113
0.18251066 -0.11986023 -0.014807233
0.151768 -0.033024188 0.15605757
0.06544221 -0.17499757 0.08026088
-0.25470448 0.039784092 -0.16584928
0.17041 -0.17067063 0.021239078
0.050138503 -0.13336782 0.102687635
-0.056077685 -0.024105165 -0.012036666
0.23045814 -0.19059616 0.016516559
0.005451042 0.016071135 0.019214196
0.09671808 -0.103191644 0.14787048
0.18099782 -0.058195096 0.17873713
-0.1022455 0.034084927 -0.034679815
0.2641846 -0.106673844 -0.005152061
-0.19775777 0.047329593 -0.0981553
0.12304749 -0.1526581 0.15693709
0.27222717 -0.05629406 0.04506623
0.05131841 -0.07628546 0.12079274
0.18305968 -0.046019197 0.17307076
0.13370724 -0.105000846 0.17078316
-0.22601542 0.027667303 -0.14428838
0.24416634 -0.025583578 0.14635195
0.1154087 -0.09885436 0.15992272
0.0044509256 0.05276618 -0.0076556914
-0.17878774 0.062323157 -0.081353836
0.08278002 -0.11268303 0.13764752
-0.044243302 0.09388329 -0.05512679
-0.18727091 0.0005932735 -0.13667308
-0.13024476 -0.029513665 -0.10317506
-0.13055794 0.034461234 -0.052545432
-0.31102946 0.06258674 -0.24739148
-0.058837157 0.07722135 -0.03860933
-0.24424376 0.13097177 -0.12427153
0.13229366 -0.14672498 0.16606915
0.08466766 0.023459876 0.10245784
0.106598236 0.0052800826 0.12028663
0.14128053 -0.08656143 0.17369026
-0.14971146 0.050586846 -0.063683406
-0.23075661 0.18858492 -0.16256303
-0.26480088 0.08185215 -0.1387298
-0.15242396 0.14333616 -0.11084128
-0.2940146 0.20264818 -0.18131582
0.099038824 0.033759795 0.096196085
0.014442818 -0.0026788292 0.030065002
0.21801503 0.03549992 0.06192337
-0.34086627 0.18842912 -0.18407613
0.27181235 -0.054284632 0.08533933
-0.16390778 0.15182675 -0.12041165
0.1165717 0.021115754 0.11001029
-0.042136837 0.04351757 -0.010756071
0.16785736 -0.15892637 0.16709006
-0.0039902525 0.033503257 0.007052103
0.028057465 0.03883608 0.008020915
0.27078173 -0.017981669 0.116932325
0.0808882 -0.027795913 0.12828997
0.12986669 0.049876187 0.07682677
0.15608853 -0.11918142 0.18431309
-0.15294577 0.08404114 -0.07018468
0.036833026 0.0738837 -0.0680593
-0.21572022 0.19204411 -0.17205001
0.1926669 -0.18333453 0.10446232
-0.11240495 -0.019505393 -0.06032777
0.2926352 -0.10296487 0.008158862
0.27258295 0.009648514 0.02371433
-0.30053595 0.12965481 -0.15425187
0.25988752 0.008224427 0.10370411
-0.16425006 0.1556665 -0.12501073
0.21296108 -0.07811692 0.16253462
0.031773243 -0.118105575 0.095364064
-0.34063557 0.07791034 -0.2542983
-0.10155038 -0.046133105 -0.09369922
0.29047832 -0.02903663 0.07630137
0.30303368 -0.06254308 0.026138443
0.09425245 -0.15532748 0.13000722
-0.038251996 -0.042852443 -0.0049225143
-0.27460694 0.14163502 -0.1406312
-0.2542458 0.20214093 -0.17809567
0.19230857 -0.13359563 0.14848828
-0.16075812 0.16822693 -0.14902925
0.16427314 -0.057988036 0.17273463
-0.28252867 0.062011752 -0.17163363
0.040984925 -0.12983267 0.09629704
0.03804657 -0.110834815 0.10450019
-0.10201923 0.036253884 -0.034406234
-0.1378329 0.024181543 -0.059642885
-0.34333223 0.1693412 -0.18023345
0.1926772 -0.066302046 0.18099649
0.10416526 -0.21047287 -0.019626375
0.30968544 -0.08405248 -0.0037217324
0.13652283 -0.15571086 0.16707073
-0.27264223 0.1239977 -0.13696639
0.022581792 -0.10975285 -0.060350884
0.28394872 -0.035436913 0.081586294
0.18916105 0.031130703 0.09279015
-0.3805682 0.11851114 -0.26521325
0.07240696 -0.1912736 0.060563065
0.08801391 0.028813826 0.016929476
-0.342051 0.09581756 -0.20403306
-0.011587659 0.0499907 -0.007951811
0.051433973 0.02022074 0.027677534
0.22164512 0.036697928 0.04845271
0.25433853 -0.06455484 0.019659417
0.27312616 -0.10254207 0.007551592
0.1711161 -0.11216845 0.18332377
-0.050104804 0.048094254 -0.015723106
0.06872858 -0.1637279 0.09723747
0.16807558 0.030233579 0.09918571
-0.0039580143 -0.0506205 0.019520253
0.026022026 0.06462767 -0.025779516
0.24112049 0.008665832 0.11444446
0.09709398 -0.09252859 0.1487459
0.21519503 0.04213128 0.022870522
-0.35037592 0.20938566 -0.19727129
-0.3145269 0.21336384 -0.29958895
0.18839544 0.050164074 0.04850773
-0.27526847 0.14551687 -0.1421897
0.15501656 -0.034608737 0.1579463
-0.040450808 0.030503435 -0.0041141314
0.09574317 -0.15101169 0.13409974
0.19036113 -0.052340824 0.17875332
-0.013863069 0.055709857 -0.012842449
0.023815092 -0.15087803 0.05840709
0.25014898 -0.20465082 -0.009877702
0.17534527 -0.24811454 0.049602807
0.14504708 0.06783548 0.03637378
-0.13338462 0.024097087 -0.05649592
0.19687492 0.052018568 0.0027440586
-0.34027714 0.20434622 -0.19136196
-0.30264062 0.061580166 -0.20469393
0.2240973 -0.22993132 0.011434636
0.20703563 -0.1728093 -0.0041201427
-0.25340533 0.14815015 -0.1340037
0.19163927 -0.11386769 0.16682918
0.019277541 -0.106029764 -0.00640214
0.1824517 -0.18664879 0.118580416
0.07707504 -0.14024265 0.12338891
0.27169803 -0.0066406205 0.108913094
0.089058384 -0.00670474 0.121819645
0.13435018 0.062012482 0.055594902
0.014266598 -0.049148124 0.033961285
-0.3132204 0.17980926 -0.16992848
0.05907768 0.03548775 0.013138954
-0.051049717 0.11923489 -0.14486407
-0.004940193 0.029914027 0.009101027
0.15351002 -0.21383874 0.1250059
0.1139744 -0.14925824 0.15080018
0.21171299 -0.14754406 -0.014282832
-0.15741073 0.0859993 -0.072718315
-0.08291255 0.07907392 -0.043607395
0.078736104 -0.08617856 0.13752688
0.049291335 -0.08138675 0.05825681
0.10801466 0.040703375 0.090130545
-0.2506691 0.21619646 -0.20471601
0.21136594 -0.19864321 0.059954353
-0.13700512 0.0021017683 -0.067999944
0.13656567 -0.054847088 0.16083272
-0.24472642 0.11747612 -0.120807745
0.16174583 -0.103914894 0.18703009
0.07785725 -0.14585815 0.120779715
-0.044155434 -0.07731305 -0.0783025
-0.25492433 0.046184022 -0.15686336
0.078057766 -0.107157044 0.13530788
0.17793432 -0.11703621 0.180496
0.16965967 -0.006975572 0.14213556
0.053835854 -0.036099147 0.11972979
-0.011681708 0.0983536 -0.122252904
-0.2350313 0.094818346 -0.114946075
0.25923723 -0.03624925 0.1220298
-0.32708952 0.22001365 -0.2011177
-0.23297238 0.16094467 -0.13620912
-0.06554401 -0.038383424 -0.026910374
-0.31310788 0.09128913 -0.1757144
-0.022243105 0.030275017 0.0027776966
0.27395594 -0.12967443 -0.0009958942
0.1741076 -0.06962752 0.18133639
0.06642863 0.05843708 -0.05596494
0.20614713 0.04718855 0.013074114
0.097087495 -0.07959737 0.14856094
0.10694286 0.029220155 0.10131847
0.11906357 -0.035137497 0.14594157
0.009725837 -0.03452601 0.03196558
0.20008591 0.0066430564 0.12804794
0.116550975 -0.21803392 0.07536338
0.19092137 0.021964906 0.10736019
0.18037632 -0.20234917 0.108325884
-0.2462435 0.05831384 -0.13428307
-0.3119302 0.16543674 -0.16426179
-0.07966344 0.09007175 -0.052950725
-0.27213475 0.15897724 -0.1457165
0.18168914 -0.15732162 0.14545661
-0.14146571 0.02879204 -0.061251268
0.1370284 0.04816918 0.07806394
0.03711935 -0.0022315583 0.03926576
-0.30324158 0.11566646 -0.15795922
-0.2550577 0.08803789 -0.12952648
-0.17676143 0.068899356 -0.079680406
-0.006012846 0.03300955 0.0070516975
0.15197882 -0.11112579 0.18162532
-0.08350665 0.08178161 -0.045836113
0.29151323 -0.11872532 -0.0037343854
-0.1589635 -0.012402192 -0.11345899
0.060384907 -0.13621363 -0.011363685
0.022650087 -0.12268212 0.08354647
0.16616745 -0.06505583 0.17639834
0.09227252 0.0141857 0.03735524
-0.09226433 0.043366306 -0.031076195
-0.17485315 0.104686454 -0.085447215
0.22798917 -0.21828915 0.015120268
0.047412056 -0.116480835 0.035964616
0.14923291 -0.091144726 0.17859703
0.19242057 -0.1431039 0.14000013
-0.111999184 0.02652801 -0.041293442
-0.15757078 0.010660036 -0.081695154
0.13924055 0.022662826 0.11082775
-0.050947 0.07269109 -0.033506252
-0.054968312 0.018252 -0.006811307
-0.25369328 0.03261787 -0.19391504
0.30428326 -0.110816315 -0.018093811
0.18647932 -0.18657963 0.11193404
-0.22488254 0.20967725 -0.21092813
0.070738755 -0.19338332 0.050722547
0.07527594 0.011876682 0.038451485
0.03985307 -0.13178952 0.09381475
0.0137785375 0.05952367 -0.01443228
-0.27202663 0.17620617 -0.15559092
0.2211864 0.008072633 0.12258015
0.27878812 0.0005491214 0.004742534
-0.17527515 0.07227621 -0.07853758
-0.33195877 0.07908167 -0.21533304
0.07526224 -0.00011246789 0.047980346
0.28256762 0.0055237547 0.035904456
-0.018409466 0.029782752 0.004153699
-0.19942914 0.08619583 -0.092969365
0.31522796 -0.043707777 0.022274463
0.063788414 -0.18623132 0.05663368
-0.2992817 0.22095296 -0.20008661
0.09360132 0.0012209761 0.062241215
-0.058049377 0.117714226 -0.095810324
0.05077248 -0.08727319 0.119791955
0.27282947 -0.087117724 0.020064645
0.24493578 -0.04541944 0.025823308
0.106776945 -0.21112987 0.07682422
0.2237774 -0.021390278 0.15982674
-0.12710261 0.077480316 -0.056461476
-0.19318011 0.13070501 -0.104998335
0.10352765 0.019848337 0.027622748
0.055796575 -0.1090612 0.119736515
-0.28885147 0.0777604 -0.16162546
-0.28117612 0.050593086 -0.2465646
0.20084804 -0.03705015 0.17194091
0.12560202 -0.03864461 0.14990029
0.12869121 -0.1994316 0.12907527
-0.34241018 0.20477612 -0.19228832
0.1832216 -0.21601343 0.09165757
0.15298341 -0.10528062 0.18199237
0.21464589 0.0045073857 0.12910612
-0.25914574 0.10871204 -0.129352
0.14965996 0.053163316 0.066429466
-0.2235808 0.2090005 -0.21019913
0.2715933 -0.14223784 0.0041064867
0.10749988 -0.0072300313 0.12812963
-0.33928487 0.18700525 -0.18293764
0.27933282 -0.036064062 0.088725574
0.1998309 -0.069067284 0.17851517
0.12883659 -0.138182 0.16508377
-0.31120804 0.2235256 -0.29624158
0.19025005 -0.11526145 -0.01867132
0.26567322 -0.05755781 0.09270549
0.075186975 -0.03647886 0.12914823
-0.079902686 -0.030863404 -0.035539985
-0.06289446 0.1251781 -0.11699763
-0.011449252 0.058870777 -0.015243323
0.29208362 -0.15626468 -0.03746171
-0.09538879 0.02900942 -0.030649927
0.118918985 -0.18165867 0.13534443
-0.1401929 0.04731416 -0.05786436
-0.103074975 -0.006720859 -0.042857617
0.24076241 0.01283344 0.106276214
0.116578795 0.03183232 0.09980284
-0.17112488 0.08410782 -0.07784589
0.26059857 0.013927084 0.08368524
-0.31919965 0.21544823 -0.19598119
-0.020226933 -0.04125391 0.010021122
0.31420907 -0.059225343 0.01042277
-0.3033975 0.20635124 -0.1857375
0.14279549 -0.10549843 0.17608061
0.1158507 -0.2136678 0.0875639
0.12696524 -0.07101265 0.16256481
-0.2543875 0.12078701 -0.12648408
0.23639956 -0.07277257 -0.0057632634
0.10108547 0.033282325 0.096855335
0.06995364 -0.18363892 0.07421983
0.08724934 -0.19472723 -0.048470985
0.20432404 -0.051025845 0.1757955
0.11059348 -0.03297018 0.14180033
0.061487984 -0.13645057 0.11153148
0.19281252 -0.15779735 0.12651789
-0.23865296 0.19310656 -0.16773418
-0.3712088 0.107969195 -0.22565198
-0.3114079 0.18012601 -0.16948742
-0.24548927 0.028371263 -0.18855578
-0.16529429 0.11051319 -0.085644454
0.12558517 -0.07918872 0.16453663
0.20536463 0.01970126 0.10809834
0.17290726 0.015370387 0.118475884
-0.15009044 -0.0040982384 -0.08782191
-0.06045241 -0.06064879 -0.12887228
0.020875521 0.076724514 -0.04986942
0.29203933 0.0010285277 0.04710173
0.0873852 -0.18494457 0.09557174
-0.19640915 0.1367248 -0.11031223
0.12640798 -0.065940276 0.16072607
-0.12769702 0.15341483 -0.13501923
-0.24272789 0.12325203 -0.12108858
-0.18789047 0.06389736 -0.08700929
0.07376504 -0.03861442 0.12920168
0.25503606 -0.11188147 -0.016102796
0.12290794 -0.051374268 0.1541649
-0.079 -0.019394752 -0.02841491
-0.013711027 0.0030459887 0.015411128
-0.2218996 0.18860607 -0.16437526
-0.07469431 -0.007473819 -0.021420738
-0.36403748 0.20529853 -0.22026853
0.17071038 -0.1310716 0.17773223
0.03968115 -0.099816464 0.110187896
0.1813233 0.012378424 0.12179383
-0.0110362135 0.0035651536 0.01636376
0.10094222 0.022511031 0.10694073
0.14527033 -0.16167392 0.16935778
-0.21329957 0.15752938 -0.13031298
0.24201716 -0.15394656 -0.00068538194
-0.29151496 0.09135929 -0.1565027
0.25441617 -0.015546753 0.1334443
-0.37136447 0.11474527 -0.21705724
-0.21495299 0.012080825 -0.17779128
0.16074038 -0.14127359 0.17604366
-0.2857778 0.19622625 -0.1743347
-0.33331826 0.10340238 -0.18694803
0.0105731245 -0.071072474 0.023080016
0.19200486 0.0513772 0.035003833
-0.103091516 -0.01538049 -0.04744161
0.20399341 -0.07474135 0.17748228
0.20278355 -0.11427495 0.14791259
-0.03225663 0.100378126 -0.07097249
0.08381802 -0.065769896 0.14033617
-0.063092805 0.048286762 -0.019677406
0.16500318 0.019861542 0.1133069
0.2178902 0.026039938 0.0898624
-0.19558991 0.18040332 -0.15816084
-0.2867766 0.11265579 -0.1465742
0.15927942 -0.17671518 0.15786038
-0.3697686 0.19663 -0.21925901
-0.24838518 0.1625582 -0.14041774
-0.01046186 0.025217656 0.00916951
0.20677015 0.0103274165 0.12185121
-0.0397026 0.030569026 -0.0038042008
-0.29055113 0.057895318 -0.25969413
-0.14741485 0.12124807 -0.08923626
-0.046732016 -0.053219046 -0.020475851
0.11073795 -0.17692861 0.13074416
0.095712274 -0.18035224 0.111021675
0.09040094 -0.18943709 0.093394436
0.18297175 -0.18317182 0.049651105
-0.028666234 0.00361119 0.009172284
0.083108045 -0.04103624 0.13403139
-0.07451312 0.08627022 -0.04879352
0.12685452 -0.1741704 0.1483472
0.2433621 0.019238347 0.08742404
-0.06600286 0.09346381 -0.054339044
-0.30214462 0.16266054 -0.15920654
-0.2928526 0.14588101 -0.15006179
-0.130735 -0.024966802 -0.09099762
0.14812906 -0.027211094 0.1518395
-0.2043482 0.0976164 -0.09658591
0.22374547 -0.06383997 0.15704241
0.03939737 -0.015547335 0.04494424
0.15240669 -0.225809 0.1095538
0.0073197763 0.07996449 -0.04795809
0.19358152 -0.18717211 0.099588744
-0.02523921 0.082029454 -0.040528454
-0.24773134 0.18624802 -0.16096114
0.06918998 -0.0936335 0.13104944
0.10299578 -0.14838162 0.14172666
-0.204058 0.15455082 -0.12661259
-0.23595637 0.07101054 -0.11979327
-0.25490242 0.09825149 -0.1272953
0.19163024 -0.08885186 0.18137243
0.16178606 -0.21908246 0.117327966
0.109451085 0.016409788 0.035817824
-0.24053112 0.15800616 -0.13536258
0.18448423 -0.24272129 0.05990684
-0.040748406 0.08439583 -0.043064564
0.09893145 -0.12199977 0.14720947
-0.08956965 0.10708681 -0.06963226
-0.064769804 0.010063049 -0.012435077
0.038568564 -0.02318657 0.046162453
-0.034459442 0.041061796 -0.006960233
0.1929865 -0.2335788 0.060058035
0.104938075 -0.13711534 0.14887418
0.09308606 -0.010871911 0.12530896
0.13898554 0.03416491 0.09687339
-0.17383642 0.18220045 -0.17738977
-0.32404757 0.17319266 -0.17194411
0.077121526 0.045109056 -0.01056773
0.19324005 -0.054790854 0.18042517
-0.15965044 0.033186246 -0.07327323
0.050758056 0.008939071 0.0366154
-0.07552481 0.007302222 -0.019397296
-0.3354771 0.14267984 -0.17555052
0.18505374 -0.027965005 0.16189636
0.21971434 -0.0116835 0.14965358
-0.27375376 0.12722711 -0.13784966
0.035740376 -0.097698994 0.027470239
-0.3272033 0.20801795 -0.19097243
0.1373395 -0.06423745 0.16495246
-0.2526162 0.16491304 -0.1430648
-0.24482362 0.22120842 -0.2329858
0.12335199 -0.19277103 0.12964629
-0.09862796 0.0881461 -0.05369548
0.076983124 -0.073400185 0.13665128
0.17242303 -0.079716526 0.1848901
0.06348809 -0.19497845 0.013238991
0.21355675 -0.10004145 0.14239989
-0.28279665 0.15244015 -0.14765382
0.06854661 -0.15639795 0.10420538
0.16055198 -0.16736254 0.16338609
-0.1877146 0.0052040564 -0.12472885
-0.33224747 0.13647468 -0.17418963
-0.084105976 -0.00412286 -0.02740888
0.09818826 -0.20620759 0.07266741
-0.16022953 0.090925366 -0.07512409
-0.21444939 0.055832524 -0.10829226
0.1352185 -0.032552615 0.15039356
-0.035865873 0.08797502 -0.04739728
0.16976948 -0.031094452 0.16049089
-0.067123085 0.09153154 -0.052245732
0.03187989 -0.11340866 0.09784449
-0.21246603 0.14964247 -0.1234644
0.03888913 0.060263224 -0.11817154
-0.28236362 0.24133825 -0.27244404
0.05603394 -0.038852137 0.12155306
0.04287063 0.04747306 -0.0014097391
0.28636533 -0.0104764225 0.08825206
0.11686039 -0.02459737 0.14023957
0.146713 -0.07771493 0.1732748
0.25339833 0.022148484 0.04514446
0.03233432 -0.08082791 0.10823348
0.01114899 -0.03917048 0.032588862
0.09968886 -0.0026868342 0.12320589
-0.117504 0.06298791 -0.048254386
-0.24906446 0.07887487 -0.12734829
-0.16578713 0.12657176 -0.0965302
-0.15026145 0.020213692 -0.07041782
-0.16111402 0.1362523 -0.10505458
-0.33483213 0.22450164 -0.20616716
0.07782901 -0.16735381 0.103824824
-0.23049846 0.19470605 -0.1722581
0.11415231 0.012993261 0.11668175
-0.1089163 0.043349773 -0.038742192
0.034243837 -0.02458408 0.044899642
0.13634594 0.0534738 0.07026324
-0.290886 0.19356853 -0.17274767
-0.12020288 -0.037031397 -0.10997837
-0.19691679 0.08946516 -0.09176119
-0.24176207 0.13178971 -0.12348959
-0.23842892 0.08475399 -0.117995426
-0.3026531 0.2201903 -0.19941129
0.3026591 -0.03794089 0.04824225
-0.1876282 0.07487015 -0.08618868
0.20878336 -0.030125037 0.16813944
-0.36168933 0.11867694 -0.20375744
0.0337136 0.06015865 -0.020439213
-0.14992748 0.0973092 -0.07384425
-0.06030788 0.08642655 -0.046434022
0.17496653 0.033624906 0.092855416
0.18011871 -0.15249398 0.1522872
0.051473968 -0.065959685 0.12150987
-0.09278439 0.03074714 -0.028901862
0.26947704 -0.06189541 0.074926525
0.023038885 -0.14540964 0.06428689
0.053432994 -0.18843794 0.021543872
-0.26433244 0.11262114 -0.13239679
-0.2449417 0.18647057 -0.16105273
-0.05465447 0.002662861 -0.0064877295
-0.21771592 0.089039646 -0.10435206
0.05931716 -0.11989883 0.118336506
0.19910565 0.012348258 0.12023245
-0.32646635 0.19559619 -0.18233399
-0.121702194 0.019418022 -0.04887512
0.217138 -0.23246312 0.020813508
-0.051588677 0.06779231 -0.029119678
0.16804461 -0.20883882 0.123197645
-0.027676359 -0.07455347 -0.02252154
0.08336146 -0.11205258 0.13814838
0.1543785 -0.064268544 0.17156301
0.20464273 -0.18333174 0.02314093
0.17848195 0.04545398 0.0689463
-0.31929788 0.19910501 -0.18250467
0.14433639 -0.070782244 0.17005865
-0.23597805 0.044969343 -0.13429895
-0.33952102 0.22726248 -0.21697216
0.08433243 0.018747762 0.03222668
-0.01190677 0.047677696 -0.0059789387
-0.19974218 0.029769082 -0.10887474
0.27713296 -0.0040076496 0.09974134
0.21046308 0.043005746 0.039489932
0.29113123 -0.051192746 0.05586947
-0.12606183 0.008478329 -0.05549712
0.092225015 -0.01245467 0.12584968
0.2535055 0.018070914 0.07728083
0.20865944 -0.19043496 0.043183133
-0.38505533 0.13328873 -0.2287712
-0.20448631 0.007937002 -0.19063151
-0.30744457 0.13703944 -0.15817644
0.16555049 0.067131266 0.007396187
0.06947122 -0.019066267 0.12029329
-0.2780226 0.17820124 -0.1582961
0.07294515 -0.059107505 0.1337711
-0.35673097 0.20103957 -0.19515006
-0.056184888 -0.041899208 -0.020423258
0.19904834 -0.2177294 0.063802525
0.24768719 -0.13549204 -0.0074127945
-0.324974 0.18269786 -0.17537703
0.018045455 0.06503467 -0.024316821
0.16057652 -0.17556246 0.15839691
0.112648144 -0.058036435 0.1522455
0.05378483 -0.08392344 0.12189733
-0.07172541 -0.035570957 -0.030890392
-0.2551768 0.07820149 -0.13241269
0.08677679 -0.006883978 0.06487155
0.018336205 -0.08681288 0.019383235
-0.31889525 0.2219958 -0.20235409
0.065231994 -0.07859902 0.12944728
-0.27447915 0.07634936 -0.14930983
-0.2798566 0.13108762 -0.14158267
0.059986893 -0.09049706 0.12542234
-0.10292566 0.03056146 -0.035319567
0.12140308 -0.11103477 0.16299888
-0.3268979 0.17211342 -0.3150024
0.051130254 -0.07657668 0.12065955
0.037751153 -0.050748907 0.11120637
0.09104613 -0.04560931 0.13892882
0.13328607 -0.115818724 0.17021924
0.23654954 -0.08046769 -0.012006439
0.2522763 -0.110421605 -0.01776591
-0.14008097 0.10340438 -0.07353542
0.28009778 0.007207676 0.074285395
0.21523467 -0.13186485 -0.020442335
0.031646952 -0.09513076 0.10543971
0.024932103 0.050928824 -0.004483358
0.18656875 -0.19910485 0.10084822
0.10847363 0.016298482 0.1130419
0.08266119 -0.20544358 0.01181669
-0.09645539 0.06282268 -0.038275298
0.1305051 -0.22730693 0.01144429
-0.09057728 0.04360836 -0.030480593
-0.027079586 0.10294457 -0.0811205
-0.30330706 0.14624554 -0.1559454
-0.30375895 0.23072444 -0.21207008
0.21421939 -0.037978392 0.16954593
-0.3539478 0.13942829 -0.1890073
0.02885597 -0.11755927 0.093112834
0.15080471 -0.16789758 0.16442269
-0.10217351 -0.04246822 -0.08012933
0.19144863 -0.10653007 0.17355216
-0.3821663 0.16771984 -0.22495475
-0.002818764 -0.015213388 0.025194477
0.04311151 -0.04029279 0.115738645
0.23655179 -0.22340493 -0.0036061471
0.03323493 -0.16766652 0.044353165
0.07894566 -0.014712858 0.12210506
-0.17984833 0.14654036 -0.11671241
-0.1655065 0.17530549 -0.16347328
-0.21603414 0.023571268 -0.13664111
-0.08840477 0.058151886 -0.033467993
0.1361413 -0.09864995 0.17195867
0.032067023 -0.1557004 0.06268286
0.09670409 -0.03694607 0.13814244
0.13876152 -0.073133595 0.168369
0.14567234 -0.17305012 0.16183756
-0.040854577 0.09104147 -0.051056042
0.23506318 -0.026141375 0.1531752
-0.15896799 0.06490021 -0.06867685
0.04098638 -0.112951934 0.1059754
-0.34816512 0.12407908 -0.18944427
-0.22867116 0.17361858 -0.14735426
-0.27275994 0.04232962 -0.21136329
0.01540003 -0.0017478436 0.030212427
-0.35772443 0.11756532 -0.20079365
0.088925675 -0.06836611 0.14340055
0.2549221 -0.18843782 -0.003668618
-0.30336204 0.07962369 -0.17553884
-0.27140075 0.21572794 -0.19604793
-0.34750718 0.1596932 -0.18213604
0.064770296 -0.19555064 -0.006046609
-0.24189846 0.21015811 -0.19649836
-0.16899613 0.003834059 -0.101721235
-0.24287058 0.06327085 -0.12833615
0.23956336 -0.1835182 0.012405526
-0.35158116 0.0933361 -0.22009669
0.037031665 -0.1222773 0.09780146
0.14497484 -0.10066391 0.17716709
0.24432409 -0.09195658 -0.013500397
-0.10706362 0.044917822 -0.037834004
-0.1629898 0.07718933 -0.072021976
0.13211161 -0.15612246 0.16303614
0.12938155 0.05261514 0.07282013
-0.18689242 0.066977374 -0.086195
0.25005087 -0.122956455 -0.01252864
0.06701934 0.029469956 0.020252354
0.1294288 -0.11566413 0.16779251
-0.20428966 0.074373834 -0.09674504
-0.22682242 0.114024006 -0.111293435
0.22348925 -0.011048926 0.14872709
-0.073222615 0.03784462 -0.021238348
0.15241095 0.04172853 0.08487545
0.026891308 -0.08047856 0.03240416
-0.097929925 0.13839458 -0.11894534
0.21109882 0.022682302 0.099860646
-0.34241465 0.15008801 -0.17949077
-0.1967336 0.0049663344 -0.14454153
0.1145579 0.00075367145 0.12531501
0.072172634 -0.0062583596 0.11599819
0.19881897 0.016129304 0.114635155
0.108144276 0.048008002 0.081197485
-0.15280986 -0.00085818 -0.0868959
0.10671852 -0.08457463 0.15434277
0.108407155 -0.21736194 0.053873055
-0.018883286 -0.05624427 0.005045532
0.14121169 -0.18431345 0.15423617
0.19719195 -0.05888952 0.17898479
-0.09934605 0.09442199 -0.05907104
0.12832901 -0.037845414 0.1506108
0.15344736 0.062272854 0.044550836
0.24523118 -0.060850255 0.013300425
0.1757609 -0.039725855 0.16740444
0.24091245 -0.058273666 0.13331546
-0.01391191 -0.056920342 0.00908375
-0.08623843 0.12373869 -0.093608335
-0.28409168 0.071666256 -0.16153905
-0.06229351 -0.007204659 -0.01190484
0.116369665 -0.076361686 0.15963252
-0.12967119 0.09402026 -0.06536871
0.2557842 -0.0039053592 0.12614019
-0.14412695 0.09034346 -0.06807439
0.31380722 -0.034369424 0.008113321
-0.32169524 0.12082015 -0.17000003
0.094874136 -0.14368944 0.13706972
-0.26913163 0.15048955 -0.14117593
0.19826305 -0.105629556 0.16299045
0.10535778 -0.101778366 0.15341541
0.009131912 -0.08288123 0.012457422
-0.22440837 0.017089183 -0.18663786
-0.18608493 0.09764321 -0.08868815
0.20855926 0.031242471 0.083420664
-0.23506622 0.11436309 -0.11514546
-0.17865944 0.09082993 -0.083302036
-0.37510392 0.16366816 -0.19933353
-0.09307302 0.019947562 -0.02972891
0.19417198 -0.20914473 0.07941863
0.17427485 -0.21809426 0.104738764
0.13993791 0.06539002 0.046344917
-0.1730553 0.17963834 -0.16932774
-0.0063000224 -0.07335887 0.006221699
0.17054167 -0.14036523 0.17450742
0.093404196 0.0032984477 0.11803048
0.08691696 -0.17097253 0.110401206
-0.18678011 0.099784605 -0.08968678
-0.09164593 0.056770034 -0.034597464
0.141128 -0.16812289 0.1647526
-0.041919593 0.11504084 -0.11374705
0.1853498 -0.036455914 0.16788796
0.104886085 -0.14578517 0.14468525
0.3135973 -0.09532893 -0.028541878
0.19211623 -0.07778972 0.18154794
0.09753786 -0.0814409 0.14889143
-0.34288102 0.21709822 -0.20105875
0.031845957 -0.1008322 0.10421059
0.12896499 -0.0914342 0.16752134
0.23918764 -0.010760604 0.14464974
0.2825214 -0.14694354 -0.013399901
0.05285331 0.036933508 0.011667764
0.21309239 -0.1886801 0.031453904
-0.32734054 0.16007546 -0.17052771
-0.26850095 0.22823538 -0.22153826
0.1270319 0.046424787 0.08237261
0.22126807 -0.14138864 -0.013845529
0.05825566 -0.038448464 0.059675172
0.21726106 -0.061547853 -0.0055052834
0.16062377 -0.1502756 0.17230885
0.28436112 -0.060027655 0.059427626
-0.17807019 0.07147991 -0.08035212
0.03924454 -0.010265769 0.0432996
-0.28344887 0.1305506 -0.14354852
0.17536217 -0.08394378 0.18638593
-0.17867902 0.040297307 -0.08561801
0.11465588 -0.12006643 0.15819554
0.18643168 0.057122502 0.0068466566
