# .PCD v0.7 - Point Cloud Data file format
VERSION 0.7
FIELDS x y z
SIZE 4 4 4
TYPE F F F
COUNT 1 1 1
WIDTH 1000
HEIGHT 1
VIEWPOINT 0 0 0 1 0 0 0
POINTS 1000
DATA ascii
-0.028164316 -0.09139191 0.025431331
-0.04935313 0.3110502 -0.018725278
-0.05091767 0.3635763 -0.024923397
0.07320033 -0.111502066 0.015419836
-0.09453643 -0.037572183 -0.05639803
-0.12952949 -0.22971524 0.002880779
0.015780758 0.115376815 0.0034311742
-0.028526219 -0.38507953 -0.08708546
-0.10335215 0.05326263 -0.06330885
-0.014059352 0.07396107 0.011662266
-0.081403635 -0.22136569 0.0736202
0.049085014 -0.19219412 0.10609869
0.11822679 -0.37551486 -0.13522246
0.010608087 -0.29015833 0.11986472
0.08177963 -0.28101102 0.112025544
-0.01783832 -0.1877132 0.103303246
-0.061903685 -0.10569996 0.003403536
-0.016231265 0.052173454 0.014135351
-0.060229894 0.47769424 -0.12577002
0.02799048 -0.10749741 0.03308234
0.1292 -0.37195945 -0.115955114
-0.017984182 -0.21673846 0.10593752
0.07637817 0.18979332 -0.07979988
-0.060544375 0.4080273 -0.030924868
-0.0074718506 -0.33358446 0.11988959
0.0069932207 0.082071856 0.009690155
-0.006243984 0.19992478 -0.004823376
-0.10698043 0.34675884 -0.049956724
0.17137833 -0.32680565 0.052740585
0.15119548 -0.15821931 0.034930293
0.103700206 -0.3463579 0.09495247
0.07249482 0.1468853 -0.05137905
-0.13532376 0.3403214 -0.108674414
-0.07241257 0.24774246 -0.020657027
-0.01535922 0.22810726 -0.007268871
0.026345583 -0.24619336 0.116167285
0.018734198 0.1906066 -0.008782034
-0.039764397 -0.38601196 -0.08501094
0.061627727 -0.37418756 -0.11116445
-0.051283505 -0.3791001 -0.019551259
-0.09385189 -0.27640927 0.061599843
0.14889522 -0.22139235 0.054053705
-0.043519095 0.020998305 0.009982734
0.028317478 -0.38830316 -0.16149586
-0.0071147056 -0.015094168 0.022603689
-0.041114666 0.48309028 -0.09863539
-0.01244737 0.37765533 -0.029078506
-0.114940725 0.23100145 -0.06498371
0.016125878 0.32479218 -0.0318475
-0.07261832 0.36886114 -0.029486606
0.034823734 0.46998382 -0.16359505
-0.09550651 0.018025236 -0.044742532
-0.079590276 -0.3087524 0.07774699
-0.08381298 0.26454362 -0.02841877
0.1256216 -0.34791765 0.07910068
0.050835554 -0.3210603 -0.119673945
0.08911823 0.08435376 -0.07898763
-0.06175232 -0.04286812 0.0027439105
-0.07186686 0.221371 -0.018674042
0.020053921 0.37552887 -0.04341218
0.18778493 -0.31490254 0.010735239
0.030675957 0.2508111 -0.026664402
-0.118179396 0.23497114 -0.071135804
0.010908092 0.2660752 -0.01832328
-0.026041051 0.3939781 -0.029063433
-0.084024526 0.13391852 -0.022871364
0.15292226 -0.3126282 0.07160314
-0.016558608 -0.014556779 0.021615209
-0.016880339 -0.31482083 -0.10632988
-0.07282945 0.051452108 -0.0099918535
0.081415296 0.040431827 -0.033791956
0.105676256 -0.15360124 0.0770773
0.025779476 -0.35350937 0.11043215
0.022041952 -0.06304622 0.027773669
0.17333986 -0.30659387 0.042547297
-0.095308594 0.21704684 -0.03595391
-0.018378388 -0.008184393 0.020648006
0.014968804 -0.28487793 0.120097816
-0.08280864 0.35445687 -0.033392828
-0.09064958 -0.038729027 -0.04001673
0.03769183 -0.21950525 0.1117232
0.08558295 -0.031981856 -0.019683655
0.018032579 0.29807138 -0.028061775
-0.08629957 0.15901665 -0.025599187
-0.084673695 -0.38974455 -0.07676612
0.04194753 0.15861578 -0.016145624
0.037591185 -0.23258245 0.113466755
0.095826946 -0.012951703 -0.102598175
-0.05054653 0.43836156 -0.03350923
-0.022877434 -0.32660466 0.114360884
-0.032378092 0.23991774 -0.008993157
0.060445443 -0.15200534 0.032540213
0.047990695 -0.32359782 0.12471402
-0.072610565 0.15546858 -0.015028852
-0.1296927 0.38217518 -0.08103935
-0.12952794 -0.24091105 0.0005042947
0.074087024 -0.02715237 -0.0037388597
0.1488246 -0.3128052 0.07538129
0.15071402 -0.36227995 -0.05638587
0.008831675 0.4293293 -0.046770558
-0.026699182 0.053408954 0.012689115
0.050456654 0.37113875 -0.083216116
-0.03974266 -0.36525452 -0.076732755
-0.042911664 -0.34333894 0.10589295
-0.005620029 0.012262571 0.019420939
-0.061393704 -0.17068847 0.053608768
-0.08479 -0.21216519 0.07029697
-0.025847273 0.43622005 -0.035114713
-0.12844147 -0.27741912 -0.0850096
-0.011365406 -0.09743423 0.03129204
-0.02666205 0.2557203 -0.010942325
-0.08979866 -0.27392405 0.06663575
0.070229016 -0.3508069 0.10458097
0.020977784 0.38320142 -0.046082035
0.10154132 -0.27547726 0.103070475
-0.10715914 -0.38004848 -0.017474663
-0.02911958 0.18589881 -0.0024532133
0.040937524 0.22763383 -0.030201327
-0.06201888 0.031764876 -0.0011826379
-0.12968819 0.3573888 -0.083305575
0.064112715 0.1704317 -0.04412302
-0.048567217 0.032873318 0.006854404
0.12609693 -0.33258316 0.09148535
-0.000735248 0.09400613 0.009319116
0.1096557 -0.12705918 -0.03803322
0.030130047 -0.16073292 0.1045286
-0.09159297 -0.17340502 0.05748446
-0.09591698 -0.18227005 0.059384085
-0.03767132 0.36587405 -0.02465233
0.15627077 -0.17610414 0.032570675
0.0741676 -0.046576645 -9.8086864e-05
-0.09012102 -0.08302735 -0.052918922
-0.08414202 0.29893136 -0.030666333
0.10653618 -0.21679285 0.08908856
0.05811818 -0.3201165 0.12277065
-0.051476464 -0.24869448 0.09562723
0.16774288 -0.17116624 0.0073821335
0.08694586 0.07459096 -0.056876212
0.13545167 -0.25642163 0.07513672
0.14042626 -0.2676913 0.07308429
-0.020352056 0.4146773 -0.032991465
0.1606593 -0.22939359 0.04135777
0.062043898 -0.32293928 -0.11537091
-0.04168588 -0.31042558 0.10477951
-0.002338265 -0.22759134 0.11094722
-0.10150532 0.02325747 -0.06681171
0.026172489 0.006632113 0.017133085
-0.044319957 0.14872377 -0.0008941708
-0.024239916 0.104787655 0.007339738
0.005418454 -0.3734631 -0.11270028
0.1962082 -0.32853016 -0.033805586
0.09697253 -0.049897097 -0.034460485
0.16847046 -0.21211943 0.020944512
-0.12635924 -0.18634996 -0.01706718
-0.118334614 -0.33428782 0.016147625
-0.06445086 -0.006110014 -0.00078197056
-0.10863064 -0.22103673 0.043648973
0.027589016 0.16424584 -0.009092353
-0.0066574966 -0.17941982 0.10510521
0.0013592024 -0.076880574 0.03037513
0.059223488 -0.3097392 0.121100955
-0.08588798 -0.26174408 0.07071475
-0.037513983 -0.124559164 0.023003647
0.03812429 0.21209489 -0.023924444
-0.10091519 0.47387743 -0.12180846
0.027240688 -0.2928875 0.122291155
-0.017923461 -0.20391802 0.104771756
0.00358196 -0.3351925 0.12332424
-0.016473252 0.4127526 -0.03338545
0.040380016 -0.29453632 0.12146345
-0.06391951 -0.23133305 0.08701944
0.023926754 0.39870003 -0.052066628
0.0012830414 0.12091665 0.0051389993
0.030459305 0.22251998 -0.021472365
0.047983088 -0.35266414 0.10859802
0.027835643 0.1746194 -0.011174814
-0.13162483 -0.23949459 -0.006650571
-0.0632144 -0.08141803 0.0018349935
-0.06064218 -0.26673415 0.09113091
0.01190484 -0.24650139 0.11551056
-0.003676322 0.27071607 -0.015351279
-0.0388708 0.054359246 0.009719088
0.08164564 -0.29417112 0.11406985
0.17247415 -0.26772436 0.0314754
-0.09372077 -0.22884172 0.06209068
-0.11615648 0.28857726 -0.062595144
0.06683817 -0.21226193 0.10553678
0.045978278 0.21646425 -0.032278717
-0.13735023 -0.2081944 -0.019182472
-0.0055066883 -0.30985078 -0.11695668
-0.07509476 -0.1751252 -0.009988703
-0.057607934 0.4682004 -0.20442355
0.0096494295 0.22833787 -0.0119293425
0.19430014 -0.31446794 -0.025246486
0.16169949 -0.22099084 0.036852002
-0.08462212 -0.39237663 -0.09799851
0.045863386 0.1050246 -0.008609467
-0.118562974 -0.33205247 0.01589204
0.07214605 0.061000846 -0.024822054
-0.13974637 0.3853352 -0.111894965
0.18700431 -0.24789831 -0.02748382
0.15087357 -0.1521409 0.021925194
0.05467661 0.32809752 -0.07691002
-0.063995324 -0.18395364 0.08414093
-0.073571295 -0.17874834 0.07800449
0.034803122 -0.05536961 0.02448205
0.02404421 -0.020356236 0.021345235
-0.08354538 0.42485857 -0.038267687
0.17401813 -0.15753801 -0.04125235
0.19147155 -0.2908603 -0.055750344
0.115676485 -0.25890642 0.091016404
-0.07489814 0.29358745 -0.02498661
0.03296635 0.33433026 -0.046193097
-0.11832488 -0.3732313 -0.032394473
-0.10499202 -0.20866218 0.048277095
-0.04111608 0.3296307 -0.020115083
0.11759332 -0.37030616 -0.09275158
-0.049445275 0.28371447 -0.015639065
-0.016493741 -0.0012739922 0.020191444
0.020263098 -0.036038183 0.024231458
-0.07249819 0.20805094 -0.01819628
0.048214313 0.3975987 -0.08765302
-0.10426286 -0.29519176 0.047284175
0.13734706 -0.329697 0.085269056
-0.09545214 0.07848141 -0.039031174
-0.11049966 -0.32090494 0.036147047
-0.01852978 -0.33195657 0.11639873
0.03093333 -0.029579422 0.021474335
0.0684657 0.28208342 -0.10774535
-0.024400597 -0.018720698 0.020470522
0.007372113 0.20277496 -0.007574364
0.092513256 -0.2806777 0.10909695
0.009576573 -0.1902665 0.10918085
-0.027724557 0.01323296 0.016509311
0.021098992 -0.13385315 0.0380241
0.06435339 0.14021274 -0.03545664
-0.003625942 -0.059643973 0.028077472
0.039620955 -0.3873643 -0.16357829
-0.088615835 0.0034195974 -0.032166693
0.014657518 -0.33559495 0.124187425
0.15107037 -0.3648734 -0.077562585
-0.04405215 0.42827946 -0.032412328
0.056681752 0.332687 -0.08303089
0.017701251 0.36743978 -0.040758945
-0.060962435 0.25816402 -0.015729003
-0.04962267 0.22969286 -0.010188107
0.0438922 0.24314393 -0.03619323
-0.13599347 0.38383114 -0.09552233
-0.012665726 -0.1638686 0.10238521
0.081365265 -0.34971625 0.10221717
0.13737227 -0.27350593 0.07715844
-0.024066849 0.20302609 -0.004283427
-0.118163146 0.32175276 -0.06459773
0.03926998 -0.106598504 0.031010909
-0.11823462 0.24697988 -0.07020347
-0.06709851 -0.036444128 -0.0027548596
-0.070458 0.06503207 -0.00854716
-0.046165116 0.25933775 -0.012504984
-0.10554691 0.26875046 -0.047686182
-0.095207654 0.31230727 -0.038398128
-0.07385606 -0.31644034 0.083151825
0.049810596 0.07600805 -0.005550504
0.0941718 -0.17110866 0.08790436
-0.11833751 -0.35640952 0.011113776
0.108410634 -0.24359934 0.09299362
-0.03912397 0.25821215 -0.011701222
-0.038153917 0.24229991 -0.009778817
-0.0009410097 0.119208574 0.005763385
0.052049816 -0.23532768 0.11173448
-0.1230022 0.32056028 -0.07312158
-0.09552587 -0.005594531 -0.04814659
-0.040234443 -0.18207726 0.095496565
-0.005972528 -0.29420474 0.11671132
0.006777764 0.10666994 0.0062213796
0.15075107 -0.18676877 0.04282634
0.04203095 0.22742437 -0.03112958
0.12564413 -0.27958795 0.087808445
-0.04975304 -0.04632906 0.010931945
0.08238251 -0.19411355 0.09860039
0.068808325 0.2555868 -0.082942694
-0.07367959 -0.22953789 0.08083601
-0.051796004 -0.09673466 0.012622892
0.01789215 0.06688021 0.009976808
0.050437618 0.4529897 -0.13161972
-0.1375384 -0.23897333 -0.042858485
-0.0074046473 -0.32088506 0.11873855
0.17632556 -0.16870357 -0.024328895
0.045789212 -0.22516242 0.11136339
0.015296997 -0.2332732 0.11473523
-0.049716007 -0.22538155 0.094647944
-0.06145156 0.07339475 -0.0033576724
0.011388912 0.09870402 0.006561361
-0.038971048 0.02783088 0.012277069
0.09228534 -0.1346227 -5.699848e-05
-0.062485784 -0.20747013 0.08646549
-0.041556213 -0.28705508 0.103029884
-0.04666072 0.09368795 0.0039152633
-0.04008793 -0.17446513 0.094973594
-0.07193214 0.46418676 -0.038772102
-0.084994085 -0.35684752 0.064962596
0.060042765 -0.21766259 0.10784072
0.019529803 0.34071153 -0.036920507
-0.027452752 0.2569429 -0.011067961
-0.12055319 0.23374557 -0.07788887
0.038528096 -0.3217311 0.12521915
-0.032694068 -0.320851 0.10956849
0.012311871 0.37821096 -0.039421905
-0.028269673 -0.11711012 0.027119726
0.005816339 0.0052346354 0.020839108
-0.085812636 0.4263647 -0.039669
-0.084121056 0.070334546 -0.022565933
-0.08707203 0.37097344 -0.036893345
0.020166045 0.39031035 -0.046896506
0.023816388 0.078241765 0.0073382636
-0.10469577 0.4092524 -0.050003335
-0.11831152 -0.20483862 0.02889497
0.042282138 0.25640336 -0.037628956
0.0730218 -0.35060686 -0.10895737
0.1277564 -0.19948684 0.06958082
0.07498145 0.037225015 -0.02246194
0.007458706 0.48238936 -0.14568952
-0.005267134 -0.014979694 0.022680176
-0.0155556705 0.04660976 0.014838631
0.11370071 -0.25458372 0.091607265
0.09333818 -0.35663384 0.037975214
0.1121184 -0.14039718 -0.045301966
-0.046781532 0.4780995 -0.13397767
-0.07288005 0.026006106 -0.0096715195
-0.0025327187 0.46854722 -0.047022097
-0.093985744 0.24821274 -0.03486072
0.11637004 -0.20414738 0.07938946
0.12439964 -0.16504249 0.06503828
-0.080604896 0.4374018 -0.03819319
-0.10535677 0.24029753 -0.048138414
0.06344468 -0.32650438 0.12276233
0.09014044 -0.024654172 -0.028517859
-0.0417344 -0.10784917 0.019468613
0.18399861 -0.2809894 0.0071072006
0.08653327 0.04339154 -0.04506232
0.052113254 0.4394613 -0.14040494
-0.10826303 0.19923271 -0.054077357
0.0066284044 0.10350034 0.006698424
-0.029095106 0.42041755 -0.03230485
-0.02090428 -0.2709581 0.110055156
0.17135717 -0.33688262 0.038226478
0.0058538457 -0.042532206 0.027635679
-0.040182464 -0.20017 0.09691991
-0.10676683 0.16259848 -0.054674566
-0.05259281 -0.24700476 0.09484691
-0.0107605485 -0.013211322 0.022170885
0.16627009 -0.18547615 0.016440619
0.035229094 -0.012883685 0.018356321
0.06194071 -0.33574626 -0.11431968
0.0967713 -0.064912714 -0.029423418
-0.09525217 0.2686474 -0.03644974
0.043467786 -0.117542505 0.031848297
0.05058575 -0.10463451 0.026928358
0.14014784 -0.36841202 -0.09673562
0.10025357 -0.075460985 -0.03229967
0.06224261 -0.3854683 -0.16760473
-0.060466096 0.4356853 -0.034105282
0.02817967 0.033611212 0.012946007
-0.04511241 -0.04973088 0.013876122
0.16972265 -0.15975052 -0.055401094
-0.06255176 -0.23280841 0.08794034
0.10107092 -0.20597321 0.09032224
-0.054321423 0.4076829 -0.030316915
-0.037218645 0.18675591 -0.003294134
-0.0963639 -0.007471814 -0.052746728
0.1724778 -0.22422588 0.016636638
0.048121195 0.46476534 -0.1484057
0.033497 -0.20531237 0.110175125
-0.073649585 -0.38096255 -0.0154747255
-0.112526625 0.27251044 -0.057841983
0.1348428 -0.22940762 0.06972315
0.007084522 -0.24540775 0.11452415
-0.005628785 -0.08132359 0.030490037
-0.0360191 0.4106755 -0.030456282
-0.09790913 -0.3733947 0.023556199
-0.0026162167 0.48603526 -0.1077557
0.10392385 -0.35056716 0.07778665
-0.107006684 0.06778238 -0.0921558
0.041904032 0.21296526 -0.027887205
-0.13035691 0.38106695 -0.08249099
-0.04912175 0.37985292 -0.026636166
0.059894666 -0.2725615 0.115688555
0.075278684 0.07647026 -0.035184275
-0.10679801 0.10232756 -0.06150462
-0.0070706205 -0.2569831 0.112945795
0.18542206 -0.2386674 -0.06788297
0.085500665 0.12323138 -0.09830457
-0.0039112936 0.22918864 -0.009393847
0.12953383 -0.37457716 -0.13731381
0.08420139 -0.3524727 -0.104665846
0.031285036 -0.34668875 0.11594536
-0.03233858 0.47233367 -0.19270359
-0.0902269 0.17528448 -0.030017091
0.0202757 0.4050039 -0.050176557
-0.12231896 0.29175127 -0.07437856
0.0066122003 0.27236128 -0.017972222
-0.0959829 -0.24384211 0.05918703
0.019136382 0.24703121 -0.019251518
0.045514613 -0.31206286 0.12338028
-0.07474936 0.24118647 -0.021588033
-0.0053932923 0.37798288 -0.03099625
0.037283555 -0.3587227 0.06895779
-0.09596983 -0.23161507 0.059286386
-0.09370754 -0.022985946 -0.045987222
-0.07214998 0.36818776 -0.029307628
-0.05522204 -0.19210038 0.08963538
0.11695555 -0.23884356 0.08599574
-0.07380472 -0.31128186 0.083049275
0.024862967 0.44088715 -0.062034678
-0.13294744 0.32509333 -0.101435676
0.06260914 -0.22885327 0.10899325
-0.02256544 0.27387685 -0.0134223085
0.086534984 0.11080311 -0.08387395
-0.13035955 -0.22021456 -0.105500765
0.061167374 -0.109801635 0.02207178
0.069922544 -0.25681946 0.111510724
0.021989925 0.42537412 -0.056116033
0.07474479 0.031319987 -0.020300448
-0.01577758 0.1455018 0.0027811043
0.04930486 -0.16568226 0.10228343
-0.059458364 0.37706572 -0.02725732
-0.013556819 -0.025262639 0.023231309
-0.083811454 -0.36501217 0.055340104
-0.12011815 -0.34628433 0.007313671
0.009058767 0.29285645 -0.022000996
0.05324823 0.19002587 -0.03314275
0.01040122 0.40498355 -0.043215714
0.042533174 0.28545105 -0.044120666
0.030461147 0.060342934 0.008244148
-0.037340928 0.44936943 -0.035368457
0.04809833 -0.31062096 0.12298476
0.1392904 -0.19863656 0.058863133
0.12637626 -0.19173916 0.06912997
-0.02662088 -0.07406642 0.025332227
0.077025026 -0.2060463 0.10185715
-0.026601734 0.26935184 -0.012692496
-0.01707662 0.019306848 0.017847193
0.031002438 0.18014352 -0.014166977
-0.03927753 0.44519383 -0.034760144
-0.06088531 -0.30432564 0.09323081
-0.06547309 0.021491112 -0.0028761218
0.0034502447 0.13592392 0.0026257709
-0.1358625 -0.19404644 -0.010232249
-0.047113456 0.06566043 0.0050327796
0.11895811 -0.2656022 0.089937456
-0.113221884 0.35772532 -0.05681543
0.056679495 -0.19077745 -0.20875552
0.12935723 -0.17619038 0.062974796
-0.004511526 0.34055066 -0.025323126
-0.13164023 0.4568047 -0.08702209
0.17405617 -0.18959488 -0.0034585225
0.041779574 0.19851215 -0.024618039
0.18889487 -0.2618039 -0.03604532
-0.114922166 -0.2466276 0.032430395
-0.079757966 -0.19883302 -0.15727425
0.04350519 0.36084095 -0.06650978
-0.009774705 0.25366822 -0.011873337
0.047996935 0.18971589 -0.02828786
-0.1068043 0.07047954 -0.07429142
-0.096058324 -0.37464908 0.024043506
-0.09378831 -0.1835589 -0.022372114
-0.015068917 -0.16320832 0.07432092
-0.08958377 -0.33146024 0.06650579
-0.101558335 0.30892897 -0.043693863
0.074520156 -0.20316218 0.10208887
0.10457904 -0.18998733 0.08523101
-0.07227029 0.31417355 -0.024793219
0.09830142 -0.35336825 0.06002601
-0.073451646 -0.38883325 -0.078993864
-0.01713605 0.31507444 -0.019354204
0.09355945 -0.22558317 0.09847974
-0.082431495 0.14265315 -0.021270072
0.008768185 0.055076834 0.013229814
-0.107137255 -0.2372946 0.04530138
0.10453738 -0.24907142 0.0963317
-0.00022484933 -0.2835139 0.1172067
-0.039140936 -0.0032935683 0.013746799
0.12267205 -0.2351701 0.08100245
0.03013484 0.18018518 -0.013635693
0.0381913 -0.09996693 0.03025208
-0.08184474 0.40507606 -0.036036734
0.08533214 -0.16784085 0.09256674
-0.06828755 -0.21463077 0.08336287
0.017335266 0.06859274 0.009827845
-0.04032215 -0.23843421 0.09981803
0.06665751 -0.21225658 0.105583735
-0.01703221 -0.34201312 -0.10052997
0.086728215 0.058665596 -0.050331872
-0.02247187 0.13553181 0.003918629
0.009414674 -0.31777734 0.12255002
0.117143996 -0.3512124 -0.053712852
-0.12639415 0.33641988 -0.07854795
-0.083921835 0.19864587 -0.024691228
-0.07295373 -0.0118166255 -0.009529762
0.031428512 -0.010825094 0.018718196
0.12166992 -0.16107462 -0.025918921
0.027897945 0.09468497 0.003591021
-0.0027046665 0.4396526 -0.041642472
-0.026966702 0.18731007 -0.0024639582
-0.05916318 0.25121403 -0.01460449
-0.0875296 -0.09843682 -0.045795992
-0.052264556 0.054443672 0.003179122
0.017436825 -0.0009451043 0.01971803
-0.1181842 0.20008647 -0.07833198
0.047380358 -0.28482923 0.11959246
0.0037006142 -0.3589484 0.09576456
0.052446324 0.10382318 -0.013538528
0.04854158 0.35637158 -0.07490117
0.07407666 -0.13757935 0.0205228
0.10389635 -0.063567676 -0.08623664
-0.050256766 0.031006744 0.005830025
0.17363766 -0.21017781 0.0069212248
0.14269616 -0.2489559 0.06687167
0.06371574 0.08073168 -0.01796295
-0.08383445 0.2514224 -0.027676208
0.0053920886 -0.1213189 0.03586291
-0.028275326 -0.39036417 -0.12983193
0.050931145 -0.3864275 -0.16567841
-0.00896065 0.056753334 0.013902813
-0.06038781 0.4634065 -0.037293136
-0.019550104 0.31760657 -0.019298226
0.052026868 0.1363213 -0.020321228
0.080395654 0.122920856 -0.059654925
0.0025986414 -0.13151944 0.03694026
-0.07202602 0.42288697 -0.034700844
-0.031112462 0.2955002 -0.015875282
0.0043019247 -0.06000068 0.028375736
0.019442486 0.28975034 -0.027386835
0.026862686 -0.19486411 0.10931636
0.018487355 -0.009080715 0.020695513
0.08577397 -0.054546107 -0.013092142
0.15392348 -0.34684384 0.051274847
0.113263205 -0.17957908 -0.16686882
-0.06660735 0.3870069 -0.02984745
0.050932538 -0.30823606 -0.12072857
0.05418219 0.28129163 -0.06117659
-0.041403323 0.17819989 -0.003133411
0.09122857 0.031094585 -0.050473526
-0.12953147 -0.21797541 0.004327893
-0.108940676 0.2563403 -0.052991353
0.16773298 -0.15660004 -0.02834077
-0.09473166 0.0063754157 -0.04413453
-0.13022397 -0.26937053 -0.009265678
-0.05167029 -0.31168434 0.09927738
0.020495135 0.4344543 -0.056748323
-0.08376849 0.29116783 -0.029967796
0.18205018 -0.19727503 -0.06203474
0.0027020788 -0.032930057 0.02496495
-0.12007829 -0.3265181 -0.08934643
-0.06275002 -0.30853984 0.09235083
-0.0856931 -0.23329364 0.070080355
0.08909849 0.07112766 -0.066726655
0.03687436 -0.35334396 0.10986416
0.065043986 0.2016935 -0.05606927
0.017015064 -0.38923928 -0.1593964
-0.10666644 0.32685396 -0.049402945
-0.1408124 -0.1901898 -0.028376838
-0.051373094 -0.13076867 0.014616026
-0.06940484 0.12105185 -0.011011169
-0.027025817 0.17384695 -0.0008743429
0.1045195 -0.35570198 0.03593742
-0.049378727 0.39073294 -0.027911346
-0.0073370617 -0.19412567 0.10652821
0.06703718 -0.008678942 -0.0023146619
-0.045739204 0.4551661 -0.03579611
0.065929115 0.18509714 -0.05265623
-0.05335954 0.26883078 -0.014961635
-0.088372454 0.31545407 -0.03424325
-0.13442908 0.45382416 -0.086692825
-0.0065885414 -0.16637243 0.10374672
0.032262422 0.44306457 -0.072974354
0.15038146 -0.26834333 0.064135954
0.012754551 0.23932706 -0.014651315
-0.05404615 -0.029634362 0.007357278
-0.110203154 0.1573214 -0.06194297
-0.11213809 -0.20486428 0.038769178
-0.016686123 -0.040960584 0.024417134
-0.09729781 -0.26999626 0.057379838
0.016435347 0.42033732 -0.050071117
-0.13713233 0.41284564 -0.09332551
0.08348031 -0.11123743 0.0064078146
0.014086767 -0.025773045 0.023833573
-0.001002705 0.28691763 -0.018119493
0.11612092 -0.16958189 0.07255802
-0.02894297 -0.17644897 0.09891
-0.12973246 0.3523151 -0.08386178
0.016712924 0.017857142 0.017162964
0.030874103 0.1304649 -0.004845478
0.0731312 -0.33781767 -0.110005915
-0.07427571 0.32134345 -0.026382904
0.018674755 -0.002808895 0.019770803
-0.015289646 0.2419282 -0.00924898
0.12295289 -0.15765889 0.0013146359
-0.022558138 0.23407307 -0.008320722
-0.12033111 -0.18543172 -0.014812937
-0.055235945 0.12695195 -0.0031711194
-0.096073635 -0.3293657 0.058486108
-0.10245992 -0.19416663 -0.10035608
0.12531327 -0.23415595 0.07883339
-0.03234839 0.46441844 -0.038013656
0.074450575 0.10142651 -0.041226234
0.031452257 0.20041189 -0.018214023
0.015715258 0.39411378 -0.04448889
-0.09777888 0.17946412 -0.038860053
-0.11836636 -0.18178517 0.012863281
-0.025867881 0.13184492 0.004073768
-0.066339806 0.048411444 -0.0048834365
0.005719029 -0.39017725 -0.15731663
-0.09291336 -0.21844299 0.06313017
0.02144811 -0.29680678 0.12252396
0.17889506 -0.1689253 -0.04360272
0.074958496 -0.004355412 -0.010609738
0.08121927 -0.15122016 0.08872208
0.09076582 -0.25375918 0.10542993
-0.07309513 -0.08655575 -0.010539105
-0.113734156 -0.24867284 0.03423547
0.04012178 -0.31296754 0.12393009
-0.08165196 -0.17583911 -0.06904714
0.054706957 0.100912355 -0.015043798
-0.014212543 0.4517852 -0.03995909
-0.02843623 -0.36050203 -0.087157376
-0.1068011 0.14133461 -0.056698766
0.02811696 -0.38566333 -0.140079
-0.07316177 -0.12336247 -0.011941897
-0.11814444 0.41163525 -0.062713064
-0.06127957 0.13888426 -0.007362239
-0.017586991 0.21695192 -0.0063108685
-0.0067952275 -0.20526521 0.107796445
-0.014648026 0.3672077 -0.02721036
0.04061867 -0.19566494 0.108052194
-0.063454375 -0.16708675 0.002782683
-0.1010629 0.36502916 -0.045151707
0.16240415 -0.2979424 0.056791533
-0.074814305 0.024746055 -0.011762186
0.06596841 0.28080797 -0.085492514
0.17077294 -0.23867908 0.02522388
-0.10712958 -0.22510858 0.04551807
0.055873144 0.40053192 -0.12082835
0.08295951 -0.15432097 0.06227725
0.06742236 -0.006106676 -0.0032125558
0.036749125 0.09975328 -0.0027744926
0.17245671 -0.35522363 -0.01812679
-0.014286554 0.43756458 -0.037677005
0.011364821 -0.069570005 0.030542184
0.06303681 0.33453256 -0.118727215
0.039905127 -0.025742305 0.018964892
0.17409232 -0.35439998 -0.10037282
-0.12247297 -0.1853775 0.023116682
-0.007311413 0.47764373 -0.054850426
0.010865863 -0.16277373 0.10633169
0.055888355 0.37368622 -0.09652245
0.13774402 -0.35032722 0.050873846
0.19462448 -0.32719538 -0.012174064
0.051031888 -0.28552338 -0.1161944
0.006272526 0.02503843 0.017938718
-0.014262283 0.23702088 -0.008727579
0.084719725 -0.24336362 0.10549045
-0.051395968 -0.22329932 0.09374313
-0.014433438 0.409241 -0.03323561
-0.025719274 0.46439186 -0.039150722
0.051201515 0.09409034 -0.00988578
0.13959816 -0.16607846 0.051386207
-0.10715167 -0.2614179 0.0441881
0.019426623 0.061550338 0.010472142
0.0044858977 -0.1804365 0.10722785
-0.004143949 0.18792264 -0.0034746367
-0.052605916 0.21003802 -0.008953252
-0.011781423 0.47397733 -0.19699623
0.07564886 0.21590452 -0.1056469
-0.12970246 0.43267077 -0.0780605
-0.0778117 0.055521306 -0.01531558
-0.039249588 -0.049903218 0.017205164
0.104289114 -0.2934738 0.10480289
0.037289012 -0.27183187 0.118697524
-0.073779985 -0.27924907 0.08216099
0.09401952 -0.18478125 0.0905566
-0.095206454 0.3081576 -0.038158048
-0.0395333 0.35673496 -0.023410603
0.095338345 -0.37479103 -0.109877124
0.0050441236 0.27652603 -0.018143522
0.09245819 -0.33063465 0.113478564
-0.07070047 -0.17475633 0.028795509
0.008647452 0.22295772 -0.010759617
0.057432923 0.25018182 -0.057321504
0.07613877 -0.073452674 0.0037832977
-0.075703524 -0.16130412 -0.020987961
-0.073830694 -0.30408716 0.08282272
0.027257638 0.10467582 0.0022022019
-0.029374532 -0.27898905 0.10780132
0.07136749 -0.20294972 0.10290158
0.03459745 0.19614728 -0.018873565
0.0037954417 -0.1627379 0.04970214
-0.07593181 0.26848575 -0.02399564
0.08143128 0.1502221 -0.08209426
0.09187056 -0.33822444 0.10765262
0.084838815 -0.17339279 0.09390364
-0.0034413089 0.31239602 -0.02133108
0.059105888 -0.35173586 0.106583
0.020329453 0.20191236 -0.011441443
0.082856335 -0.17465736 0.09532233
-0.08964445 0.061174087 -0.030490804
-0.07798473 -0.07362376 -0.017134465
0.0003112817 0.36039996 -0.029989835
0.029505925 0.47102872 -0.07674584
0.025505407 -0.11711826 0.034881297
0.012787649 0.39465728 -0.042775262
0.09460377 0.029837174 -0.092546545
-0.09565769 0.4040566 -0.043969184
0.012306689 0.32488853 -0.029498264
0.06842753 0.11718636 -0.03539388
-0.10677995 0.13819318 -0.05694266
-0.005667662 0.0040526143 0.020394577
0.085393496 -0.04697814 -0.0147193335
-0.026724277 0.24188563 -0.009165621
0.057016544 0.12520756 -0.02208937
-0.030223345 0.09793789 0.007371256
-0.0027723706 0.31379774 -0.021645011
-0.046221957 0.44483888 -0.03445478
0.050460286 -0.118443266 0.029659234
-0.014540478 -0.057901893 0.02659701
0.17523195 -0.29197937 0.03412471
-0.021988062 -0.298731 0.112290576
0.008357754 0.357319 -0.033082593
-0.045686625 0.13335535 0.000297893
-0.11352421 0.17321824 -0.06755626
0.04464621 0.326776 -0.058626242
-0.061760392 -0.23910068 0.08879746
-0.13517645 0.3389956 -0.13307111
0.17936723 -0.18641643 -0.08002776
0.053730097 -0.2623967 0.11530214
-0.051472038 -0.37390637 0.022407616
-0.082818896 -0.1923938 -0.102837615
0.107770585 -0.17427012 0.07971405
-0.10846452 0.084049 -0.0771904
0.07215969 -0.22993347 0.1068074
-0.06750257 0.20475969 -0.015110883
-0.14563023 0.4301285 -0.13648996
-0.030812604 -0.21811974 0.102187686
0.015639 -0.18098678 0.1083693
0.12849888 -0.2184231 0.07308793
0.042257067 -0.17134045 0.10430383
-0.0013315371 -0.18362455 0.10651007
-0.10175848 0.021818748 -0.09017857
-0.0059327334 -0.37820134 -0.10224081
0.16260122 -0.21469627 0.033058714
-0.045689218 0.35753947 -0.023750618
0.05340151 0.20515478 -0.03755543
-0.08213751 0.17084064 -0.02202461
-0.114252456 0.20218512 -0.06623139
-0.010733759 0.1832488 -0.0016745719
-0.09716333 -0.29878375 0.057348035
0.05298744 0.30327895 -0.06611082
-0.026477404 0.29699478 -0.016239673
0.10415522 -0.087651044 -0.03680821
0.012407693 -0.0837263 0.032378927
-0.071230076 0.15896443 -0.014414515
-0.06158667 0.021507038 -0.00031750769
0.07335195 -0.09739326 0.011898434
0.104857355 -0.22196686 0.09106035
0.021384822 -0.1578418 0.086438134
0.09428538 0.018278042 -0.05647951
-0.040637624 -0.3652227 0.08306995
0.013457144 -0.27365103 0.118644394
-0.13174643 0.3389796 -0.091728
0.14963591 -0.35452008 0.006997762
0.0046515376 -0.12149027 0.035846923
-0.023465421 -0.19845775 0.102594994
-0.12343069 0.21953948 -0.108129546
0.010773915 -0.1110427 0.03585591
-0.061874483 -0.09327726 0.0034046974
0.1000168 -0.15228736 0.064106174
0.019464692 0.09548219 0.005630884
0.033972237 0.26541567 -0.03215645
0.06414775 0.12894563 -0.031950004
0.09920561 -0.008255261 -0.07119273
-0.058406588 -0.3220179 0.095797494
-0.0074785897 -0.34353977 0.115154766
-0.11830671 -0.18060356 0.02999683
0.041650634 0.18401639 -0.021027984
-0.104796894 -0.23733787 0.048320904
-0.019623358 0.45670804 -0.039104987
-0.09604786 -0.30503172 0.058685116
0.032670107 0.22295026 -0.022690047
-0.08938726 -0.06836628 -0.04231987
-0.106786795 0.12590513 -0.057877593
-0.017829746 0.45801508 -0.039815255
0.0025967776 0.049651608 0.0150652155
-0.025545787 -0.2539368 0.10708458
-0.0054849754 -0.054871935 0.027418317
0.011180696 -0.012246426 0.02240637
0.14774254 -0.15939748 -0.033815805
0.018272629 0.23693478 -0.016771102
-0.108133934 -0.3672415 0.01949934
0.048476316 0.4528239 -0.11120597
-0.0031160095 0.3686754 -0.030230079
0.003611886 -0.3530915 0.10935117
0.14546683 -0.27885962 0.07094626
0.0031095967 0.44247296 -0.045668088
0.04365522 -0.1578927 0.06703944
-0.0412559 0.48312134 -0.056116465
0.1469492 -0.2397538 -0.15281531
-0.07386474 0.4759792 -0.12795573
0.016720366 -0.27967206 0.119868204
-0.12601319 0.2647625 -0.090988785
-0.029187499 -0.2092696 0.101863496
-0.118328795 -0.2995631 0.02046301
-0.00853334 0.25358143 -0.012073437
-0.017338384 -0.31573305 0.11526224
-0.12566066 0.30766544 -0.07969887
-0.065193735 0.35947296 -0.02677891
0.070482455 -0.35335672 0.08384227
0.016127158 0.13990375 -0.00012315856
0.0044105155 -0.19336295 0.10857175
0.04607637 0.03534815 0.0038562384
-0.063582025 -0.14798614 0.0012875958
0.049721133 0.41215098 -0.096584015
-0.08725017 -0.05482214 -0.034706634
0.049317833 -0.06477508 0.020140981
-0.0071377466 -0.2697465 0.11410265
0.00073270884 0.09224429 0.009317238
-0.08408273 0.09562566 -0.022589032
-0.079753876 -0.11602165 -0.025249971
-0.05658837 -0.32105637 0.09684506
-0.08349867 0.45197436 -0.040328868
0.026064293 -0.28539395 0.12139103
-0.0013004079 0.47330153 -0.05123075
-0.087785184 0.3432726 -0.0355523
-0.063163795 -0.1100566 0.0019682734
-0.004477761 0.1730384 -0.0012972654
-0.034878287 -0.012402003 0.017233072
0.18622173 -0.27460742 -0.004571804
0.061203077 0.27967155 -0.07388268
-0.021921344 -0.048569307 0.024026064
0.030886274 0.36096525 -0.05010312
-0.01700501 -0.38940808 -0.13174784
0.061783243 -0.10119526 0.020132879
-0.10660425 0.41892195 -0.051769294
-0.03844294 0.03223272 0.011982801
-0.11154017 0.21507353 -0.05954685
-0.044293623 -0.006891862 0.011737842
0.025676457 0.1910247 -0.012888063
-0.08942606 0.032611195 -0.030749887
0.07320251 -0.3014421 0.117443345
-0.04117678 0.42776486 -0.032455206
-0.0936223 0.4724165 -0.060293123
0.0049362076 0.47912487 -0.16981621
-0.1235328 -0.2572667 0.013513038
0.064383045 -0.2557821 0.1125252
-0.10273555 0.036041535 -0.100261554
0.009043613 0.47351936 -0.05776005
0.009021448 0.45826966 -0.052272115
-0.106738664 0.21201065 -0.05112889
0.032617472 -0.05656986 0.025030129
-0.033770166 0.015237723 0.014821899
-0.100934625 0.44898462 -0.04990444
-0.027939234 -0.13020012 0.028251031
-0.12156762 -0.3163227 0.0097741205
-0.06820403 0.17691848 -0.0137561755
0.0079500275 0.032155383 0.016636075
0.1842992 -0.32841706 -0.0956588
0.18757063 -0.28117335 -0.07609885
0.05286431 0.03175556 0.0008273128
-0.03230861 0.015297394 0.015185796
0.01314165 -0.09661023 0.03408742
0.004108605 -0.24514125 0.1139578
0.04679858 0.30021054 -0.054369092
0.061907668 0.082152255 -0.016945338
0.05860873 0.36086625 -0.10336007
-0.05778502 0.22406775 -0.0116030285
0.034343243 0.15638646 -0.0118187005
-1.5019002e-05 0.19210045 -0.0047815437
0.039586015 -0.066244125 0.025208259
0.08670519 -0.18146588 -0.15940544
-0.13802221 0.45527983 -0.10332444
-0.07078325 -0.23115264 0.082834326
0.04230371 0.08898678 -0.0036099055
0.055135347 0.15200055 -0.026010055
0.06419238 0.12523746 -0.03098323
0.17333831 -0.15575059 -0.017878354
-0.128705 -0.25509697 -0.00017265519
-0.004973541 0.03857527 0.01608543
-0.00054274185 0.021298608 0.018694548
0.15888825 -0.24622771 0.04790704
-0.027368477 0.15264755 0.0015381738
-0.007003417 -0.24410306 0.11177732
-0.004532599 0.11929335 0.006370795
0.044552397 0.28512824 -0.04694488
-0.10547104 0.32522535 -0.04809565
-0.08948733 0.25973898 -0.03174123
-0.044084165 0.2752744 -0.014120929
-0.006033625 0.43713987 -0.040198408
0.16009766 -0.3390326 0.052805603
-0.027323397 0.106342785 0.0068799346
-0.100758106 0.47611526 -0.07372628
-0.097424984 0.32066107 -0.04028614
-0.10670036 0.2750741 -0.049027923
0.14018275 -0.20477526 0.05940368
0.13346855 -0.22967607 0.071036264
-0.032348905 0.16968155 -0.0008798649
0.06841389 -0.077603936 0.012491461
-0.118170485 0.28407902 -0.0666535
-0.02795041 -0.039501555 0.021628257
0.0071351035 -0.16513714 0.10609773
-0.011222453 -0.3181611 0.11733441
-0.0039880527 0.21549024 -0.0074297274
0.17582203 -0.18217915 -0.013016314
-0.03656586 -0.16726583 0.03357554
0.01903291 0.23280147 -0.016492456
0.00097538624 -0.2558825 0.11452023
-0.09228601 0.14474152 -0.03213655
-0.05137186 0.46190026 -0.036450453
0.12137687 -0.18062116 0.070893034
0.03799907 0.32327566 -0.048057437
0.09014006 -0.06623968 -0.016399512
0.010351458 -0.21932526 0.11237385
-0.100987285 -0.1973646 -0.12735508
-0.031103456 -0.05721637 0.022097776
-0.040508226 -0.3379531 0.10743205
0.10359769 -0.04852299 -0.074498735
-0.039203133 -0.036980823 0.016254177
0.04634079 0.050054424 0.0012193145
0.08824072 0.096974395 -0.09287998
0.01954773 -0.22477558 0.11386627
0.16454373 -0.32462034 0.06096693
0.036183663 -0.11057604 0.032111358
-0.03728611 0.46334204 -0.037159916
-0.07358369 -0.38357237 -0.036537413
-0.08566589 -0.12859784 -0.04927785
-0.03252193 0.3376414 -0.021224909
-0.09600071 -0.38282314 -0.011402191
-0.004054936 -0.15849762 0.04134366
-0.010036405 -0.1395868 0.035857633
-0.09006828 0.44289201 -0.04316628
0.036070578 -0.12694421 0.034461506
0.08137741 -0.32055214 0.11816891
-0.091281414 -0.009654131 -0.038942028
-0.005421709 -0.29612136 -0.11996268
0.0076306188 0.24426344 -0.0138267735
-0.043176472 0.17626454 -0.0033502101
-0.1066919 0.28806794 -0.049052395
-0.11833653 -0.36513433 0.0033157193
0.022016985 0.105195545 0.0037636298
-0.02786783 0.025850806 0.015224095
0.15604326 -0.21782033 0.044169858
-0.090700574 0.41522646 -0.041780762
0.07338456 -0.15235522 0.09463971
-0.14417635 0.43020275 -0.115291536
0.05907697 0.30182964 -0.15136145
-0.061245378 0.15202545 -0.008172239
-0.03831269 0.2014078 -0.005081152
-0.004055471 0.13831474 0.0035775357
-0.074241705 0.39588404 -0.032552887
-0.07916884 0.31013894 -0.028493252
0.049726214 -0.018496618 0.011287797
-0.12779592 0.3052886 -0.14770915
0.06027685 -0.19120614 0.10403106
0.04152125 0.16942397 -0.017612107
-0.009601624 -0.21817759 0.10860157
-0.017862663 -0.19098082 0.10359713
-0.109400555 0.23193616 -0.054396696
0.061999924 -0.38285255 -0.1463416
-0.059629645 0.14365087 -0.006710931
-0.106773384 0.15039116 -0.05580649
0.09865668 -0.089976005 -0.023700725
0.05452527 0.31296748 -0.07242855
-0.09504604 -0.3579354 0.053482782
-0.088232 -0.11316409 -0.056251314
0.053649694 -0.203956 0.10699026
-0.005770355 -0.10770973 0.033329897
0.028182738 -0.08082695 0.029251313
-0.03183875 -0.29286692 0.10778282
-0.056559876 0.07110915 -0.00035664183
0.08443233 -0.3269967 -0.10674834
0.12701975 -0.25451836 0.08169821
-0.07280359 0.064259686 -0.0102889715
-0.084515706 -0.041707035 -0.028062953
-0.124012105 -0.3608821 -0.021060186
-0.0039650328 0.03947639 0.015930047
-0.12055505 -0.19914618 -0.12501338
0.05125577 -0.34993485 0.11030585
-0.0145765105 0.38120177 -0.029217007
-0.010590652 0.029483944 0.017126366
0.13141546 -0.2029733 0.06701205
-0.015764667 0.146487 0.0026544938
0.044968486 0.1741907 -0.02222484
0.029915502 0.15196514 -0.008251244
0.028770745 -2.2841223e-05 0.017633192
0.053104836 0.17535242 -0.0291872
-0.039297543 -0.06291463 0.018163279
-0.008521266 0.42192793 -0.03699981
0.031285435 0.27078882 -0.030548243
0.060138263 0.029353267 -0.0040766215
0.14579464 -0.33563527 0.071474805
-0.095532194 -0.026527422 -0.05682433
0.137405 -0.3380535 0.07723028
-0.015899664 0.11941395 0.006128854
