# .PCD v0.7 - Point Cloud Data file format
VERSION 0.7
FIELDS x y z
SIZE 4 4 4
TYPE F F F
COUNT 1 1 1
WIDTH 1000
HEIGHT 1
VIEWPOINT 0 0 0 1 0 0 0
POINTS 1000
DATA ascii
-0.17616181 -0.19424044 0.043807074
0.18004063 0.26757553 0.03465211
-0.12504287 -0.20394985 0.02769001
0.113455504 0.24196306 0.025529085
0.20427898 0.28558582 0.02254317
-0.04809788 0.041522175 -0.008210995
0.14204134 0.09721875 -0.0029475158
0.10799703 0.16712539 0.051852155
-0.03912688 -0.009459687 0.019328259
0.120861664 -2.3737834e-05 -0.076849
0.11036161 0.32582995 -0.06894456
0.21988757 0.24637035 0.043592334
-0.09350466 0.028959282 -0.06365556
0.12980239 0.24415898 0.03043919
0.107176006 0.025754455 -0.014869004
-0.22695084 -0.2980365 0.046151776
-0.17702132 -0.2430215 0.03938417
-0.065189146 0.034645334 -0.015183547
0.03671777 0.029411089 0.013573026
0.20560524 0.1464774 0.042840358
0.06783042 0.16044544 -0.018856905
-0.3075569 -0.2842724 0.0024051208
0.18911536 0.067806624 0.02351932
-0.0065656123 -0.023268243 0.019611586
0.184269 0.2696063 -0.15684868
-0.1414765 -0.12383406 0.03484089
-0.27614334 -0.18358774 0.0037002668
-0.0011051547 0.12790589 -0.073128626
-0.08303031 -0.016945655 0.010523582
0.16232751 0.27743164 0.026528968
0.045908652 -0.03676954 -0.0041444465
-0.10471506 -0.1686893 0.028477939
0.20494652 0.23880854 0.045302507
0.12767264 0.19595395 0.046800528
-0.19921237 -0.27009562 0.041849207
-0.23618491 -0.25665903 0.05233992
-0.0054312544 0.08858447 -0.014816592
-0.14198767 -0.13563336 0.037866674
-0.2628053 -0.33426732 -0.06206838
0.19341952 0.2129109 -0.24147242
0.31406966 0.13976961 -0.051251914
-0.185874 -0.14998898 0.035263766
-0.22977638 -0.27229 0.050777625
0.17211562 0.0927925 0.042669732
0.085496336 0.07766449 0.006599028
0.07670635 0.056092963 0.007664272
0.12691946 0.23078164 0.03486479
-0.047476225 -0.08883293 0.023542074
0.072142996 0.27930304 -0.13807864
0.27146348 0.08165641 -0.09843188
0.20203847 0.036386713 -0.113115415
0.30059373 0.14319979 -0.02410165
-0.23107766 -0.20783864 0.04492801
0.14870766 0.13627201 0.054403827
0.055301756 0.039884664 0.010798097
0.042186726 0.23491812 -0.024334386
0.22294922 0.1563101 0.037910283
0.21460843 0.20459592 -0.17059481
0.13080734 0.15750635 0.055868153
0.12678167 0.31231198 -0.019113284
-0.24162295 -0.13655384 -0.071500465
-0.22113095 -0.24968952 0.05007017
-0.17978194 -0.24982524 0.038978923
0.15171169 0.059744883 -0.030512117
0.09188819 0.24194391 0.014761951
-0.0762894 -0.022802979 0.016009685
0.2488484 0.2524049 0.02217917
-0.1879705 -0.21607707 0.04534336
0.28569278 0.20364001 0.01425057
-0.29543415 -0.30256224 -0.051177047
0.2949927 0.11155687 -0.12682173
-0.08845477 0.028517148 -0.09320426
0.14046057 0.112830386 0.033825595
-0.11886697 -0.03363708 0.0007834343
0.20734732 0.13580906 0.03909074
-0.19578065 -0.12656705 0.01867087
-0.12069723 -0.22512881 0.013973989
-0.30243263 -0.25692812 0.043713752
-0.10796782 -0.11131873 0.03415615
-0.17553851 -0.24465564 0.03850666
0.17663303 0.2904484 -0.19822033
-0.08642687 -0.1212241 0.030744111
-0.08720234 -0.028186047 0.01517188
-0.14193982 -0.13892531 0.038220834
0.043495454 0.12794445 -0.013323312
-0.13006236 -0.16637275 0.03695093
-0.13211378 -0.19965313 0.03203156
0.026382234 -0.058496647 -0.001657802
0.023860762 0.08409169 0.0020886355
-0.15136419 -0.26638487 0.012522861
0.015338042 -0.09210292 -0.0149339
0.109378 0.13122556 0.005928703
0.04976329 -0.0125990305 0.0039426708
-0.16508092 -0.30590287 -0.024851443
0.00532155 0.019496914 0.017296711
-0.18680827 -0.18120971 0.043671425
0.1786499 0.2988997 -0.085430846
0.0038644278 -0.06796304 0.008514662
-0.015519615 -0.12634964 -0.011363092
0.10778333 0.3168814 -0.053186916
-0.14360945 -0.24422058 0.020919675
-0.07405757 -0.06799777 0.028914046
0.09172299 0.29648978 -0.044891864
-0.2945833 -0.3077376 -0.08456308
0.19512567 0.07886985 0.02505294
0.038159575 -0.056095853 -0.009975257
-0.2381071 -0.12894186 -0.027335078
0.1683839 0.053893078 -0.099170834
-0.23071975 -0.12042236 -0.030880848
-0.23799771 -0.32800108 0.03409651
0.03297395 0.19681175 -0.08603941
0.056001794 0.12900488 -0.006822835
0.17981961 0.30708703 0.0048173335
0.18759964 0.058682706 -0.045394674
-0.12770611 -0.25272956 -0.0023319733
0.25414154 0.19345859 0.034479026
0.13094331 0.020329468 -0.04710673
0.1605748 0.12106898 0.051631216
0.013987206 0.05198266 0.010756645
0.28582308 0.21563943 0.0034748372
-0.22849114 -0.3106915 0.04386437
0.051721267 0.106162764 0.0013339764
-0.23210153 -0.3008186 0.047449265
-0.039381437 -0.0059162844 0.018497255
-0.07740261 0.029489594 -0.022984298
0.07897339 0.25019538 -0.0016164235
0.123994425 0.32842156 -0.04389295
0.12694557 0.011073659 -0.055957258
0.2733886 0.2024864 -0.18442662
-0.084758416 -0.0049943742 0.0011234273
-0.31942815 -0.22068366 -0.006372268
0.101219155 0.112602 0.0046415706
-0.17004558 -0.068600826 -0.012486222
0.12625112 0.31397825 -0.021305846
-0.04548953 -0.014957289 0.01993156
0.17525113 0.29922262 -0.14120151
-0.25427702 -0.33176702 0.01718166
-0.21383278 -0.29034862 0.042973775
-0.25537774 -0.25432304 0.053501215
0.14313112 0.2503721 0.031740278
0.02001171 0.2238694 -0.043856204
-0.13058485 -0.26612446 -0.020604618
0.28432274 0.111152686 -0.041362576
0.19245128 0.15063769 0.04674117
-0.30196112 -0.3002261 -0.079495035
-0.26514637 -0.2777813 0.055873234
-0.13224548 -0.21072789 0.029032215
0.13977684 0.24965651 0.031080456
-0.24393523 -0.32081726 0.04070738
-0.05702876 -0.17668536 -0.01236404
0.17458022 0.07823058 0.011436049
0.08118084 0.2643105 -0.013816073
-0.042407613 0.07324736 -0.037196044
-0.32928276 -0.22586225 -0.039028104
-0.21203825 -0.21784511 0.04825902
-0.22700317 -0.12970789 -0.0047755875
0.24352069 0.15645315 0.028403651
0.18746756 0.062118586 -0.0201833
0.06882413 0.24692664 -0.007947872
0.2199592 0.18607122 0.043301716
0.21714237 0.049347397 -0.016503496
-0.066775374 -0.016791187 0.016234698
0.13956961 0.27782422 0.01772139
0.24906282 0.1365933 0.017201165
0.23174119 0.05785127 -0.028363416
-0.28586262 -0.3053521 -0.0048343637
0.17646988 0.25809819 0.036912497
-0.09139474 0.012028372 -0.01707348
-0.11477157 0.004302424 -0.074766584
-0.17452747 -0.13539214 0.032720108
0.1418976 0.057584625 -0.023321297
-0.23157723 -0.22889796 0.050076533
0.21305774 0.27669603 0.027620783
-0.009987227 -0.05782898 0.016888382
0.1469857 0.28903094 0.01495979
0.07266704 0.13208124 -0.003173711
0.269531 0.07955723 -0.09782874
-0.2867294 -0.30020648 0.028213274
-0.23148035 -0.22296964 0.048569523
0.026654212 -0.06066429 -0.0029718475
-0.023089672 -0.00229667 0.019013185
-0.064428344 -0.13951974 0.018834287
-0.2705239 -0.18712947 0.013629356
0.24850734 0.19963293 -0.16071565
0.1723551 0.19732358 0.050220896
-0.22050259 -0.35437882 -0.029261408
-0.19462918 -0.10152988 -0.00013987455
-0.1439227 -0.2739203 -0.0051068817
0.08484529 0.02156236 -0.0021811086
0.20650658 0.25908336 -0.17545286
-0.036594808 0.045654554 -0.0048585506
0.027680175 0.20005582 -0.09873605
0.2430054 0.121643186 0.013682488
0.27666703 0.19510752 0.02483966
0.12380338 0.09029336 -0.001376365
-0.23757929 -0.3158795 0.046324085
-0.03972324 0.08691949 -0.072372966
0.02401244 0.15423273 -0.06904409
0.011663796 -0.020387486 0.016780026
0.010949994 0.21194138 -0.1264192
0.31283268 0.17668884 -0.022872481
-0.21794102 -0.20918007 0.0467877
-0.25296694 -0.20491038 0.037485875
0.10771692 0.06883928 0.00018744222
0.27785102 0.118696205 -0.020873357
0.04919397 0.071772866 0.0094692325
0.053482056 0.18984194 0.0057264757
-0.08899842 -0.12425418 0.031104477
0.04275877 0.18025617 -0.09313214
0.02327805 0.19631311 -0.15830356
-0.041932672 -0.14454214 -8.211364e-05
-0.17872491 -0.18702337 0.043989528
0.09253967 0.2596172 0.0017301516
-0.09723424 -0.2334763 -0.037788168
-0.20894966 -0.19441596 0.044189993
-0.26354998 -0.2540704 0.052398913
0.036924142 0.0060109985 0.013190934
-0.17415668 -0.22013368 0.04205141
-0.20296057 -0.2603228 0.0451331
0.12093824 0.2039765 0.042991754
0.006024315 -0.06561762 0.008214541
-0.13935976 -0.11236026 0.032538857
0.22939657 0.13691185 0.028741498
-0.21255255 -0.22037674 0.0484789
-0.211089 -0.13375431 0.0139724985
-0.06266259 -0.1969542 -0.05472281
0.016593259 0.21086928 -0.09473092
-0.2134354 -0.122251734 0.0028517204
0.041304067 0.043720193 0.013063392
-0.23055439 -0.119274 -0.05157764
-0.110322334 -0.18371858 0.027046802
0.11211843 0.2555002 0.017743204
-0.11271776 -0.13887917 0.03462616
0.15354702 0.062206082 -0.030443702
0.25512546 0.09417912 -0.017682424
-0.14549619 -0.15628318 0.039536007
0.049109142 0.2587885 -0.056992143
-0.07835714 0.003926516 -0.0006693245
-0.017554615 -0.023791738 0.021338023
-0.14466195 -0.045752876 -0.0091225235
0.0737438 0.28210664 -0.05210278
-0.059754297 -0.18989961 -0.030355709
-0.09595391 -0.21084574 0.0016954411
0.015314725 -0.05412131 0.0073929573
0.19103168 0.04711273 -0.109211154
0.06615793 -0.024111401 -0.012730521
-0.23289654 -0.299613 0.04798709
-0.20456861 -0.12492911 0.011857982
0.05467105 0.016121436 0.008472612
0.105245985 0.2597548 0.010296471
0.017413532 -0.11056338 -0.0681254
0.0041661705 -0.11263627 -0.023531092
0.2108065 0.1841458 0.045221645
-0.28499362 -0.3105196 -0.038014717
-0.098154314 0.014327225 -0.031040711
0.0447681 0.19791281 0.0056166383
0.07552666 0.1740756 0.041406006
-0.22271721 -0.17766117 0.036009904
-0.18809918 -0.24526909 0.042896446
0.10517134 0.2728806 0.00029793748
0.13767369 0.29593152 0.004779589
0.023689367 0.2207357 -0.03050442
0.10778067 0.32165074 -0.13311914
0.11110115 0.20541738 0.040359896
-0.015630616 -0.06710799 0.017109575
0.030645082 0.1618996 -0.09084047
0.11994862 0.107502945 0.001611521
0.20671077 0.063822016 0.0078063305
-0.033213813 -0.06895088 0.022112675
-0.25334045 -0.33699587 -0.015995657
-0.03185752 -0.09518565 0.01706625
0.18173935 0.052030843 -0.13740274
0.191465 0.21970427 0.047429204
-0.17140076 -0.20563476 0.0428854
0.02697214 -0.08624294 -0.024204189
-0.18850026 -0.2975944 0.023978073
0.24567147 0.18070348 0.034664016
-0.15988024 -0.1628835 0.041072916
-0.08706674 -0.20418988 -0.0018355885
0.07775117 0.16549458 -0.005787443
-0.027170582 0.0895191 -0.03912755
-0.109790504 -0.002177052 -0.023441717
-0.22117451 -0.2468366 0.050119687
0.10596327 0.12663344 0.0031343196
-0.27355242 -0.17188688 -0.011557722
0.029542288 0.062336612 0.009983391
-0.15812206 -0.063297756 -0.0042338045
-0.13080567 -0.21909499 0.025561206
0.1590693 0.3047403 0.011819394
-0.035146866 0.070384145 -0.022557685
-0.3126207 -0.20981911 -0.050183047
-0.06323885 -0.11570015 0.024347665
-0.19959588 -0.28135678 0.03918707
0.15082581 0.32469133 -0.022601778
-0.040996253 -0.15570244 -0.009670631
-0.038236227 -0.08360017 0.021700012
0.039327916 -0.057177067 -0.011735169
0.065589294 0.19710065 0.028725589
-0.087007135 -0.15616314 0.024480391
-0.018242188 -0.04985276 0.02105697
0.013526406 0.0046016863 0.016859375
0.23860672 0.16503578 0.03341572
-0.14340657 -0.2134711 0.0332786
0.17660902 0.24443741 0.041197285
-0.054452967 -0.18670066 -0.041146997
-0.08561807 0.037357796 -0.06811849
0.09750194 0.0054777707 -0.020002365
0.092016056 0.17838663 0.04534894
-0.29712757 -0.2922491 0.01534344
-0.05717026 -0.14269634 0.014121742
0.11192204 0.111355215 0.002935282
-0.1236388 -0.108240284 0.03314063
0.1643281 0.19418317 0.051095266
0.1653189 0.13534465 0.051680382
0.10932076 0.23295635 0.028536292
0.13081422 0.20944415 0.043205906
0.041535363 0.15080021 -0.030977178
0.1893089 0.05291927 -0.07718515
-0.018801399 -0.016953532 0.02163579
-0.037691653 -0.036137406 0.024328439
-0.28641585 -0.2236007 0.031270705
0.08761815 0.06985582 0.0061486736
0.2649102 0.1423788 0.009087691
0.061780546 -0.0032547943 0.0010903578
0.09109514 0.18746813 0.041780557
0.050784167 0.035088275 0.011438794
-0.14217737 -0.03378032 -0.023816304
-0.1523926 -0.20336351 0.038240474
0.06721831 0.16125977 -0.019552646
0.0090901125 0.079869896 -0.001036884
0.059381485 -0.039606396 -0.017355539
0.021522844 0.11101577 -0.014048027
0.31315687 0.14037731 -0.048496317
0.05225431 -0.055305216 -0.022997033
-0.046905167 0.05367598 -0.017133243
-0.25254837 -0.20230305 0.036130317
-0.0847245 -0.15311702 0.024308816
-0.13621148 -0.17477623 0.037164405
-0.26361898 -0.20407209 0.031581305
-0.10731913 -0.08081888 0.028624272
0.2407557 0.13185315 0.02047127
-0.15357867 -0.16635706 0.040660348
-0.10884146 -0.13628696 0.034053627
0.21698605 0.27362698 0.028464418
0.29645774 0.19965301 -0.04309068
-0.17770958 -0.090414934 0.003641295
0.0845503 0.04058327 0.002898007
-0.27438352 -0.21151453 0.030218057
0.05743423 0.2287123 -0.0003180772
0.020089844 0.05544272 0.010590296
-0.30945334 -0.25270376 0.036411524
0.12157025 0.23725815 0.030833462
0.09102897 0.14683484 -0.00047621387
0.1994638 0.23787758 0.045506503
0.22316141 0.030364066 -0.07427888
-0.3008066 -0.2559217 0.04393239
-0.12683307 -0.03230373 -0.006216839
-0.18714991 -0.19510095 0.045090586
-0.05485622 -0.00975926 0.01691395
-0.15309575 -0.03949453 -0.033943027
0.13031182 0.053379387 -0.016839037
0.07601468 0.12083544 0.0014046144
0.27349532 0.22160068 -0.03820704
0.25116163 0.21882486 0.038812775
0.24120684 0.23174158 -0.1890215
-0.15169063 -0.06728434 0.0040189344
-0.26560628 -0.29139775 0.055208843
0.28232923 0.2146057 -0.02906047
0.18619809 0.18212605 0.04917503
-0.036208794 0.060120482 -0.014916672
-0.15413405 -0.19206446 0.040364858
0.06112032 -0.00970866 -0.0007513004
0.075431354 -0.030394739 -0.026356228
0.27655727 0.14632647 0.0029519033
0.3258676 0.15877935 -0.08144662
0.011527188 0.02849222 0.015741052
0.017314935 -0.028538143 0.012999423
0.22243552 0.08687503 0.009836352
0.13032192 0.12067577 0.021927413
-0.20430087 -0.13786352 0.021551348
0.2995724 0.18853588 -0.00024644268
-0.004907762 -0.029396802 0.019258276
0.10097645 0.31980118 -0.08152928
0.038399 -0.073004805 -0.024547225
-0.30342934 -0.21826068 0.014454799
-0.21776289 -0.3267644 0.029687194
0.27547204 0.20916697 0.025273342
0.16721047 0.2599205 -0.15053488
-0.3063035 -0.2883614 -0.019862754
0.050514918 -0.06779364 -0.03903432
-0.26669803 -0.23991078 0.04799721
-0.22443888 -0.20086612 0.04401679
-0.2617062 -0.1525164 -0.03369005
-0.22186536 -0.2974701 0.04442148
-0.13717474 -0.12778078 0.036416102
-0.1545838 -0.28276157 -3.0689585e-05
-0.23734504 -0.14764825 0.005838466
-0.13737462 -0.1991691 0.03404394
-0.098018825 -0.03418488 0.013299615
-0.336578 -0.24713573 -0.025044331
-0.18068331 -0.16425721 0.040124934
-0.0979821 -0.14678949 0.030309863
0.3036853 0.18246408 -0.122861184
0.24379186 0.17451173 0.03376752
0.05605878 -0.018176502 -0.0010632561
0.068559416 0.22263625 0.013667761
-0.025023343 0.060445108 -0.007363037
0.08496837 -0.032431286 -0.047059305
0.11889835 0.13921821 0.05781438
-0.06300725 -0.06736056 0.02785498
-0.32683104 -0.27508432 -0.06377147
0.18225285 0.21454556 0.048506588
-0.015400557 0.036211595 0.009739494
0.06530181 0.18198152 0.02937167
0.2559148 0.23494136 0.030017234
0.27974665 0.09219336 -0.07654094
0.011209942 0.066071756 0.005441476
-0.28583017 -0.30164167 0.02363697
0.022628617 0.13674207 -0.03628904
0.17328526 0.12898467 0.049377028
-0.24828397 -0.22628656 0.047305662
-0.27659127 -0.22168326 0.035602443
-0.11089502 -0.090773426 0.030333178
0.24176462 0.08717423 -0.007815182
0.04956572 0.107412286 -5.9256963e-06
0.18945865 0.28414664 -0.15561233
0.11739404 0.15506695 0.055789225
0.1728427 0.14844504 0.050779685
0.15105785 0.32806134 -0.032119673
0.02410031 0.23746632 -0.081122994
-0.07852239 0.01697315 -0.010666153
0.20217253 0.19446583 0.046841208
-0.26407543 -0.28322744 0.056220096
0.05414768 -0.016977033 0.00032026373
-0.10719175 -0.24114315 -0.06712315
-0.23862658 -0.12748122 -0.046594493
0.14096466 0.3320238 -0.044596635
0.108565785 -0.010218883 -0.060940478
0.077401854 0.2104466 0.026723702
0.1201055 0.0070761526 -0.048729006
-0.092361584 0.02692943 -0.04575605
0.25854328 0.07353639 -0.05810557
0.055087697 0.06324854 0.0111811645
0.24504176 0.053778604 -0.07851586
-0.24272372 -0.23732863 0.050783712
-0.014573523 0.054141864 0.0024493374
-0.02762245 0.0049970034 0.017210048
-0.048083987 -0.038339518 0.025163924
-0.28397295 -0.17670056 -0.042881306
-0.13227238 -0.24888135 0.0076037
0.29561684 0.1979096 0.0026311274
0.15056202 0.22033252 0.04365034
0.25491574 0.07348535 -0.047787543
-0.1422709 -0.1599764 0.038972657
0.07627898 0.17129363 0.0255427
0.09578028 0.016131856 -0.0118358955
0.0188363 0.09042377 -0.0024463898
-0.24303758 -0.2512637 0.05258527
0.2142061 0.2530526 -0.21750365
-0.05199251 0.03947117 -0.009340702
-0.10702108 -0.105201766 0.0336428
0.2433201 0.060342293 -0.04778887
0.1552843 0.19386885 0.050906405
-0.31655705 -0.2817297 -0.041793417
0.0069985 0.048652016 0.010803257
0.13231778 0.012577724 -0.07599739
-0.2734249 -0.19204968 0.015571321
-0.12898923 -0.22988303 0.017911542
-0.13194513 -0.18822955 0.03433316
-0.06602957 -0.065655395 0.028269008
0.07350314 -0.045568142 -0.046970785
-0.06388172 -0.105200656 0.02600809
-0.040140696 -0.039074656 0.024670623
-0.018183649 -0.14458571 -0.034999408
0.12490915 0.14831638 0.05683805
-0.09848442 -0.19987714 0.011695063
0.23455392 0.21568283 -0.16979219
-0.04129545 -0.16526616 -0.022632128
0.004750434 0.05707769 0.0072771967
-0.09584315 0.015323424 -0.029127084
0.09232009 0.0012857376 -0.01832014
-0.11870914 -0.09505096 0.03043322
-0.018606747 0.08381884 -0.020762637
0.21510966 0.117270455 0.029132359
-0.07063273 -0.06653699 0.028604385
-0.0447539 0.03513323 -0.0023320096
-0.20935369 -0.20933315 0.047460478
0.15477705 0.03887581 -0.07141017
0.045977734 0.15328349 -0.029807651
0.031155862 0.10918299 -0.007826338
0.09561173 0.02141614 -0.008154881
0.06272528 0.062392734 0.009964043
0.2350466 0.1516333 0.03124878
0.31062335 0.18463598 -0.057338454
0.073074885 -0.039778102 -0.035370238
0.24213302 0.16681337 0.03235191
0.19060305 0.21508513 -0.18021066
0.029559094 0.09628928 -0.00054141664
-0.25379527 -0.31308654 0.044698283
0.07264931 -0.024372589 -0.01857138
0.23821825 0.22515586 0.041615274
-0.29284018 -0.2634536 0.04999335
0.026770793 -0.07858259 -0.015584456
0.22443044 0.2033897 0.04346375
0.16120748 0.13001002 0.052192926
0.15100323 0.10154615 0.022390038
0.1505901 0.08078728 -0.015073217
0.06252796 0.13793544 -0.008909272
-0.09174738 -0.0007635849 -0.0063215275
0.16311076 0.10501787 0.049792867
0.22418787 0.22637555 0.043845277
-0.25183144 -0.24032658 0.050398972
-0.10791767 -0.027623676 0.002692459
0.08801458 0.15781273 0.005823292
-0.19075756 -0.1699267 0.040294956
-0.09462976 0.0039119436 -0.011967185
-0.22330803 -0.11194436 -0.03464084
0.026705679 -0.0696413 -0.009172369
0.18848155 0.23887724 0.0440128
-0.08987632 -0.16256788 0.023869662
-0.0959092 -0.066508524 0.026529124
-0.12774041 -0.24099313 0.00915343
0.2196071 0.039287187 -0.035687793
0.22470759 0.053713493 -0.021692319
0.061210673 0.100985825 0.004413672
0.32620314 0.14393502 -0.074090384
-0.29671 -0.29480428 -0.0011521623
0.071320556 0.09554589 0.00624789
0.25329995 0.10974748 -0.0017765509
0.1775426 0.10742989 0.044356003
-0.16475585 -0.08500514 0.008394714
0.06927563 0.14687595 -0.0110166585
-0.19882035 -0.32934165 0.0076278374
0.18382202 0.08788729 0.035232157
0.24833836 0.056770988 -0.095921315
-0.015312501 0.05958719 -0.0014559975
-0.10143398 -0.17860605 0.024321921
0.27401522 0.15082824 0.0070904302
-0.25431028 -0.14405514 -0.037448753
-0.2053032 -0.15409917 0.031073166
-0.29740906 -0.21760218 0.01863507
0.16001111 0.09753848 0.04935385
0.16919108 0.08188027 0.001155421
-0.057249077 0.0041003935 0.010928411
0.052589048 0.0439985 0.011286735
0.10617336 0.30747548 -0.03809652
0.22957274 0.2674951 0.026220433
-0.16538785 -0.20560785 0.041361783
0.026317496 0.07011496 0.007971408
-0.20079242 -0.08656148 -0.04637071
0.14844963 0.30529523 0.00494961
-0.17082463 -0.290081 0.0132773295
-0.1360925 -0.15095842 0.03813349
-0.27014494 -0.21288392 0.033575796
0.21333647 0.029783525 -0.08360332
0.19855776 0.048018947 -0.049177427
0.0077639567 0.06573987 0.004643873
0.27700636 0.2225688 -0.0060437755
-0.22136104 -0.26224762 0.049690735
-0.074013054 -0.036603846 0.02220023
0.03477114 -0.053702373 -0.0054062074
0.118716344 0.048982527 -0.010063868
-0.31157392 -0.26347402 0.030419039
0.18574907 0.16888502 0.049049135
-0.21756497 -0.14259309 0.016010148
0.15221553 0.099323824 0.014045036
-0.15136546 -0.27821562 0.0009843037
-0.06766107 0.050183177 -0.041090727
0.24166708 0.1345031 0.020983875
0.0936199 0.026546082 -0.004934524
0.07245224 0.28845045 -0.10910663
0.3219957 0.16764021 -0.054180887
-0.0028898166 0.113763265 -0.03968123
0.028956352 0.10658965 -0.007357962
0.026653094 -0.051110335 0.0026776446
-0.1114809 -0.23161167 0.0003300155
0.07609703 0.016591663 0.00046233658
0.071923174 0.21525969 0.02148435
-0.23543322 -0.2669128 0.05206942
-0.32645452 -0.22922394 -0.003415411
-0.026959931 0.012146502 0.015652843
-0.11853628 -0.14802855 0.035407934
-0.23255813 -0.27604443 0.051088236
-0.20263095 -0.12841658 0.015347126
0.13092583 0.09697002 -0.00255819
-0.08256492 -0.06907285 0.02845523
-0.13970801 -0.22417392 0.02830589
-0.009655471 0.038837984 0.01056848
-0.21840556 -0.25399506 0.04957668
-0.27214843 -0.31147742 0.03826543
0.09255939 0.26794347 -0.006684667
-0.1420377 -0.098346755 0.027256291
-0.32168975 -0.2784116 -0.05278587
-0.29040208 -0.21340849 0.020550085
-0.25731394 -0.18243846 0.019422723
0.018125104 0.018932 0.016349373
0.072304286 0.096475676 0.006140365
0.12018946 0.20037656 0.043966725
-0.08347628 -0.0931403 0.030696785
-0.09718889 -0.109412655 0.032618605
0.30716065 0.18355143 -0.09004388
-0.041797806 -0.12286348 0.013061484
0.09823019 -0.022991803 -0.082180105
0.11342611 0.061123252 -0.003578653
0.24690057 0.20442137 0.038643148
-0.18393666 -0.124550544 0.024122188
-0.19299747 -0.29035604 0.03261079
0.026779907 -0.040341094 0.0062414976
-0.024660086 -0.02609952 0.022423888
-0.01290544 0.084953636 -0.018016314
-0.04516472 0.048258744 -0.0118698925
-0.16063091 -0.15292357 0.039815746
-0.11179935 -0.027250621 0.0006415649
0.17312503 0.2747972 -0.14756168
-0.066801675 -0.15878595 0.011933578
0.2533196 0.116039805 0.0025907764
0.022763114 0.12855606 -0.02672729
-0.18480268 -0.09849434 0.004996349
-0.2983538 -0.19491346 -0.015564052
-0.21633518 -0.16025057 0.029182008
-0.1655989 -0.21775617 0.04009281
-0.21057843 -0.30643398 0.036378026
-0.24322253 -0.19085474 0.033968024
0.18944494 0.24943595 -0.16912042
0.07352068 0.050409574 0.008082383
0.06490687 0.037710328 0.009250428
-0.2589641 -0.15248926 -0.059451774
0.13104893 0.107609786 0.0014400175
-0.014529184 0.030224295 0.012807432
-0.010219704 -0.1262186 -0.018869072
0.08967485 0.19231643 0.03948434
-0.030439464 -0.119108126 0.006928864
-0.08008568 -0.045685343 0.023403237
0.010650669 -0.11408477 -0.039958715
-0.20965433 -0.2229234 0.04849956
-0.16243841 -0.25855246 0.027581587
0.09874258 0.14481787 0.0053378553
0.028936755 0.04700328 0.013260032
0.15156826 0.11598679 0.053270333
0.11967032 0.1819304 0.049617704
-0.19499934 -0.15589316 0.035074286
-0.11710875 -0.09972346 0.031812537
0.064389266 -0.05686075 -0.09084295
-0.085142076 0.008080723 -0.008483074
-0.20990746 -0.23575516 0.048509456
-0.21961635 -0.3055694 0.041148014
0.18316776 0.25007167 0.04071548
-0.17741862 -0.0628189 -0.039301187
0.05027841 0.1721085 -0.047035296
0.16398896 0.08581861 -0.0056034955
0.10366528 0.2656272 0.0048099174
0.11825456 0.1505268 0.056966063
-0.22991294 -0.1722909 0.029543526
-0.1051764 -0.1910323 0.022081474
-0.28008828 -0.28176382 0.05314269
-0.0029330999 0.069499694 -0.00090770883
0.25404444 0.19210596 0.034143947
0.21502483 0.22128128 0.045213986
-0.10032325 -0.0474692 0.019105835
0.10570215 0.010218162 -0.023954881
0.042886138 0.111135826 -0.0027197062
0.01817961 0.23015007 -0.10011409
-0.019014033 -0.1147037 0.00012569281
-0.031016469 0.07868338 -0.028245421
-0.18447866 -0.32100356 -0.0056275786
0.15256949 0.29577836 0.013781949
0.19701563 0.18799101 0.0475567
0.010176661 0.10879623 -0.020551918
0.02716338 -0.017647304 0.011652095
-0.2691008 -0.22607598 0.042043366
-0.037679993 0.030810604 0.0047741705
-0.10347731 -0.14429548 0.032005157
0.04968615 -0.051557183 -0.017084578
0.25801256 0.06729305 -0.099238515
-0.2510913 -0.19177948 0.030534305
-0.24203171 -0.35013908 -0.036174413
-0.25170642 -0.18031134 0.021665057
0.2770273 0.19784775 0.025574736
-0.15451488 -0.21567439 0.03685914
0.07276447 -0.0329438 -0.025611429
-0.051658273 -0.05583739 0.026238399
-0.02002139 -0.108517535 0.005085093
0.18637568 0.23917638 0.04370222
0.1891677 0.30197617 0.008066034
0.2800111 0.13566402 -0.0075609856
-0.11836513 -0.023194144 -0.007372939
-0.07751559 0.045684747 -0.07296324
0.10054144 0.30046344 -0.03606738
0.18021865 0.29110667 0.026190596
0.16698518 0.30017784 0.017670287
-0.0771545 -0.10861929 0.029469779
0.24233046 0.23656152 0.041135803
-0.11381809 -0.17386597 0.030715391
0.03602995 0.05255514 0.012806463
-0.276323 -0.27949157 0.05665643
0.15080498 0.12598665 0.053920303
-0.06084215 -0.005904564 0.0137601625
0.13777062 0.119845316 0.055883717
-0.16610548 -0.26183885 0.028459754
0.13218974 0.21334125 0.042259134
0.16199805 0.28003255 -0.13826737
-0.2750194 -0.31589666 -0.008513725
0.15586738 0.26838964 0.028258102
-0.20523171 -0.26090702 0.04565867
0.23472588 0.11691589 0.017036747
-0.194302 -0.18388422 0.043369956
0.3017995 0.19161645 -0.06652637
0.20787986 0.15911098 0.0439138
-0.12000945 -0.09427956 0.030309381
-0.13151856 -0.13644773 0.03742487
-0.2275549 -0.12305763 -0.016560847
0.23127282 0.18772441 0.040868208
-0.18109135 -0.2597614 0.03712032
0.16029786 0.17903481 0.052178793
-0.035746507 0.01711379 0.011581383
-0.20701377 -0.22687562 0.048184432
0.32262015 0.14627562 -0.12673923
0.089203015 0.30532327 -0.119524084
0.29132918 0.1151905 -0.048147716
0.019911688 0.13932796 -0.04439465
-0.09685588 -0.096150905 0.032365482
-0.108547315 -0.12333872 0.03420249
0.24235398 0.17803074 0.035387017
0.20103681 0.26963946 0.038088307
-0.16074678 -0.29542392 -0.008979806
0.0025402557 0.12830758 -0.099510655
-0.33213434 -0.23840886 -0.0027873707
0.20252408 0.2607612 0.04042289
0.009647029 0.2199579 -0.07460764
0.10071135 0.28950465 -0.021534095
-0.328098 -0.2707809 -0.03996186
0.20916069 0.05621655 0.00032143883
-0.056939457 -0.046920344 0.026230175
-0.17809136 -0.089723825 0.0027447753
-0.11399289 0.00096080266 -0.03596378
-0.23040426 -0.24755813 0.05156503
-0.041725375 -0.15070122 -0.0046904627
-0.097220995 0.020444931 -0.08695252
-0.16738428 -0.1340237 0.0342263
0.03812907 -0.037329063 0.0015349283
-0.13386652 -0.20898438 0.03041021
-0.016225731 -0.1442309 -0.0767924
0.07460301 0.18817513 0.03688397
0.19684906 0.14151992 0.045026638
0.14089942 0.26426998 0.025513396
-0.21589044 -0.10345903 -0.038403112
-0.2071434 -0.25083673 0.047251124
0.020615816 0.21243641 -0.0543986
-0.178045 -0.26991466 0.032263625
-0.14486131 -0.058539808 0.0015764263
0.13754192 0.20142259 0.047012985
-0.2830391 -0.23051868 0.037651405
0.028959885 -0.08034599 -0.019623423
-0.019026743 -0.025604181 0.021543084
-0.053078935 -0.16407613 -0.003924358
-0.12962668 -0.09430139 0.029328449
-0.07504038 -0.21015531 -0.05413174
0.121967055 0.2516988 0.024024013
0.11204774 0.28177994 -0.0021851999
0.15193698 0.072736144 -0.19027351
-0.18854989 -0.2401668 0.0435977
-0.1992607 -0.088522874 -0.028871728
0.02786478 -0.09697893 -0.04830953
-0.27627957 -0.30704787 0.039322503
0.29664508 0.17521311 0.003881598
0.073532656 0.11914782 0.0015364933
0.008371846 -0.03365798 0.015050381
-0.13036236 -0.04001436 -0.0025323173
0.31887156 0.16544628 -0.037974585
0.08799684 0.20575234 0.033758346
-0.06576336 -0.17393292 0.0006334595
-0.14352526 -0.262197 0.008321343
0.15638721 0.0978969 0.032636773
0.20824268 0.28826952 0.008407817
0.11744662 0.21437874 0.038631298
-0.19058795 -0.31268483 0.015107303
0.22834978 0.17088765 0.03959102
-0.10782707 -0.09617367 0.03212225
0.22292398 0.13669015 0.03225821
0.12388808 0.2233939 0.036907353
-0.19583288 -0.2800742 0.037743047
-0.15710726 -0.13904095 0.036719088
0.241567 0.114515215 0.010988366
-0.2506203 -0.16084768 0.006721974
-0.22545196 -0.14107364 0.009561138
0.19469872 0.27618542 -0.17919956
0.17168334 0.13882932 -0.23138882
-0.25242022 -0.14607026 -0.02072489
-0.16582002 -0.17195435 0.042102337
0.22195649 0.028215157 -0.07989344
-0.2507925 -0.17360447 0.017449126
-0.30737555 -0.23391001 0.024784604
-0.07306088 0.0036834972 0.0024960504
0.0039506843 -0.11804141 -0.032585606
-0.21251447 -0.24489038 0.048783645
0.20610742 0.19310127 0.04619963
0.047998097 0.19362578 -0.004197246
-0.15492992 -0.18539153 0.040591072
0.034789305 0.12885953 -0.018276136
0.13866866 0.3084306 -0.0039732796
0.07834851 0.06463491 0.0075340043
0.04670555 0.034820203 0.012077603
-0.02816275 -0.010048973 0.020372946
-0.041677997 -0.11212375 0.016568275
0.28840792 0.14199807 -0.0106425835
-0.2814342 -0.31348428 -0.035448242
-0.13595448 -0.24575225 0.01328528
-0.11301399 -0.21098678 0.016757624
0.01644127 0.20817387 -0.11632075
0.10728595 0.045896083 -0.00530167
-0.17853566 -0.21072356 0.043934863
-0.09014616 -0.04178321 0.019530224
-0.06335853 -0.13328323 0.020341804
-0.16604392 -0.27992496 0.016246077
0.1496721 0.3143644 -0.0010662944
-0.08712482 -0.16692232 0.021070218
0.2541026 0.24445961 -0.0011738659
0.049625315 -0.033524968 -0.0050782813
-0.26699755 -0.1638242 -0.014513988
0.07734717 0.14218025 -0.005597607
-0.088914566 -0.07807119 0.029988876
-0.26552308 -0.26005295 0.053658783
-0.036934815 -0.104647584 0.016648436
-0.09807542 -0.022702895 0.0056664785
-0.31591788 -0.21533862 -0.010043306
-0.21088882 -0.31502655 0.03157323
-0.060493466 0.058907557 -0.044235796
-0.15523773 -0.053615496 -0.013074706
-0.0022108015 -0.063104965 0.012899565
-0.2241596 -0.15137564 0.018270697
0.09603304 -0.013226018 -0.03595224
-0.2591895 -0.29240867 0.055434622
-0.06538343 -0.16974153 0.003291131
-0.005097576 -0.0059473515 0.019638518
-0.044902977 0.061189357 -0.022622762
-0.26234832 -0.3368943 -0.07882508
-0.0040911455 -0.08464257 0.006894355
-0.005280631 -0.08830577 0.0051805507
0.0029655236 0.02220175 0.01617433
0.057242494 0.1816185 -0.030308424
0.06744892 0.17294657 -0.017199615
0.14196439 0.04856613 -0.029591795
-0.040395867 0.021782931 0.008830677
0.20755914 0.1470799 0.042144537
0.19089326 0.27533475 -0.21254829
0.13065337 0.085080326 -0.0046359226
0.18504214 0.10669631 0.040831413
0.2334647 0.20847139 0.042005267
-0.13150242 -0.2682811 -0.023194747
0.027973609 -0.06927829 -0.010034409
-0.0866325 -0.13298507 0.028873844
0.024791852 0.23534729 -0.062394988
0.15589684 0.10681766 0.051569287
-0.19969074 -0.2920607 0.035709213
0.0530238 -0.008232438 0.0037422746
0.23053817 0.091515526 0.005837487
-0.23585427 -0.243269 0.05156311
-0.007219017 -0.1258471 -0.02330886
0.016554253 0.005521178 0.016394867
0.1893995 0.0535093 -0.07205859
0.24002697 0.2593716 0.012916312
-0.17510597 -0.29191586 0.015902147
0.19710802 0.16485173 0.04680482
0.036915645 0.24271011 -0.047464076
0.050185394 0.010405868 0.008954452
-0.09851488 -0.19077483 0.017708639
0.2316757 0.2004695 0.04178039
0.28139925 0.098181896 -0.06130986
0.1952278 0.089247115 0.02940484
-0.09735447 -0.03588335 0.014659403
0.19943273 0.04511506 -0.0650902
-0.010542903 0.053118072 0.005108404
0.17874783 0.17772834 0.050285645
0.19655333 0.21093655 0.047385678
0.024141174 -0.04811405 0.0049802526
0.012130178 -0.043244176 0.011954532
-0.13955978 -0.07202541 0.014900945
0.26707748 0.17589925 0.022779716
-0.16639663 -0.23944792 0.036260344
0.092613034 0.22862734 0.02361914
0.07028027 0.17088199 -0.013588489
0.12718369 0.04570354 -0.018614087
0.038434032 -0.015312795 0.008166326
-0.20760472 -0.1736942 0.038505405
0.18306209 0.19176236 0.049516916
-0.21163903 -0.24142553 0.04869666
0.145459 0.19911611 0.04853801
0.3159969 0.17656624 -0.08081604
-0.038655546 0.03472291 0.001712192
-0.006207688 -0.13509908 -0.049916375
-0.13065107 -0.14164746 0.03741448
-0.109730534 -0.22220191 0.006172722
0.13032447 0.23236842 0.035197992
0.086497806 0.16337799 0.0374658
0.0017532186 0.11036001 -0.028010782
0.028218862 0.22855337 -0.13793118
-0.22205958 -0.31900772 0.037933197
-0.14204025 -0.28241315 -0.042025182
-0.055124845 0.069886826 -0.0640343
0.09595869 0.1319398 0.000907986
0.008668504 0.09309288 -0.010337047
-0.19968393 -0.31086105 0.024760857
-0.052149024 -0.09709985 0.023850994
0.24651828 0.055064395 -0.100834586
0.043945342 0.18929502 -0.06578308
0.16670713 0.25269634 0.036699742
0.20195179 0.21888989 0.04652001
-0.087193824 -0.1771376 0.016806565
0.1073025 0.15151538 0.055479035
-0.28073302 -0.3049364 0.034551628
0.18725653 0.20577736 0.048472047
-0.09845898 -0.18060805 0.02218594
0.03412902 0.14686725 -0.03436254
0.17458661 0.08780804 0.040184356
0.107987165 0.18503942 0.04637861
0.1606082 0.14436066 0.052647963
0.30801588 0.15884677 -0.016906552
-0.148457 -0.107285015 0.028956499
-0.003827725 0.05090163 0.007213435
-0.16483805 -0.21483843 0.040213663
0.018536419 0.062926516 0.0090910625
0.20372838 0.09820875 0.028125707
0.05852506 0.0065658684 0.0053788195
-0.030403435 -0.12824951 0.00089929847
-0.1909329 -0.09464548 -0.003808149
-0.15388606 -0.17824821 0.040532645
-0.00068832026 0.008341352 0.01887953
0.11684759 0.22527754 0.03419882
0.08060272 -0.038780045 -0.049542133
-0.16488223 -0.18041821 0.0422341
0.20615783 0.1699478 0.045157444
0.1859769 0.14202127 0.047528196
0.1193078 0.0828356 -0.0011939653
-0.1738517 -0.14292106 0.036030497
0.04614138 0.21054105 0.0073589785
0.15481216 0.22652778 0.042545374
0.21229042 0.1271889 0.03449332
0.07821072 0.08796493 0.007902139
0.28833127 0.15109792 -0.0042330394
0.052445177 0.06846108 0.010900748
0.29192564 0.10456303 -0.083419375
0.0030874982 -0.048371453 0.014182553
-0.22205381 -0.32835314 0.032301124
-0.19627345 -0.3396039 -0.020649074
-0.11821812 -0.021191638 -0.008978933
0.018238148 -0.0045287376 0.015979538
-0.06385015 -0.042086378 0.02394632
-0.2168854 -0.20572622 0.046049774
-0.25361452 -0.28399098 0.05468045
0.28494513 0.15657358 0.0024056274
0.10377709 -0.013816235 -0.052686926
-0.031673096 0.09531534 -0.077069774
-0.09948526 -0.14567901 0.030820496
-0.32046714 -0.27019492 0.0166189
0.091956526 0.10739542 0.0060086125
-0.13827884 -0.04968856 -0.0006018744
0.06656664 0.27333957 -0.049069338
-0.17286351 -0.09499038 0.009994684
0.18029754 0.13272037 0.048082046
-0.03625481 -0.16456957 -0.033514902
0.09751131 0.10521451 0.005116475
0.015568906 -0.099445395 -0.023851048
0.10602348 0.31406745 -0.051147703
0.17008112 0.3071332 -0.1175051
-0.16479173 -0.16718554 0.041683927
0.090090014 -0.021901535 -0.038462512
0.1665774 0.24156836 0.040143643
0.1745963 0.12351219 0.048649088
-0.27710545 -0.20872276 0.026145339
0.14100818 0.1653131 0.054573722
-0.10725704 -0.19380997 0.022194836
0.21838804 0.0684258 0.00059139397
0.09693659 -0.017811136 -0.04545306
0.05273979 0.22752659 -0.0035798252
0.059207235 -0.0074214647 0.000994141
0.061740983 0.15134591 -0.017545765
-0.010341865 0.0029223184 0.019507142
0.081819676 0.2754513 -0.02710002
0.18418553 0.07019607 0.018112283
0.020241646 0.103186645 -0.010176329
0.13299091 0.26882625 0.01966906
-0.10939511 -0.23735273 -0.010883307
0.18431972 0.21562679 0.048268832
-0.26554403 -0.3093285 0.042919178
-0.21339767 -0.10578666 -0.022653503
-0.040023062 -0.013744488 0.01978204
0.023857601 0.06934318 0.00834817
0.16891985 0.114216015 0.04920189
0.1243036 0.10515182 0.0008907125
-0.07478645 0.04149904 -0.038013954
0.2648863 0.13256969 0.0037838912
0.23174348 0.047179267 -0.047887485
0.07032708 0.28718466 -0.08560566
-0.16878733 -0.10963397 0.022827081
-0.16347185 -0.22191155 0.038825285
0.19966942 0.062289488 0.0130246505
0.10459686 0.056117147 -0.0011726723
-0.08497 -0.06712131 0.027613264
-0.25471613 -0.3194687 0.038647756
-0.063323066 -0.080183886 0.027712729
