# .PCD v0.7 - Point Cloud Data file format
VERSION 0.7
FIELDS x y z
SIZE 4 4 4
TYPE F F F
COUNT 1 1 1
WIDTH 1000
HEIGHT 1
VIEWPOINT 0 0 0 1 0 0 0
POINTS 1000
DATA ascii
-0.09668129 0.026980078 -0.0030915334
0.07976602 -0.26512563 -0.09537414
-0.09240551 0.2752897 0.07113576
-0.06974605 0.33053234 0.0050051226
0.27311686 -0.35394156 -0.042510778
0.15178986 -0.35900307 -0.075650394
0.16342928 -0.34052172 -0.043185852
-0.24204044 0.15357095 0.04678101
0.0712346 -0.043787446 0.0035640376
0.0734841 -0.16822267 -0.0074041416
0.095708914 -0.17132595 -0.0026711107
-0.061733086 0.14879791 0.08219115
-0.072186776 0.086333685 0.025500873
-0.2076065 0.09544564 0.033867016
0.0568148 0.023457471 -0.007321839
-0.006896935 0.21424341 0.02880793
0.22956468 -0.3861692 -0.052917592
0.24044447 -0.20301253 -0.056302752
0.14075373 -0.2439759 -0.0114429975
0.013146606 0.07666677 0.0024171278
0.19061537 -0.14569056 -0.038461912
-0.18532446 0.06811604 0.033958066
0.08463053 -0.17014123 -0.004399035
0.08998966 -0.059698116 -0.00185706
0.24958989 -0.35824585 -0.026660608
-0.28882095 0.1727931 0.003273355
0.15843715 -0.2516086 -0.009986606
0.24020146 -0.26580766 -0.025451105
0.2894012 -0.2990591 -0.044459514
0.23673658 -0.28004956 -0.021469407
-0.07496938 0.014404272 0.0032507493
-0.17473488 0.21397434 0.095303714
0.15224499 -0.327601 -0.04311613
0.23802143 -0.3283192 -0.018228034
-0.09515946 0.06338289 0.014886271
-0.19683951 0.050224718 0.002051442
0.16667934 -0.31752655 -0.029013135
0.050769635 -0.20695277 -0.0485611
-0.19039428 0.0531444 -0.08200221
0.15815665 -0.18016219 -0.008210479
0.050008778 -0.07360569 0.008683417
-0.06076715 0.092204094 0.026101552
-0.039628446 0.2327164 0.049700867
0.012471746 0.09433492 -0.0040482106
-0.055156607 0.32973725 -0.038438447
-0.20816603 0.07152396 0.0098687345
-0.051042866 -0.025484394 -0.003844671
0.18525577 -0.3963623 -0.077903815
0.102161564 -0.024003956 -0.022942783
-0.08780586 0.30277777 0.05596513
-0.19993551 0.14431314 0.06991185
-0.091322005 0.21482193 0.08441534
0.002467887 0.0717862 0.009603911
0.08692572 -0.14291692 0.0014693929
-0.052039713 0.08790449 0.025801407
0.05045597 -0.09817877 0.0060731666
0.12609628 -0.06737748 -0.020480284
-0.084028855 0.1258231 0.08717214
0.06847726 -0.14222501 -0.0008870894
-0.05570667 0.21050033 0.07009795
-0.042071056 0.2084263 0.062181972
-0.030863695 0.09178408 0.019601751
0.034492992 0.09911298 -0.03912063
0.2906581 -0.3129933 -0.03986374
-0.17650576 0.05728517 -0.028231302
0.18575452 -0.35670412 -0.03815419
-0.28110883 0.17944244 0.02010842
0.22360075 -0.33578807 -0.018600868
0.25562683 -0.2567775 -0.03727681
0.2265266 -0.37067896 -0.028670631
0.108927526 -0.16477542 -0.0008671926
0.19634013 -0.29421815 -0.014264619
0.15092504 -0.14440137 -0.011199051
-0.036954764 0.04469971 0.020904304
-0.01814937 0.16063197 0.06341022
-0.00049241603 0.07181492 0.0110035855
0.11891698 -0.27648932 -0.035668667
0.25778186 -0.3069576 -0.025109548
-0.24191089 0.18127811 0.06500122
-0.25107858 0.17314488 0.05267687
-0.017893026 0.012963776 0.017861629
0.03978221 -0.16911404 -0.026015872
0.018638318 0.013959806 0.01291075
0.0030045426 0.05591384 0.0134642925
-0.12084364 0.29693276 0.06875285
-0.08010072 0.070567995 0.02177034
0.18980618 -0.3761712 -0.04632245
0.057712127 -0.22940749 -0.06837528
0.1969166 -0.3792726 -0.043429676
-0.12973419 0.18828438 0.09375784
-0.031182747 -0.108212136 -0.07088808
0.15222527 -0.30836213 -0.0327045
0.09438107 -0.26241663 -0.04881263
-0.06274919 0.12612961 0.0838372
-0.20883717 0.058182817 -0.0097762635
0.2743076 -0.30793557 -0.032202683
-0.03821109 0.24201177 0.043344654
-0.14110734 0.20081736 0.09501893
-0.12617777 0.28595328 -0.10554552
-0.120513804 0.045452498 -0.012283229
-0.21244901 0.17394921 0.07699588
-0.0762348 0.19137733 0.082374945
-0.02362403 0.26986092 -0.00063217455
0.06211317 -0.22063804 -0.04751558
-0.05170718 0.13489977 0.07398009
-0.25893146 0.21361339 0.015499091
-0.0964716 0.17834225 0.08872391
-0.076253675 0.3209881 0.030382631
0.023621768 0.0045409007 0.012380058
-0.0638774 0.036395974 0.017419152
-0.00048279055 -0.08014712 -0.0037131377
0.13505927 -0.10791145 -0.012132513
-0.052741587 0.13650328 0.05196148
-0.14510952 0.3085138 -0.11860175
-0.1697842 0.24494599 0.09977187
0.21280038 -0.1697063 -0.047387466
0.012823022 0.047228787 0.011529989
0.11905148 -0.22947985 -0.013012149
0.12257525 -0.32496607 -0.11157747
-0.09698322 0.3384722 -0.0794471
-0.04907557 0.31387514 -0.085653864
-0.06436864 0.1135333 0.026907494
-0.05103791 -0.044752497 -0.0149879325
-0.18001476 0.26932758 -0.11999113
-0.0626671 0.028389724 0.01477888
0.25111172 -0.3706757 -0.057055447
0.17342913 -0.24815525 -0.009143836
0.07863506 -0.1590882 -0.0029790315
0.12983838 -0.28273106 -0.03226362
-0.12505451 0.18471299 0.093437925
0.1735539 -0.23294076 -0.008460597
0.15574875 -0.25125423 -0.0102646025
0.09909684 -0.088391714 -0.00013218354
0.14334802 -0.1731854 -0.0047448366
-0.095839955 0.29810393 0.06440552
-0.22101898 0.13358857 0.050080657
0.26251334 -0.32160896 -0.024412602
0.117564835 -0.15995066 0.00010344902
-0.0742971 -0.03290246 -0.03278136
-0.11151403 0.31757057 0.020508613
-0.22101898 0.06751738 -0.023651732
0.19925143 -0.3340049 -0.021806492
-0.0993978 0.2660654 0.07871603
-0.16390577 0.22599243 0.0975533
-0.13520333 0.14431533 0.08682455
-0.05363967 0.17937084 0.07615569
-0.095668264 0.15091847 0.08950723
0.18603767 -0.1090277 -0.07774079
-0.1291663 0.16359892 0.09067392
-0.048724916 0.23554596 0.055584773
-0.1294503 0.17593582 0.09221543
0.048648585 -0.21261041 -0.059451815
0.040100534 -0.17296754 -0.028362503
-0.06552439 0.14434737 0.08363811
0.29227978 -0.33388996 -0.048942026
0.22947541 -0.35103527 -0.020369878
-0.028892137 -0.10256296 -0.047504224
-0.23215109 0.08693811 -0.012952797
-0.028780019 0.0015723704 0.015106026
0.19381088 -0.16720825 -0.028918616
-0.000755721 0.15562202 -0.06439261
0.057685994 0.06257717 -0.03618184
-0.0057854042 -0.046827152 0.008278093
-0.091954656 0.21135382 0.08492465
-0.21852991 0.18864162 0.08004899
-0.20747304 0.10334837 0.04059487
-0.06244556 -0.012300209 -0.0038926038
0.004474529 0.0004394505 0.016746758
0.13632755 -0.03871718 -0.07010964
0.17300455 -0.3955732 -0.12045452
0.0019263215 0.08773813 0.0056645707
0.085182205 -0.009387738 -0.014464941
-0.09537774 0.13841647 0.0884418
0.16318603 -0.19480304 -0.008286186
-0.009365932 0.16009112 -0.030740174
0.18570596 -0.38444158 -0.055737782
0.17752665 -0.14277859 -0.027045595
-0.009662848 -0.07493456 -0.0055183726
-0.01744831 -0.011193814 0.014372034
-0.06320217 0.06274635 0.022982113
-0.15078133 0.12992449 0.08117313
-0.115640566 0.23773593 0.089100845
0.16146398 -0.12592112 -0.022352302
-0.19179766 0.25461805 0.07752958
0.005808349 -0.11065036 -0.015078388
-0.14512527 0.23873064 -0.12100087
0.10682478 -0.2967454 -0.071486466
0.18920836 -0.1851937 -0.020071242
-0.26682404 0.13647161 -0.0067735077
0.24036193 -0.31733328 -0.018703237
-0.0672026 0.26907435 0.054977573
-0.090206265 0.005332007 -0.014327069
-0.042432938 0.14512789 0.03953015
-0.0639983 0.099977136 0.027065402
0.28205338 -0.34167728 -0.123681724
0.13797379 -0.07341455 -0.028880775
-0.163581 0.123990506 0.07633846
0.16961354 -0.1583534 -0.01689918
0.14049485 -0.34473103 -0.07757336
-0.040539008 0.037913598 0.020393271
0.060713094 -0.10268367 0.005712052
0.1737648 -0.24564919 -0.008761326
-0.12473591 0.22889937 0.09240728
-0.17660755 0.26023933 0.08694221
-0.15319486 0.23922785 0.097869806
-0.08418869 0.1377376 0.0876874
-0.18439113 0.105144225 0.058917593
-0.16333012 0.20138498 0.09424301
-0.19511603 0.10502388 0.051522613
-0.104945324 0.3061085 0.057812724
-0.10427173 0.32797435 -0.029182743
-0.060585305 0.11639956 0.025603969
0.18033044 -0.32328963 -0.025122585
0.12493507 -0.18550968 -0.0029270917
-0.20090617 0.054550976 0.0010334505
0.05452075 0.009743416 -0.0010562404
0.10662654 -0.04475357 -0.015613174
-0.005978202 -0.1307255 -0.044666834
-0.21886314 0.14494027 0.059348013
0.085488506 -0.045366272 -0.0028139625
0.12893543 -0.18441495 -0.0026079025
0.1377783 -0.095834665 -0.017485343
0.23763503 -0.24255204 -0.030335529
-0.012251627 0.2516262 0.0005914129
0.2031037 -0.28650436 -0.012904099
0.15918784 -0.09527903 -0.03841235
-0.18708457 0.1826549 0.08697744
-0.2534978 0.14097527 0.022975998
-0.011111119 -0.096061036 -0.017510325
0.27247864 -0.2938915 -0.035008624
-0.21921755 0.19606923 0.08241457
-0.041773703 0.17625645 0.07236272
-0.020956932 -0.018685369 0.011737083
-0.021826359 0.08901257 0.017353162
0.04643724 -0.14155637 -0.008251007
0.15185732 -0.18856016 -0.00571714
-0.13858573 0.28712013 0.07633985
0.04885562 -0.042427838 0.009624454
-0.10044544 0.056846477 0.0101219
0.0911894 0.0073989416 -0.03360131
-0.04472549 -0.0089327395 0.006952382
0.028230025 0.056281053 -0.00017002698
-0.111998565 0.10694679 0.08249499
0.046544645 -0.09186735 0.006743168
0.23631339 -0.27102363 -0.022892565
-0.2663887 0.14255215 0.0039492007
-0.06569231 0.29205745 0.040689986
-0.006611501 0.060901523 0.015671678
-0.065948285 -0.054084748 -0.048010763
-0.056114573 0.31222785 0.008865887
0.15281847 -0.30762297 -0.031976648
-0.018765086 0.06989672 0.018224789
-0.20823537 0.21701334 0.09125487
0.2926285 -0.3326541 -0.13808022
-0.021988016 0.17439306 0.06112776
0.29318967 -0.33482292 -0.11388606
-0.20791575 0.07893789 0.018768536
-0.07404558 -0.0039253044 -0.0059640594
-0.035822283 0.20999917 0.05697525
0.011219557 0.2302319 -0.02523108
0.117872246 -0.287651 -0.044620007
0.21778767 -0.27273762 -0.016376201
-0.09329394 0.1889258 0.0873093
-0.08578169 0.07674622 0.022071531
0.07235199 -0.114445984 0.004230659
-0.039755177 -0.06630971 -0.02225789
-0.24860162 0.23812872 -0.14659913
0.18576543 -0.37584618 -0.048792236
0.12810592 -0.14494874 -0.0030669211
0.22916085 -0.16928636 -0.108311184
-0.2438428 0.10146197 -0.014514411
-0.011587877 0.19999057 0.042038426
0.18094614 -0.3710682 -0.0492159
-0.22025804 0.2243993 0.080372155
0.09861019 -0.11251318 0.002169374
0.122413315 -0.07445868 -0.015061432
0.07794902 -0.1827664 -0.011413632
-0.1529575 0.27932057 0.07952725
-0.022552878 -0.009708358 0.013442163
-0.17833003 0.10947831 0.06448965
-0.087226704 0.10907906 0.08498193
0.10906352 -0.11757681 -0.00026381097
-0.16963075 0.1387577 0.079427294
0.20710368 -0.28165746 -0.01355078
0.061812785 0.0675066 -0.06820816
-0.015477693 0.031758256 0.020111725
-0.10562871 0.2626674 -0.096230045
-0.16595006 0.14818615 0.08267123
-0.08747847 0.23847425 0.0795381
-0.035693295 -0.013971026 0.00902118
0.13610995 -0.05216141 -0.043626424
-0.0872763 0.026511723 0.0022051292
-0.06558264 0.25634643 -0.16311903
0.0005324041 0.25074518 -0.04459385
-0.12095595 0.25926405 0.08846264
-0.004827323 0.08592585 0.009781183
0.023253867 -0.046744313 0.011597241
0.16433509 -0.30232492 -0.023368794
0.27153823 -0.2561994 -0.053376377
-0.01687304 -0.08457539 -0.014702085
0.11847651 -0.22972642 -0.013349429
-0.16972682 0.1958998 0.092521526
-0.04082978 -0.093105115 -0.061996803
-0.14261569 0.07113361 -0.009255228
-0.17643435 0.2212101 -0.12993574
-0.032440893 0.29100555 -0.016740168
-0.011956278 -0.13116525 -0.05805547
0.11825886 -0.20771201 -0.0070666987
-0.24228856 0.13646372 0.032458376
-0.2087815 0.22647263 -0.11235658
-0.10543976 0.09332146 0.025070092
-0.26077202 0.14522013 0.017137337
0.1519197 -0.25646576 -0.012306506
-0.266469 0.13758247 -0.0042271623
0.07336988 -0.20357513 -0.024054887
0.15436333 -0.065868564 -0.06660654
-0.19658493 0.05756171 0.010869544
-0.01698936 -0.05454746 -9.8397235e-05
-0.008949271 0.04114531 0.018093405
0.018804027 0.22367856 -0.04070869
0.09098045 0.0071183923 -0.033082444
-0.04303655 0.13249189 0.018726015
0.030989273 0.11084074 -0.05557827
-0.10257106 0.0466549 0.0034679023
0.1335525 -0.30840996 -0.045624018
-0.25022337 0.22070408 0.006837416
0.12386016 -0.26728117 -0.0279974
-0.10156651 0.32308185 0.031685174
0.0920805 -0.017432807 -0.016183987
-0.05623033 0.14943996 0.08061286
0.27268556 -0.35490158 -0.06160121
0.20723435 -0.39761972 -0.07585805
0.036518358 0.016547708 0.00600197
0.113781564 -0.14071177 0.0005070224
0.30029327 -0.28145868 -0.07042842
-0.2417676 0.0906891 -0.052404474
0.033351976 -0.110824555 -0.0010884716
-0.014797765 0.2637694 -0.013817257
0.061263267 -0.08604479 0.007581166
-0.023839429 0.23472695 0.033395037
-0.030539064 0.20079704 0.056976285
0.038105793 -0.20623872 -0.09036008
0.3043897 -0.31467742 -0.057012767
0.0057353894 -0.12889102 -0.027454343
-0.117392965 0.08958966 0.062217407
0.27211544 -0.27718654 -0.040872592
-0.0033088387 0.075031385 0.011559116
0.27305454 -0.3242494 -0.02814478
-0.011636287 0.2687747 -0.047198918
0.23961575 -0.27536082 -0.023442425
-0.12914218 0.27615073 -0.11042077
0.09748657 -0.2874088 -0.0784243
-0.054342236 0.22125426 0.065554045
-0.16007565 0.27145416 0.08417141
-0.052646462 0.08747715 0.025926959
-0.052206386 -0.05073302 -0.022332149
0.05878144 -0.15706389 -0.009203232
0.014533231 0.099602275 -0.010265218
0.27030924 -0.34639096 -0.15772852
0.1745975 -0.3438964 -0.037939843
-0.036225863 -0.059908938 -0.013256335
0.16340648 -0.3212519 -0.032849513
0.26219678 -0.36384928 -0.04733742
0.03343743 -0.09844521 0.0031885884
0.12425574 -0.060857873 -0.021797061
0.24048322 -0.36897218 -0.032838527
-0.25437465 0.13508254 0.014901565
0.072144665 -0.13253383 0.0024760657
-0.051485073 0.027106496 0.016736848
-0.1918845 0.24125132 -0.12801419
0.06883834 -0.17761442 -0.013702649
-0.08465435 0.28936473 0.059548385
0.2103865 -0.22071509 -0.02175067
-0.042080965 0.00114653 0.012416383
0.102155104 -0.26689887 -0.04367086
-0.292259 0.16196135 -0.044381022
0.11293645 -0.11675773 -0.0014095481
-0.16546364 0.2760192 0.051741242
0.0070714164 0.020717634 0.015500256
0.14098938 -0.27582553 -0.022533575
-0.005573525 0.09833917 0.006778227
-0.16626184 0.14095746 0.08082882
-0.10061613 0.20974721 0.08746204
-0.019169291 0.065713875 0.018709375
0.15753028 -0.09037098 -0.040190734
0.19642672 -0.34423864 -0.026826262
-0.18446349 0.07698865 0.041263726
-0.025570694 0.16005294 0.008745145
0.032897484 -0.028683499 0.012798806
0.18182394 -0.20058993 -0.01360257
0.0026487266 -0.035405643 0.012601456
-0.227334 0.21656555 0.07881446
0.15084918 -0.107352935 -0.02217197
0.30647886 -0.28827623 -0.07403806
-0.108337194 0.08067128 0.016233122
0.015050573 -0.06009511 0.008599265
0.06497187 -0.00892534 -0.0015789688
0.06721121 -0.032288186 0.0030187913
-0.09446843 0.31891832 0.03790417
0.2408305 -0.36367527 -0.027102439
-0.15098332 0.14146733 0.083974674
0.19671981 -0.32878953 -0.021045968
0.1298221 -0.30149725 -0.043468427
0.12329957 -0.06566685 -0.019154467
-0.11772562 0.1215398 0.08455458
0.14250311 -0.046226043 -0.088786274
-0.016978951 0.09243874 0.014861614
0.17302638 -0.20573431 -0.010022174
0.082011215 -0.13339177 0.0024657946
-0.09500846 0.15262139 0.08931876
0.18467432 -0.24478829 -0.010184427
-0.22218558 0.22525424 0.07845627
-0.16049892 0.2587111 -0.11915344
0.057596114 0.06764944 -0.095786095
-0.06644611 0.27885905 0.04936438
-0.14623322 0.19776368 0.09449444
0.11468643 -0.17979729 -0.0026103044
0.19684109 -0.3496524 -0.028820299
0.18965477 -0.2691067 -0.01121104
0.2521926 -0.30820048 -0.02269815
0.08663526 0.03150756 -0.062316645
-0.022461953 0.22836944 0.03583837
0.25563088 -0.29392594 -0.026550679
0.058138575 -0.037317194 0.006601407
-0.10991508 0.18630424 0.091114126
-0.07756737 0.2607793 0.066715926
0.31434435 -0.29327685 -0.1308834
0.21903092 -0.36463538 -0.02561623
0.17468862 -0.27258012 -0.012158806
-0.19580981 0.119327016 0.059655234
0.056715053 0.01762532 -0.0050019277
-0.11993395 0.037665218 -0.018885555
0.19035225 -0.1957516 -0.017927906
0.16222125 -0.21814556 -0.006727443
0.03753582 -0.008019041 0.009662731
-0.0730224 0.32667476 0.017303856
0.1031993 -0.1463758 0.0013596126
-0.012146217 0.17588867 -0.0852267
0.043990813 -0.15186194 -0.014326185
0.06893672 0.024535274 -0.019143298
0.27968806 -0.24060462 -0.09407062
-0.20926182 0.05228445 -0.02096764
0.01131094 0.18529215 0.02000269
0.06279492 -0.09537666 0.0063474267
0.28349817 -0.2847749 -0.04617972
0.18516538 -0.18640594 -0.017632484
0.21932776 -0.34532076 -0.02071487
0.023867013 -0.18624824 -0.082708485
-0.016903201 -0.07466988 -0.009681701
-0.12262452 0.1504523 0.08920369
-0.29674935 0.17996824 -0.070493735
0.16820772 -0.20954204 -0.008350565
0.256557 -0.27009815 -0.032962162
-0.29702276 0.17924379 -0.046523806
-0.0009897859 0.17990038 -0.011368841
0.107044615 -0.2900877 -0.061409008
0.15180539 -0.24525546 -0.009544205
-0.0019524136 0.18158562 -0.033679742
0.012773327 -0.02538187 0.013473755
-0.12867533 0.13962306 0.08668049
0.077821635 -0.053129163 0.002581388
0.078390114 0.03808636 -0.04751752
0.23656817 -0.3533938 -0.020376725
0.13931476 -0.15652952 -0.005125936
0.009524962 -0.15529758 -0.050263338
-0.15126312 0.20865451 0.095723554
0.09397592 -0.28514197 -0.09300385
0.050256714 -0.21983163 -0.06930571
0.08373949 -0.11079295 0.005234698
-0.06264383 -0.03898274 -0.02355294
-0.005791562 -0.12328555 -0.035888292
-0.17423016 0.2688919 0.060349666
2.683892e-06 0.194772 0.033620067
-0.0044240193 -0.05468774 0.0057002692
-0.00021912187 0.20935404 0.024254203
-0.07148459 0.23829673 0.07056519
0.2073074 -0.29454696 -0.01383432
-0.18796611 0.25061586 -0.12530728
0.13925977 -0.12215231 -0.010639771
0.0070995213 0.09347014 0.00018681116
-0.1099283 0.20466499 0.09048534
0.2597514 -0.35541037 -0.14324228
0.18795635 -0.23389961 -0.011619723
0.01945676 -0.12625138 -0.015325219
-0.15015684 0.18519752 0.09271499
-0.09596857 0.031472377 -0.0005426045
0.16885506 -0.25743192 -0.01057046
0.010377314 0.18697006 -0.0020584862
-0.10014256 0.28341344 0.0732489
-0.12568997 0.18327871 0.09324136
-0.010682645 0.2391652 0.013617636
-0.09736084 -0.0046310676 -0.03530331
0.23270205 -0.2945917 -0.018535025
-0.15443908 0.068348 -0.024918005
-0.10699872 0.16322333 0.091237314
0.04776645 -0.188929 -0.03440398
0.0051954985 -0.15140337 -0.053432107
-0.0082206465 0.25172746 -0.09976463
-0.12560453 0.2564114 0.09017784
-0.14225636 0.24075569 0.095650166
0.25162613 -0.36121717 -0.031072494
-0.016922515 -0.064877436 -0.0044857017
0.18559554 -0.31637645 -0.02017736
0.024525845 -0.12632123 -0.012207605
0.16304909 -0.37284636 -0.07422309
-0.19165263 0.054621775 -0.10433649
0.17872617 -0.23915154 -0.009257429
-0.10912861 0.23276147 0.08774969
-0.13488308 0.2908442 -0.1081428
-0.18009241 0.20461224 0.09298074
-0.13676195 0.17886534 0.09238317
-0.18442261 0.08621717 0.047442622
-0.1290725 0.1507622 0.08869345
-0.060156956 0.3010074 0.027474744
0.19526513 -0.1681155 -0.02959065
0.14188562 -0.31323075 -0.04167427
-0.17359161 0.1554425 0.08294567
-0.090121925 0.32926917 0.017356904
0.116462186 -0.24723084 -0.021937484
-0.06179924 0.3213921 0.008189407
0.05106344 -0.17242295 -0.020868503
-0.02863642 -0.09578369 -0.037697334
0.02430285 -0.019424556 0.014211078
0.012953213 -0.041053694 0.012094128
0.13736486 -0.13981983 -0.006088583
0.15911338 -0.13970809 -0.016341818
0.13039438 -0.029656453 -0.07112152
-0.2189054 0.13576221 0.053199176
0.008895188 -0.050491285 0.009794879
-0.28557232 0.1823963 0.0076498925
-0.074591324 0.26118106 0.064366445
0.2561066 -0.3300136 -0.021821383
0.0438623 -0.05725187 0.010744871
0.13961475 -0.17039883 -0.003963933
-0.08609905 0.33346632 0.00374652
0.16277768 -0.24538559 -0.009234585
-0.27659076 0.20602778 -0.12882566
0.120298125 -0.1947601 -0.0040072566
-0.10773032 0.23137197 0.08748764
0.12312827 -0.25530452 -0.02222648
0.16092333 -0.15049012 -0.014410907
-0.046394236 0.22848614 0.05694356
-0.20940994 0.23625153 0.08269431
-0.23653053 0.19870001 0.076774195
-0.058296826 0.19345856 0.075739734
0.17096353 -0.3179335 -0.026863094
-0.20937338 0.1835866 0.08143511
0.07031467 -0.012611736 -0.0034205297
-0.17252128 0.23059033 -0.12721393
0.20567675 -0.32146144 -0.01761927
-0.24978018 0.20884024 0.059144687
0.066617854 -0.047018025 0.005128147
0.028861292 0.20296651 -0.022234088
-0.06447318 0.12427224 0.030909123
0.29015863 -0.28596586 -0.05348457
-0.13614637 0.3158019 -0.12741582
0.058038104 0.04981807 -0.025161726
-0.14366814 0.27375105 0.087069705
-0.07481957 0.087635666 0.025609517
0.2292832 -0.30545223 -0.01698648
-0.15062344 0.12826352 0.08079599
0.20415463 -0.136128 -0.07401292
0.0019232113 -0.011610876 0.014831446
-0.086137496 -0.025216263 -0.044385143
-0.05989766 0.045767225 0.019852556
0.024819532 0.07920049 -0.0068240054
0.040222354 0.03829147 -0.0015694437
0.15195808 -0.35189942 -0.0662919
-0.104974546 0.17207466 0.09062542
-0.2750782 0.2165566 -0.12015037
-0.10418627 0.19477728 0.08968648
-0.12455988 0.025544537 -0.049295574
-0.17528564 0.16006266 0.08374795
-0.24193646 0.17191915 0.05908782
-0.13850012 0.2829467 0.08030173
-0.1820244 0.21252269 -0.12874472
-0.037017908 -0.08237163 -0.034565393
-0.1869979 0.114367865 0.06209632
0.29453295 -0.33452427 -0.052779008
0.14828931 -0.2813625 -0.021638406
-0.0802252 0.33952162 -0.0248065
0.2566394 -0.21803734 -0.06626012
0.24113765 -0.2856934 -0.022227962
-0.056868874 0.1345612 0.08212518
-0.19085003 0.093846686 0.047446482
0.07355245 -0.22622833 -0.039119914
0.118012 -0.011674459 -0.07407259
0.06534205 -0.06993955 0.0075395163
0.024541399 -0.07090484 0.007948664
0.23956113 -0.30881685 -0.019152856
0.09515748 -0.13534823 0.0024698577
-0.20610115 0.1931222 0.08579746
0.022142934 -0.022743428 0.0144718
-0.23833178 0.10989243 0.009556807
-0.2802522 0.14551172 -0.039978415
-0.22048712 0.07255121 -0.01136617
-0.09720828 0.09950175 0.027889844
-0.14107679 0.12297722 0.081381105
0.17112787 -0.1283614 -0.02825347
-0.007380315 -0.047560122 0.00732417
-0.09715654 0.08936805 0.023215104
0.30511177 -0.3168153 -0.060367752
-0.12002494 0.30293968 -0.05073532
0.084107384 -0.26810896 -0.07549712
-0.0071144328 -0.06479377 0.00016344669
0.1962146 -0.33844343 -0.024598949
0.071219705 -0.23732814 -0.05342601
0.05309568 0.031464856 -0.007869669
0.20598015 -0.39601052 -0.11978895
-0.29113537 0.16263363 -0.025648091
0.073259905 -0.0030945048 -0.008474041
-0.10789367 0.26625082 0.08274331
-0.104129575 0.112493 0.08439393
-0.04077516 0.2972876 -0.002502123
0.07327288 -0.24168186 -0.05545831
-0.06723653 0.19177106 0.07919513
0.14353535 -0.19737785 -0.0038394537
-0.14290664 0.2721281 -0.113433175
-0.03735251 0.30450916 -0.05496656
0.073432125 -0.23415437 -0.046898857
0.17449948 -0.31400004 -0.02382535
0.060706515 -0.059843533 0.007913813
0.033534434 0.046993013 -0.00029617382
-0.11282955 0.018445961 -0.030748218
-0.05210411 0.15839529 0.07866853
0.19112518 -0.2221299 -0.013553069
0.3156945 -0.29477954 -0.08710341
0.09676681 -0.014709395 -0.02317833
0.095967494 -0.19373234 -0.0082871765
0.017052375 -0.103635 -0.0056349565
-0.095507234 -0.014130865 -0.048363186
-0.20747444 0.16142565 0.074297
-0.2377229 0.24234594 -0.11366976
0.09485416 -0.27436152 -0.061328232
-0.18430737 0.17916414 0.08666754
-0.08085703 -0.033989917 -0.04781736
0.18415584 -0.21754716 -0.012036886
-0.10720189 0.0981678 0.049446024
-0.08543304 -0.003550131 -0.01707415
-0.2192869 0.10064916 0.026211808
-0.08266154 0.30645558 0.0489587
-0.041749936 0.08958433 0.02280706
0.129578 -0.23155826 -0.010597764
0.29580244 -0.28243417 -0.06355311
-0.08533924 0.11158049 0.06909081
-0.067126796 0.33013323 -0.09852569
0.10366899 -0.12188336 0.0016127842
0.16627268 -0.08402407 -0.06445857
-0.15930185 0.25039607 0.09869575
-0.021194652 0.12714256 0.0068069594
0.09573822 -0.27639657 -0.06239704
-0.19587353 0.108857706 0.05347696
-0.11683756 0.10321675 0.08127016
-0.25358233 0.19730943 0.059504814
0.106420584 -0.080461964 -0.00474167
0.06146426 -0.0981424 0.00592363
0.005142518 0.14465703 -0.04372064
-0.2022728 0.1342599 0.06354772
-0.24523434 0.11396008 0.002804824
-0.09110899 0.051676817 0.011586042
0.039691016 -0.17761077 -0.03327835
-0.06220903 0.09343922 0.026185453
0.015287986 0.06105014 0.005937338
0.20408097 -0.1546611 -0.048304588
0.028366432 -0.11663225 -0.005852931
-0.052542996 0.31542882 -0.0043915915
-0.21887958 0.15473397 0.064546995
-0.04225065 0.26801398 0.031063788
-0.109229565 0.13986975 0.08824361
0.26256245 -0.35732144 -0.035726752
-0.041300643 0.16135435 0.074399725
-0.06923637 0.25196204 0.0643185
0.0037710804 -0.10577454 -0.013825466
-0.18915114 0.051679704 -0.059895474
-0.10779422 0.19047296 0.09055017
-0.20151348 0.24651216 -0.12842074
0.10760866 -0.033229098 -0.022800863
-0.029087907 -0.09841449 -0.041598957
-0.08213712 0.046631884 0.013704527
-0.08641948 0.34249982 -0.046825625
0.016928045 -0.08306867 0.0032023399
-0.24942657 0.18348639 0.060873155
-0.25503042 0.20990649 0.051818285
0.009470363 0.20609117 0.014367475
0.002631921 0.1160326 -0.008328662
0.1737206 -0.39690623 -0.09753014
-0.068291314 -0.005739595 -0.003814622
0.049788646 0.07605043 -0.10029181
-0.1979513 0.23438664 0.0909558
-0.26951432 0.1296566 -0.05619024
-0.005603787 -0.13493888 -0.049840532
0.035556205 0.05468868 -0.004626522
0.084351085 -0.14748697 0.001085196
-0.02519063 0.19158696 0.056928996
0.021874724 0.19682667 0.00436729
-0.15282525 0.26724485 0.0899407
-0.06619905 0.22901219 0.070398666
-0.1936065 0.050299592 0.006902192
-0.208578 0.07021578 0.007753697
-0.23427428 0.08560353 -0.023684533
0.038749017 -0.06119091 0.009843959
-0.098045334 0.11073978 0.084744595
0.22241461 -0.37089872 -0.027577398
-0.09451885 0.33363983 -0.01741291
0.08479719 -0.19137782 -0.011974305
0.19228531 -0.15063879 -0.036727574
-0.16308025 0.18945837 0.09206889
-0.13442138 0.31261417 -0.0858376
0.1414042 -0.32468307 -0.0518305
0.05391753 -0.051802725 0.00906824
0.10937406 -0.06961473 -0.008810005
-0.07885312 0.23386437 0.07674404
-0.009452593 0.16789478 0.04527984
-0.025322752 0.05064285 0.02175751
-0.2557486 0.11015147 -0.053634886
-0.029486785 0.038035627 0.020061327
0.28750244 -0.312648 -0.0379352
-0.020675818 0.2728663 -0.014845621
0.01847165 0.12878318 -0.058655158
0.042865526 0.0926732 -0.053460255
0.20233752 -0.23811887 -0.0152159035
0.2501247 -0.33867696 -0.020124925
-0.085602604 -0.031022454 -0.059858482
-0.20843597 0.06428072 0.00090184185
-0.17950943 0.24712718 0.09413216
-0.27186802 0.21222344 -0.057841375
-0.124632806 0.31827214 -0.07376413
-0.051223084 0.0062768697 0.010635103
0.06166478 -0.2341782 -0.0672174
-0.12956469 0.24300204 0.09247586
-0.2472358 0.1855451 0.06397805
-0.2298914 0.25104213 -0.14331761
-0.012816112 -0.0027169485 0.016126828
0.033397846 -0.19221139 -0.058923975
-0.16812322 0.17216948 0.08814485
0.008991053 -0.14347462 -0.03747574
0.018951738 0.19911839 -0.059289504
-0.18395424 0.25998116 -0.12264065
0.11277236 -0.3079944 -0.07858225
0.12984358 -0.2923042 -0.037569225
0.3038343 -0.27667102 -0.089295514
-0.0065778964 0.24247763 0.001269359
-0.021959987 0.25745752 0.012548381
-0.0840634 0.24309596 0.07687982
-0.19272472 0.2561188 0.0571869
0.20173451 -0.19201022 -0.024921862
-0.25318715 0.1297323 0.010494884
-0.033618208 0.23824975 0.04102489
-0.23084776 0.11433187 0.025699157
-0.13322337 0.14154407 0.0865311
-0.26101533 0.2164676 -0.025340948
0.04037807 -0.09139185 0.006132305
-0.1980435 0.04167091 -0.024942135
-0.15029292 0.09657599 0.071311094
0.19464229 -0.19992724 -0.01901443
-0.10291583 0.29378873 0.07145202
-0.081462026 0.0808483 0.024468366
-0.008792054 0.08337306 0.01227276
-0.18599698 0.1434417 0.07542546
-0.27391982 0.19829674 0.026963498
-0.09018168 0.16722977 0.08785877
0.014788102 0.22612172 -0.08750579
-0.0862148 0.110022046 0.032041572
-0.053061705 0.18806572 0.07466111
0.1474511 -0.11461423 -0.017057315
0.073576845 -0.18837875 -0.01650609
0.16834909 -0.12175701 -0.029873524
-0.11962218 0.05388817 -0.0033811503
-0.20809741 0.20534961 0.088411205
0.22749907 -0.21693741 -0.033112675
-0.2775359 0.18892543 0.02369567
-0.059485115 -0.06867507 -0.07440435
0.14085491 -0.33092403 -0.058526523
-0.11997208 0.22334571 0.09158958
0.1923789 -0.116572425 -0.09621998
-0.08119539 0.10550435 0.02845808
-0.073849745 0.0008039639 -0.0035981713
-0.020743541 0.27884287 -0.07368804
0.030908361 0.033067133 0.0050130174
0.15211464 -0.27826232 -0.018814528
0.19426456 -0.18425266 -0.023007654
0.1362758 -0.03723135 -0.09015526
0.2187032 -0.33062723 -0.018127358
0.083118275 -0.083509885 0.0038464055
-0.011525233 -0.03776109 0.009523553
-0.052052505 0.16383275 0.07788589
-0.119732484 0.08827991 0.0770592
-0.26765612 0.20650403 0.02421938
0.028679851 0.10820882 -0.04005632
0.22226185 -0.32469144 -0.017187994
-0.03959421 0.29119363 0.0033584856
-0.19766769 0.10902194 0.05216784
-0.08602079 0.19445497 0.08480349
0.051034495 -0.19114143 -0.032562118
-0.13228986 0.271091 0.090705976
-0.22733611 0.21816032 0.077955306
0.119163446 -0.17052099 -0.0011887896
-0.110386565 0.26751655 0.08345143
0.17420253 -0.090888314 -0.07994917
0.20073421 -0.21443768 -0.018694011
0.059749212 0.0003857109 -0.0013128484
-0.13210995 0.038411237 -0.040014815
-0.2193488 0.21998884 -0.09964384
-0.052406233 0.075291306 0.024104321
-0.2446615 0.21531725 0.062212754
-0.13098548 0.2906206 0.07479114
0.30065465 -0.27916205 -0.074754275
-0.18394235 0.26326492 0.048500977
0.02218198 0.11135305 -0.029170621
0.08340262 -0.16863677 -0.0042482
-0.12023802 0.16882408 0.091575496
0.10476838 -0.078018725 -0.004513663
0.14013326 -0.08668678 -0.022782112
0.106549695 -0.15972555 -0.00030042537
0.16312914 -0.24235113 -0.0088172285
0.027763275 -0.18581192 -0.06097844
-0.03249438 -0.0042408444 0.013215097
-0.18473703 0.12443246 0.06842237
0.15723056 -0.2271984 -0.0070629613
-0.03963127 -0.04846373 -0.009187592
0.070150994 -0.1869148 -0.01774765
-0.18615419 0.2265164 -0.13034736
-0.07195583 0.0063758832 0.00097086927
-0.12802136 0.028013168 -0.06409544
-0.19084683 0.17328754 0.08392825
-0.07383747 -0.008858306 -0.008910949
-0.022391032 0.21838625 0.041762106
-0.04922431 0.0030260347 0.01014717
0.00039952254 0.22078647 0.01418414
0.024362948 0.06560408 -0.0010265488
0.14890297 -0.10675346 -0.021034554
0.30508786 -0.32577193 -0.06664166
0.14579019 -0.13503037 -0.010804225
0.2293108 -0.18458143 -0.056928575
-0.026065074 0.07454428 0.019824002
0.012361834 0.08414812 0.00014998985
0.1348377 -0.29739723 -0.037211075
-0.10908214 0.20893554 0.089874946
-0.1993131 0.24699907 0.08314002
0.24291839 -0.2518926 -0.030623708
-0.13980417 0.14026468 0.08556474
-0.13919492 0.105761945 0.07751598
0.05053222 0.04481916 -0.013060571
-0.14664118 0.2175853 0.09697176
0.30912325 -0.31152132 -0.068614334
0.092668355 -0.034906875 -0.009711757
-0.08190517 0.256764 0.07083481
-0.039631017 -0.05805984 -0.014704568
-0.049085665 0.16528085 0.07660905
-0.046490744 0.06367541 0.022745721
0.028684635 -0.0048357416 0.011823317
-0.2822168 0.19190156 0.011554795
-0.09259639 0.23830976 0.08139658
-0.22768703 0.19374175 0.07867871
-0.04474825 -0.06649645 -0.02834815
-0.051205967 0.0049321894 0.0100366995
0.16677077 -0.13518386 -0.022450857
0.071574874 -0.057691127 0.0047168294
-0.14269683 0.25466064 0.09505733
-0.073067926 0.1267469 0.085860275
-0.024625769 0.14927167 0.00091027596
-0.16958636 0.104601875 0.06693281
0.07799285 -0.013695681 -0.007703183
0.12872654 -0.17186247 -0.0016265255
-0.03806141 0.1594115 0.07352604
0.18688051 -0.30319148 -0.016819304
0.030764481 -0.121030554 -0.0066628554
-0.18454307 0.068114154 0.034757912
0.08568184 0.003725715 -0.023795268
0.042530816 -0.20897147 -0.06823713
-0.24042042 0.22639501 0.018691463
-0.085577644 -0.011621912 -0.02479076
-0.12208743 0.31351697 -0.011931458
0.040582415 0.002514976 0.007874526
0.15971489 -0.32338217 -0.035872277
-0.0071546216 0.2611855 -0.06859227
0.20714661 -0.14375687 -0.119062245
-0.019934313 0.1704589 0.061175566
0.2290473 -0.21029703 -0.03683189
0.048344556 0.010182802 0.0019985612
-0.010855276 0.107656054 0.006974436
-0.18616109 0.22669938 0.096386544
-0.02836026 -0.041411243 6.650229e-05
-0.05305575 0.101500906 0.024861082
0.038812052 -0.023634803 0.010713505
0.2244195 -0.2644677 -0.01931001
-0.075668745 0.21175365 0.079259805
-0.032109488 0.15378504 0.026907181
0.09279842 -0.0791593 0.00077878643
-0.16958015 0.104547195 0.06690814
0.18707159 -0.20991051 -0.013787434
0.2890851 -0.2609329 -0.076400265
-0.017408365 -0.11687443 -0.045748644
-0.25354308 0.17625432 0.05280115
0.088585325 -0.23710008 -0.03298233
0.21502113 -0.16265827 -0.056263354
-0.12871715 0.08255869 0.05283285
-0.062119983 0.18248108 0.078736514
-0.18632519 0.046102453 0.012804261
-0.048292555 0.17803116 0.07443834
0.050629277 -0.16727196 -0.01809677
-0.036871616 0.11720396 0.018978767
0.21772493 -0.26646364 -0.016921235
-0.20747487 0.103905454 0.041008774
-0.089243725 0.15200643 0.088197656
-0.0634752 0.20596795 0.07574377
0.08289155 -0.06768543 0.002487397
-0.05040125 0.30312422 0.00940569
-0.06281144 -0.046842076 -0.031723347
0.19065908 -0.13284436 -0.04871805
0.11850946 -0.0517187 -0.022503287
-0.1805888 0.09939741 0.05815418
-0.22713998 0.19414575 0.0790082
0.036180776 0.03740229 0.0011783967
-0.13961047 0.23691152 0.0952564
0.15336515 -0.19199787 -0.005825171
-0.048964392 0.27757758 0.031993043
-0.24813163 0.21786334 0.047595587
0.29453802 -0.31569135 -0.04153782
0.22765483 -0.28518742 -0.017982487
-0.062489137 -0.030985517 -0.015596376
0.06235405 -0.2046096 -0.03187108
-0.08727386 0.31467038 0.04389824
-0.25539932 0.22796191 -0.09617586
-0.12634063 0.3214805 -0.115427874
-0.11707428 0.11515803 0.083449125
0.1965744 -0.3927287 -0.06310349
0.004942477 -0.024139214 0.013927174
0.24055548 -0.3302909 -0.018627932
0.11533629 -0.10914258 -0.0027557146
0.24001855 -0.37750697 -0.066779844
-0.152729 0.15229036 0.086292766
-0.09636268 0.22411117 0.08484863
0.15146035 -0.22117141 -0.0065124542
0.18269628 -0.36023545 -0.041841604
-0.1843705 0.09534957 0.05356807
0.0021503407 0.035122402 0.015566361
0.17785688 -0.21504028 -0.010521825
0.2658896 -0.312696 -0.027328905
-0.15656409 0.26806304 -0.1165021
-0.23821165 0.14414108 0.043047715
-0.14475593 0.11357105 0.07833835
-0.09755523 0.066755936 0.01523527
-0.0035007398 0.15095389 -0.029916631
-0.09364748 0.11982716 0.086155914
-0.14454435 0.17063104 0.0906468
0.15076438 -0.18224122 -0.005980652
-0.18090089 0.22481844 0.09662171
0.28426996 -0.3267896 -0.033530593
0.08239275 -0.26694688 -0.0786483
0.13845685 -0.3076219 -0.04070367
0.127854 -0.13089475 -0.004261971
-0.06046522 0.13503657 0.08307644
0.1930058 -0.24330571 -0.012169586
-0.25177494 0.117857926 -0.0048060887
0.1740882 -0.26969287 -0.011935282
-0.1845743 0.13547233 0.07312209
0.039211825 -0.020312356 0.010303906
-0.04142317 0.14352034 0.061434306
-0.2653523 0.17248057 0.03880969
-0.0784444 0.1462176 0.086256646
-0.0061145513 -0.023975676 0.013633425
0.039325688 -0.06731189 0.009057718
0.072523504 0.047230545 -0.04839299
-0.13961843 0.21292926 0.09608601
-0.011388909 0.17118229 0.0013430016
0.012770216 -0.096682146 -0.0045366385
0.020497192 0.051761534 0.0056182053
0.11859348 -0.25983265 -0.02721636
-0.17068987 0.2064503 -0.13227339
-0.10591352 0.3312037 -0.07058962
0.24795216 -0.36015528 -0.1773573
0.16080448 -0.27664474 -0.015425387
-0.06284074 0.20757307 0.07527896
-0.019316716 -0.12458031 -0.09460544
-0.007680874 0.06389796 0.015700754
-0.028244942 -0.07134405 -0.014577669
-0.035063468 0.2881345 -0.0017726633
-0.1412017 0.077004194 0.021775136
0.15162618 -0.23307231 -0.008083085
0.038987566 -0.07357991 0.008739513
-0.029717483 0.050261218 0.021917768
0.16504319 -0.36191612 -0.059102576
-0.012394346 0.16358808 -0.026851958
-0.09463925 0.26159176 0.077238165
0.19805425 -0.25271195 -0.012721335
0.23936896 -0.37542355 -0.09077343
-0.29046667 0.1993795 -0.061038747
0.02880986 -0.06155467 0.0099707395
0.23856291 -0.22773066 -0.036667924
0.25857657 -0.36285907 -0.08086113
-0.15137522 0.06847485 0.034199085
0.19689676 -0.36952418 -0.038288474
-0.11403239 0.30525526 0.059248906
0.17327516 -0.22422229 -0.008488407
-0.21976931 0.08558528 0.008947605
0.092577696 0.022435356 -0.061304174
-0.059493646 0.3128546 0.014902807
-0.2200791 0.078646615 -0.00067623216
0.09126947 -0.005499679 -0.023406217
