# .PCD v0.7 - Point Cloud Data file format
VERSION 0.7
FIELDS x y z
SIZE 4 4 4
TYPE F F F
COUNT 1 1 1
WIDTH 1000
HEIGHT 1
VIEWPOINT 0 0 0 1 0 0 0
POINTS 1000
DATA ascii
0.2963533 -0.1923823 -0.27082637
-0.14877507 -0.023246838 0.13158917
0.04012805 -0.13720076 -0.13301155
0.2444926 -0.26789168 -0.29399905
0.30242252 -0.14069547 -0.299213
-0.24151593 0.009064806 0.07386247
0.14725247 -0.10329477 -0.11525285
-0.26011035 0.13877827 0.07042423
0.25882673 -0.10341042 -0.35019192
0.1724893 -0.18165231 -0.18069224
-0.24496183 0.2077601 0.028527107
-0.017742855 0.13665068 0.14867471
-0.10225258 0.17042696 0.066508286
-0.08290839 0.0957295 0.21708205
0.013402128 0.05797339 0.037501704
0.15157886 -0.2232802 -0.24799709
0.26558277 -0.2098834 -0.24962457
-0.06086005 -0.061462887 -0.041814547
-0.22586112 0.11936512 0.056905396
-0.11107431 0.19538932 0.16581659
-0.29166213 0.07957277 0.060904637
-0.09915246 0.17721929 0.189975
0.031156473 -0.1162457 -0.08969793
0.10986227 -0.12540075 -0.10686163
-0.04573866 0.21824671 0.08175659
0.15288033 -0.174802 -0.16817099
-0.21404393 0.20019835 0.067928426
-0.29024202 0.100999475 0.06359001
-0.17313682 0.040315207 0.20822443
0.30638364 -0.21259077 -0.28412646
-0.026531832 0.15297346 0.1530321
0.07223681 0.0019721678 -0.025744235
0.22402868 -0.111200176 -0.19196351
0.012129602 0.074518874 0.12246121
-0.20084234 -0.023969213 0.049648654
-0.007216007 0.03218177 0.057790123
0.08676811 -0.0017639613 -0.041778956
-0.2390289 0.0077252993 0.1120745
-0.23442893 0.16635858 0.0711766
-0.014672088 0.09181712 0.15156722
-0.22515236 0.17137343 0.068589345
-0.23655665 0.015294026 0.1550175
-0.2104168 -0.00021856044 0.14367315
0.21792178 -0.25824076 -0.28273264
0.16083197 -0.23690431 -0.27808812
0.273567 -0.17050803 -0.24580087
0.005618059 0.07057472 0.12926063
0.0063222926 0.16630074 0.074213326
0.10931153 -0.08193391 -0.07726223
0.1841065 -0.14413571 -0.16020025
0.08158576 0.044666138 -0.08834785
-0.13661683 0.12407377 0.03762924
-0.19902407 0.20749153 0.074673176
-0.21049026 0.04365881 0.18516381
0.22430642 -0.08900185 -0.20228809
-0.18722111 0.2023383 0.06436395
-0.09913559 0.14573513 0.21291567
-0.17923357 0.081797905 0.046943564
0.01755246 0.14922455 0.07606217
0.14217395 -0.111785874 -0.11489768
-0.09481486 0.14719099 0.21454237
0.1994124 -0.27094263 -0.34840447
0.11103141 -0.19069171 -0.20275003
-0.13491991 0.067196056 0.084039524
-0.0899008 0.05131941 0.19891165
-0.25090042 0.06710725 0.1310529
0.07329357 0.013418567 -0.029260084
0.002941394 -0.019939711 0.025260523
-0.20124929 0.13871296 0.034196932
0.15229325 -0.23198654 -0.28103572
0.26648566 -0.17465213 -0.23939605
0.15399665 -0.14123583 -0.13968788
-0.10065529 0.122870095 0.22221561
-0.27612653 0.037656058 0.10339761
0.042620964 -0.08438825 -0.044564
-0.24803111 0.18416028 0.048451144
0.29647383 -0.16872123 -0.27126554
-0.21766365 0.14789486 0.049757965
-0.063086934 0.065650836 0.189349
-0.17152174 0.05397084 0.21223004
-0.14234003 0.03758446 0.21206573
0.2558765 -0.15276237 -0.22637938
-0.28220186 0.12952295 0.05691386
0.19227867 -0.2559141 -0.29358852
-0.07983509 0.24503511 0.09400778
-0.016899657 0.18664712 0.0959495
0.1632435 -0.19585402 -0.1946638
0.28813827 -0.18244767 -0.26170915
-0.1968987 0.22054231 0.06883176
0.24472894 -0.09229162 -0.2425265
0.21531834 -0.11117814 -0.18182056
0.08293323 -0.038256858 -0.03951728
-0.02532178 0.120207764 0.16275752
-0.1937583 0.044922713 0.1995798
-0.11529575 -0.04650311 0.1011423
0.13310005 -0.06460137 -0.09309205
-0.05823578 0.022650493 0.1619976
-0.07749772 -0.019952761 0.13504916
-0.07529023 0.032216776 0.17791887
-0.005048994 0.0015933762 0.044040125
-0.08679783 0.18566403 0.19515093
0.0064915377 -0.07991421 -0.035343602
0.12824532 -0.09256942 -0.09605252
-0.037059795 0.15364328 0.16882478
-0.07363424 0.121993765 0.21498924
-0.09020339 0.25033006 0.122466706
-0.02090693 -0.093436025 -0.08689064
0.1958409 -0.09936191 -0.16069318
-0.1027974 0.12656637 0.06691277
0.05300123 -0.05863255 -0.027633063
0.09595012 -0.030991612 -0.052084222
0.22477278 -0.17702694 -0.20486997
-0.047141317 0.18073106 0.16672993
-0.2874955 0.11688414 0.061262224
-0.2542819 0.02503904 0.1372664
0.005815296 0.047102477 0.1266174
0.19951543 -0.1441276 -0.17212002
-0.037066776 0.03459195 0.1556676
0.0687193 -0.16076575 -0.16703519
0.02253287 0.14045374 0.07602998
-0.07336508 0.14033318 0.21471305
-0.043358717 0.0013920176 0.1394058
-0.06323017 0.08467097 0.19756332
0.00628324 -0.025529671 0.019625794
0.29161534 -0.12223148 -0.3191281
0.28408483 -0.11435746 -0.32338768
-0.0042784596 0.06348992 0.13883454
-0.109482326 -0.004239608 0.15985346
-0.006501023 0.011937281 0.049941234
-0.26176986 0.1730505 0.043947686
0.10737384 -0.18303615 -0.18655917
-0.14368516 0.15026769 0.03278266
-0.25054103 0.048492666 0.14493419
-0.11233249 0.0768782 0.22646083
-0.16479632 -0.020234646 0.13137698
-0.19344279 0.07883468 0.04695308
0.3118294 -0.17243494 -0.28938928
0.26084876 -0.1187926 -0.24148966
-0.006682689 0.10880404 0.1421274
-0.28901905 0.12251195 0.04067597
0.120124094 -0.15605442 -0.14084233
-0.04337101 0.054503787 0.16976339
0.071893245 -0.13691941 -0.114397235
-0.12592135 0.08251813 0.2254846
0.24742474 -0.09018363 -0.25670677
0.13942502 -0.17853905 -0.17096743
0.143544 -0.10186602 -0.11170852
-0.13213801 0.054735616 0.22285883
-0.07647279 0.056741133 0.19366874
-0.008158197 0.14311618 0.12954734
0.005340679 0.06991844 0.12953413
-0.26645768 0.10185907 0.091486156
-0.19977935 -0.023581466 0.06728524
0.1694629 -0.18431675 -0.18206333
0.1621367 -0.037021067 -0.13824235
0.26537576 -0.26029673 -0.28658807
0.10994778 0.013732361 -0.09297242
-0.04431351 0.17836607 0.16373827
-0.075954065 0.15283716 0.2104578
-0.1006158 0.13312308 0.21952379
-0.112773135 0.019223498 0.1851433
-0.14252491 0.030404018 0.20464042
-0.043524627 0.058290128 0.17149223
0.17529197 -0.061957154 -0.14237939
0.18849444 -0.2066178 -0.2111824
-0.26716307 0.06488717 0.117760085
0.16374204 -0.11308064 -0.13216063
-0.09399996 -0.028109739 0.12853613
0.02264112 0.015959447 0.027181236
-0.18102564 -0.0061466536 0.15126121
0.02068033 0.08765658 -0.0047068475
-0.15086207 0.07652108 0.057230666
-0.026951518 0.0063502626 0.059653185
-0.026123703 -0.006371054 0.12459677
0.20915984 -0.07927537 -0.18418247
0.19841436 -0.25868213 -0.29429764
-0.000222247 0.07288849 0.049410634
0.05810391 -0.075181134 -0.04288001
0.25450137 -0.2624348 -0.2872344
0.2645659 -0.1288179 -0.24132566
0.045325607 -0.09310319 -0.055003602
-0.19661348 0.17598428 0.054045584
0.13047324 -0.0683047 -0.09132964
-0.017310258 0.068198904 0.15223925
-0.20718123 0.18753149 0.06749324
-0.114282936 -0.017203182 0.14409155
-0.11226663 0.06747798 0.22222728
-0.13286364 0.20516634 0.1140756
-0.015028375 -0.036994368 0.020031145
-0.17641732 0.20731246 0.07522632
0.030810148 -0.12140207 -0.10064731
0.05452035 0.0020010984 -0.0068839323
-0.00069210626 0.026574424 0.05029505
0.083091676 0.032010235 -0.058191527
0.2149246 -0.19254112 -0.20844771
0.113275945 -0.11125622 -0.09739642
0.26706275 -0.17062111 -0.23916233
0.13146578 -0.20473035 -0.21920924
-0.08865479 0.15128021 0.21254627
-0.05618555 -0.030480228 0.11846314
-0.20705184 0.030679686 0.18757096
-0.23097438 0.22152585 0.03688021
0.018001614 0.10108227 0.11369368
-0.28108183 0.10671184 0.074548416
-0.20529103 0.051639453 0.18411912
0.2245477 -0.22738083 -0.24142112
0.009368345 0.13990724 0.10181181
-0.09263518 -0.023820387 0.13383415
-0.12580764 0.0061149006 0.17455158
0.21405205 -0.12935089 -0.18149142
0.18496174 -0.11744087 -0.15145302
-0.0045522563 0.06971555 0.13999912
-0.16315956 0.059501283 0.21605349
-0.19722763 0.18171984 0.057907093
0.004356162 0.10713105 0.12946652
-0.12512517 0.17273986 0.04439629
-0.22405347 0.029548489 0.17367977
-0.009885567 0.12786163 0.14152876
-0.26187173 0.025781954 0.08564195
-0.08692185 0.2243833 0.16086257
0.010517164 0.079796456 0.031648237
0.06398705 0.01934519 -0.018200966
-0.15561703 0.14603934 0.027799455
0.21230373 -0.22817588 -0.24027078
-0.041470874 0.09898767 0.1802654
-0.14646038 0.2609811 0.08139455
-0.06978966 -0.047627732 -0.006997381
-0.049633846 -0.061497808 -0.02329045
-0.2831764 0.11843498 0.06409281
0.19817634 -0.048602443 -0.21374586
-0.23260276 0.08412889 0.10353819
0.018386126 0.08550557 0.009244154
0.1513144 -0.2039966 -0.20792596
-0.15834467 0.092030786 0.04297732
0.09374584 -0.05521602 -0.054977033
0.0022379642 0.049824037 0.050361168
0.2888865 -0.13729437 -0.27612904
0.2451711 -0.19816862 -0.22952786
-0.12161006 0.15966897 0.046776604
-0.18783309 0.010190281 0.17859146
-0.037333284 0.2107991 0.087277316
0.015229042 0.064798795 0.11883797
-0.047884665 -0.033997383 0.027832637
-0.107583486 0.26065114 0.09920806
-0.041561026 0.06530663 0.1730069
0.052518606 -0.09775744 -0.06163125
0.01523207 0.09880233 -0.04108146
0.022331037 -0.07865686 -0.034496937
-0.1285495 0.16367938 0.04132101
-0.030019566 -0.044598542 0.01303584
0.019589625 0.07387331 0.02066166
0.1255028 -0.08272081 -0.09039116
-0.21164626 0.066315964 0.1676089
0.1867008 -0.1941539 -0.19722754
0.08900344 -0.080663644 -0.062325783
-0.0058133504 0.046300523 0.058745164
0.12041308 -0.13094807 -0.116036065
-0.14733054 0.063246906 0.079972744
-0.25895628 0.11594418 0.088108465
0.041533086 -0.11694074 -0.08858359
0.11322715 -0.07488146 -0.07761784
0.18326825 -0.22179025 -0.23081829
-0.0071148556 0.02230906 0.05430875
0.2754264 -0.26309383 -0.30183503
0.04742205 -0.08098836 -0.043014653
0.038068675 -0.1430808 -0.1850611
0.21307321 -0.16322976 -0.18994409
-0.13425042 0.08732116 0.223259
0.16941233 -0.1263828 -0.14140551
0.15355511 -0.16010767 -0.15457541
0.24692123 -0.19390741 -0.22869827
-0.002005105 -0.11122538 -0.13504659
0.04845206 0.071241856 -0.055353526
0.27223668 -0.19668268 -0.24982357
0.21896054 -0.15508257 -0.19186257
0.09214811 -0.15014747 -0.13207622
-0.0962997 0.011227425 0.17211188
-0.14470224 0.23666729 0.10493708
-0.20587769 0.17097202 0.056628942
0.105824724 -0.14990184 -0.13153511
-0.024889799 0.012741652 0.0633866
-0.121707134 -0.01645255 0.0018105652
0.21341008 -0.07638634 -0.19531654
0.1732458 -0.20883797 -0.21276222
-0.14592317 -0.03747434 0.10609133
-0.2109715 -0.016013179 0.05607857
0.041065603 0.040249564 0.004706589
-0.01316692 0.19219373 0.049645007
-0.12630044 0.029910548 0.19984123
-0.24357957 0.015919141 0.045396686
0.0602495 -0.017618487 -0.014303557
0.07136214 -0.14866295 -0.1343366
0.12212654 -0.1819055 -0.17797098
0.20394848 -0.082565054 -0.17458966
0.09312256 -0.06364206 -0.05732497
0.04449071 -0.026659861 -0.0049275653
0.183016 -0.08363019 -0.1465189
-0.2507518 0.19615565 0.037225436
0.17639084 -0.08761388 -0.13959774
0.008999081 -0.11801433 -0.12463379
-0.0070892735 -0.02248551 0.029051406
-0.048872825 0.187273 0.16446178
0.04226674 -0.09830724 -0.060846318
-0.12293554 0.08964271 0.2259023
0.15037884 -0.20780377 -0.21456791
-0.0076795635 0.054877456 0.061086427
-0.2479384 0.0420262 0.15202719
0.20396504 -0.11324035 -0.16980383
0.2637347 -0.16458736 -0.23513782
-0.21515432 0.23496279 0.025570776
0.20139451 -0.15418719 -0.1773091
-0.09258277 0.064602196 0.2085537
0.20435989 -0.17551139 -0.1901145
0.23472475 -0.123067185 -0.20317578
0.1898371 -0.16153663 -0.17271785
-0.016705446 0.19353695 0.00852089
-0.0011958271 -0.110553674 -0.1170317
0.28088993 -0.11746886 -0.2907725
-0.26037464 0.023379615 0.107104026
-0.015125202 0.0026433608 0.12381629
-0.079605915 -0.009184012 0.14681442
-0.06943949 0.1601149 0.20669164
0.020844916 0.15183064 0.06392443
-0.05481379 0.20768271 0.1539144
-0.27109817 0.1341446 0.063727625
0.17399614 -0.14767319 -0.15479733
0.105061665 -0.090874515 -0.078577824
-0.17486371 -0.007064646 0.15177928
0.13342556 -0.13156039 -0.1227548
0.25754437 -0.13061282 -0.22986452
-0.27581644 0.11471237 0.07355012
-0.16571473 0.020642797 0.19640256
0.17274782 -0.05798298 -0.14065133
0.061765436 -0.13025647 -0.10578894
-0.09230336 0.09626793 0.22438008
0.14319542 -0.08396747 -0.10551972
0.046108294 -0.037030637 -0.010800744
-0.26613376 0.11427038 0.08274846
0.30605733 -0.23333597 -0.31005663
-0.16195257 0.081442334 0.20214747
-0.08499762 0.15790588 0.20950153
-0.11172651 0.03086849 0.19495955
-0.1719783 0.07757756 0.051692206
0.11004353 -0.10285708 -0.089005865
0.022389615 0.027624594 0.028170202
-0.0017761687 0.046090502 0.13388428
-0.14727256 0.06193804 0.22073354
0.25537428 -0.20406793 -0.23959474
-0.057206158 -0.0075145653 0.0617652
0.092985205 -0.021200163 -0.048604086
0.057884574 -0.15785481 -0.21541831
0.2575374 -0.14472349 -0.22787769
-0.27509403 0.101149045 0.08408896
-0.16341598 0.15050621 0.024195801
-0.116060846 -0.057403155 0.08102128
-0.034424964 0.03126443 0.15211542
0.09100231 -0.17219014 -0.1740028
0.08303516 -0.0930996 -0.068731174
0.0280012 0.119756065 0.08578783
0.1661279 -0.058580663 -0.1307251
0.10955697 -0.19942811 -0.24690242
0.058803808 -0.15924655 -0.19413544
0.029410185 -0.13308278 -0.13940056
0.0475471 -0.047492553 -0.016981088
0.25932524 -0.17887892 -0.23329794
0.21352059 -0.09137152 -0.18433385
-0.12562025 -0.038009237 0.11294106
-0.2402153 0.19372591 0.048651285
-0.1149098 0.1557396 0.052556355
-0.026311979 0.16676715 0.14192966
0.278326 -0.237761 -0.27356216
-0.19663802 0.03559409 0.19544993
-0.13552715 0.046504237 0.21826072
-0.09946939 -0.022597006 0.029254327
0.26788223 -0.24356471 -0.27328208
0.0058785086 0.10219549 0.005500666
-0.20813993 0.2305239 0.051261276
0.0470244 0.069433816 -0.039816223
0.07548065 -0.12139971 -0.093111634
-0.0631557 0.21564665 0.0007310754
0.27349097 -0.14698519 -0.24661721
-0.08285692 0.024733322 0.17708012
0.25066084 -0.100880705 -0.24112913
0.25539646 -0.21343197 -0.24414787
0.12325685 -0.13369648 -0.11953183
0.10179672 -0.16855958 -0.16054133
-0.15094425 0.08604601 0.20888461
-0.19737498 -0.016223442 0.110986546
0.2448856 -0.24739224 -0.2681197
-0.122999735 0.010977215 0.17926197
0.06981437 -0.023454387 -0.024757741
-0.24682538 0.09786035 0.11239464
0.06083354 0.04114139 -0.024375934
-0.24909689 0.015446532 0.11884866
-0.23811774 0.009621092 0.127322
0.17342259 -0.20234162 -0.2037527
0.1087893 -0.025152707 -0.0655577
-0.12439393 0.08600234 0.22590582
0.031812757 0.08380778 -0.03035941
-0.18862674 0.031039556 0.19835244
0.17418014 -0.026703943 -0.21011627
0.16272046 -0.053972803 -0.12812783
0.07304048 -0.052171156 -0.03725591
0.046367995 0.043679383 -0.004279253
-0.15704878 0.124687314 0.030541126
0.07246226 -0.06127114 -0.041166976
-0.03144076 0.19846633 -0.0076688025
-0.18519412 -0.0058196057 0.14996806
-0.2862328 0.06559338 0.08503652
-0.07125701 0.17217906 0.20063977
-0.061491862 0.06825872 0.18925908
0.16213688 -0.22556695 -0.24432601
0.1294694 -0.022109931 -0.09450935
-0.021569576 -0.09572218 -0.10221334
-0.12259229 0.20218796 0.15030952
-0.024657773 -0.02017165 0.038644407
0.077525236 -0.06452305 -0.046320166
-0.04915824 -0.05715554 -0.011248421
-0.1958189 0.1654932 0.047182325
-0.18256386 0.19396678 0.056440916
-0.113343835 0.1191829 0.2192249
0.2022913 -0.09546143 -0.16794524
-0.063348934 0.09465093 0.20100619
-0.10666719 0.24847542 0.12717569
-0.088918634 -0.025199935 0.033121828
-0.23881826 0.04907853 0.15525343
-0.02825704 0.17973821 0.13262627
-0.11715523 0.1894554 0.08833357
-0.10010288 0.20000511 0.1725131
-0.07877958 0.07743365 0.20617568
-0.20442016 0.02912273 0.18871444
-0.23361601 0.057069305 0.1542036
-0.090959154 0.25146818 0.08428026
-0.017052466 0.02777162 0.06442074
0.24621941 -0.24405435 -0.2644877
-0.17779514 0.025287366 0.20239265
-0.2595613 0.1273505 0.079248674
-0.09767523 0.14311148 0.21616371
0.026414258 0.04269174 0.024387415
0.14535494 -0.010983923 -0.14062087
-0.11859743 0.111227535 0.22020207
0.17904092 -0.23428904 -0.25197193
-0.013315465 0.19076735 0.06680748
0.018678823 -0.075697295 -0.030441282
-0.14272177 0.023239244 0.19723469
0.2860605 -0.2311464 -0.27439785
0.27535054 -0.10785734 -0.3106145
0.011988533 0.09379146 0.007146533
0.2244355 -0.13569096 -0.19245279
-0.13690478 -0.05380165 0.07567499
-0.07469778 0.0031184477 0.15591785
0.19143522 -0.21986362 -0.22772372
0.23498769 -0.2727069 -0.30285653
-0.09424514 -0.034708884 0.12022437
-0.09856131 0.17011486 0.19568956
0.23672861 -0.109948896 -0.20942321
-0.081144944 -0.046567373 -0.027186377
0.022037398 -0.08876991 -0.04772962
-0.2654763 0.15134484 0.056355085
0.19379592 -0.18136424 -0.18999252
-0.16416106 -0.0025948533 0.16316262
-0.2228601 0.18351395 0.07199564
0.032582544 0.010852638 0.016351856
-0.16815974 0.09612061 0.18577035
0.17547618 -0.06459821 -0.14178911
-0.18820105 0.19152664 0.05838628
-0.1545106 0.04423154 0.21591192
0.012471059 -0.065413676 -0.017257912
0.27914917 -0.14351903 -0.25537625
0.022873772 -0.0044704904 0.020633854
0.30326942 -0.15248556 -0.28776905
0.08249302 -0.015078929 -0.037230454
-0.28298816 0.057003126 0.09415287
-0.022115812 0.11074821 0.15986304
0.25297108 -0.11643024 -0.23057008
0.08667596 -0.08051711 -0.060635675
-0.26788548 0.14225365 0.060766473
0.09335191 -0.18640815 -0.25070196
-0.01896385 -0.07735224 -0.036569595
-0.12897995 0.11964707 0.041412584
-0.10066925 0.07913858 0.22179672
0.18361071 -0.20874992 -0.21283618
-0.21683861 0.052653193 0.17279781
-0.08321333 0.23939241 0.14054406
-0.22842142 0.06502472 0.15317279
0.22933093 -0.16129588 -0.20251466
0.32059553 -0.15336098 -0.32333463
-0.10808832 0.12713987 0.21824917
-0.008182481 0.18072698 0.084537186
-0.11495021 -0.040729996 0.11088292
0.098713115 -0.16663362 -0.15806532
0.07981425 0.042794865 -0.073095284
0.0027016446 0.10310176 0.13173667
-0.10106687 0.22279495 0.15503617
0.037078854 0.049542893 0.006590846
0.18061711 -0.035990316 -0.18915144
0.014751088 -0.009685731 0.024581747
-0.18312837 0.068953015 0.19182985
-0.22601329 0.0389298 0.17438048
-0.11731947 0.21018285 0.14932191
-0.07448535 0.024970569 0.17258866
-0.084560625 -0.047660675 0.10301822
-0.15004149 -0.046086047 0.083900556
-0.1302817 0.22760348 0.12475396
0.18165803 -0.25285286 -0.2983827
-0.06985781 0.17350373 0.19954024
0.2961404 -0.22767515 -0.27995023
-0.19441767 0.09052045 0.039071877
-0.13189061 0.0057448335 0.1746173
0.062018838 0.0549619 -0.049811177
0.21235184 -0.26667768 -0.30230156
-0.034521792 0.09716076 0.17287345
0.23495574 -0.18291491 -0.21491748
-0.026985997 -0.0021856544 0.05390915
0.01129258 0.051182106 0.12185621
-0.09449385 -0.041275702 0.11167342
-0.16630125 -0.028818648 0.11140938
0.14108934 -0.1534671 -0.1436909
0.13265666 -0.04088433 -0.09161679
-0.0042652986 0.15808791 0.10936403
-0.16535318 -0.019103542 0.13323769
0.24649958 -0.08800254 -0.31535682
0.1736126 -0.09736151 -0.13740015
0.14333634 -0.081184685 -0.10556939
0.009669452 0.14345135 0.0981602
0.08122847 -0.16795683 -0.17273553
0.049566817 0.06418923 -0.116441846
0.042451188 -0.09143048 -0.05257614
-0.053480525 -0.016957631 0.13014598
0.00093991944 0.085499085 0.041953564
-0.15986943 0.104084566 0.03630203
-0.10528319 0.06272515 0.2151454
-0.17586273 0.21156752 0.087120175
0.18352956 -0.09084888 -0.14730537
0.13016133 -0.21502343 -0.26099986
0.26621193 -0.10073135 -0.31774074
0.31945518 -0.19054094 -0.2958986
0.10323187 -0.07889399 -0.07145171
0.26544076 -0.25237405 -0.27959383
-0.16814782 0.2180012 0.09703665
-0.24792354 0.021383412 0.1439862
-0.184348 0.0049010334 0.17019881
-0.1048483 0.18058158 0.18230592
-0.013572022 0.12758507 0.14734459
0.16546416 -0.21642849 -0.2253469
0.1695048 -0.031725302 -0.16243382
0.11064024 -0.19483477 -0.21544635
0.3025366 -0.16506964 -0.27934226
0.016859172 -0.041955475 0.002527836
0.032338936 0.022472233 0.017407618
0.19614646 -0.23411274 -0.24778606
0.2653965 -0.17961273 -0.23933022
0.14362411 -0.120804355 -0.12029631
-0.08633218 -0.04949314 0.10021803
0.29591358 -0.18460822 -0.2700587
-0.14712954 0.25012445 0.09291328
0.1152045 -0.04262635 -0.07296744
-0.16235681 0.21458757 0.10483147
-0.23438969 0.19031498 0.056476012
0.1127928 -0.14986321 -0.13240081
0.014355564 0.13453537 0.0975046
0.13239326 0.006662289 -0.1635811
0.10228141 -0.15659544 -0.1410465
0.11124898 -0.056563247 -0.07032087
-0.06443911 0.14057577 0.20616956
-0.11002794 -0.019991448 0.025385031
-0.16667837 0.06485848 0.20988964
-0.030191286 0.20287476 0.09077401
-0.08523526 -0.04525209 0.10611908
-0.054849874 0.024780696 0.1615524
0.0033271555 0.17853038 0.042364847
-0.2381621 0.0376659 0.16372393
-0.02325635 0.19486775 0.09390546
-0.07522041 -0.008049991 0.146836
-0.13702193 0.26153186 0.08648145
0.01289785 -0.034348417 0.009987624
-0.07291418 0.062224723 0.1943157
0.16359311 -0.07190541 -0.12545216
-0.055050824 0.14868264 0.19476807
0.05566315 0.037770145 -0.015138169
0.07307707 -0.06155656 -0.041739658
0.23483285 -0.16290274 -0.20762861
0.009013725 0.1686786 0.061088033
-0.08558148 0.16518609 0.20650294
0.027924888 -0.1349819 -0.1744483
-0.03703619 -0.0042812736 0.057016928
-0.05017069 0.1277603 0.19055311
-0.10586526 0.2033663 0.16478333
-0.1323192 0.1297897 0.19410764
-0.2147978 0.035175696 0.18411306
0.2898673 -0.12384596 -0.30324462
-0.016007455 0.114530526 0.15244588
-0.14510952 -0.026730074 0.12654993
-0.11270368 -0.02284294 -0.025730269
0.21356465 -0.2541001 -0.27684164
0.013355723 0.12076499 0.10981233
-0.11831078 0.16874935 0.049928937
-0.11158285 -0.046102896 0.10319278
-0.21716438 0.17584616 0.06645478
-0.114828855 0.17435409 0.17769112
-0.07486215 0.035712946 0.1800385
-0.21714863 0.18466951 0.071809836
-0.17811355 0.068830326 0.19651712
-0.063130125 0.013141601 0.1583088
0.12096971 -0.19085117 -0.19440328
0.1387256 -0.0027706984 -0.14318551
-0.28830767 0.0778052 0.07941693
-0.050652165 0.21915591 0.038834848
0.04763113 -0.06970286 -0.033878967
-0.014801293 0.10838246 0.15158574
-0.11161047 0.20680504 0.15701385
-0.05741896 -0.014337375 0.053676754
0.2615514 -0.18920654 -0.2384886
-0.09809349 0.15446077 0.20751643
-0.1467335 0.11670223 0.19042563
0.16287404 -0.20873342 -0.21284619
0.010529275 0.17062 0.045960467
-0.03212942 0.073890574 0.1675284
0.008822482 0.10684224 0.12430821
0.12755038 -0.092986226 -0.09567906
0.2928056 -0.12083457 -0.33624282
-0.037944827 0.022254493 0.14952038
-0.12395268 0.10757467 0.21795176
-0.13267943 0.02434887 0.19573677
0.1898285 -0.05524015 -0.17234507
0.20430657 -0.19834282 -0.2082582
0.022514777 -0.071793474 -0.026373329
-0.12158917 -0.031274263 0.12427854
-0.053771682 0.11429071 0.19393721
0.19257937 -0.25131905 -0.28143603
0.054269135 -0.13206358 -0.11087465
0.25356555 -0.09527401 -0.3309518
-0.016763221 0.021410927 0.1351235
-0.23892924 0.116989076 0.08340444
0.17139953 -0.05525288 -0.13997263
0.0728902 -0.0950327 -0.065665096
0.052858442 -0.07480644 -0.040345587
0.022756388 0.0057963366 0.023801327
-0.1650268 0.12925269 0.02732459
-0.24986532 0.04445771 0.14849046
0.015095078 0.06483721 0.11898052
0.12124332 -0.19768709 -0.21092118
-0.034753196 -0.0035611049 0.056560107
-0.008894314 -0.083951674 -0.045241356
0.17659639 -0.05195424 -0.14952305
-0.05141133 -0.071095295 -0.064607106
0.048497558 -0.1491358 -0.16584814
0.3033538 -0.23501217 -0.29544634
-0.072072275 0.22844377 0.15359563
-0.1286459 0.1415876 0.041195884
0.0525133 0.000499427 -0.00496878
-0.15340212 -0.022032384 0.1321553
-0.21863656 0.20564152 0.059755385
-0.046907127 0.040144198 0.16516805
0.09864475 -0.040910758 -0.056211866
0.19496518 -0.064165086 -0.17251703
-0.18077543 0.24777406 0.06378231
0.16362825 -0.1742919 -0.17074628
-0.12282104 0.018165616 0.1866979
0.008253633 -0.11922398 -0.14166483
0.09868566 0.03213463 -0.11301448
0.18386205 -0.11369472 -0.1501377
0.099569984 -0.017269477 -0.05548193
0.0059831827 0.0936076 0.12875883
-0.023615295 0.043272775 0.15011364
-0.2278087 0.17537013 0.07263419
-0.2437925 0.12589562 0.08377061
-0.22067676 0.13858244 0.04592574
-0.08100455 0.18885721 0.19180067
0.057304896 -0.007882457 -0.010801239
-0.13610154 0.14591661 0.036858026
0.32168752 -0.1772692 -0.30180538
-0.068859026 -0.03858553 0.016331343
0.20700514 -0.054947015 -0.22607836
0.28553498 -0.1672679 -0.25843292
0.22259976 -0.27798802 -0.33685195
-0.019278489 0.1239651 0.15541926
-0.074622706 0.08643918 0.20688789
-0.030399026 0.03999381 0.15381783
-0.0746046 0.14905696 0.21183155
-0.21239732 -0.013658483 0.034349307
-0.14624374 0.10533986 0.19914664
-0.14562547 0.21578686 0.11929454
0.13780549 -0.120671384 -0.11618553
0.050747976 -0.011803329 -0.0039190114
0.15673852 -0.052591786 -0.11957669
-0.0128876865 0.13992696 0.1393843
0.20508455 -0.19310637 -0.20426914
0.275738 -0.25064963 -0.2825539
0.17397359 -0.13834189 -0.1502332
0.09312061 0.014281282 -0.058415335
0.06932421 -0.07073411 -0.044758644
-0.20270059 0.024581816 0.18818755
-0.122209 0.06553422 0.22504558
-0.1347435 0.09862543 0.21457766
0.06919874 0.022687266 -0.027530862
0.23149134 -0.1716706 -0.20776944
0.20369752 -0.23498034 -0.2487711
-0.08030965 -0.03215044 0.12223196
0.12158499 -0.19301909 -0.1990529
-0.10833443 0.12983042 0.058477856
0.027614629 0.1316446 0.07584022
-0.06244567 0.17781773 0.19427443
-0.010410173 0.072305635 0.14609128
0.28581944 -0.19060425 -0.2606033
0.010897921 -0.077958494 -0.0329107
-0.037330937 0.19593401 0.13138099
-0.064874984 -0.013431344 0.13807642
-0.19348815 0.06772936 0.05724154
0.09178517 0.0015219519 -0.051146667
-0.035049114 -0.014711773 0.047660463
0.020679917 -0.1145013 -0.09241463
0.30913967 -0.13521086 -0.34469706
-0.26534423 0.16371888 0.04746607
0.18204534 -0.0771479 -0.1461126
-0.22357193 0.078217 0.09250527
0.30596957 -0.17737336 -0.28149745
-0.1539509 -0.0028259149 0.16361856
-0.021759275 0.15785533 0.14122006
0.1338429 -0.006975074 -0.11484337
-0.27464145 0.09194569 0.091205925
-0.2652117 0.17610273 0.038569823
-0.21498364 0.023501003 0.1790038
-0.007434253 0.017950052 0.12709881
0.25233594 -0.18539967 -0.22959463
-0.19146307 0.021675047 0.19412513
-0.06974289 0.20974734 0.17238654
0.12038815 -0.0038895183 -0.09267107
0.052833814 -0.021053255 -0.009864239
0.16382106 -0.15006153 -0.15121028
0.008156189 0.0970706 -0.07081618
-0.09524974 0.02157746 0.18007669
0.20427454 -0.1359279 -0.1730379
-0.065782696 0.15237199 0.20689666
0.15341109 -0.086433835 -0.1163481
0.080350965 -0.005623252 -0.03463461
0.0008495808 0.13726383 0.11867471
-0.28347483 0.09371355 0.081819065
-0.06019227 -0.058871508 -0.027103145
-0.15198933 0.108738504 0.19140577
-0.18336295 0.06087774 0.19749646
-0.004814497 0.08681891 0.14090924
-0.10282224 0.13513611 0.21725228
-0.0742354 0.014204142 0.16474433
0.17523143 -0.14185546 -0.1528247
0.21909118 -0.24717687 -0.26551917
0.027171668 0.09522719 0.10289272
-0.053170767 0.02414651 0.16019337
0.11256208 -0.030646175 -0.0697556
0.113150015 -0.12751597 -0.11003782
0.00073477306 0.1492964 0.10919504
-0.21717952 0.16702382 0.061096933
0.13505128 -0.19899522 -0.20339441
-0.06698052 0.19202931 0.186249
-0.26888087 0.08856609 0.09894378
-0.22914407 0.09912013 0.08262463
0.0022382734 -0.06599989 -0.01655961
0.012167417 0.0446794 0.03962052
-0.012840168 0.06321956 0.14715613
0.07300547 -0.078514375 -0.053298295
0.26599348 -0.2676821 -0.2952783
0.13349286 -0.12351914 -0.116191715
0.022939473 -0.014073873 0.016622625
0.23482245 -0.22568336 -0.24417569
0.23531811 -0.11824886 -0.20460291
0.012061261 -0.07893803 -0.03425855
0.24662419 -0.2323266 -0.2547785
0.15257934 -0.043293744 -0.118078195
0.055737693 0.06326988 -0.051906448
-0.15995586 -0.007279265 0.15659726
-0.04393331 0.09538919 0.1821523
-0.00389344 0.04171588 0.13461305
-0.20141192 0.016486209 0.18522845
0.2738627 -0.10937154 -0.29412344
0.03898578 0.027238548 0.010493509
0.07370836 -0.009581483 -0.027695782
0.022984087 -0.023438828 0.012081229
-0.15543202 -0.025612174 0.12491326
0.23488118 -0.217658 -0.23752642
0.28230226 -0.14435574 -0.25980884
0.27525288 -0.25635496 -0.28711867
-0.24840418 0.14301899 0.075712495
0.22427706 -0.14097206 -0.19332133
-0.2520379 0.0898492 0.11345157
-0.044281688 0.16630779 0.1728236
-0.07225024 0.23869345 0.08090727
-0.027254665 -0.02610322 0.034529865
-0.13385117 -0.009539879 0.15530631
-0.088146925 0.18180814 0.19672221
-0.08718842 0.1701979 0.20458135
-0.17145321 0.05084421 0.21149799
0.17134276 -0.043093916 -0.14956185
-0.24289592 0.15076832 0.06684375
-0.19724238 0.17289138 0.052546963
0.06122064 0.037000068 -0.02244626
-0.15251325 0.04653924 0.21694525
0.2754881 -0.17402689 -0.24796483
-0.16286518 0.24873973 0.079497635
-0.03743369 -0.026955858 0.03580183
-0.0904948 0.13026309 0.091450125
0.043010306 -0.0441993 -0.012185545
0.23300141 -0.074157156 -0.26383606
0.2244303 -0.23450421 -0.24967778
0.16338752 -0.18885311 -0.18628226
-0.0027012427 0.10827887 0.017360348
0.13345602 -0.096148714 -0.10151244
-0.057804726 0.10059506 0.1964481
-0.03844793 -0.05247864 0.000313306
0.15267695 -0.20199645 -0.20413396
-0.18026751 0.21613678 0.08728467
-0.1006454 -0.029692004 0.0030191368
-0.266805 0.077239014 0.10909438
0.2749226 -0.2630597 -0.32123393
0.03749465 0.061895434 -0.0021537023
0.19273268 -0.15908287 -0.17353961
-0.0922732 0.041743465 0.19377564
-0.13246347 0.066394985 0.22382952
0.0028161434 -0.03645034 0.013127785
-0.066028066 0.12950243 0.20748924
-0.27233368 0.16813298 0.03606605
-0.18681088 0.25176302 0.035923004
-0.1835818 0.11771437 0.02637579
-0.14399542 0.20357578 0.098454826
-0.11058765 0.18400945 0.17454775
-0.1374159 -0.058246836 0.063899346
0.12292485 -0.15627547 -0.14156634
-0.08123973 0.11186043 0.22095433
-0.06181465 0.23061605 0.106936954
0.21168801 -0.12500179 -0.17843857
0.20547093 -0.274473 -0.34030336
-0.013605081 0.009989633 0.12681927
-0.117919646 0.012828988 0.17984757
-0.13071418 -0.024054453 0.13419175
0.1702289 -0.19414926 -0.19359782
0.06304714 -0.06462589 -0.037025552
-0.025006583 0.102985665 0.16294047
-0.17934775 0.07067214 0.057183146
-0.13590091 0.12319802 0.19562401
0.24397367 -0.27737746 -0.3180503
0.013123018 0.000600956 0.030225249
0.3062252 -0.19836807 -0.2814934
-0.11150747 0.14272572 0.05535407
0.022981491 0.104354694 0.104216285
-0.101549834 0.23420604 0.14628488
-0.054019094 0.10788416 0.1938016
0.23476292 -0.23369423 -0.25085053
-0.24048464 0.0831126 0.12894526
-0.15894985 0.1590252 0.02503585
-0.12902233 0.08634136 0.051306322
-0.053192146 0.050818045 0.17512253
0.03747656 -0.09760967 -0.05982207
0.022760391 -0.05665538 -0.012134072
-0.20756984 0.009073649 0.16791038
-0.12218008 0.05647949 0.22032417
-0.15713182 0.22262554 0.103767864
-0.13937864 0.21217647 0.12606913
-0.16246964 0.25937396 0.06505243
0.19302095 -0.23826611 -0.2552787
-0.014971651 0.10379228 0.15218437
-0.01101554 0.118312016 -0.023590013
0.079454556 -0.02926601 -0.03528873
0.25527853 -0.18443668 -0.23170587
-0.105342075 0.094606735 0.08213228
-0.01072197 -0.10100657 -0.09411055
0.05786967 -0.08649047 -0.05208336
0.29787812 -0.23840062 -0.2862622
-0.16848618 0.01947012 0.19516446
-0.023910657 0.0033962356 0.12995078
0.02473155 0.08214794 0.10800605
0.03598101 0.03695251 0.014013436
-0.12318091 0.25834632 0.10226047
-0.23413795 0.15706249 0.06534785
0.15075256 -0.23020487 -0.27576932
0.18300901 -0.18728107 -0.1898983
-0.08331078 0.0694783 0.20510991
-0.00075259974 -0.07299503 -0.025861515
0.002356974 0.14646345 0.10866765
0.008632104 0.15508504 0.08716745
0.13272667 -0.17618245 -0.16789101
0.085923724 -0.0596973 -0.050177287
0.032564633 -0.07805661 -0.03535429
-0.2152289 -0.008481757 0.102741204
-0.1371219 -0.007368189 0.15824708
-0.28961948 0.06756389 0.07178271
-0.11371811 0.2232482 0.14310981
0.24497975 -0.23998196 -0.2604794
-0.13462444 0.22040755 0.12601562
-0.12781067 0.19416896 0.1513633
-0.14254363 0.19307667 0.0719965
0.11783106 -0.0074239303 -0.084131666
0.23285659 -0.27523774 -0.34115016
-0.13917257 0.023310842 0.1963724
0.18329002 -0.07838015 -0.14743952
-0.08347626 -0.013600442 0.14323969
0.09320394 -0.08243936 -0.06613063
-0.19561505 -0.0038712467 0.14712505
0.015491779 0.053024504 0.11802121
0.1537325 -0.12667671 -0.13028145
0.19384407 -0.10806955 -0.1588594
0.039009176 -0.14274126 -0.16227047
-0.27636686 0.12613717 0.06472826
0.15168281 -0.15902752 -0.15287125
-0.049682103 0.060733836 0.177168
-0.103430636 -0.008529787 0.15378897
-0.1453191 -0.015654396 0.14541382
0.013107137 -0.09838343 -0.064388186
0.15048234 -0.07099308 -0.11146513
0.011893622 0.056573126 0.04030887
-0.017318478 0.16092911 0.13106635
-0.1806083 0.026390806 0.20123011
-0.076931104 0.20552987 0.1778899
-0.08299021 0.10533361 0.22123855
0.022987146 -0.03234385 0.0070390166
-0.29181874 0.102026425 0.04624662
-0.05406216 0.15974565 0.19151779
-0.20427717 -0.014393975 -0.0013619735
-0.27413994 0.08057849 0.09993966
-0.24966705 0.09770126 0.10990588
0.2590628 -0.22388564 -0.25367078
-0.1829535 0.08119272 0.1830785
-0.12731634 0.18278371 0.16010667
0.22053784 -0.07132161 -0.22038828
-0.06617265 0.22462799 0.15189742
-0.0021681094 0.05995303 0.055389784
-0.17371921 0.009953041 0.18088108
-0.0072682826 -0.038364608 0.015941503
0.069812715 0.03512879 -0.035809815
0.04204411 -0.10475999 -0.06977321
-0.070661895 0.081999086 0.20201492
-0.0441953 0.1068492 0.18349385
-0.27227256 0.15698402 0.0460209
0.10326399 -0.08823599 -0.07601201
0.2349 -0.17300628 -0.21103343
-0.26734117 0.05258031 0.126559
0.0629598 -0.072561584 -0.043685455
0.31638792 -0.1952052 -0.292205
-0.13582379 0.16786906 0.03676991
0.003354838 0.09989451 0.01888461
-0.186861 0.08617618 0.042989552
-0.13577338 0.121326864 0.19710463
0.011066611 0.010730836 0.03529984
0.042737056 -0.076748334 -0.03746396
0.011079277 0.07433796 0.03259704
-0.06560109 0.040805846 0.17782873
0.24089378 -0.21358909 -0.23710991
-0.04052881 -0.07660176 -0.056275137
-0.040007476 -0.072759725 -0.04341333
-0.11803829 0.1465637 0.049207836
0.08608496 0.03439666 -0.07116351
0.17350279 -0.10664556 -0.13879019
0.113074586 -0.1354839 -0.116703466
0.04031438 -0.10656319 -0.072099835
0.08779035 0.010847515 -0.049235035
-0.10645661 0.16049603 0.19545567
0.11333192 -0.09409693 -0.08594894
0.21458489 -0.18889648 -0.20541678
0.1821793 -0.10742693 -0.14737457
0.09271466 -0.13015927 -0.10609678
0.006673575 0.030801786 0.04481338
0.11707135 -0.15506802 -0.13924553
-0.121333666 0.09087231 0.22591335
0.1936425 -0.096013255 -0.15824194
0.16352953 -0.18182573 -0.17813599
-0.08899333 0.21542273 0.17059676
0.26373178 -0.19961314 -0.24376918
0.13466948 -0.15301931 -0.14060006
0.2671201 -0.22093561 -0.25606793
-0.15719546 0.100750096 0.19245028
-0.0193514 -0.082284175 -0.04762921
0.23453206 -0.24800141 -0.26707757
-0.053311277 0.069600284 0.18367614
-0.09289352 0.16241664 0.20649095
0.21760224 -0.097896524 -0.18740097
-0.0604382 0.110278785 0.20041434
-0.12058976 0.15662557 0.18531953
0.20874774 -0.17224737 -0.1912332
-0.18203245 -0.038751416 0.019772857
-0.105945714 0.073243074 0.22205451
0.25389996 -0.15863243 -0.22450674
0.22361705 -0.09564078 -0.19704032
0.014811273 0.081193596 0.11960016
-0.08150184 0.21139365 0.17323714
0.13337383 -0.13980007 -0.1290164
0.028791849 -0.13532108 -0.15493786
-0.26596662 0.12658317 0.073935136
0.19411488 -0.19283438 -0.19929221
-0.014349787 -0.025589101 0.029625505
0.19890927 -0.1092449 -0.16428995
-0.16801545 0.14205752 0.023814611
0.012742508 -0.0505071 -0.0026898016
0.13212602 -0.024865078 -0.097051494
-0.21630795 0.05155996 0.174079
0.07087072 0.036177836 -0.03972193
0.0019600282 0.061626606 0.051051065
-0.15873784 -0.050934866 0.053195648
0.032692503 -0.07061305 -0.028103787
0.20440666 -0.15587468 -0.18027061
-0.24847282 0.13196845 0.08605156
0.2341758 -0.11612514 -0.2035316
0.07380972 0.03795347 -0.04721428
