# .PCD v0.7 - Point Cloud Data file format
VERSION 0.7
FIELDS x y z
SIZE 4 4 4
TYPE F F F
COUNT 1 1 1
WIDTH 1000
HEIGHT 1
VIEWPOINT 0 0 0 1 0 0 0
POINTS 1000
DATA ascii
-0.18861029 0.2880295 0.10611624
-0.15571648 0.2678746 0.09550054
-0.036408715 -0.0013668463 0.018327901
-0.016291134 -0.23502171 -0.15714407
-0.12546678 0.054854084 0.008753296
0.096750006 0.00014016415 -0.06025736
0.20059013 -0.24709058 -0.010261374
0.10577506 -0.2595697 -0.003925401
0.08586012 -0.25827393 -0.00758658
0.10510352 -0.28393072 -0.014682094
0.229525 -0.21727015 -0.026563032
0.027914193 -0.12535954 -0.023802575
0.08962841 -0.14738736 -0.025615912
-0.16066241 0.27970588 0.098194934
0.089938164 -0.11515436 -0.01970843
-0.10218379 0.27498335 0.05917298
-0.051461626 0.041031916 0.032776747
-0.19733143 0.23141989 0.0864707
-0.19568671 0.32100913 0.10279758
0.03906633 -0.0464184 0.0030964797
-0.19732323 0.30723 0.11048588
0.18765566 -0.12805252 -0.011636747
0.0947132 -0.31405634 -0.23263864
-0.02442576 0.04269954 0.031244796
0.047199376 -0.22375874 -0.002113437
0.18728241 -0.21664535 -0.0035161658
-0.18761252 0.3703317 -0.0030304673
-0.02033884 0.060565896 0.03236503
-0.20750377 0.15770638 0.012814819
-0.052396104 0.12825897 0.048017886
0.1491578 -0.24057588 0.003761795
0.2246978 -0.11007524 -0.07032178
-0.0028039487 -0.22123536 -0.0364287
-0.04357653 -0.01506194 0.009662502
-0.19169162 0.3466163 0.06635272
-0.024790954 0.09588943 0.035221033
-0.022594621 0.023032382 0.026260296
-0.24925566 0.2320984 0.051051967
0.230928 -0.24165174 -0.024353908
-0.1131386 0.030019512 -0.002740311
-0.02419392 0.0033396403 0.021151522
-0.21229596 0.32319275 0.09746799
0.16949403 -0.19589642 0.0044722967
-0.08016115 0.25094107 0.044185694
0.07033833 -0.063416235 -0.0093625
0.25309473 -0.26068217 -0.051166102
-0.095227465 0.22757939 0.06621638
-0.07339451 0.13561715 0.05655617
-0.011294664 0.06807623 0.028760029
0.15383735 -0.18281303 0.011236333
0.017690701 -0.03133806 0.00939099
0.015801469 -0.11159217 -0.020939834
0.16964787 -0.11475182 -0.01892004
-0.16533911 0.24437588 0.09336954
-0.012216965 -0.024592673 0.013044148
-0.2288218 0.24150579 0.07842774
-0.124979995 0.20564821 0.07978111
-0.14865243 0.18543382 0.07681641
-0.07158013 0.053908307 0.03523603
0.28859472 -0.19034058 -0.13242662
-0.13254116 0.10790507 0.043472808
0.025142046 -0.21295695 -0.007631193
-0.1939617 0.3495828 0.051741164
-0.00924397 0.111004286 0.023079654
-0.1011637 0.29467642 0.045046993
-0.15556005 0.27916178 0.096425764
0.10521758 -0.015059352 -0.061472856
0.13649061 -0.21170081 0.012044495
0.16552396 -0.2824379 -0.008089807
0.19019963 -0.07719155 -0.098728925
-0.058118515 0.18923461 0.04500714
0.10608462 -0.14080136 -0.2636789
-0.014471162 -0.08217153 -0.016832743
-0.025858372 -0.033808727 0.005919693
-0.032779474 -0.10087417 -0.05096135
0.18806173 -0.08369216 -0.081887946
0.117725275 -0.17054641 0.022993369
-0.10510693 0.07595931 0.036295746
-0.008390695 0.15175028 0.0014612535
-0.13098197 0.35616255 0.015684625
0.23419154 -0.22719885 -0.028369261
-0.20365302 0.35008729 0.029391477
-0.16921797 0.27230254 0.1003023
-0.10503336 0.10392554 0.050195906
-0.12372487 0.2763966 0.079134375
-0.19270204 0.35684627 0.030509198
-0.036776435 0.20977022 -0.035412036
0.048010428 -0.1980787 -0.0042062476
0.27884147 -0.22928949 -0.11869153
0.101871304 -0.07828147 -0.026098898
-0.0047457498 -0.12675624 -0.04379021
-0.13015294 0.33400875 0.06292206
0.075658955 -0.2663927 -0.014582059
0.15793681 -0.24061891 0.002995102
0.16225228 -0.07101252 -0.17873874
-0.07247606 0.18232073 0.056520656
0.16814974 -0.2501335 -0.0008894743
0.2225435 -0.14662722 -0.040232927
-0.20936018 0.23195224 0.08237671
-0.11022386 0.014686084 -0.018591875
-0.1462031 0.110439725 0.037221063
-0.03289319 -0.21908678 -0.11609863
0.07003598 0.046829127 -0.05981336
0.11218295 -0.3059475 -0.023286251
-0.13535798 0.21544541 0.083521254
-0.06377249 -0.067311235 -0.062726185
0.028470362 -0.057392575 0.0019148487
-0.1870533 0.28617537 0.10551996
-0.08583359 0.28373173 0.020923167
0.01620294 0.082437314 0.0076900963
0.065455 -0.064732686 -0.007303705
-0.00409615 0.0953002 0.022730205
-0.21867031 0.31434667 0.09928687
0.12584987 -0.29617846 -0.015594988
-0.1474647 0.27495053 0.09255008
0.19952266 -0.10685443 -0.031403776
-0.033340756 -0.025667304 0.0076755146
-0.13934936 0.058610294 -0.0064778174
-0.10428542 0.17482723 0.070213586
0.19965608 -0.24600372 -0.009841497
-0.16637893 0.25574204 0.09620658
0.056212623 -0.3192163 -0.071494654
0.15922168 -0.18664336 0.008945947
-0.02232756 0.04372102 0.031174464
-0.2256943 0.28049454 0.10246851
0.036384787 -0.2582637 -0.034271833
-0.15599921 0.24576122 0.09280438
0.16717598 -0.10181729 -0.066788144
0.059223015 -0.18598047 -0.020104408
0.027301338 -0.2952418 -0.091122046
0.04046266 0.011169399 0.003198881
-0.096495755 0.30226472 0.020940073
0.15634497 -0.17146778 0.010844855
0.0059850975 -0.1680718 -0.19272481
-0.2771644 0.29681778 0.04231467
0.1218712 -0.12038251 -0.034223605
0.20443662 -0.20640652 -0.011795881
-0.23605411 0.31934178 0.061462075
-0.17967722 0.16485696 0.054863025
-0.18358487 0.24027291 0.0934588
0.2312406 -0.25055954 -0.024279574
0.15742606 -0.27101555 -0.004564809
-0.20720977 0.15333197 -0.0017298132
-0.0038967673 -0.18669626 -0.1524959
-0.12294243 0.30490655 0.06970198
-0.18077824 0.35335875 0.06744897
-0.13575591 0.17389046 0.07301656
-0.12540731 0.1638671 0.06974566
0.059108537 -0.0739232 -0.0058349078
0.06724482 -0.26303232 -0.017204097
0.01865105 0.016300805 0.01476106
-0.09207213 0.2523281 0.05741184
0.093868114 -0.0135611575 -0.040847864
0.2274247 -0.12460729 -0.060569122
0.20152567 -0.12066667 -0.027426846
-0.030527866 0.14805278 0.031788435
0.17857933 -0.1327053 -0.0035298653
-0.031546887 0.17586128 0.021498783
0.040631294 -0.055598196 0.0012099637
-0.187593 0.21905933 0.08335706
-0.23265548 0.30981854 0.09431336
0.11868074 -0.085645184 -0.036846373
0.18543895 -0.22891648 -0.0034303188
-0.007406887 0.16363646 -0.053243212
0.14362553 -0.08012653 -0.14887524
-0.09605264 0.26689506 0.055744886
-0.18735851 0.15481599 0.04166729
0.107207775 -0.350736 -0.076895334
-0.13444754 0.14283314 0.06112316
-0.02857848 0.01677844 0.024657173
-0.11684272 0.29240045 0.068178356
0.22314443 -0.18327354 -0.028138785
0.099911876 -0.16398968 -0.005659422
0.11254369 -0.15822607 0.002331741
0.12829795 -0.18882641 0.017755346
-0.09467209 0.0131485555 -0.0007393775
-0.18020967 0.32965723 0.09929768
0.2722437 -0.21787034 -0.065999076
0.055447243 -0.22737266 -0.00096821896
-0.02682848 0.07012203 0.03537065
-0.21838793 0.2050371 0.058034275
-0.11428878 0.00999347 -0.04147199
0.16514583 -0.19167551 0.0063802246
-0.09932017 0.088016696 0.04440181
0.20072311 -0.21193849 -0.009764398
-0.11441183 0.20733932 0.07649489
0.11703494 -0.21158199 0.01363292
-0.0064867004 -0.11435168 -0.03543108
0.1600447 -0.13110451 0.008819192
0.008037444 -0.027278632 0.0111244805
0.07681484 -0.25005537 -0.006081912
-0.17138165 0.117626555 0.021784907
-0.109954186 0.3081387 0.049233936
-0.14778027 0.12078898 0.043226827
-0.04105851 0.15621664 0.038963597
0.13187625 -0.32961002 -0.029312419
0.22017123 -0.26442996 -0.018770646
0.14198554 -0.097986974 -0.055940285
-0.09259313 0.066086836 0.035534695
-0.1254363 0.27140373 0.08066733
0.035697326 -0.27349645 -0.0480786
-0.1904018 0.2978549 0.108654365
-0.051155057 0.17816901 0.04186131
0.1813627 -0.06852484 -0.14613363
-0.063012764 0.1260956 0.052301813
0.07568837 0.00260793 -0.02430659
0.18173976 -0.15644285 -0.00238945
0.2545158 -0.17957091 -0.06435429
0.00087327254 -0.15960386 -0.07607069
0.22278869 -0.27204156 -0.020180607
0.055615585 -0.27065316 -0.029869338
0.08159964 -0.16683249 -0.024392523
-0.062011268 0.17357151 0.050890237
-0.1050177 0.040966067 0.013311838
0.12706086 -0.23149478 0.0077819424
-0.21453434 0.22001436 0.07208719
-0.059574503 0.2375214 0.01753431
0.007669363 -0.057759665 0.0026995076
0.22588778 -0.21465255 -0.02444491
-0.15644819 0.1941969 0.079064935
0.007617685 -0.06723429 -0.0013862273
-0.23789413 0.20272273 -0.0064972322
-0.1614493 0.32917625 0.0973613
0.13647448 -0.30939937 -0.019301284
-0.09380112 0.17697173 0.06699754
-0.064021975 -0.011350735 0.0020960623
-0.27539286 0.27068853 0.060269933
0.050283857 -0.024156595 0.00018392914
0.13672675 -0.2807782 -0.007974224
0.06385329 0.05353629 -0.08579739
0.02072703 0.0665281 0.008647047
0.1658602 -0.11297532 -0.032856565
0.03560731 -0.16612822 -0.04498314
-0.16031818 0.3555978 0.0720491
-0.05956106 0.061696574 0.03865648
0.2757512 -0.19391195 -0.088679925
-0.11886419 0.16482978 0.06963816
-0.16925326 0.2996911 0.1028191
-0.2147413 0.28452358 0.106522985
-0.15732145 0.36683115 0.050239272
0.23325521 -0.23245363 -0.027000958
-0.20285153 0.2668951 0.101271376
-0.032775126 0.043221194 0.032185216
0.15421622 -0.29000962 -0.010370107
0.09697684 -0.18734907 0.021137133
0.16959718 -0.20180762 0.004128575
-0.16338785 0.369674 0.04600694
0.19117317 -0.17972861 -0.0057472354
0.15530467 -0.11443196 -0.05009573
-0.19401641 0.24875061 0.095154956
0.018389162 -0.18055263 -0.07648551
0.26038685 -0.1653155 -0.08683293
-0.06919931 0.119970955 0.053730384
0.08978045 -0.13719742 -0.023053976
0.074356385 0.007663995 -0.024957102
-0.06398264 -0.019930208 -0.0040451703
0.22699675 -0.2567586 -0.021959461
-0.14154266 0.16419788 0.06901514
-0.036914676 0.011071492 0.023611173
-0.11829449 0.25434598 0.07789992
0.008948987 0.026434083 0.01935353
-0.18132377 0.1762777 0.061352536
0.03706014 -0.019327046 0.0061167213
-0.14153166 0.28115517 0.08966448
0.06131675 -0.006465021 -0.007805649
-0.049745664 -0.08955288 -0.07800293
-0.18573704 0.12572962 0.006613992
0.17628838 -0.05856641 -0.18975608
-0.20806472 0.19389306 0.056906205
-0.08360897 -0.03354842 -0.047282558
-0.0023505017 -0.027328141 0.011233331
-0.002124009 -0.007113807 0.017040107
-0.27918208 0.27196178 -0.003504581
-0.18748286 0.21626307 0.08189011
0.06952585 -0.1848184 -0.0019385616
0.007049697 -0.17955919 -0.14071395
-0.21126907 0.19394293 0.05461116
-0.012926302 -0.074182644 -0.010858586
-0.16594629 0.09007107 -0.015201177
-0.16174874 0.25379905 0.09529193
0.05685387 -0.1905758 -0.010034635
0.0741099 -0.030976025 -0.01339292
-0.03231515 0.15401453 0.031546935
-0.0026902957 -0.084546074 -0.01312158
-0.042891767 -0.07893592 -0.03788338
0.2203687 -0.28996336 -0.03691386
-0.011351638 -0.004588148 0.018317217
-0.16575775 0.26404795 0.098144956
-0.13094334 0.13218412 0.057075925
0.24691036 -0.13106228 -0.16703276
0.19625327 -0.27543387 -0.0114515135
-0.243511 0.32723427 0.019554928
-0.094380155 0.1339094 0.05992646
0.06701014 -0.35118014 -0.10059006
0.11169126 -0.1522325 -0.019225875
0.098934844 -0.1817844 0.022585634
0.116126336 -0.30763325 -0.02303786
0.2112262 -0.1402033 -0.02987262
-0.20765719 0.2439182 0.089444935
0.19677122 -0.14410082 -0.015404162
-0.060246766 0.025128867 0.02490721
-0.1147294 0.277699 0.07101164
0.0064732437 -0.2664955 -0.0878006
-0.07142683 0.03183393 0.02478606
-0.0018363744 -0.15733814 -0.07702971
-0.07274576 0.17018646 0.057537694
0.04128501 -0.30300644 -0.07451781
-0.02455588 0.18207115 0.002829012
-0.23920321 0.27891433 0.09681202
0.18370493 -0.0978083 -0.044708077
-0.06420628 0.13561216 0.053460866
0.13861355 -0.1566068 0.01850787
0.21447316 -0.09104324 -0.06909502
0.21975794 -0.111999586 -0.057579186
-0.26934028 0.24918507 0.0178061
0.13332541 -0.317897 -0.023346197
-0.044945523 0.19630535 0.02797743
0.0806718 -0.07413579 -0.014034639
0.019208452 0.04190919 0.0133856
0.07863389 -0.18317181 0.012084459
0.25294837 -0.24370168 -0.038882658
-0.17366944 0.2621961 0.09846133
0.007563177 -0.07673074 -0.005611122
0.01506332 -0.06013957 0.0017694006
-0.25093022 0.3310134 -0.008727377
-0.10566441 -0.0026764404 -0.058990076
-0.06391038 0.0008348822 0.011054102
-0.2613412 0.28822923 0.07555661
0.09011264 -0.089462996 -0.018446555
0.039861925 0.092554994 -0.043615412
0.047408573 -0.3333131 -0.11492331
0.17853229 -0.19639464 0.00092998653
-0.083202794 -0.037945587 -0.06195827
-0.17675687 0.26581052 0.09962782
-0.16476889 0.34295064 0.0874978
-0.16540723 0.32441097 0.10027312
0.102254614 -0.06618413 -0.027400477
0.021214992 0.10847469 -0.014128718
-0.087889165 0.21033794 0.06334481
0.04092663 -0.07595378 -0.0037513268
-0.1251912 0.040264696 -0.008784044
0.054880966 -0.23879488 -0.007886379
0.21350425 -0.08027801 -0.0832254
-0.07425005 0.053658485 0.034568176
-0.21131043 0.33464798 0.06388861
0.06899477 -0.13769367 -0.022152217
0.26531017 -0.18654953 -0.075948656
0.01054417 0.04096163 0.018770343
0.07667471 0.026861161 -0.045281943
0.019050231 -0.12275588 -0.025676962
0.24377123 -0.20943187 -0.039232966
0.1060541 -0.33276838 -0.042122956
0.04815907 0.03690183 -0.008581313
0.015220427 -0.22726403 -0.025635155
0.22799654 -0.09802815 -0.09912053
0.10196897 -0.06993196 -0.026756186
-0.07457206 0.20485899 0.05540733
0.111247845 -0.05254743 -0.040858727
-0.0607419 0.21516354 0.038184408
-0.025513109 -0.20007291 -0.1545933
0.25976354 -0.15435088 -0.10024412
-0.115351416 0.06900825 0.026903532
-0.16461892 0.226568 0.08870109
0.18631253 -0.16636516 -0.0041330457
-0.06001863 0.15073694 0.051621713
0.055531856 -0.20887206 0.0078688245
-0.0022112064 -0.21586369 -0.05285153
-0.0048177806 -0.19768314 -0.11828037
-0.17717986 0.17807573 0.064966924
-0.09927547 -0.0052855173 -0.028429866
0.06688056 -0.30397776 -0.04752668
-0.003532515 -0.2542385 -0.08971001
-0.0131241 -0.24691841 -0.10548334
0.06192019 -0.0047583133 -0.008409576
-0.00091100857 0.058758944 0.024102138
-0.22002748 0.3271493 0.06996761
-0.0026266193 -0.11095135 -0.029975649
0.052522875 0.043970656 -0.0161898
-0.013606185 -0.20519643 -0.11230616
0.26649845 -0.15350005 -0.13378435
-0.19159202 0.26075122 0.09936643
-0.09793957 0.25359714 0.06269699
0.197069 -0.14777856 -0.014727452
-0.022858623 -0.10572486 -0.04104075
0.21285868 -0.12718745 -0.03775913
-0.05340407 0.06313866 0.03886695
0.1353936 -0.056951564 -0.11834094
-0.036443055 0.03775026 0.031137528
-0.11574995 0.3289788 0.036883563
-0.03339097 -0.044181462 -0.0016083916
0.113940336 -0.07582246 -0.035497095
-0.014254606 0.16325864 0.002101839
-0.20001248 0.36473075 -0.011058493
-0.083695635 0.123697996 0.056465607
0.24956803 -0.1698848 -0.06342461
0.20902424 -0.10502891 -0.045999266
0.11859774 -0.071744286 -0.04157937
-0.22879162 0.23299496 0.0721527
-0.14946185 0.32362822 0.08931926
-0.021868348 -0.1319297 -0.082325466
-0.011322711 0.12843268 0.01935832
0.19592248 -0.26277468 -0.009543437
0.017711813 -0.11479479 -0.0219814
0.22824568 -0.11200008 -0.07585922
0.17812154 -0.2702716 -0.0062466827
-0.013864072 -0.23601526 -0.07996757
0.08221963 -0.17903174 0.006106271
-0.1897267 0.14159481 0.024614133
-0.033187058 -0.07806038 -0.02672055
-0.1779906 0.15274113 0.046884224
-0.25429597 0.232089 0.041263066
0.25392807 -0.22875334 -0.04306616
-0.10479935 0.016593909 -0.007741689
0.14708327 -0.10752529 -0.056483768
0.2084517 -0.2037372 -0.014056909
-0.012854746 -0.22270317 -0.053049326
-0.1263964 0.34748507 0.03689901
0.20445324 -0.083459675 -0.055799905
-0.10294304 0.09844751 0.048228107
-0.093415864 0.044981908 0.023538103
0.023161909 -0.13315304 -0.028648417
-0.19774057 0.255283 0.097243115
0.25541222 -0.16720667 -0.074065566
0.044761844 0.010409142 0.0006131648
-0.009346746 0.1329373 0.01555205
0.058643974 -0.16656992 -0.034860946
-0.2082601 0.30116105 0.10929673
-0.05003778 0.14882554 0.045876384
0.06601947 -0.3145072 -0.057164267
0.1829062 -0.20651717 -0.001292988
-0.061152287 0.24766468 0.004779851
-0.07218176 0.1948471 0.05512479
0.027133357 -0.30282342 -0.10755429
0.08838657 -0.14207475 -0.02416005
-0.043506857 -0.05033818 -0.012723504
0.070921585 0.012326523 -0.023092486
-0.14069006 0.3406925 0.074394695
0.16077992 -0.18151362 0.008602304
0.026678257 -0.13378635 -0.029092005
-0.077667326 0.27518567 0.0039140494
0.046339627 0.072392814 -0.02951454
0.13841978 -0.17893259 0.016692072
-0.05547641 0.115567304 0.048880897
-0.2397306 0.3253605 0.033794325
-0.0826445 0.2037 0.060742438
0.09538967 -0.21048653 0.013522922
0.24456508 -0.16021498 -0.062401194
0.049175512 -0.06687054 -0.0023837038
0.14675762 -0.30050173 -0.014175785
0.019953597 0.04109795 0.012996532
-0.14773458 0.3606903 0.05858468
0.027230313 -0.21837246 -0.010105999
-0.27370542 0.2559092 0.02519123
0.017186217 -0.29020727 -0.11028822
-0.0019030472 -0.16454193 -0.22118863
-0.0020180568 -0.15009212 -0.06818821
-0.22864655 0.31971273 0.07605676
-0.17191489 0.15753677 0.05422276
-0.1874864 0.18907055 0.06635651
0.18224572 -0.13391434 -0.0058635394
-0.07879542 0.075256094 0.043050155
0.14476533 -0.10122825 -0.05760654
-0.08068554 0.1932113 0.060546
0.10302473 -0.09455593 -0.024998084
-0.18161878 0.36365402 0.03175393
0.021035485 -0.09022762 -0.008664028
0.05575623 -0.28732526 -0.04270951
-0.16736808 0.19399221 0.076695085
-0.14874376 0.2727903 0.09319126
0.23981334 -0.12730224 -0.08451939
0.08156677 0.0053503644 -0.035011522
0.065791324 -0.200354 0.013815853
-0.2472027 0.32911253 0.005492936
0.17633604 -0.15741187 0.0012176521
-0.11348563 0.010822841 -0.06696995
-0.049701214 0.22674839 -0.04013615
0.1586851 -0.2684623 -0.23239236
0.23707788 -0.1758835 -0.043906264
0.11603726 -0.32619876 -0.0319063
-0.15574703 0.31518054 0.0951872
0.15952797 -0.17549884 0.009397939
-0.086456925 0.24757484 0.053197585
-0.09405491 -0.01571264 -0.036424115
-0.029607443 0.17976326 0.014955973
-0.17650689 0.25741538 0.09757976
0.110989325 -0.213244 0.013174471
0.14794607 -0.22046968 0.008358235
0.085897475 -0.24909696 -0.0032042456
0.10664789 -0.34604248 -0.06224103
-0.08454633 0.09224554 0.048323784
0.20404023 -0.29800484 -0.028494658
0.010897139 -0.20454653 -0.062136117
0.066353075 0.045785695 -0.0444292
-0.053796962 -0.022230828 0.00065672334
0.21178454 -0.105571724 -0.19980676
-0.21384573 0.33299595 0.0639116
-0.16932318 0.18213077 0.07011462
0.027932534 -0.1162314 -0.019005913
0.13014549 -0.22679953 0.008753062
0.07570483 -0.27498662 -0.020420706
0.009221868 0.038094036 0.0192577
-0.23039001 0.29594436 0.10079244
0.04925342 0.00047815178 -0.0012060988
-0.012806767 -0.099948496 -0.028855458
-0.17708261 0.22468653 0.08813418
-0.07522741 0.26512834 0.020757651
-0.25949422 0.23482598 0.029899944
-0.07395261 0.006836351 0.008595289
0.21819614 -0.124285825 -0.21214709
-0.18582939 0.34160084 0.090033956
0.236422 -0.20819843 -0.03323287
-0.20114745 0.20107564 0.06691626
0.0043390514 0.14744733 -0.027415399
0.034131892 -0.07274234 -0.0022708275
0.21599878 -0.15618514 -0.028859016
0.09617953 -0.2403136 0.0023574634
-0.03116794 -0.21490824 -0.11781391
-0.0018303755 0.10894375 0.016590439
-0.20013224 0.21348514 0.075501524
-0.15603325 0.15458563 0.060113516
0.26818863 -0.17148565 -0.19318873
-0.0636059 0.08338438 0.044723105
-0.120275155 0.31502107 0.06125264
-0.044554517 -0.06424049 -0.02428022
0.005392362 -0.0003506639 0.01790882
0.010814233 0.12728912 -0.013359417
0.21738704 -0.27536246 -0.018251006
0.19538881 -0.06770606 -0.11888768
-0.015971858 0.07585031 0.030951135
0.015552928 -0.27429155 -0.08023485
0.25093907 -0.24355315 -0.037532505
-0.24953674 0.27217767 0.0873045
-0.0026887048 -0.07555124 -0.008038942
0.26595774 -0.2347151 -0.051886685
-0.14318132 0.3514853 0.071126804
-0.18696295 0.2966415 0.108031295
-0.073821254 0.10360339 0.05065803
0.18832135 -0.3064893 -0.025445255
-0.029806359 0.054795634 0.034579676
0.10731357 -0.17127806 0.024559481
0.05097914 -0.33758712 -0.11329473
0.20790155 -0.19179678 -0.015338839
-0.17362618 0.309641 0.104860805
-0.11280218 0.28228107 0.067823745
-0.1256598 0.25017294 0.08224562
-0.25919068 0.31594202 0.023265794
-0.1902598 0.3477038 0.06582879
0.19487986 -0.12410419 -0.01884068
0.0667338 -0.313192 -0.055348437
0.14758632 -0.24097274 0.003786919
0.006827027 -0.27218148 -0.09988769
-0.13708699 0.3660227 0.03702014
-0.04171487 0.13103472 0.042517375
-0.0784052 0.27324027 -0.021087803
0.0713719 -0.027580924 -0.012055162
0.13218766 -0.078580365 -0.0537428
-0.052087117 -0.085093625 -0.08388214
0.019596344 0.028777 0.014604656
-0.12636554 0.24644198 0.08262635
0.25528786 -0.15579987 -0.0862472
0.0021243137 -0.2120343 -0.056205183
-0.15651831 0.13005662 0.044608027
0.0035607426 -0.26800779 -0.100699365
0.048882697 -0.08740701 -0.0072693266
0.26118582 -0.22481322 -0.05029769
-0.082936704 0.19120593 0.062244013
-0.15466388 0.32830876 0.09268066
0.009028774 -0.1800566 -0.10181497
-0.023358872 0.17820321 -0.06523626
0.1178217 -0.19558702 0.017597368
-0.18160808 0.35516647 0.059727475
-0.21112756 0.27399722 0.10265965
0.07906059 -0.15809087 -0.027253112
0.17914315 -0.22740959 -0.0009040864
-0.045804624 0.029565495 0.029401472
0.20677792 -0.073217444 -0.07642545
0.19153062 -0.06590774 -0.13304484
-0.28393993 0.27508438 0.034243494
-0.1446822 0.29420108 0.090371795
0.24168515 -0.11652456 -0.116648294
0.13680714 -0.2093963 0.012600547
-0.24564253 0.30466542 0.08762058
0.03675122 -0.21746404 -0.003922343
0.19658022 -0.08789328 -0.049868297
-0.014619211 -0.10911627 -0.037293885
-0.28017017 0.2694846 0.047036275
-0.028755348 0.032274943 0.02908058
-0.11118001 0.21172348 0.07562681
-0.16252549 0.13889092 0.04714404
-0.033249326 -0.06970717 -0.020282723
0.1776613 -0.24844053 -0.0029842083
0.049658302 -0.028807098 0.0003282305
-0.1459215 0.20460151 0.08162152
-0.12647448 0.31014994 0.071430765
0.115085006 -0.27873334 -0.0102166
0.000113133356 0.122257024 0.009503644
-0.09483023 0.0653931 0.034345493
0.1282008 -0.105321586 -0.03966235
0.021775926 -0.041708212 0.0064302073
-0.043107025 -0.024938554 0.004245218
0.16776815 -0.32414478 -0.036228042
0.03189563 0.07337595 -0.005321952
-0.19103414 0.20960474 0.07701053
-0.124231264 0.25160414 0.081543006
-0.16580838 0.3003376 0.10117199
-0.08250494 0.20030819 0.06098416
0.03805189 -0.15433614 -0.03506392
-0.024647078 -0.08961336 -0.029464265
-0.13556753 0.19451097 0.07846387
0.23987062 -0.12315792 -0.17107847
0.09679995 -0.18184347 0.022739997
-0.07331395 -0.027508233 -0.017259233
0.19488257 -0.09992304 -0.029126002
0.07607401 -0.32550004 -0.05785877
-0.09447746 0.12366737 0.057106793
-0.20276137 0.3398108 0.06513478
-0.15151747 0.35052407 0.07647844
-0.06438764 -0.039072685 -0.019315101
0.04618246 -0.2503811 -0.021009602
0.120916426 -0.112254836 -0.034589827
0.06301983 -0.029349161 -0.006687534
-0.041586045 0.040060308 0.03177367
0.2765509 -0.2165007 -0.07268887
-0.0735595 -0.046777412 -0.043728594
-0.123338856 0.049412552 0.0057209395
0.009729294 0.10280016 0.0069913394
0.0152948685 -0.19499193 -0.081134334
0.16145213 -0.27198204 -0.005130405
0.2296869 -0.13124138 -0.05950353
-0.06320057 0.11500638 0.051346235
-0.025777703 0.12041209 0.03361428
0.045299027 -0.21714044 0.0012025284
0.19780585 -0.08081835 -0.07055489
0.024780907 -0.14170426 -0.2394295
-0.15586469 0.3653462 0.052869815
0.13663797 -0.29029647 -0.011606024
0.16959836 -0.17620791 0.0051372233
0.0803925 -0.26102751 -0.010355304
-0.20545664 0.25554457 0.09574609
0.1691989 -0.2590385 -0.22798067
0.12967673 -0.30697447 -0.019352501
0.010777191 -0.19279021 -0.09397268
-0.107178934 0.32079974 0.020926973
-0.09484068 0.04718968 0.024199737
0.087369345 -0.28308734 -0.019132728
0.05052792 0.073935896 -0.043654215
0.187081 -0.19127828 -0.0033639974
0.13978153 -0.2717899 -0.27560934
-0.21053323 0.30963495 0.10489985
0.0441487 -0.19636665 -0.01808565
-0.28153637 0.298486 0.007963761
0.06274924 -0.20624177 0.010992553
0.12737371 -0.28626314 -0.011383662
0.058420252 -0.019409046 -0.0048794234
0.14624411 -0.2710915 -0.004472439
-0.124811694 0.21687235 0.08075495
0.09484459 -0.17327201 0.014083987
0.16216257 -0.3112767 -0.017034493
0.03550382 -0.2573068 -0.03417073
-0.16269317 0.1258147 0.037134323
-0.1657601 0.18730034 0.07406939
-0.13595048 0.12617694 0.052120816
-0.032293335 0.075287715 0.037637528
0.22122662 -0.23384115 -0.20798385
0.054585796 -0.05983673 -0.0030893655
0.21395686 -0.11468677 -0.046924315
-0.13146263 0.17245835 0.07238236
-0.18155028 0.13690966 0.030558424
0.10597118 -0.31550825 -0.030391464
0.15758908 -0.26097274 -0.0020496128
-0.27162862 0.28129807 0.063651614
0.07923002 -0.14765252 -0.025029052
0.13854845 -0.28736544 -0.010140218
0.25611615 -0.18769598 -0.061281547
-0.07741082 0.16560069 0.059747025
0.08025033 -0.17247273 -0.01969526
-0.0330002 0.022917027 0.02649931
-0.16686168 0.16736881 0.06302576
0.11377819 -0.18519023 0.020539662
-0.021080514 -0.13314256 -0.10393555
0.11822067 -0.027584746 -0.09631728
-0.09336134 0.20043203 0.06711662
0.005588212 -0.14825773 -0.052963965
0.17946005 -0.21628565 -0.000454733
-0.08359224 0.15633143 0.061778728
-0.016756931 -0.24316965 -0.11658515
0.12773025 -0.19298966 0.017294466
0.18040588 -0.28572568 -0.010109088
-0.03312515 -0.08641592 -0.03316239
0.057962622 -0.31256977 -0.06271327
-0.020104468 0.013899379 0.02377359
-0.2223928 0.3403041 0.02160246
0.01542169 -0.14054893 -0.039795496
0.027735796 -0.2062612 -0.020540671
0.028059894 -0.1689164 -0.052604232
-0.04550563 -0.034204975 -0.0025199964
-0.029185627 -0.114522286 -0.06297718
0.093521245 0.0070990585 -0.10361551
0.28587684 -0.20163731 -0.10204722
0.026468294 -0.2906624 -0.084461674
0.15727082 -0.32557523 -0.03306236
0.2710563 -0.22208725 -0.1590292
-0.042910233 -0.08909707 -0.051605087
0.21392085 -0.2517629 -0.015688196
0.047798462 0.02466116 -0.003978923
0.040094823 -0.001192057 0.004933105
0.023972852 0.07354273 0.002980385
0.122195266 -0.3101005 -0.022596922
-0.07434718 -0.019739266 -0.011452395
0.08996079 -0.1266774 -0.020979218
-0.12200587 0.26478314 0.07918592
-0.26021674 0.32621843 -0.0127632525
-0.14865491 0.29816353 0.092446424
0.11567195 -0.31697834 -0.027611427
-0.17638347 0.108458474 -0.0054123676
0.089916766 -0.20963004 0.013608973
-0.16784757 0.3721003 0.033340964
-0.13202569 0.35134953 0.049016647
-0.21842492 0.21344087 0.06452934
-0.18514854 0.23050852 0.08900406
0.058557477 -0.1472342 -0.025862467
-0.05215968 0.13994619 0.04800001
0.16745897 -0.31735978 -0.026439523
0.028381519 -0.3110438 -0.1252042
-0.054366004 -0.0003196519 0.013666533
0.14509746 -0.23015054 0.006710481
-0.042833913 0.07387739 0.040464964
-0.071549304 0.09283767 0.04778297
-0.013507817 -0.24154612 -0.0923438
-0.23918316 0.26117843 0.085655525
-0.057815295 0.03681669 0.030607536
-0.051265243 -0.011521272 0.008543506
-0.24535024 0.25151324 0.074456386
0.2045445 -0.28337407 -0.01463576
-0.19263107 0.3608752 0.017393325
-0.0890087 0.12088041 0.056199968
0.16789518 -0.12665087 0.0029242304
0.086552 -0.004197693 -0.0357347
-0.054102294 0.23826131 -0.014647592
-0.24542606 0.23823215 0.062842146
0.05996687 -0.054258578 -0.004583496
-0.016063407 0.138184 0.020734938
-0.0012142295 -0.017491976 0.014442622
0.12552767 -0.08200777 -0.04497439
0.08047013 -0.0071819965 -0.025711138
-0.05270114 -0.08258584 -0.06515703
-0.13333513 0.04122064 -0.028261835
0.13717307 -0.33990115 -0.051122237
0.101319626 -0.15887135 -0.019092172
-0.16831149 0.10228819 0.005568284
0.041438177 -0.029446144 0.003816519
0.13638532 -0.31890643 -0.023132147
0.041113734 0.081840806 -0.029152328
-0.121406235 0.215016 0.07947633
-0.013882359 0.17208393 -0.055932127
-0.10836959 0.10655804 0.050653413
-0.011529498 0.06580853 0.028868806
-0.008737425 -0.19596162 -0.1323195
0.09632435 -0.34615877 -0.061933324
0.02789902 -0.024875727 0.008843107
-0.0025009683 -0.03778634 0.008968481
0.066451564 -0.33778173 -0.080364846
0.02506414 -0.18704382 -0.06735234
0.22231512 -0.20562215 -0.023258636
-0.06406707 0.0061819544 0.013414412
-0.1725784 0.24710076 0.09455371
0.17623301 -0.18359563 0.00195382
0.22386238 -0.13393474 -0.048883963
0.2646886 -0.25278187 -0.0682281
-0.019656608 0.16064592 0.013267649
-0.104361415 0.17538352 0.07028936
-0.06370985 0.0719748 0.04137368
0.026512567 -0.21138471 -0.006281609
-0.207914 0.2958766 0.10965395
-0.13578945 0.07419515 0.016675016
-0.06618703 0.23529984 0.032866843
0.13789047 -0.14670578 0.018503765
-0.052887004 0.18902622 0.040046953
-0.19898239 0.27736005 0.104211316
0.0026366776 0.12917596 0.00046746386
0.079519056 -0.12735114 -0.019737301
0.20482206 -0.12315095 -0.030161802
0.0754833 -0.19745022 0.016445179
-0.25682452 0.29833406 0.077474184
0.042254232 0.05341427 -0.008450957
0.16076303 -0.17400427 0.00899453
0.073404394 -0.13872983 -0.022332376
-0.17913422 0.12209369 0.015388082
0.076665394 -0.15081865 -0.026152413
0.102869235 -0.052198038 -0.032577787
-0.2592171 0.27442548 0.08213344
-0.014641086 -0.095555894 -0.026782408
0.13723977 -0.24130413 0.0045320024
0.020984681 -0.29193828 -0.10087458
-0.15206648 0.36951154 0.038820233
0.025954394 -0.27729586 -0.06430614
-0.05124766 0.10541708 0.04657343
0.2003017 -0.06610473 -0.11367174
0.14284827 -0.07400046 -0.07742575
-0.10051457 0.23978359 0.068316415
-0.17666332 0.27626985 0.10213616
0.08191173 0.017393747 -0.04564799
-0.17693494 0.24505182 0.094334126
-0.09283559 0.22489677 0.06499563
-0.04874875 0.16971444 0.042079825
0.057686917 -0.020752242 -0.0042339736
0.10648309 -0.07993891 -0.028619489
-0.06485846 0.23450196 0.031248461
0.07379157 -0.08298395 -0.011607695
-0.095160544 0.2657135 0.055247676
0.01907269 0.005787122 0.014348532
-0.2701006 0.27016422 0.06848557
-0.03036905 0.16732356 0.024490306
0.04783092 -0.15623805 -0.033221837
-0.22854303 0.2010963 0.04279487
-0.17097248 0.3493199 0.08171752
-0.20386559 0.32821664 0.09662672
0.2015559 -0.18831043 -0.011493056
0.0493903 -0.05598779 -0.001007918
0.073184095 0.015071301 -0.028247325
0.10699883 -0.19156335 0.019477429
-0.1462427 0.1460127 0.05905919
-0.14232773 0.073912404 0.009528238
0.06591069 -0.30643326 -0.050141007
0.19671814 -0.11095893 -0.026223931
-0.034847923 0.08799967 0.039534997
-0.15294722 0.12002459 0.039745726
0.19398107 -0.11524345 -0.021041984
-0.022823345 0.0026710636 0.020531781
0.16915357 -0.22784223 0.0020776768
-0.004388674 -0.15691938 -0.08750215
0.10601661 -0.29734933 -0.020832913
0.1995543 -0.13397785 -0.020355329
0.19165307 -0.16736013 -0.007641514
-0.23866896 0.20705104 0.031136554
0.05972286 -0.065365255 -0.005319233
0.045373753 -0.23428038 -0.010362856
-0.1263764 0.1434294 0.06307009
0.008857086 -0.16415647 -0.069522336
0.06756555 -0.090392984 -0.010255566
0.0015408011 -0.012432395 0.015410245
0.1040337 -0.10170527 -0.024788102
-0.19729686 0.14462814 0.015526082
-0.032197084 -0.031478383 0.004960948
0.085253805 -0.016975868 -0.027116232
0.019278603 -0.004624154 0.013503945
-0.2372487 0.30758852 0.09248975
-0.11350808 0.25506428 0.0748692
0.09230308 -0.044553917 -0.024631156
0.13056695 -0.10520882 -0.041987643
-0.14353003 0.097104385 0.028817004
-0.24964903 0.25579688 0.07464852
0.28023738 -0.21558255 -0.07888061
0.10609603 -0.34130058 -0.047922112
-0.011781213 0.045197017 0.028195085
-0.13708618 0.364903 0.01418944
-0.19473486 0.28763762 0.106613465
-0.14604507 0.08547254 0.017236335
0.15608835 -0.14609958 0.011222276
0.17960458 -0.07946658 -0.11385751
-0.105084166 0.05823932 0.025356058
-0.10264417 0.26013145 0.06508858
-0.011597884 -0.2479516 -0.14785358
-0.115385294 0.07693795 0.032127973
0.026433483 -0.0015357784 0.011173077
-0.2645204 0.31417367 0.01770639
-0.07072128 0.23897694 0.03763284
0.11677821 -0.23133227 0.0074705463
-0.22870338 0.21637344 0.058807753
-0.13949431 0.22884059 0.086635716
0.002945953 0.051914416 0.022284238
0.1381882 -0.18966909 0.015200469
0.012422942 0.07964481 0.01242286
0.17095408 -0.0752209 -0.14630382
-0.02114078 0.10097341 0.032675754
0.21750753 -0.0839521 -0.14792624
-0.14426862 0.21883719 0.0851948
0.08794476 -0.040265076 -0.021746188
0.23030505 -0.13933928 -0.05496479
0.0279938 -0.16055802 -0.046163294
0.2225007 -0.24661371 -0.019936599
-0.16647556 0.24529183 0.09369939
0.10079452 -0.113997 -0.023625134
0.0077329837 -0.14707847 -0.05046976
0.26783848 -0.22142823 -0.059189245
0.13532881 -0.18999025 -0.11215928
-0.19683212 0.32411763 0.1006094
0.0984712 -0.08457672 -0.02322709
-0.04050599 0.15586515 0.038565554
-0.027638596 0.14427412 0.030230979
0.05465612 -0.124070406 -0.01777579
0.27603325 -0.22874175 -0.071059436
0.06758795 -0.13194609 -0.020330865
-0.049922295 0.20992936 0.025440155
-0.11285508 0.065325215 0.025842478
-0.108455405 0.23522493 0.07366287
0.2336221 -0.270899 -0.07821117
-0.114849 0.17464682 0.07172848
0.09425333 -0.2511715 -0.0022922708
-0.06982336 -0.049658135 -0.040611982
-0.01661411 -0.13585305 -0.075574584
-0.14410754 0.32029682 0.085439995
-6.0675633e-05 -0.06414568 -0.0016639419
0.13672724 -0.3054942 -0.01769485
0.20315216 -0.10770427 -0.035319746
0.1429252 -0.13210325 -0.018832812
0.016784333 -0.28479332 -0.09718657
0.1647246 -0.22925822 0.0029642747
0.084263094 -0.13169411 -0.021193095
-0.0053551323 -0.0071885935 0.017250003
-0.14787407 0.37131122 0.025028849
0.18126096 -0.08481883 -0.09269753
-0.07186129 0.2662225 0.0047490867
0.17858063 -0.1071833 -0.024777029
-0.21812569 0.1822722 0.033706173
0.1940847 -0.16193919 -0.010054124
0.14954907 -0.15508924 0.014331583
-0.012683705 -0.11679164 -0.041842252
-0.12072167 0.03431668 -0.009570804
0.032012228 -0.25641227 -0.036220483
-0.10394202 0.22537358 0.07186834
-0.2177351 0.17065233 0.010395606
-0.13420723 0.2852502 0.084755145
-0.0042469683 0.043365587 0.02539037
0.1825734 -0.07355543 -0.12698434
-0.18747379 0.18025452 0.06068525
-0.18212768 0.16367714 0.052359052
-0.0337544 0.11583384 0.03914465
-0.07973531 0.26315004 0.0337825
0.0448046 -0.065916255 -0.0015757458
-0.1478901 0.36051288 0.059025764
-0.04742691 -0.022089148 0.005062048
0.2435476 -0.17263784 -0.053001128
0.08720837 -0.16977869 -0.013714895
-0.26989424 0.28339535 0.06570323
-0.18745783 0.22567104 0.086398855
-0.06341848 -0.058808953 -0.042802602
0.0010218527 -0.17738447 -0.17265572
0.106849626 -0.20172352 0.016791852
-0.10380781 0.22003956 0.07203817
-0.0102413595 -0.08974457 -0.019581724
-0.019945888 0.07889947 0.03280869
0.04962731 -0.044899303 -0.00022795088
0.21608756 -0.14987971 -0.031151399
-0.14615656 0.17426087 0.07246818
0.08102328 -0.060855996 -0.014662542
0.07967788 -0.11707175 -0.017348725
0.2431093 -0.222633 -0.03532341
-0.042212952 0.22060962 -0.012003983
-0.1664025 0.10165094 0.008198761
-0.22904116 0.25660214 0.0880328
-0.13355514 0.31227058 0.07820702
-0.19764262 0.35149598 0.037581585
0.0124431085 0.123439305 -0.012145318
-0.11375671 0.057095394 0.01946272
-0.020896656 -0.038281478 0.0051697083
-0.05113718 0.13077909 0.047383133
0.13904847 -0.12381891 -0.03938862
0.027680412 0.025785482 0.00979221
0.12787046 -0.23297153 0.007328841
0.105655074 -0.07659356 -0.028371492
-0.21476313 0.34326342 0.028144283
-0.16561611 0.31224498 0.100958474
0.20216022 -0.26579705 -0.0118333185
-0.08456964 0.045594316 0.027414484
0.22283155 -0.19316618 -0.025366597
-0.1685868 0.23682389 0.09165723
-0.03221831 -0.11325936 -0.07319583
-0.022953577 -0.007661727 0.01817222
0.07005553 -0.074812315 -0.009678995
0.16555613 -0.107895456 -0.050232485
0.13668422 -0.28549734 -0.22021873
0.07618591 -0.3335597 -0.06492367
0.17792943 -0.2804793 -0.008590363
-0.10779372 0.31911594 -0.0034322299
-0.2533735 0.30854958 0.060025748
-0.1978265 0.21770282 0.07889918
-0.24470122 0.31600493 0.05398971
0.20503965 -0.23148172 -0.011448239
-0.09585254 0.15451856 0.06505345
-0.24810763 0.32274136 0.024536682
0.060861476 -0.15448596 -0.028549135
0.24657957 -0.23272952 -0.03605876
-0.21119015 0.19595313 0.056228224
0.19051926 -0.2792287 -0.010587906
-0.05362586 0.04265311 0.0333362
0.016502518 -0.2922365 -0.15703289
-0.12552658 0.06304563 0.015502574
0.15753993 -0.32970104 -0.040476773
0.020730086 0.096241966 -0.0039148456
-0.016269492 -0.014161915 0.016051244
-0.12366542 0.28866583 0.0759622
0.05548982 -0.21812233 0.0034513297
-0.0070600957 0.0059629595 0.020751437
-0.019948008 0.1404597 0.023840718
0.05876198 -0.1275755 -0.019224877
0.115550496 -0.09998826 -0.032466855
0.020292744 0.053355023 0.011729893
0.034450512 0.101860926 -0.04366969
0.0057847775 -0.07846132 -0.006844419
