# .PCD v0.7 - Point Cloud Data file format
VERSION 0.7
FIELDS x y z
SIZE 4 4 4
TYPE F F F
COUNT 1 1 1
WIDTH 1000
HEIGHT 1
VIEWPOINT 0 0 0 1 0 0 0
POINTS 1000
DATA ascii
0.11405143 -0.113653354 0.13858062
0.32414606 -0.118057586 0.0443806
-0.31304723 0.1539725 -0.09553037
-0.1652518 -0.047064453 0.11849083
0.2900936 -0.15056093 0.17555512
0.13056424 -0.082615055 0.16828416
0.05309233 -0.09820893 0.14106977
-0.13721079 0.08445076 -0.20043899
0.08541998 0.10186145 -0.37666208
-0.15311784 0.112852775 -0.21726662
0.12191058 0.074953206 -0.11878351
0.13399374 -0.020583404 0.17753193
0.1409207 0.06911654 -0.33966678
-0.10836388 -0.0614368 0.13314012
0.11990387 -0.030417658 0.17445457
0.03195801 0.07776155 -0.23522507
0.19276942 0.057660624 0.14120743
0.29782173 -0.14779916 0.21310993
-0.090106465 0.08273 -0.2401244
-0.052603576 -0.123527095 -0.27137828
0.22954312 -0.07134416 0.18542357
-0.3123159 -0.016519733 -0.024478216
-0.31065837 0.017768754 -0.015156465
0.0562224 -0.099941805 0.13956395
-0.16170932 0.116204575 -0.21590362
0.18720393 -0.12287079 0.04387069
-0.067313574 -0.11613404 -0.016563086
0.16404754 0.0742748 -0.31642908
-0.12840661 -0.070226416 0.120106965
0.06062349 0.070383295 -0.20562547
-0.24926412 -0.038672492 0.060447574
-0.19812503 -0.04501866 0.10036642
0.0017370785 -0.059060875 0.15459357
-0.28541037 -0.025764544 0.021054769
0.30919984 -0.12619834 0.15368474
-0.12246527 -0.08369968 0.105697274
-0.127369 0.11654905 -0.250275
-0.06560707 0.025837814 0.15445966
0.17592303 -0.028341848 0.18259917
-0.28188244 0.06716801 0.031385705
0.10537278 -0.07726153 0.16608387
0.3467652 0.067802645 0.051141314
0.3209314 0.009632763 0.19631138
-0.28492692 0.092104375 -0.25629485
-0.12223198 -0.14295664 -0.030679667
-0.08734209 -0.0897378 0.10995536
-0.18637773 0.16530542 -0.3504533
-0.02168002 0.039963532 0.15646046
-0.111228816 -0.1337777 -0.02471367
0.025994452 -0.12240138 -0.22155626
0.18965653 -0.026914243 0.18469715
-0.33586463 -0.00532463 -0.12851445
0.057723526 -0.15690607 -0.10312739
-0.25530764 -0.038226176 0.053775713
-0.10298611 0.14862554 -0.3918038
0.29802683 -0.17092179 0.19705969
-0.29196241 0.07910548 0.015463324
-0.3054134 0.11537909 0.018953005
0.18211298 0.09051448 -0.29472303
-0.14892834 0.10435848 0.14505413
0.23826751 0.078470945 -0.028720506
-0.24881619 -0.036037832 0.06231146
-0.32215428 0.1255012 -0.07162819
-0.25559422 0.16811548 -0.2804326
0.23302782 0.058246274 0.12994644
-0.19330889 -0.07932586 0.05574317
0.13735053 0.0035732682 0.1783624
0.22808011 0.0042135436 0.18769565
-0.00094522553 0.011391727 0.16199943
-0.08086556 -0.07668326 0.12992106
0.16874881 0.0075704646 0.18139987
-0.17627141 0.111403994 -0.3680869
-0.068694554 -0.08206158 0.12664688
-0.108673654 -0.048353605 -0.24244703
0.08796712 -0.09427952 0.15405294
0.052351788 0.09824851 -0.25622863
0.2980997 -0.028637059 0.021041753
-0.058027968 0.10445059 -0.4054837
0.07924215 -0.045348544 0.16705985
-0.120829456 0.0034094194 0.14215785
0.099395454 0.05739705 0.14716648
0.091761656 0.034830686 0.16429
0.16395912 0.036102533 0.16698454
-0.22194165 0.08167774 0.09541425
0.34124377 0.07486924 0.101511344
-0.034307286 -0.14336124 -0.019801548
-0.29984462 0.14239264 -0.015231066
-0.14686824 0.06816123 0.13839406
0.18876205 0.027021894 0.17476994
-0.2321663 0.10292842 0.08763823
-0.27285206 -0.030006928 -0.26666856
0.13360268 0.120234445 -0.34363633
-0.2985228 -0.047782574 -0.09702298
0.018272385 -0.107027896 -0.046273537
0.3181097 0.054732114 0.17809504
-0.09340994 0.052859128 0.1535166
0.24051103 0.08601835 -0.040722515
0.21625754 -0.08413228 0.18213294
-0.22499347 -0.05840055 0.067079544
0.24467316 -0.015071032 0.19303381
-0.2728415 0.116028786 0.042790603
-0.2963336 -0.04843373 -0.10654894
-0.06542163 0.01164444 0.1529173
0.2181965 -0.021618007 0.18931486
-0.28495204 -0.038311698 0.00948508
0.14503515 -0.12340006 0.07891003
0.21200307 -0.013701299 0.1893146
0.084472425 -0.07524571 0.16313289
-0.3056069 0.1484459 -0.1213087
-0.08792431 -0.09020234 -0.2585345
-0.14179392 0.10594519 -0.21744953
-0.09778452 -0.085522555 0.11335151
-0.10832722 -0.14642857 -0.025126092
0.21447247 0.0016784228 0.18716395
-0.102710605 -0.06525532 -0.24866232
-0.24810125 0.16047361 -0.2936575
0.059021346 -0.15011807 -0.1581041
-0.0086535895 -0.121083066 -0.25238147
-0.139698 0.066008076 -0.18592854
-0.33481336 -0.0031222065 -0.096424066
0.2865912 -0.14207198 0.21148223
-0.3055095 0.15238872 -0.15069729
0.07518808 -0.044719256 0.16655625
0.03309854 -0.038592238 0.16128634
-0.15362032 -0.1057317 -0.20984896
0.017246261 -0.0386414 0.15904139
-0.20168309 -0.04484059 0.09786608
-0.125574 0.024290603 0.14275105
-0.19023083 -0.055280086 0.09949558
-0.07514093 -0.008241487 0.14934663
0.1755413 -0.084198184 0.1759136
-0.21053296 -0.07242254 0.055808686
-0.13296624 0.112172216 -0.38857794
-0.16699634 0.0068369983 0.12571335
0.18337594 0.015059518 0.18017052
-0.24148525 0.014484161 0.07707261
-0.22099428 0.07232203 0.09591199
0.15257181 0.095853046 -0.32861245
-0.25410348 0.023761539 0.06510213
-0.021220224 0.034099538 -0.24519506
-0.21549973 0.13364233 -0.33489525
0.17565337 0.066560335 0.11635853
0.07751022 0.053890403 -0.1146844
0.11397087 0.042034883 0.16123822
-0.24966536 -0.05765878 -0.092233464
-0.19875723 0.1358303 -0.3482544
0.28343764 -0.111565046 0.18327835
-0.14011948 0.11544629 -0.23728824
0.28859442 -0.1230533 0.1771801
-0.1741929 -0.11065484 -0.07082456
-0.33314574 -0.0041266396 -0.088251725
0.054974843 -0.114742786 -0.080957845
-0.072075315 0.08640535 -0.24910939
0.24594396 0.049376473 -0.1977552
0.018779568 0.1445945 -0.39575085
-0.10412573 0.042164195 0.1500504
0.03730555 -0.06281796 0.15920398
-0.08633975 -0.013575475 0.14717509
0.004303154 0.11697065 -0.40138072
-0.08216334 0.03656671 -0.23978044
0.19112034 0.07121183 0.076096095
0.13503581 0.07311294 0.10537849
-0.096642494 0.118858166 -0.27717543
0.22231647 -0.12508817 0.04235055
0.015545117 -0.09780423 -0.045277707
0.20075434 -0.09498207 -0.075550295
-0.3109944 0.046608083 -0.019888593
0.24659684 -0.1379795 0.10571634
-0.18745208 0.11418974 0.11015762
-0.2071424 -0.013985844 0.1011548
-0.06850275 -0.06499397 0.13944387
0.22938506 0.033978127 -0.16630408
-0.0047411076 -0.0046609566 0.1596895
0.097536094 -0.106859446 -0.010738041
-0.05901646 0.13663417 -0.40094778
-0.1424678 -0.111920565 -0.22776859
0.055133604 0.07164385 0.14642382
-0.25664845 -0.017039783 0.06083375
-0.21492252 0.044730693 0.09990319
-0.29415774 0.045699682 0.013683282
0.2879999 -0.118362665 0.071159534
-0.046087414 0.036946293 -0.24715905
0.10364686 0.09809627 -0.36595032
-0.31562692 0.14419758 -0.05077093
-0.23055314 -0.020656362 0.0849015
-0.30250385 0.109059796 -0.068849616
0.31166092 0.013290778 0.21226685
-0.17013393 -0.10375837 -0.06517924
0.21349116 0.09826145 -0.2414409
-0.026925126 -0.09477068 0.1219964
0.33421946 -0.08396374 -0.0009045172
0.3155289 -0.004053765 0.026220944
0.21469572 0.059231624 0.13281758
0.052043363 -0.04598095 0.16314654
-0.16205917 0.014452431 0.12891269
-0.06584672 -0.078909874 0.13160071
0.08167688 0.057734765 -0.11209483
0.06955171 -0.0929686 0.15099123
0.23953071 0.059101094 -0.04119177
0.06755593 0.07606998 -0.20560408
-0.06744629 -0.07845589 -0.26091927
0.021281019 0.066686764 -0.4031865
-0.13870743 0.08344788 -0.19778495
-0.24174203 0.15180968 -0.30361336
-0.32609987 -0.013275692 -0.06714046
0.29934782 -0.049037915 0.22389655
-0.055216193 -0.063845545 0.14244738
-0.30118915 0.038356856 0.0011319
0.33988115 0.03254554 0.07022183
0.2963624 -0.08988782 0.21930256
-0.15460736 -0.07633154 0.09981193
0.14210548 -0.12374362 0.08419752
-0.10279784 -0.021597046 0.14396316
-0.13451666 -0.13954473 -0.07268508
0.30157593 -0.105797604 0.21828128
0.28849378 -0.10993912 0.046814494
-0.055747963 -0.055602636 -0.25888225
-0.18988954 0.06711816 0.11739376
-0.045315202 0.13069892 -0.40272474
0.3063411 -0.15080775 0.15171885
-0.13966376 0.05584196 0.14067708
-0.05501177 0.05451757 -0.24516083
-0.2548557 -0.0466562 -0.17331783
-0.11301409 0.0766681 -0.22226891
-0.13630377 0.10553311 -0.38840488
0.30587286 -0.09128144 0.027864626
-0.2005491 -0.014373759 -0.1700312
0.11045947 0.08390161 -0.18400964
-0.31261823 0.08665378 -0.16008744
0.12703016 0.0034893265 0.17735398
0.03464385 0.0015058987 0.16593534
-0.26831096 -0.036461014 -0.24489582
-0.31182313 -0.02856611 -0.03795879
-0.09847694 -0.063289225 0.13466115
0.33270842 -0.034659795 0.025295181
-0.21779022 0.0662535 0.09838935
-0.12215764 -0.08197163 0.10806608
-0.3009273 0.13678138 -0.0071539776
-0.1831821 0.06610998 0.12145881
0.14780812 0.07560781 -0.33339936
-0.15498857 0.024702463 0.13230212
-0.19802581 0.04635493 0.111168735
0.099158086 0.07797578 0.12910338
-0.05485118 -0.13001087 -0.015340166
0.0433822 0.087851934 -0.3943672
0.058380082 -0.08009279 -0.088593535
-0.05349319 -0.08318505 0.12971659
-0.2912419 0.12955272 0.028091513
0.3361681 0.04950561 0.11620958
-0.09954188 -0.09854674 -0.25597274
0.24309395 -0.12825756 0.15717398
-0.16666909 -0.11307372 -0.25452086
-0.104226716 0.05156465 0.15088673
0.085728966 0.14634748 -0.39507142
0.14687963 -0.09747247 -0.124515176
0.3422769 -0.020579798 -0.0012971709
0.05101606 0.035688687 0.16200121
0.061237875 -0.06839605 0.1619691
-0.06365764 0.037630524 0.1560376
-0.17634462 -0.08114022 0.024820944
-0.22110954 -0.034715783 0.08836496
0.3339116 0.079469405 0.086776495
0.27588046 -0.14279945 0.13196167
-0.17721526 0.004906775 0.12011451
0.14915001 0.007063881 0.17941739
-0.061088428 0.032096762 -0.24598412
-0.07410228 -0.096026994 0.1003096
0.32419667 -0.13327448 0.028887032
-0.04318012 0.079296485 0.16191001
-0.20382869 -0.038902044 0.099193506
0.18945171 -0.050127897 0.18210325
-0.1803274 0.030541945 0.120482266
-0.008540936 -0.12690756 -0.2831058
0.2610403 -0.13770644 0.09091708
-0.30208763 -0.045554798 -0.10569578
0.12308593 0.0772774 -0.13657567
-0.26670364 0.018782696 0.051026322
0.15757954 -0.119863816 0.044260498
0.22827066 0.08911088 -0.19686614
-0.0892599 0.086907186 0.15768796
-0.014000409 0.14872159 -0.39982456
0.31793278 0.028616043 0.20334132
-0.15393296 -0.1376874 -0.070434585
-0.116276585 0.020071328 0.1450445
-0.038480878 0.06842693 0.16060115
0.33243072 -0.09073559 0.006425823
0.09076719 0.08535687 -0.20484993
0.23481944 0.09589919 -0.17267756
0.23939708 0.1080062 -0.2141473
-0.08840004 0.11546064 -0.40036017
0.29744726 -0.17702486 0.19555552
0.19617087 0.1041472 -0.2744103
0.1706322 0.10608542 -0.30869725
0.0468524 0.033800285 -0.3978218
0.20958528 0.119313985 -0.27776086
-0.28293645 -0.055009328 -0.080666706
0.08566996 -0.006382457 0.17227365
-0.19247778 0.1257258 -0.35490587
0.29977527 -0.1497862 0.20429705
0.23504217 0.036211018 0.16897568
-0.18127626 -0.06326793 0.09908942
0.33336762 -0.052010387 0.02557142
-0.113761745 0.08145068 0.15134975
0.0029468723 -0.12896161 -0.24469411
-0.031849682 -0.028152538 0.15326324
-0.22656755 0.054362033 0.0907188
0.09610802 0.06322447 -0.03747141
-0.13140191 -0.087598875 -0.23446506
0.28009352 -0.07722414 0.019559292
0.16040602 0.13306126 -0.3437849
-0.30608562 0.112042904 -0.18509136
-0.16276148 0.095547654 -0.034110896
-0.23210533 0.09726274 0.087442905
0.1032931 -0.067963526 0.16795912
0.14896522 -0.105032355 0.0065817726
-0.07688801 0.09424235 0.16042396
-0.32873714 0.08557229 -0.085025065
0.26557893 -0.104986206 0.18301001
0.21579696 0.063680835 0.105651945
-0.0054819332 0.023037974 0.15988067
-0.12864268 0.028930591 -0.2079711
-0.30987287 0.13993977 -0.029396597
0.013194421 -0.033551008 0.15903117
-0.076974764 0.017494787 0.15193123
0.2438054 -0.0991317 0.18167764
0.2595365 -0.008056619 0.19334345
-0.12943158 0.08125022 -0.39474627
-0.21159683 -0.076506995 0.032638993
-0.0048041744 -0.028842103 0.15700823
-0.111619174 -0.14519185 -0.04792206
0.24141659 -0.13727058 0.104624964
-0.22500765 -0.032474913 0.086172864
0.07082603 0.06305599 -0.18155274
-0.14218001 -0.07091199 0.11334212
-0.052107695 0.05605924 -0.2449704
0.033983715 -0.064542726 0.15854377
-0.18526205 -0.052380964 0.10475078
-0.06150452 -0.064071745 0.1411731
0.009258142 0.01743519 0.16222201
0.32438064 -0.05410232 0.024474248
-0.114671625 0.018965667 0.14540495
0.247506 -0.025787901 0.19299547
0.046274513 0.013631506 -0.39981997
0.010152733 0.08320561 0.14985013
-0.2649358 -0.04374303 -0.19431445
-0.1516159 -0.13632478 -0.08326828
0.3253022 -0.10856354 0.044721138
0.07200255 0.03316876 0.16449033
0.009120154 0.069685705 0.17151813
-0.14712454 0.010831066 0.13389367
0.029218763 0.06860537 0.009054839
0.31341755 -0.0372268 0.02225703
0.3036196 -0.051892858 0.22438693
-0.12997058 -0.06447169 0.1248325
-0.047297724 -0.09090347 0.12104877
0.11932859 -0.122164406 0.1201263
0.19427209 0.0014972952 0.18517774
0.2321903 -0.10480015 0.17688748
-0.16759743 -0.11933392 -0.20405765
-0.23813474 -0.01905458 0.07851455
-0.28593364 -0.05379269 -0.082599476
-0.2720485 -0.051260952 -0.12846214
0.28111863 -0.1257614 0.17188951
0.025506955 0.108278945 -0.3981341
0.2836887 -0.061825868 0.19412555
-0.082234666 0.00272747 0.14955643
0.21494657 0.103744 -0.23883522
0.19353823 0.065238684 0.11276449
-0.043677792 7.0519905e-05 0.1547105
-0.006906032 -0.057206824 0.15357755
-0.30674455 0.1385879 0.017870888
0.2635989 -0.12121027 0.17298745
-0.17911966 -0.06701573 0.09563148
-0.0459472 0.15859939 -0.39880106
0.18167347 0.022273654 0.17666523
-0.19083686 0.17217268 -0.34678108
-0.22246496 -0.016703082 0.09154154
0.24503952 -0.105363294 0.17901552
-0.25047985 0.16210419 -0.28987557
-0.29792047 0.10022495 0.0015803585
-0.16920525 0.11427557 -0.37181267
0.25378236 0.045673206 0.15692206
-0.25352058 -0.013093868 0.06494918
0.2326887 0.08488174 -0.17876664
0.2384169 0.10204224 -0.16598696
0.3059192 -0.004552567 0.21966428
-0.22816782 0.13344888 -0.32359824
0.23342106 -0.057266433 0.18752736
0.109079726 0.08538611 -0.19206388
-0.3297962 0.16340923 -0.15572983
0.08034603 0.006212138 0.17170857
-0.2441812 0.11532457 -0.31013322
-0.14841612 0.050580367 0.136876
-0.15247008 0.043089926 0.13474236
0.21460395 -0.1350318 0.110824525
0.075794205 -0.050151657 0.16604155
-0.15372081 0.094258524 0.14777344
-0.13998455 -0.0976261 -0.045517668
-0.05174233 0.08949221 0.16317812
-0.13628887 0.15430962 -0.3795037
-0.25258052 0.13242911 -0.29575506
0.21576327 -0.13408887 0.13313587
0.1084664 0.14354087 -0.38147563
0.21552493 0.10001647 -0.23717305
0.29548785 -0.1435736 0.21324714
0.1591438 0.1279939 -0.32177213
-0.09955747 0.15772691 -0.3913044
-0.017401354 -0.11200081 -0.25627917
0.03607816 0.070617504 0.15225448
0.0060978783 -0.067353375 -0.23956199
-0.16515884 0.11018886 0.12239183
0.050003145 0.028873652 -0.39722076
0.015664736 -0.07332976 -0.04222572
-0.327095 0.030799428 -0.061512053
-0.006863645 -0.13297169 -0.025940945
0.25261906 -0.0718335 0.18863018
-0.13451658 -0.056608666 -0.22336394
0.061091892 0.10210203 -0.38702667
0.188463 -0.06704896 0.18009403
-0.17620674 -0.044127766 0.11427819
-0.09774245 -0.14711429 -0.044812713
-0.32840732 0.094377585 -0.088374056
0.23233826 0.0830491 -0.07669893
0.16067697 -0.053386662 0.17767774
-0.17965606 -0.046099503 0.111505255
0.1981054 -0.022634648 0.18636402
-0.2415957 0.111321874 0.07913854
-0.049561575 -0.03374356 0.15014273
0.2308385 -0.09258817 0.18230295
0.26988626 0.0007870263 0.1923457
0.22426412 -0.07955734 -0.12648582
-0.28810078 -0.024806555 0.017207114
-0.103176326 0.043893654 0.15043485
-0.12381057 0.041229215 0.1448566
0.08098099 -0.098660916 0.14899293
0.14199558 0.0117615955 0.17782156
0.08522165 -0.013556542 -0.20388289
0.07921637 -0.0956165 0.1512152
-0.246818 0.14550033 -0.2991006
0.09559961 -0.026225306 -0.16772044
-0.20918787 -0.007092015 0.10023489
-0.13484123 0.09890753 0.14613225
-0.037240256 0.060820874 -0.24630031
-0.28588963 -0.0032765265 0.027252296
-0.31010148 0.053787492 -0.20009214
0.1534775 0.052796368 0.1514836
-0.2118131 -0.027968481 -0.17041208
-0.12807493 0.009283114 0.14061426
-0.021213429 0.08415857 -0.40769777
-0.21050496 -0.037958845 0.09484889
0.30814216 -0.044855595 0.2251387
0.013775597 0.045913085 -0.2303661
-0.2874277 -0.0048236386 0.024812289
-0.14708214 -0.041307885 -0.060536057
0.2380672 -0.13382293 0.08020984
0.3129903 0.028285367 0.20333038
0.04332885 -0.123937875 -0.061061103
-0.057495482 -0.0035919321 0.15235366
0.1809633 0.12841155 -0.32488558
0.1858564 -0.067757994 0.1796473
-0.115989216 0.08463624 0.15111051
-0.010152891 -0.093088955 0.12897149
0.013646368 -0.09731121 0.13045375
0.31599608 -0.13286208 0.093699
0.011885959 0.06841803 -0.40478322
0.03512699 -0.15633033 -0.08792949
0.19362257 -0.09939351 -0.10009157
-0.24659263 -0.06794911 1.9845987e-05
0.29612887 -0.18056339 0.2023033
-0.070155375 -0.010946128 0.14975221
-0.14275388 0.10909456 -0.22209196
-0.058370735 0.109659694 -0.2749901
0.00066584826 0.017206026 0.16125643
-0.08653312 0.09397489 -0.24750026
0.23026286 0.07623272 -0.010049776
-0.30329862 0.15211575 -0.09338924
0.11064583 -0.104357556 0.1499957
0.15758365 -0.033110667 0.17948116
0.013702982 -0.039669942 0.1584267
0.21725918 0.03707255 0.16814506
-0.0998019 -0.064481206 -0.24993758
0.16318512 0.07832925 0.08512294
0.2666888 0.02329083 0.17979677
-0.055466887 0.006286857 0.15373205
0.17028116 -0.10481025 0.16444094
-0.23907977 0.09003967 0.08124731
0.28211802 -0.00435811 0.19495204
0.10378978 0.045093346 0.1583355
0.14013466 -0.082002744 0.17034826
-0.3157344 0.05025339 -0.031087425
-0.09803703 0.060851038 0.15321195
-0.09753896 -0.13642876 -0.020976994
-0.30859828 0.11174464 -0.16676444
-0.1271892 0.029912513 -0.21064621
0.15325782 -0.1237602 0.07457608
0.16772316 -0.10879945 0.16107212
0.30902892 -0.10381492 0.037848808
-0.21252689 -0.060441166 0.07663261
0.09568602 -0.041956328 0.169758
0.17089391 0.09987596 -0.30837944
0.123801395 -0.080800965 -0.17862944
-0.30025998 0.020272719 0.0039618434
0.015773162 0.07920137 -0.24312863
-0.082790405 0.076644674 0.15764506
-0.08027739 0.092896715 -0.25025097
0.048283104 -0.015754879 0.16595544
-0.09201214 0.07228699 0.02391734
-0.040294122 0.110267825 -0.40590298
0.07516753 -0.1454743 -0.12200922
-0.08224708 -0.1175496 -0.016985899
-0.14276806 0.07868463 0.1415878
0.024764962 -0.110782556 0.08402902
0.2664214 -0.052863244 0.014526147
0.027691742 0.04259219 0.15669961
0.024703192 0.039241184 0.1586375
0.22856486 0.08428467 -0.016521681
-0.0114259645 0.15389608 -0.39901367
0.20724805 -0.091416076 -0.13419677
-0.0075574676 0.030596 0.15831588
-0.13594685 -0.08660935 0.09116134
-0.077392146 0.13577652 -0.3989232
-0.31777987 0.13107798 -0.055039644
0.22355938 -0.024399817 0.18976524
-0.14697841 0.12580751 -0.38027036
-0.05257606 0.09259187 -0.25807664
0.20703568 -0.086664625 0.1805505
-0.1439029 0.15019017 -0.37709495
-0.26645085 0.040675145 0.051243477
-0.10469354 0.10558085 -0.24796332
0.11295701 -0.07193743 -0.19300103
-0.07428623 -0.13435185 -0.01676697
0.11753762 -0.11416664 0.03548595
-0.21525306 0.11835956 0.10140098
-0.19266096 0.07415411 0.11617005
-0.20258382 -0.10034124 -0.1662261
0.19233865 -0.1298382 0.08860138
0.006379969 0.0754232 0.17006803
0.078301266 -0.13042594 -0.12500218
0.11186763 -0.0037211725 0.1762693
-0.15787049 -0.012086723 0.12813215
-0.120597854 0.042246196 0.14588192
0.1547273 -0.09653735 0.16631739
0.30030534 -0.17053755 0.107313946
0.12525114 -0.09418391 0.1619282
0.060169563 0.04077793 -0.39322487
0.085813485 0.04996247 0.15429322
-0.07877147 -0.14410514 -0.01847884
0.20965543 0.056052897 0.14190021
-0.17795824 0.042374413 0.12263632
-0.036642037 -0.081843995 0.1358529
-0.04750568 -0.09369725 0.117432125
-0.15828532 -0.132022 -0.1115649
-0.18689464 0.11363812 0.11404564
-0.16129853 0.05933031 0.13239774
-0.08081218 -0.15190855 -0.021593226
-0.3172554 0.05415542 -0.03620092
-0.23967047 -0.06761827 0.024310006
-0.1548039 0.06968361 0.13676842
0.14525327 0.06488369 -0.33596334
0.23805292 0.06624362 0.0634491
-0.3169117 -0.026272165 -0.17848825
-0.1365529 0.10193676 0.14579754
-0.117272265 -0.050750524 0.13549754
-0.13484924 -0.13338155 -0.03707104
0.12993154 0.08948862 -0.34770986
-0.25226235 0.12618573 0.06796393
0.11754013 0.14074548 -0.36723953
0.05785696 -0.06946327 0.16086733
0.0753851 -0.073208 0.16238877
-0.3209831 0.039167065 -0.043800984
0.11370664 -0.0736084 0.16880621
-0.040863995 0.04997858 0.15836973
0.17174524 0.034105156 0.16888447
0.0992443 -0.06074812 -0.21106084
0.14922674 0.0925183 -0.3316615
-0.23607215 0.17114346 -0.30546293
-0.0354955 0.012883419 0.15728243
0.022317542 0.06987535 0.17086941
-0.0676849 -0.027599666 -0.2535904
-0.081839345 -0.078930974 0.12706593
0.18545851 -0.087831065 0.17607172
-0.08106989 -0.007847608 0.14855243
0.10591921 0.09680491 -0.3646124
-0.13101149 -0.09120781 0.074011065
0.14323449 -0.105368756 0.012086746
-0.19037865 0.09595684 0.11883945
0.23157878 -0.13065755 0.060777638
0.16479295 -0.12881622 0.1062976
0.22678761 -0.052710544 0.18709347
0.32096124 0.0663678 0.14835767
0.09200143 0.14492615 -0.3780611
-0.036646433 -0.055972107 0.14951172
-0.090027824 -0.02687185 0.14518456
0.12035579 0.0917903 -0.35517135
0.18198591 0.11023901 -0.2948988
0.06600437 0.082108326 0.14292662
0.20136352 0.03660388 0.16759801
-0.24761125 0.0094229905 0.07143619
-0.14001 -0.1273259 -0.039926272
0.10019848 -0.07935386 0.16415107
-0.16976105 0.11137476 0.117010646
-0.040414713 0.11358989 -0.2872179
-0.10581518 -0.04281553 0.14028643
-0.002009028 -0.10792751 0.08936637
0.25786147 -0.106728256 0.1807671
0.15865165 0.072363816 -0.3228895
-0.041933503 -0.030649532 0.15156281
-0.3356652 0.061503917 -0.15037383
0.083707824 -0.059999328 0.16607167
-0.22739474 -0.071875595 -0.0040108706
0.26088297 0.019598981 0.18245685
-0.09836727 -0.11757009 -0.019385092
-0.28301507 0.17144246 -0.26036495
0.26196992 -0.09070076 0.025793487
0.20227677 0.059393432 0.13487919
0.22828089 0.0845022 -0.01799913
0.07135719 -0.08360561 0.15681519
-0.26468292 -0.04967145 -0.1469361
0.22966905 0.047800247 -0.17744432
0.2420966 0.037069537 0.16770123
-0.21727885 0.07186352 0.09898855
-0.26901785 0.14490962 -0.30415365
-0.26419517 -0.03530483 0.044698518
-0.11982063 -0.020675667 0.14018178
0.056264266 0.02556004 -0.39616612
-0.09286362 -0.008424974 0.14682235
0.012949672 -0.013260161 0.16123879
-0.10335277 0.1552591 -0.3906183
-0.08984056 -0.08001459 -0.02682989
0.15355726 -0.022800127 0.18005124
0.0015191062 0.15889376 -0.40970495
0.19059572 -0.119680166 0.03411884
0.2903576 -0.16773583 0.18247807
-0.23423222 -0.012749562 0.08224579
-0.16086268 0.04214085 0.1314545
0.005302534 0.07691317 -0.24484819
-0.05799305 0.069240086 -0.24692489
0.22115526 0.018772678 0.18134706
0.19781214 0.1095805 -0.27216932
-0.24252287 0.12056454 0.07838588
0.17175329 -0.06166473 0.17832808
0.15586221 0.048274316 0.15633477
-0.19219053 0.00032284705 0.11159891
0.150131 -0.115773596 0.03298948
0.08808676 0.077246636 0.1345835
-0.08633031 -0.14354622 -0.019485068
-0.22185278 0.122016184 0.078170344
0.1121171 -0.07556076 -0.25437877
0.25428864 0.0037387535 0.1899953
-0.25304872 0.123851605 0.06697765
-0.026881546 -0.031834632 0.15355834
-0.21513073 -0.0473267 0.086006016
0.29105884 -0.0067940312 0.19643356
-0.05014325 0.014894548 0.15543512
0.16410059 -0.06277845 0.17712334
-0.31823018 -0.014767925 -0.039624505
-0.06390904 0.08718789 0.16147788
0.02949553 -0.05007775 0.1595083
-0.012737482 0.15132968 -0.399419
-0.08917841 0.08097991 -0.23972543
-0.015166973 -0.08134857 0.14085117
0.18386672 0.0828041 -0.2922897
-0.015325155 0.03753577 0.15616591
0.26369062 0.059540074 0.09660395
0.2309408 -0.054019153 0.1875355
-0.11938201 -0.07934592 0.11360017
-0.14644615 -0.06164856 0.119604886
0.3142512 -0.16375893 0.07674782
0.23793472 0.023365026 0.17897214
0.08040777 0.082215786 0.1294762
-0.29514432 0.10422289 0.0066395593
0.07290484 0.030346345 0.16583194
0.32906654 0.06114907 0.16625138
0.26521623 -0.13977267 0.10365372
0.183847 -0.06448755 0.17972457
-0.2771058 0.07376509 0.03817986
0.10542772 0.06801592 0.13214979
0.34347656 -0.017012531 -0.0071793906
0.29017007 -0.088851824 0.025552474
-0.2281171 -0.039645776 -0.21185662
0.06319795 -0.14940386 -0.093911104
-0.17680177 0.0998619 -0.056417856
-0.2957058 0.14220123 -0.20649067
0.20259903 -0.12658341 0.05453614
0.12933277 -0.10812675 0.016333884
-0.03417331 0.08319509 0.16227551
0.19724561 -0.050852798 0.18312457
0.3009146 -0.14064355 0.20441988
-0.1890696 -0.10201659 -0.09568364
-0.11029348 -0.0117245 0.14364773
-0.15947579 -0.061304953 0.1137814
0.2765731 -0.08510676 0.02264609
-0.009900818 0.065420024 0.15907805
0.22484946 0.08541092 -0.022205122
-0.058385286 0.07137197 0.031387135
0.01633028 0.05092532 -0.22985166
0.0027859085 0.07751113 0.16717854
-0.11086351 0.07066218 0.15105313
-0.023389298 -0.002837382 0.15725611
-0.15233304 0.011859999 0.132078
-0.07795243 -0.0009886818 0.14975102
-0.2559216 0.12964492 0.04746199
-0.24414572 0.1156587 0.076701306
0.24210273 0.061543923 0.09959141
-0.17702053 0.14487717 -0.36087406
0.011934466 -0.06643528 -0.23541565
0.016412113 0.077313446 -0.24127539
-0.14257325 0.0356371 -0.18292479
0.13494185 0.016344793 0.17589666
-0.27802038 -0.010348108 0.036970295
0.29767668 -0.047619767 0.218132
0.13954835 -0.108575664 0.15286845
-0.023067025 0.0720583 0.03278151
0.27983516 0.022307696 0.18104506
0.30240506 0.053965688 0.10695472
-0.004389607 -0.0586005 0.15377861
-0.2823289 -0.04178557 -0.19204757
-0.286901 0.023943814 0.024569092
-0.041083094 0.074324675 0.033792656
-0.3173443 0.024745299 -0.031392623
-0.11614988 0.07174373 0.14989215
-0.19154535 -0.10676677 -0.10189019
0.30540618 -0.107207395 0.20231715
-0.13123584 -0.06579 0.1231466
-0.15871222 0.1600353 -0.36850762
0.11057926 -0.06608039 0.1691967
-0.0117383385 0.034627605 0.15742797
-0.28018865 0.08336864 0.03356297
0.030607905 0.08602192 0.14284521
0.014180652 0.12847878 -0.39826456
-0.33833188 0.0054880255 -0.16321607
-0.24356714 0.13162942 -0.30664265
-0.20405883 -0.046266194 -0.078561716
-0.33447954 0.008586272 -0.084174536
-0.3290839 0.16277973 -0.15135987
0.11262821 -0.07114311 -0.18323392
0.19144908 -0.12114806 0.15134276
0.2623549 -0.10496349 0.040477425
0.29680324 -0.132783 0.21462525
-0.11915744 0.07942662 -0.21769382
0.24538976 0.045474775 -0.0692883
-0.06714562 0.0890713 0.16122882
-0.093718916 -0.049594764 0.14163306
0.14107001 -0.08869344 -0.18229544
-0.29779544 0.0608402 -0.23856908
0.10468634 -0.07177672 -0.29525647
0.15077393 -0.10280287 -0.08947783
-0.16055615 -0.08542671 -0.06972213
0.1461892 0.080457866 0.08588227
0.021689085 -0.031386223 0.16047083
0.29114002 -0.16440764 0.2103305
0.16050567 0.056901824 0.14588344
-0.22238831 0.09437592 0.09543623
0.28534824 -0.013532301 0.19674961
-0.21810183 0.0008976712 0.09563365
0.2495781 0.03853768 0.16591287
0.22788276 0.06286821 -0.19018471
0.08729624 -0.05847822 0.16674688
0.30526468 -0.1422227 0.16869088
-0.114325926 -0.1167102 -0.27146226
-0.089395285 -0.07767584 0.12653139
-0.12633212 -0.07910042 -0.043501694
-0.3274706 0.10264317 -0.08720388
0.31514996 0.0428489 0.17066285
-0.20316933 0.08659518 0.11000615
0.02979308 0.10271529 -0.39800242
-0.19743101 -0.05980135 0.09088262
0.065509856 0.11943335 -0.38394466
0.33605388 -0.08321967 -0.014572755
-0.22007166 -0.0704496 -0.02115863
-0.014876683 0.08183031 -0.25222266
-0.07807433 -0.14723036 -0.01872557
0.19424291 -0.09736151 -0.061495613
-0.05767314 0.016398748 0.15453742
-0.122596756 -0.03346144 0.1381749
0.017403822 -0.0076710037 0.16248547
0.20757079 -0.049702495 0.18471062
0.11107722 -0.014147282 0.17500515
-0.31992438 0.07273067 -0.04735298
0.29438287 -0.13922268 0.07378074
-0.24756342 0.04384383 0.072083175
-0.09446106 0.029768897 -0.23594387
0.16769484 -0.1045308 0.16407846
-0.2613776 -0.019326624 0.055214256
-0.11132261 -0.06982607 0.12659037
-0.18577644 0.09568083 0.12182043
-0.08570162 -0.13091585 -0.018000511
0.16872665 0.0124956025 0.17999521
0.13670292 -0.07498618 0.17190368
-0.21425278 0.06987352 0.10138545
-0.14500864 0.115293086 -0.23184034
0.3255908 0.060501486 0.10618036
0.017804885 0.04971098 0.13250534
-0.26947722 -0.032760173 0.039384138
0.046512645 0.016468363 0.16656302
-0.092593744 0.08591154 0.15680267
-0.023559568 0.02082565 0.15804699
-0.1325954 -0.004937973 0.13783693
0.16571413 0.120608255 -0.31447053
-0.11818685 -0.1400125 -0.02818581
-0.068917535 0.016742675 0.15298665
0.28588405 -0.11850064 0.179806
0.2518391 -0.10359487 0.18110101
-0.0048337393 0.059761755 -0.24113879
0.07941243 0.06352927 -0.16567586
-0.21786384 0.06574798 0.09831238
0.13335465 0.008619218 0.17735742
0.19380213 -0.017493408 0.18632397
-0.04605513 0.117239766 -0.40454772
0.146097 -0.044411995 0.17660914
0.2624637 0.07599992 -0.077980354
0.00766181 0.15813258 -0.40904024
0.25094792 0.04832854 -0.16951367
-0.0083663305 -0.15300465 -0.028830126
0.090471275 0.14844744 -0.40465295
0.041111022 0.043645144 0.15691425
-0.32535774 0.06534657 -0.06391195
-0.33258483 0.14393714 -0.15312162
0.25280312 -0.0989837 0.18341948
-0.10687648 0.03469066 0.14871047
0.26577935 -0.12409926 0.16954361
0.101026505 0.094257705 -0.36779246
-0.1826108 -0.1243269 -0.15132222
0.29558995 -0.0055883634 0.19651075
-0.10405008 -0.05527422 0.13704291
0.22579877 -0.07229738 0.18478914
0.18972006 -0.12948902 0.08812197
-0.07118133 -0.052569076 0.14471164
0.16082066 0.080563486 0.072247125
0.090496816 -0.030406557 -0.19369061
0.15376337 -0.095494054 -0.14933181
0.09491084 -0.081046276 0.162382
0.04336727 0.010552702 0.16694476
0.115745954 -0.09036816 0.16193093
-0.22764099 0.0918408 0.09098794
-0.0013080084 -0.15715186 -0.049546093
-0.15488738 0.05322459 0.13493837
0.20097923 -0.12951237 0.07845903
-0.03159134 -0.121115014 -0.01899116
-0.18378557 0.08892252 0.12274936
-0.14222418 -0.08919405 0.061343595
-0.15578692 0.037947677 0.13322629
-0.16634536 -0.1182697 -0.062324416
-0.07770633 0.04851951 -0.23947376
-0.1874004 -0.02960867 0.11226101
-0.03939639 -0.004421736 0.15481916
-0.17656821 -0.12472433 -0.074526265
-0.31339127 0.075457856 -0.12153751
-0.30445924 0.14620528 -0.09991415
0.0020844848 -0.07607153 0.14742929
-0.08095441 0.06567071 0.15669215
-0.23014095 -0.001134581 0.08596589
-0.18711528 -0.08045681 0.028820911
0.17307428 -0.104198016 -0.087192655
0.005933343 -0.10715126 -0.24158883
-0.119931914 0.09929169 -0.2303381
-0.17250697 0.037455436 0.12494311
0.1383144 -0.10910332 -0.0022876433
-0.07896155 -0.12022452 -0.2654547
0.3110059 0.0012879198 0.21802989
-0.054661766 -0.07765651 0.13490671
0.33431602 -0.03533315 0.025419384
-0.32294258 0.1350293 -0.0783018
0.30197802 -0.116238795 0.05833072
-0.12743904 0.054856956 0.14487208
0.34045243 0.08071205 0.071199745
-0.033776347 0.13667311 -0.4026655
-0.28237554 0.13048907 0.0289253
-0.2910654 0.10382757 0.015739629
0.012441854 0.08184475 -0.4033179
0.15635419 0.071049 0.099203646
0.12337001 -0.08742512 0.16471447
-0.12341135 -0.11450055 -0.2810414
0.2018982 -0.09373218 -0.14129378
-0.08912775 -0.13722818 -0.019181974
-0.15615906 0.106261574 -0.19870143
0.25055447 0.051251974 -0.1734665
0.3275868 0.03560356 0.16980907
-0.323289 0.0076937075 -0.044672783
0.28480566 -0.11479439 0.058021754
-0.12516807 -0.13262019 -0.0316304
-0.22398314 0.0039165765 0.09109779
0.074644044 0.06944697 -0.1874577
-0.17414862 -0.078581266 0.07930868
0.244411 -0.029518183 0.19214597
0.116785094 -0.027487002 0.17433767
0.3253592 0.026016105 0.17779133
-0.055608645 -0.12216465 -0.2795544
0.32474154 -0.12087798 0.03690774
0.049528643 0.010133084 0.16770399
-0.1858448 0.06484473 0.11926717
-0.28853714 0.019116161 0.022465693
0.34117666 0.024891993 0.05245536
-0.27925563 -0.027921135 0.029138155
0.1390868 -0.10274067 -0.079032585
0.2661623 -0.08590291 0.18898882
-0.0783118 0.096352026 -0.25334638
0.1053655 -0.069490366 -0.22475557
0.18545231 0.044776414 0.15980417
0.21970388 0.08342369 -0.22313036
0.16466989 0.0009190036 0.18164884
0.169752 -0.09688258 0.16895115
0.22203718 -0.13620673 0.117317386
-0.11695294 -0.14063546 -0.027472239
0.15915118 -0.008268686 0.1824474
0.057696313 0.084675394 -0.22683625
-0.108560875 -0.12502766 -0.023074495
-0.31612548 0.115156166 -0.044912085
-0.086175516 0.08937692 -0.2450977
-0.13833037 0.12725161 -0.38359717
0.3026598 -0.011667203 0.21466762
0.16924113 0.0622551 0.13372833
-0.22164285 -0.008538102 0.0925083
-0.0702296 -0.13973348 -0.01678881
0.023518676 -0.14638847 -0.04597708
-0.02277779 0.03769328 0.15624906
-0.23734476 -0.04263976 0.069691345
-0.3138923 0.03148903 -0.024514286
0.29340848 -0.15063526 0.1494495
-0.09057468 0.03717923 0.15218483
-0.20945992 0.06899991 0.10495605
-0.25681618 0.029195555 0.06227496
-0.023633512 0.09095043 0.1511964
0.22089355 -0.076622896 -0.07316247
-0.023381004 0.034133624 0.15637644
-0.060658228 0.016970422 0.1541789
-0.15785682 0.07518923 -0.017684318
0.34909144 0.07776894 0.04275776
0.0038985873 -0.00550491 0.16081673
0.17375194 -0.11402773 0.15561351
0.20109966 -0.050608676 0.18369591
0.177335 0.06415107 0.1275433
0.26802793 -0.012413873 0.19478713
0.114011765 0.07168814 -0.36098787
-0.15520209 0.11484031 -0.37889507
0.2952399 -0.05030039 0.19723873
0.23034325 0.1036941 -0.19312508
-0.17432307 0.11079159 -0.369706
0.080689155 0.07032269 -0.1788614
-0.105819404 -0.041219648 -0.24278383
0.34049094 0.06227188 0.002226708
0.15217055 -0.08909538 0.16929492
-0.19662508 -0.017197713 0.10771154
0.32412845 -0.11199053 0.050539985
-0.1320866 0.0983051 0.14704423
0.32256326 0.024206316 0.19795303
0.2213538 -0.029227072 0.18892036
0.23112822 0.060431898 0.11801201
0.039710414 0.067624815 0.15062971
0.28944644 0.0026075568 0.19319807
-0.08643798 0.00077410165 0.14874665
0.058245882 -0.08708763 0.15269373
0.084104165 0.062476415 -0.1452714
-0.066004336 0.11037787 -0.27359176
0.09073747 -0.011422065 -0.19086015
-0.24177971 -0.045866482 0.063064076
-0.15113232 -0.13014404 -0.047243033
0.028996455 0.0968409 -0.2589819
0.036242753 -0.03162785 0.16250035
0.1603235 0.09770589 -0.32075563
0.09829629 0.018897193 0.17189732
-0.023397746 -0.051202793 0.15191083
0.10088148 0.06615402 -0.043694917
0.23549877 -0.072304815 0.18615896
-0.18978913 0.023028973 -0.16898699
-0.119266406 -0.07225377 0.12207463
-0.29941255 0.10890774 -0.21177769
-0.14766005 -0.027906142 0.13033137
-0.0041419626 -0.14694753 -0.029421382
-0.3031117 0.16692126 -0.20692627
-0.31437558 0.09923182 -0.035089903
-0.04288084 0.07156737 0.16100843
0.147369 -0.124471284 0.085365444
-0.30941024 0.11832082 -0.14604226
-0.033162292 0.12069637 -0.40472403
0.24841575 0.10179414 -0.17276396
0.33962926 0.0857736 0.021002673
-0.16483073 -0.03983859 -0.08328621
0.15764117 -0.07101597 0.17530069
0.2558046 0.033570524 0.17164111
0.17857373 -0.12148577 0.14720176
-0.16448899 -0.0040956805 0.12632647
0.058417384 0.07895729 -0.21780793
-0.027029213 -0.07773536 0.14083306
0.007298261 -0.06183779 -0.034302592
0.15792052 -0.12065904 0.14133286
-0.07194557 0.16547085 -0.39761594
-0.18055324 0.00507331 0.11835711
-0.09798291 -0.08554445 0.11326615
-0.038004782 -0.06263269 -0.25862098
0.033637915 -0.050344754 0.16006415
-0.19861521 0.08670714 0.11297658
0.17081782 -0.09050087 -0.20150767
-0.28876853 0.08292709 0.019493096
0.23097906 0.109506145 -0.21868213
-0.03210693 -0.05368626 -0.25637406
-0.12572654 -0.103949346 -0.03557852
0.3369507 0.014117876 0.05515447
0.2434419 -0.06711199 0.18785506
-0.259037 -0.06435174 -0.020439673
