# .PCD v0.7 - Point Cloud Data file format
VERSION 0.7
FIELDS x y z
SIZE 4 4 4
TYPE F F F
COUNT 1 1 1
WIDTH 1000
HEIGHT 1
VIEWPOINT 0 0 0 1 0 0 0
POINTS 1000
DATA ascii
-0.287763 -0.017983606 -0.036875673
-0.1461762 -0.035525646 -0.068886
0.07470458 0.030365814 0.2627487
-0.011900248 0.02916498 0.16077065
-0.026811777 0.14577097 -0.23389693
-0.1375866 0.060426507 -0.00810921
-0.2076058 0.032897294 0.006417969
-0.29838932 -0.05456383 -0.06609365
0.086824834 0.079868354 0.19670413
0.040101595 0.09240559 -0.060431253
0.1051858 -0.04642319 -0.021250822
0.00017711044 -0.030996114 0.19006689
-0.047162116 -0.03541546 -0.4405263
0.10660481 0.020934718 -0.2604321
0.17779505 -0.045620207 -0.36669058
0.0021828865 0.009578663 0.19564384
0.25011113 -0.0011245076 -0.23502374
0.20416446 0.035135087 0.22469229
0.16215688 0.025800865 -0.15410198
0.08026968 -0.002188648 0.27072588
-0.079002015 -0.04367626 0.0270663
0.18593217 -0.048648164 -0.026219012
0.15973455 -0.08183129 0.08259496
0.08384199 -0.043053214 -0.064134225
0.19903071 0.035494715 0.22053263
0.07231764 0.078385234 -0.09119623
0.162077 -0.043212846 0.30293217
0.040138118 -0.020728106 0.23779504
0.14768863 -0.036936242 0.29606137
-0.13647561 0.032388046 0.06827808
0.035712883 0.023599958 0.23622863
-0.30254093 -0.04680843 -0.080498114
-0.24285688 -0.002665721 0.024510337
0.19544812 -0.05444135 0.2389217
0.034602974 -0.03148438 -0.43732497
0.18682575 0.05192413 0.2896367
0.000669702 0.047580056 0.15871343
-0.29913718 0.009750736 -0.13358088
0.11621043 0.050795358 0.26063043
0.21155688 0.030167794 0.22501466
0.01397193 0.045901153 0.18833661
-0.09616299 0.060803987 -0.09822363
-0.1981231 -3.5070734e-05 0.032631453
0.10759035 -0.04052291 -0.11618982
0.15892501 0.029210314 -0.18763657
-0.101230696 -0.041516066 0.128406
0.02654057 0.03200261 -0.23400667
-0.045271553 -0.057633113 0.13904779
-0.2304617 -0.015093914 0.06662045
-0.053914502 -0.0075450866 0.1494417
-0.025653435 0.05203173 0.08503261
0.11886099 0.06378379 0.244997
-0.14502165 0.02938282 0.06464486
-0.153393 -0.04078452 0.10735544
-0.024411472 0.04798066 0.114987455
-0.24322377 -0.045107216 0.033920385
-0.21755011 -0.077346355 0.052915454
0.221898 -0.004504469 0.21727358
0.052398097 0.03062664 -0.21644318
-0.1110326 -0.03745603 0.12562938
-0.17743398 0.056768157 -0.118276775
-0.11177021 0.018652495 0.09658849
0.11948322 -0.067953244 0.23168086
-0.20727476 0.058584906 -0.041775297
0.03094582 0.0992496 -0.055270348
0.03306889 -0.0325927 0.22509883
-0.004399648 -0.022399463 -0.34819838
-0.16225359 -0.04174197 0.10483853
0.03099675 0.030262187 0.21176913
-0.14126591 0.025941135 0.0700018
-0.11088483 0.082837686 -0.16205333
-0.21021673 -0.07752361 0.1039135
0.09183764 -0.020884888 0.2709895
-0.13707243 -0.037124287 0.115024485
0.12080037 -0.026792008 0.28024796
0.22806358 -0.016462497 0.22355974
0.046602335 0.076451376 -0.06615003
-0.066054575 -0.026012147 -0.2600221
0.1557562 0.0035087296 0.0014647815
0.18573238 -0.024873223 0.06676215
-0.08427378 0.15588294 -0.08428676
0.028129024 -0.04198426 0.19526795
0.2392147 -0.019084824 0.045082007
-0.11087601 -0.024780152 -0.25721744
0.08949878 0.0030701745 -0.17720166
0.13469137 -0.046826802 -0.029569501
-0.09345944 -0.021171456 -0.3232406
-0.06504599 0.03261352 0.11882232
0.06528154 -0.049097165 0.04115387
0.2459765 -0.0064054364 -0.1490627
0.048038594 0.15076949 -0.06910888
0.15985386 -0.037813805 -0.18531698
0.07035453 -0.004228767 0.26666075
0.070752494 0.008691183 -0.28410977
-0.25781807 -0.051370252 -0.3046455
0.26786247 -0.069121815 -0.19419552
0.11517195 -0.035122417 -0.20576936
-0.20968187 -0.07040681 0.10443986
0.041069563 0.075714245 -0.06247554
-0.018034669 0.12702322 -0.045354277
-0.27619603 -0.0044404548 -0.3280587
-0.08107822 -0.08382303 0.13123704
-0.08869132 0.0051548774 0.12041886
-0.25973043 -0.057907633 0.013149161
-0.30453816 -0.04234501 -0.088988625
0.010211338 0.02232904 -0.24098565
-0.24033324 -0.008016262 0.036965497
0.017951822 0.14445245 -0.23231359
-0.086144276 0.13991363 -0.19287536
0.0667066 0.013863762 -0.28653768
0.017050613 -0.042771105 0.19205344
0.2447867 -0.07581793 -0.00038015848
-0.019215848 0.016171249 0.16686518
0.15771328 0.03943677 -0.22658935
-0.18353242 -0.036483075 -0.035022795
-0.20348504 -0.066686384 0.10620824
-0.0060717547 -0.06242285 0.16394813
0.040925205 0.03566471 0.23470493
-0.081364065 -0.04107755 -0.013038763
-0.27942896 -0.014799582 -0.020166403
-0.14472346 0.030698117 -0.21562944
0.15860374 -0.03742258 0.18633541
-0.1071342 0.12477099 -0.16988145
0.012073981 -0.036633994 0.19386198
-0.08215196 0.041450158 -0.08036754
-0.125973 0.06786773 -0.31142962
0.08309622 -0.01852958 0.2685833
0.05137307 -0.02401163 -0.35043028
-0.16181 0.030590992 0.051626083
-0.053959653 0.03377469 -0.3011867
0.14841865 -0.009663073 0.16081412
0.2712615 -0.07721676 -0.19318904
-0.09109912 0.092211954 -0.08996617
0.1662941 0.059371702 0.22079356
0.20853461 -0.042050954 -0.14231195
-0.024888743 -0.041481547 -0.03481478
-0.041962113 -0.05735998 0.13935228
-0.05563939 -0.06707959 0.13728848
-0.07892101 0.014737965 0.123094946
0.09200189 -0.01153029 0.27362806
-0.03226709 -0.046256416 0.04472575
0.21795134 0.0520772 0.26329833
0.0006009256 -0.064465955 0.16755053
-0.18903324 -0.025676426 -0.20396043
-0.26070818 -0.049768295 -0.3636645
0.2356568 -0.0074970415 -0.12656792
0.2703926 -0.013464629 -0.0792975
-0.033515226 -0.08475713 0.13804542
-0.100503996 0.06868402 -0.10390618
0.24924485 -0.013613967 -0.036174405
-0.122050695 -0.01815034 -0.35696656
-0.10245321 -0.012437895 0.12072778
0.2512508 -0.012596941 -0.05333328
-0.029103778 0.05098408 0.10061685
-0.12693161 -0.036341596 0.11961933
0.07325055 0.014676995 0.26719156
0.15428114 0.012420687 -0.40236875
0.2116754 0.028685942 0.22359365
-0.2567203 0.0269384 -0.07588893
0.14310814 0.004303124 0.3036723
0.23566276 -0.08905998 0.012732674
0.0672403 -0.068466604 0.20185943
-0.2275672 -0.009191073 0.07114954
-0.2972029 -0.026106391 -0.062113587
0.058016118 -0.06646581 0.19849841
-0.053282574 0.103831775 -0.05660756
-0.118970126 -0.079826765 0.12106659
0.14066577 0.0433518 -0.2563567
0.24729526 -0.043781858 -0.13416333
-0.06591162 0.14885773 -0.21427377
0.08796245 -0.07130448 0.15925986
0.05935502 0.054055292 -0.07729601
-0.2734637 -0.02373096 -0.0082059745
0.15711388 0.005625129 0.31393555
0.18330841 -0.046590466 -0.05759722
-0.010701812 0.13989568 -0.23582785
0.046442777 -0.026218921 -0.31290483
0.052225534 0.13493001 -0.064981624
0.14275017 -0.06528125 0.23487212
-0.05520952 0.1507537 -0.05524018
0.058548596 -0.024268407 -0.34993204
0.24785782 -0.038045112 -0.2255796
0.20528626 -0.04507568 0.22832367
-0.1832648 0.0067107077 0.046344433
0.026224704 0.13785549 -0.050619677
-0.2961537 -0.02831182 -0.05912369
0.23292471 -0.043612443 -0.12968257
-0.09800023 0.15943016 -0.13378592
0.28441355 -0.05332306 -0.16471519
-0.03945272 -0.02195225 -0.24200848
0.19348623 0.0027023496 -0.04742917
0.0400418 0.010381521 -0.06725044
0.14978656 0.048767526 0.274684
-0.097039096 -0.037560154 0.12982723
-0.0021361783 -0.044212647 0.1846852
-0.25932646 0.016783882 -0.26518866
0.12803888 0.030285373 0.2809146
-0.006032616 0.13445741 -0.23617817
-0.10095421 -0.018980175 -0.17693725
-0.019329734 0.038758982 -0.24175005
-0.04324259 0.022142539 0.1446066
0.22241937 -0.014789042 -0.0041138045
-0.0228969 0.04473554 0.1261038
-0.2597047 -0.057494752 0.013199825
0.19160692 -0.054515995 -0.3535699
-0.105844095 -0.054552656 0.12632903
-0.005487119 -0.015776077 0.18832482
-0.11489489 -0.02189966 -0.42283303
-0.29215962 -0.005281513 -0.04803137
0.0105171865 0.122944415 -0.23537308
-0.104284905 -0.0336489 -0.11961343
-0.004223153 0.0004475773 0.18982795
-0.081554785 0.048051775 -0.079668984
0.24478798 -0.002853148 -0.20490257
0.13183774 -0.006500282 0.29537368
-0.0593631 0.020149942 -0.063374035
0.021983838 0.12375048 -0.23197171
-0.12214842 0.036697496 0.07407423
-0.07532069 0.024785334 -0.28846693
0.14761645 -0.058171134 0.26435265
0.039259665 0.123746276 -0.22277403
-0.02595988 -0.057210837 0.15251325
0.020985197 -0.03868768 0.19498277
0.0715902 0.007689601 -0.096961014
0.22509055 -0.038700424 -0.20380346
-0.3059749 -0.008176605 -0.10525951
-0.099447906 -0.027053732 -0.22680512
0.07872492 -0.026040748 0.2645638
-0.2304438 0.026846563 -0.018505663
-0.22774476 -0.07668131 0.04743924
0.01489593 0.05696663 0.17672601
-0.029373538 -0.00403388 0.16835259
-0.18282758 -0.02661826 -0.19209278
0.123800784 -0.049617022 0.020195013
0.048619185 -0.040474772 -0.43547615
-0.22298735 0.023244655 -0.004664643
-0.066162944 -0.078481674 0.13470015
0.16504294 0.004809984 0.32025963
0.17662376 0.027803177 -0.08754778
-0.08916705 0.14343728 -0.086870946
0.18606356 -0.03507679 -0.24188788
-0.28438708 0.00033926894 -0.040618867
0.097246 0.04289215 0.2636949
0.23069581 -0.04423169 -0.118729405
0.071547136 0.14840709 -0.18858086
0.18052961 -0.01129368 0.18560398
-0.15454963 0.060981423 -0.030477956
0.13927214 -0.052555468 0.09810753
0.07165584 0.028328799 0.26167116
0.14545773 -0.018858856 0.30394092
0.08121375 0.13290529 -0.13886501
-0.3097214 -0.02747407 -0.115855545
-0.09759501 0.15020406 -0.100998856
0.245962 -0.03841992 0.001917824
0.05402949 0.032789472 0.24589366
0.1817427 -0.036363203 0.06988555
0.017404547 0.11424401 -0.049283225
0.0812837 -0.010771332 0.26983282
0.13430333 -0.028535143 0.29010564
0.12896012 0.021489548 0.28712812
-0.11275069 -0.011534465 0.1115174
-0.036320236 -0.06440493 0.1393145
-0.09419213 -0.037708305 -0.060161654
-0.006291139 -0.030293413 0.18717183
-0.2684503 -0.05257337 -7.506306e-05
0.13419314 -0.04384577 -0.076679826
-0.049725737 -0.041238844 -0.026275044
0.015085437 -0.0028936793 0.20505722
0.023444707 0.064658456 0.16909973
-0.039537244 -0.018472018 0.16093817
-0.044799425 -0.06300128 0.13869014
0.039013766 -0.046480775 0.21828717
-0.308476 -0.027029997 -0.108249865
-0.29727378 -0.015523072 -0.062114533
0.020285692 0.12704833 -0.049376972
-0.23455139 -0.02331054 -0.21881941
-0.26828054 0.026393056 -0.15367597
0.030779818 0.042403147 -0.059209082
0.20909086 -0.06526701 -0.33623573
-0.039010264 0.038081165 -0.05440405
-0.17234601 -0.02331839 -0.24975039
-0.022091573 0.014357464 0.16608866
-0.14997047 -0.05896968 0.10821901
-0.2259055 -0.030674674 -0.10614438
0.2214023 -0.017757293 0.21916386
-0.025700876 -0.0013924135 0.17054318
0.07331094 0.0338032 0.25968763
-0.06541618 -0.0641033 0.13575475
0.08750194 0.038231347 -0.17180736
-0.037332382 -0.0021697425 0.1617671
0.010863839 -0.089029126 0.13731071
-0.18245059 -0.025177265 0.10576938
-0.27925885 -0.07012582 -0.019822396
0.25968805 -0.0859763 -0.04824842
-0.19797795 0.030958248 0.019536657
0.094337545 0.05104803 -0.30586568
0.06418121 -0.0030026797 -0.08179001
0.12312881 0.02088384 -0.015018852
-0.075687245 0.11461527 -0.07208897
0.12607557 0.038835548 -0.2594998
0.1270692 0.07508486 0.17831503
-0.09896273 -0.017167823 0.12839992
-0.12347863 -0.023190599 -0.2761815
0.048225924 0.05378518 0.20464584
-0.061118387 -0.06653909 0.13656278
0.10605615 0.010379369 -0.25712729
-0.27458626 0.0028419148 -0.03607724
-0.2107151 -0.0043834364 0.04681979
0.122248895 -0.0014291808 0.287843
0.06770416 -0.032919664 -0.19488224
-0.13051587 -0.010187221 0.09898424
0.019886922 0.085268654 -0.052060526
0.006189335 0.0047530457 0.19865921
0.12089007 -0.002094393 -0.15510014
0.0547201 -0.022517465 -0.3758375
0.17258245 0.054462634 0.2739968
0.19060002 -0.062249523 0.2863596
-0.06899361 0.021216594 -0.06994436
0.09215753 0.10900567 -0.14535813
0.21369135 -0.058160406 0.25691232
0.1525998 0.059718035 0.24388899
-0.050495002 -0.062337708 0.13822217
0.025545457 0.11291457 -0.052075043
-0.26134354 -0.02805872 0.009272709
0.09187495 0.11653646 -0.1419361
0.22262709 -0.026237708 0.060792256
0.25436324 -0.0034237308 -0.20061886
0.20988494 -0.043796014 0.22985551
-0.20433892 -0.031270877 -0.36880788
0.11444679 0.033875808 0.273469
-0.17651606 -0.069017656 0.101960994
-0.09377212 -0.02014761 0.13135271
0.18011227 -0.06616788 0.26255184
0.22871578 -0.08473842 0.018036341
-0.1637595 -0.028730808 -0.1680513
0.15734202 0.054715797 0.26534334
-0.28585413 -0.045494933 -0.0335333
0.23809172 0.020416887 0.23459786
-0.06052912 -0.0652707 0.136778
-0.30904058 -0.04918715 -0.10806168
-0.19742861 -0.009009121 0.102702804
0.19508862 0.007711855 -0.05417081
-0.2803105 -0.04769428 -0.258442
-0.17975102 -0.041668396 0.10418684
-0.07212372 -0.014669498 0.13561967
0.030700793 -0.048334695 0.19153443
-0.075403556 -0.017828083 0.13368726
-0.17163119 0.06271985 -0.043916784
0.079700485 0.07328565 0.21731432
-0.07864913 0.1363874 -0.20423278
-0.19127212 -0.037500937 -0.014987823
-0.26844606 0.021250814 -0.17154314
0.042382795 0.015487065 0.24390028
0.17187384 0.007275026 0.31660315
0.094604135 -0.06976394 0.15661742
0.16310693 -0.01311667 0.3194221
-0.10978442 0.10260289 -0.13915084
-0.2674977 -0.023222389 -0.20377159
-0.09900286 0.08170028 -0.10136972
-0.038082466 0.13252898 -0.04897392
-0.25886932 -0.016118314 0.013008512
0.15309568 0.045640565 -0.26156482
0.07110003 0.14597103 -0.18975627
-0.290591 -0.045522347 -0.04401375
0.0017502488 -0.0048721586 -0.24461704
0.12691315 0.033599436 0.27751893
0.21562502 -0.06583296 -0.34626153
-0.063004754 -0.07873256 0.13535067
0.246291 -0.027951034 0.0056513245
-0.16293624 0.021695942 -0.39134786
0.12359568 -0.021552734 0.2850371
-0.05568856 -0.06657461 0.13731182
-0.0273661 -0.04273132 0.16407362
-0.11179238 -0.03234361 -0.136603
0.21016745 0.026327612 0.21984424
0.13842641 0.021280672 0.29429418
0.20195839 -0.017243505 0.038947463
0.25433254 -0.005669633 -0.16492343
-0.22635268 -0.055483595 0.09382112
0.24732426 -0.07425451 -0.01461697
0.20243795 0.05667174 0.27234936
0.17450793 -0.05585158 0.07453848
0.08577175 -0.07203205 0.20781192
0.03799036 0.03906845 -0.22728823
-0.20951946 -0.03594797 -0.3646312
0.06012213 0.14200759 -0.20507026
-0.30061236 0.009825616 -0.22318815
0.2273263 0.0164366 0.22775248
0.051802106 0.06305044 0.18952328
-0.0015547893 -0.026580434 0.19048849
-0.17668974 0.06057843 -0.016943017
0.16017035 -0.029143855 -0.32321343
-0.27031872 -0.049500287 -0.28149238
-0.103510246 0.024285192 0.099008806
0.18502933 0.05502425 0.2782871
-0.28498515 -0.019811073 -0.0313061
-0.12331223 -0.041976213 -0.4205677
0.19151486 -0.05051517 0.22663814
0.014578366 -0.06720377 0.17669675
0.17729254 0.03989153 -0.21258406
-0.11557022 0.039513275 0.075014636
0.09507702 -0.023155645 -0.3858483
0.022498509 -0.08778016 0.13597675
0.1460699 -0.021146057 0.30360124
0.102904916 -0.035044916 -0.20087513
0.09483227 -0.09055095 0.10673455
0.0994116 0.049502123 0.25894767
-0.09588284 -0.037315454 -0.06555662
-0.23384303 0.01837559 -0.016330278
-0.25107333 -0.021067709 0.02536291
-0.0007383418 0.13170606 -0.2363407
-0.041434117 -0.014717284 0.15942824
-0.03403389 0.09886299 -0.049804356
-0.09850246 -0.071502745 0.12754916
-0.04707417 0.14942399 -0.2259462
-0.055440187 0.048851017 0.09657821
0.030120866 0.049079597 0.19709376
-0.104995936 0.13620879 -0.11945673
0.24780974 -0.06904468 0.037038617
0.1728754 -0.046524175 0.2083679
-0.23885344 0.021384217 -0.028056638
0.063593596 -0.0051428815 0.26109508
0.07676721 -0.025326662 -0.34221876
-0.014026597 0.103937104 -0.04654765
0.0808396 0.04086451 -0.29379842
0.1283295 -0.030332886 -0.28842792
-0.029820051 0.16213712 -0.23169741
0.04889061 0.0029197275 -0.073905095
0.060140006 0.15104526 -0.07953177
-0.13593236 -0.039324816 -0.41464302
0.16173664 -0.08556801 0.080783375
-0.08682038 0.04346857 0.088635795
-0.2245034 -0.0057401466 0.058101084
0.12247156 0.0018291676 -0.21822461
0.04622237 0.11699277 -0.2189927
-0.2004574 0.0686463 -0.22967903
-0.14806612 -0.021316795 -0.4067925
0.18043251 -0.058554336 0.2496119
-0.041659318 -0.024749026 -0.4400472
-0.1086546 -0.03817449 -0.04553359
0.08591646 0.15623896 -0.17491068
-0.16992977 -0.025632031 -0.21419942
0.026775781 -0.02589645 -0.30820623
-0.092300326 -0.026761308 -0.2018361
-0.029561525 0.045210116 0.12096721
-0.3096937 -0.036989145 -0.19768241
-0.047888484 -0.021961788 0.15416737
-0.18621673 0.068658814 -0.2465182
-0.026071586 0.04622823 -0.24071175
-0.18634292 0.008484594 0.04366277
-0.28728646 0.015957309 -0.23809902
-0.2521691 -0.06438573 0.022359157
0.115643606 0.019681392 0.28058824
0.08765893 0.0032413474 0.27313495
0.045496188 -0.03789678 0.23171337
-0.30070794 0.009097394 -0.12241655
0.15250316 -0.036095437 -0.20894904
0.059532143 0.12114021 -0.07114301
-0.020274041 0.14123528 -0.044602778
0.21400079 -0.031541236 0.22030348
-0.00383634 0.15695722 -0.23475872
-0.16500856 -0.034789182 0.10477402
0.12123205 -0.04169221 -0.10442273
-0.2463399 -0.023259483 -0.21374704
0.2243507 -0.04964788 0.05932345
0.1672233 0.04005559 0.29867804
-0.10962249 -0.05487026 0.12520015
0.16110298 0.042873416 -0.2390617
0.19300987 -0.012417982 0.19546285
-0.105424754 0.13386858 -0.120641485
0.234268 -0.00399041 -0.18158299
-0.18035199 0.056364052 -0.0040540635
-0.27007455 -0.03192138 -0.2798206
-0.04080295 -0.038944438 -0.06717863
0.07317715 0.025937883 -0.28719264
0.068418786 -0.045746233 0.244313
-0.019634005 -0.052340887 0.16375594
-0.037118398 -0.009544177 0.16280223
0.07723757 -0.0021212671 0.26961735
-0.1149744 -0.0027250734 0.100896835
0.03558645 -0.0026148218 0.23888549
-0.24047782 0.035667215 -0.04841152
-0.25095835 -0.023087792 -0.21416895
-0.14068088 0.03669873 0.061011598
0.011046184 -0.079660274 0.14137422
0.22382678 0.001528526 0.21916325
-0.15108116 -0.07366536 0.106967844
-0.014530822 0.03359046 0.15239786
-0.1662621 -0.06935075 0.10257029
0.0034259604 -0.019284612 -0.44003376
0.12680791 0.023297835 0.2845287
0.052743487 -0.048648775 0.040285654
-0.26557297 -0.025647487 0.004473023
-0.18257476 0.0628171 -0.0721028
0.15685777 -0.0399715 0.0888018
-0.16109878 -0.02630965 -0.207843
0.19178696 -0.012427092 -0.026343646
0.06745205 -0.041134488 -0.08643349
0.0541397 -0.06170175 0.1747739
0.07069005 0.035004918 -0.09302116
0.10210818 -0.07410518 0.21515816
0.13903019 0.07294472 0.20915014
-0.02683928 -0.019359928 0.17097957
0.02182171 -0.023843512 0.20238915
-0.11088373 0.010513003 0.1020731
-0.2337263 -0.057383068 0.051600117
0.21710573 0.0099395905 0.21557702
-0.26992348 0.016581137 -0.15946844
0.025055202 -0.06458011 0.17963783
-0.17900077 0.05733007 -0.15067078
-0.008364032 0.030641144 -0.051499423
0.26837838 -0.059004415 -0.06490622
0.16454148 0.025533471 -0.101243995
-0.21846582 0.0641556 -0.10380461
-0.21500549 -0.034065746 -0.057712734
-0.29496577 0.011509605 -0.16360416
-0.26777217 0.00970694 -0.10948596
0.16546561 0.009958555 0.3186605
0.13706276 -0.06648932 0.23309605
-0.29404902 -0.026209494 -0.053729374
0.13744257 0.06333183 0.2423987
0.11395697 -0.053498983 0.11224202
0.16573101 0.024832528 -0.053453118
0.24417236 -0.014586862 -0.02078895
-0.047899954 -0.04608177 0.14427596
-0.02964281 0.13817304 -0.23351496
0.2720399 -0.0037870994 -0.21445571
-0.1012047 -0.013230493 0.1226463
0.07538806 -0.048184372 0.24824971
-0.03532706 -0.005869536 0.16420858
-0.014316303 0.14075589 -0.04419501
0.21034673 -0.060546044 0.26083416
0.13990702 -0.002411937 0.018334378
0.020964466 0.06869276 -0.053535283
-0.1508429 0.053274117 0.028610086
-0.115320005 -0.018795557 -0.35007593
-0.09636722 -0.017865557 -0.37431234
0.12998411 -0.0025512695 -0.15238388
0.004688101 -0.07704965 0.14495996
0.09261482 -0.036118716 -0.17868136
0.049815085 0.005330918 0.25049976
-0.21827613 -0.014710363 0.10164632
0.16750571 -0.039584693 0.31079346
0.056228295 -0.010630501 0.25443053
0.1751401 -0.05185662 0.22035852
-0.15735023 0.04949989 0.032224398
-0.15443248 -0.019670902 0.107828416
-0.2012966 -0.026935218 0.10894733
0.08886979 0.009806591 -0.1584566
-0.21505685 -0.04933628 0.103237376
-0.1737908 -0.05045907 0.10286494
-0.032888148 -0.004765633 0.16582103
-0.28802377 -0.039034173 -0.03810448
-0.14680552 0.059442658 0.010997482
-0.19907218 0.0019265141 0.03147081
-0.2269341 0.06527825 -0.15104069
-0.034716424 -0.071244955 0.13894475
-0.05656161 -0.02170813 -0.3331399
0.1490186 0.01788234 0.30364424
0.018057123 0.040295754 0.19570175
0.092355035 -0.029427731 -0.28484613
0.06622517 0.0069773723 -0.2719299
0.24434799 -0.03902509 -0.20826049
-0.18480754 -0.0052391733 0.047481447
-0.10916716 0.13749172 -0.14350976
-0.1091673 -0.040145736 0.1261502
0.054622002 0.0009277813 -0.21514489
-0.06260202 0.046060294 -0.06439517
0.19852139 -0.07353212 0.059024364
-0.2536995 -0.06195275 0.020544963
0.04597468 0.12270723 -0.21888362
-0.27790946 -0.054937687 -0.2649476
0.1798333 -0.017411888 0.058815096
0.08593669 0.0014557139 0.27260605
-0.17061494 0.03919483 0.036479585
-0.27452543 -0.005358132 -0.30115902
-0.20627162 -0.022222253 0.10795101
-0.29618767 -0.042496826 -0.059495058
0.19354512 0.030839525 -0.13263834
-0.15684223 -0.035591688 0.10610716
-0.22140193 -0.0793467 0.08661578
-0.30977264 -0.053613 -0.20242962
-0.2814283 -0.0636907 -0.02438514
-0.05999118 -0.043103658 0.008477283
0.11338366 0.015990922 0.28074974
0.036822792 -0.028476978 0.23095341
0.21556112 -0.05947671 0.25464028
0.20618963 0.0028419192 -0.27610922
-0.07780482 -0.03894904 -0.04863154
0.08383258 -0.060192283 0.2378134
-0.08555547 0.04879908 -0.08316022
0.06498095 0.016121197 0.26107144
-0.027970243 0.031876743 0.14570126
0.060311075 0.021414623 0.25582165
0.12905711 -0.0002989553 0.29307368
-0.16186206 -0.011981041 0.10287383
-0.07757925 -0.040309917 -0.43584302
0.02769884 0.023970919 0.21236238
0.20481895 0.040792912 0.23440847
0.27053347 -0.07937198 -0.15832661
-0.08851562 0.13850343 -0.086015604
-0.012155442 -0.06338132 0.15773685
0.06581426 0.072214186 0.21115568
0.26898938 -0.06894936 -0.13424395
0.18231696 -0.016277267 0.039549604
0.21479322 0.03190584 0.22967324
0.050378114 0.0131765725 0.25049728
-0.046510566 -0.06621567 0.13830453
0.111525916 0.017018951 0.27995694
0.15768464 -0.046334308 -0.04887245
0.15676387 -0.035510797 -0.22036391
0.1562188 0.045592085 0.28359574
-0.09542859 -0.042785145 0.021111809
0.029757246 0.02585224 0.21311507
0.1943916 -0.014119996 -0.00075070566
-0.14054696 -0.028843557 0.1139021
-0.10890019 0.024889944 0.094606094
-0.12578858 -0.024992406 -0.24640298
0.11211621 -0.00035285193 -0.1783873
-0.04902374 -0.05300589 0.13895954
0.09342066 -0.025935235 -0.34086213
0.06353531 -0.015055232 -0.20448843
0.21270627 -0.09077016 0.051369037
0.04581806 -0.04778446 0.030014608
-0.086848676 -0.06975927 0.13086215
-0.03331802 0.069485374 -0.05123925
-0.017805746 0.15155251 -0.23448563
-0.265821 -0.028910005 -0.114249535
0.22268082 -0.027854215 0.06069077
-0.059554417 -0.021999167 -0.32702255
0.15372448 0.013097619 -0.0069632786
-0.039975263 -0.040940475 -0.035882596
0.12137756 -0.047320567 -0.015076404
-0.23752216 -0.042668756 -0.33375937
0.08066877 -0.057698667 0.23937331
-0.2751521 -0.034847926 -0.2685762
0.11713523 -0.047165923 -0.0154190175
-0.15459216 -0.03429732 0.10705839
0.077022925 -0.024132341 -0.3613202
-0.10538265 -0.010426019 0.10926497
0.14278509 -0.019731076 0.30143037
0.11925762 -0.04263744 0.2689222
-0.19195582 0.06447973 -0.176686
-0.057031445 -0.030895915 -0.438591
0.15232402 -0.08453065 0.08748067
-0.24566285 0.056233283 -0.13411047
0.08644779 -0.03372133 -0.21368892
0.10697025 -0.012053754 0.2789794
0.034161944 -0.047703397 0.192405
0.23112492 -0.043059483 0.23693778
0.16016966 -0.04200855 0.19336087
0.14982791 0.02709563 0.29922432
0.24834745 -0.07410352 -0.01766622
0.032691926 0.07248968 0.1359656
-0.112157665 -0.030930076 -0.1588756
0.05522289 0.08393478 -0.0714061
0.21682602 -0.03336548 0.22386537
0.17240322 0.016378462 0.31653002
0.05572554 0.011695082 0.25480387
0.14104167 -0.044759065 -0.065590456
-0.11290711 -0.065029435 0.1236705
0.1526899 -0.056766003 0.24304815
0.029001305 0.019915069 0.21491589
0.13613622 0.024729399 0.29068768
0.106084555 -0.011808896 0.2786994
0.14823028 0.06586769 0.22861336
-0.26967636 -0.04472338 -0.0019248112
0.21155903 0.007016147 0.20969525
0.1117178 -0.031856358 0.27370498
-0.05639524 0.011286996 0.14199674
-0.0063532297 0.12696855 -0.2366495
-0.26360098 0.0010178762 -0.012584805
-0.078679636 0.038383815 0.101716354
-0.1800514 -0.023789685 -0.23841667
0.16579133 -0.037701935 -0.3778051
0.18174164 0.033208564 -0.15185975
0.07320188 0.05477611 0.24266018
-0.08679343 0.11341221 -0.0838548
-0.023639224 -0.04755449 0.16406327
-0.2532464 -0.02694132 -0.15180482
0.19668329 -0.026510855 0.0630076
0.095441595 0.0055063693 -0.2631477
-0.22640392 -0.031328004 -0.09551528
0.11041838 0.05375773 0.2569554
-0.08232951 -0.032972366 -0.43404245
0.03194141 0.040018924 0.20621271
0.0818036 -0.07353744 0.18296699
0.23749702 -0.055851556 0.053212892
0.059338123 -0.005131844 0.25767067
-0.09609438 -0.015819937 -0.40694672
-0.14256796 -0.081116505 0.110555686
-0.16448158 -0.031499844 -0.12370166
0.06289836 0.07298258 0.20766519
0.044035707 0.06813828 0.17067222
0.17368855 -0.020669082 0.18429182
-0.06668215 -0.086614296 0.12482821
-0.015368913 0.006518666 0.1755663
0.21375494 -0.05635417 0.25459757
0.16605699 0.04365523 0.29300845
0.2468741 -0.047464393 0.04151856
-0.22579107 0.031946335 -0.016612107
-0.1255808 -0.011060074 0.11038697
-0.1283982 -0.030699333 -0.15443437
-0.0046018953 -0.016212216 0.18907882
0.032965925 0.013838586 0.21999162
0.066594176 0.07037259 0.21570686
-0.14592703 -0.04068085 0.012891363
-0.08924312 0.043402214 0.087129205
0.1913218 0.0311385 -0.13055675
-0.008402808 0.03198522 0.16571714
-0.074301586 0.012567579 -0.07390423
0.00051153183 0.04855518 0.14537854
0.15884092 0.034719866 -0.20717475
-0.03198427 -0.018234748 -0.24421401
-0.1481809 0.067518495 -0.28430724
0.111573875 0.02741402 0.2760511
-0.11691247 -0.023802932 -0.26973036
0.03864405 -0.048550233 0.19190846
-0.13912752 -0.04250566 0.11385586
0.06941639 -0.03457403 -0.19163689
-0.23261246 -0.075246125 0.06061611
0.2646019 -0.07170066 -0.104447655
-0.22313909 -0.04778632 0.09815475
-0.072785124 0.04126321 -0.07164373
0.09719043 -0.042527515 -0.07914795
0.04732764 -0.046280254 0.0053645903
0.066170484 -0.030779026 -0.1991597
0.24810916 -0.023619901 0.037685495
-0.2362437 0.06221778 -0.16004635
-0.06738977 0.0096520735 -0.06935509
0.08575921 -0.016150305 0.2703278
-0.22498517 -0.028444933 0.096301906
0.22076215 0.008842941 -0.13391902
0.14045835 -0.045727428 -0.049914572
-0.1456571 -0.025391947 -0.23013258
0.0914287 0.0011440804 0.2745885
0.060773827 0.14588876 -0.070244685
0.2369759 0.0010416243 0.2295174
0.2576097 -0.06729107 -0.24482207
0.09670295 -0.041837204 -0.08987148
0.06698704 0.10751698 -0.08141248
0.26032215 -0.0124240825 -0.06061017
0.035009608 0.0690447 0.16283058
-0.16370708 -0.04507382 0.10440108
-0.15727575 0.019298067 0.06164161
0.13819301 0.021081533 -0.042182524
0.1893168 0.011607503 -0.050934937
0.046782944 -0.08360044 0.14420807
0.08176676 0.039320197 0.26176435
0.044213783 -0.04784649 0.22141717
-0.029687839 0.15187733 -0.23249407
0.16238073 -0.064660594 0.24516487
-0.1856572 0.060614403 -0.30348128
0.20815672 -0.06363871 0.05849808
0.060277723 -0.0027032648 -0.07871991
0.053257048 -0.04730855 0.22988234
-0.06954121 -0.079626985 0.13391963
-0.12300182 -0.024716066 -0.2521821
-0.18955155 -0.048727345 -0.38290265
0.16184619 -0.03346699 -0.38109973
-0.011501008 0.049357448 0.116255276
-0.30016392 -0.06426309 -0.07141175
0.19621006 0.050838523 0.2905893
-0.010865444 0.14153972 -0.043890305
0.27271882 -0.014616104 -0.08121398
0.14315678 0.018054718 -0.0076443576
0.19040632 0.049135365 0.29796198
0.15001774 0.010221502 -0.16292919
-0.09049011 0.0944823 -0.08910767
-0.2595203 0.012713485 -0.07480944
0.2031959 0.05549864 0.2823193
0.14433558 -0.030136652 -0.29953742
-0.029309968 0.09672121 -0.048729673
0.21635163 0.03265176 0.23218535
0.038277097 0.1280149 -0.056923203
0.13480261 -0.00701666 -0.08384895
0.15091068 -0.055332072 0.2193382
0.19358088 -0.011257208 -0.04316043
-0.17894651 0.058868118 -0.18514721
-0.284407 -0.042045962 -0.2835031
-0.18855748 -0.021538777 0.108063094
-0.05749565 0.061488613 -0.060486168
0.028542744 -0.027977876 0.2043557
0.13240588 0.013278317 0.011151704
-0.14092754 -0.056699138 0.11236669
0.061191034 -0.064049564 0.16687645
0.1275907 0.0061297137 -0.05944857
-0.14008817 -0.018468315 0.11381318
0.012324791 0.01945867 -0.24061018
-0.12701122 -0.0012992811 0.09135427
-0.21396664 -0.030078076 -0.12158263
0.2666897 -0.041285824 -0.18349886
0.17433165 0.047681145 0.19064626
-0.088204145 0.02416418 0.10986892
0.20551799 -0.09082723 0.055859827
-0.039762743 0.03492103 -0.30555874
0.20219873 0.005509292 -0.3164937
0.22413695 -0.045366798 -0.09741973
-0.08324572 -0.06159565 0.13210975
0.2669887 -0.082260706 -0.06520268
-0.13749775 0.060474645 0.0077258563
-0.00880043 0.050342605 0.109149225
0.28226432 -0.06913892 -0.18742988
-0.11322209 -0.015198131 -0.4082744
-0.2953935 -0.03054566 -0.19951822
-0.21258956 -0.02554927 -0.1942169
0.2099812 -0.0629685 0.2610431
0.07533508 0.14540331 -0.1780623
-0.25313035 0.027427506 -0.06746426
-0.19748537 -0.07151761 0.10648632
-0.06585054 -0.053278957 0.13636278
0.13563402 0.008204017 -0.071072936
-0.2954924 -0.058290727 -0.2109055
0.16031256 0.010579076 0.31451654
-0.18153599 -0.032542743 0.10501656
0.20859712 -0.08999534 0.041107096
0.16156387 0.023498455 -0.04217521
0.003675101 0.09215354 -0.04817868
-0.079057954 0.011802773 -0.078435406
-0.25490463 -0.018153297 0.02095463
0.1345661 0.025489772 0.2890992
-0.006766319 -0.062148 0.16363715
-0.2775069 -0.022642031 -0.26150554
0.028267682 0.061112113 0.17881243
-0.02398279 -0.039875787 -0.060779832
-0.06069483 0.052304417 -0.31046724
0.077684455 0.056083947 -0.10198308
-0.14712232 0.030377753 0.06214738
0.06919978 -0.031628426 -0.23832417
0.031474896 -0.013385982 0.2336078
0.15227187 0.032364313 -0.21183679
-0.24919535 -0.04792111 0.026826287
-0.30020538 -0.058492724 -0.20534173
0.13843808 0.022401698 -0.026208255
-0.21724005 -0.04180801 -0.3579336
0.06100564 0.034962296 -0.08074728
0.20498584 -0.040149424 -0.17074554
0.12740158 0.069400564 0.23295462
0.096079536 0.053654555 0.2547968
-0.2451043 0.049739566 -0.095621884
-0.16296686 -0.036240328 -0.049147617
-0.18464574 0.049307555 0.009474572
0.04104127 -0.016028391 -0.22795282
0.108628385 -0.026086101 -0.3460591
0.16954353 0.016011475 -0.028316496
0.072948456 0.07861688 0.19722824
0.17329875 -0.037423678 0.31039983
-0.078243434 -0.005698389 -0.21755716
0.2442603 -0.013783864 -0.030987937
0.09961753 0.068111315 0.23942697
0.15073672 -0.035139143 -0.38897848
-0.007455618 -0.026602862 -0.27989602
-0.19471277 -0.06875777 0.10632237
0.2564751 -0.0066852006 -0.14986011
0.14381297 0.0394449 0.28324854
-0.29286447 -0.062780745 -0.050278835
-0.16644649 -0.026845312 -0.19666497
0.2048721 0.012802572 -0.08241903
0.20442152 -0.0357368 -0.24056749
0.1263551 0.034560893 -0.2520238
-0.080836564 0.08065914 -0.07817796
0.13782631 -0.043840487 0.099680744
0.21731353 -0.051223032 0.24516955
0.15108891 0.01587329 -0.009188061
-0.1668259 0.043947794 0.033064347
0.1816664 0.010846566 -0.40475053
0.060183376 0.13340294 -0.070636906
-0.06851877 -0.04153156 -0.012241875
0.021960763 0.16212678 -0.23651978
-0.20230924 0.014508839 0.02464494
0.07292076 -0.06452705 0.14359893
-0.019624073 0.13193874 -0.23562217
0.038468663 -0.030894121 -0.234647
-0.23604399 3.0218089e-05 -0.010652811
0.23225579 -0.09115046 0.04764796
-0.04047692 -0.06648341 0.13880283
-0.0550637 0.020887159 0.13691364
-0.25854757 -0.0281414 -0.1300917
-0.08274142 -0.054254144 0.13265502
-0.09647359 -0.026035873 0.13061137
0.087301075 -0.04610791 -0.017329842
-0.010231778 -0.0080063185 0.18437383
0.22524017 -0.04642148 -0.08121614
-0.28839764 -0.051980775 -0.03938967
-0.02302626 -0.042831693 -0.014295677
0.13997021 -0.040297497 -0.13593425
0.121833116 0.005894039 0.28688657
0.15801768 -0.014846434 0.31506792
-0.21939962 0.020211158 0.0028952216
0.06577919 0.12179604 -0.07863619
0.023729028 -0.040577393 -0.073452204
0.08985722 -0.031666428 0.26595098
-0.09533657 -0.011279666 0.11715933
0.014309515 -0.04057784 -0.06874331
-0.19524801 0.064420946 -0.1007417
0.19064327 -0.0147898365 0.011762911
-0.088696 0.07207805 -0.08704972
-0.1126717 0.03587676 -0.26555037
-0.12790865 -0.032111537 -0.13224055
0.12553193 0.03184909 0.2778769
0.04066652 0.012297937 -0.22691122
-0.2208223 0.05621222 -0.05907951
-0.19282466 -0.0012871721 0.038477834
0.2766164 -0.08104436 -0.13505168
-0.05778553 -0.022459488 -0.3205915
0.04078389 -0.08338475 0.14377622
0.05000974 0.019583046 0.24847779
0.04909374 0.060556907 -0.0693195
0.002186725 -0.01896451 -0.40605488
-0.09252015 -0.027296918 -0.22639902
0.10277323 -0.04887209 0.018860081
-0.047934264 0.06266819 -0.05627499
0.18606573 -0.09044233 0.059459742
0.28320822 -0.012647357 -0.15850319
-0.1070564 0.059586417 -0.11938395
-0.14212021 0.034383163 0.062487718
-0.0023749557 0.04952928 0.11704038
0.11564515 -0.03403604 -0.22326279
0.17036434 -0.046128716 -0.058470767
0.057214946 0.06802361 0.21387923
0.009955865 0.15241542 -0.23389323
0.14442284 -0.05270458 0.27395907
-0.1332789 -0.03615684 -0.4156012
-0.13569047 0.057938088 0.023722205
-0.21559642 -0.032051854 -0.0894121
-0.10929429 0.077684574 -0.13288891
-0.27672175 0.0073219687 -0.33192882
0.13192365 0.020575833 0.2898389
-0.09230543 0.046938527 0.07877833
0.13239242 -0.044443935 -0.06627791
0.19682343 -0.009484753 0.1973174
-0.014331458 -0.026946526 -0.44118625
-0.20097195 -0.003516117 0.02974931
-0.14432195 -0.022553759 0.112549655
0.17207187 -0.030023558 0.18893278
-0.012706837 -0.03651961 0.179873
-0.1809738 -0.022260074 -0.26225743
-0.27214423 -0.04006622 -0.0060835583
-0.19467385 0.043302037 0.010044679
-0.080372356 0.14632294 -0.0757943
-0.09474675 -0.02670933 -0.42998907
-0.021913342 -0.02122821 0.17493053
-0.026913874 0.006937019 0.16664107
-0.01503291 -0.0026326387 0.17906491
-0.2657435 -0.02436711 -0.18645924
-0.05440358 -0.02643107 -0.2591839
0.02286245 -0.044313528 0.19260171
0.15483277 0.058738295 0.24873468
-0.10107771 0.082487926 -0.10554592
0.17784256 0.05024985 0.28864413
0.03138634 0.018676056 0.23444776
0.08790028 0.12577388 -0.115257114
0.049646515 0.07234819 -0.06870037
-0.27159816 -0.0012859112 -0.013589969
0.21738681 -0.06086189 0.25219488
-0.050307248 0.049294025 0.09761782
0.16237326 0.023509994 -0.12719744
0.22791152 -0.0036165847 -0.18434845
0.039076723 -0.05125276 0.21211323
0.085055344 -0.009499436 0.27141172
-0.14390293 -0.048947398 -0.41127014
-0.29634762 0.007173233 -0.09402589
0.11102312 -0.0042276783 0.28176722
0.077464275 0.020427322 -0.10759451
-0.1478017 -0.02306725 -0.2659957
-0.041515514 -0.026136743 -0.2702951
0.104013056 0.0044692955 -0.25095108
0.14575186 -0.0020922166 0.30629233
-0.015649004 -0.02252952 -0.24606502
0.217089 -0.012938676 -0.030849077
0.009041434 -0.053242315 -0.443146
0.032503247 -0.046693563 0.01933222
0.116623245 -0.06504864 0.23833103
-0.031237273 -0.048724685 0.15678333
0.0791257 0.070591256 0.22291934
0.056839447 -0.0154573 0.25374916
0.13437682 -0.070796035 0.2134753
0.25204673 -0.041121237 -0.178803
-0.09616095 0.14226809 -0.16603264
0.14944652 -0.025538571 -0.37513548
-0.29581353 -0.0137250675 -0.05834747
-0.03284068 0.11659932 -0.048527244
-0.2774823 0.010060818 -0.14931859
-0.07698801 -0.042498704 0.0073519433
-0.004261618 -0.08722625 0.13840786
-0.123984754 -0.01768194 -0.36343977
-0.055027056 0.007616351 -0.2331286
0.021966107 -0.046320263 0.018660655
-0.12725519 -0.040085442 -0.0058905953
0.10873171 -0.041975565 0.26590455
0.14786282 -0.043324493 -0.09178801
0.036778033 -0.0017639927 0.23995888
0.20917144 0.0042685526 -0.3002631
0.13746022 0.03903754 0.27935547
-0.065236636 -0.0031681638 0.14050423
-0.07240014 -0.063845426 0.13426104
0.15914237 -0.0021322086 0.3167744
-0.13658531 0.06029025 -0.009641611
0.017582975 0.12729514 -0.04846295
-0.3089017 -0.020982804 -0.19932161
