# .PCD v0.7 - Point Cloud Data file format
VERSION 0.7
FIELDS x y z
SIZE 4 4 4
TYPE F F F
COUNT 1 1 1
WIDTH 1000
HEIGHT 1
VIEWPOINT 0 0 0 1 0 0 0
POINTS 1000
DATA ascii
-0.28912258 -0.0647636 0.10859646
-0.24649869 -0.10442545 0.15297121
0.2564097 -0.08484361 0.0014203221
-0.087043025 0.13464849 0.021562403
-0.18248779 -0.18263562 -0.016945837
-0.011588947 -0.10907414 0.062431216
-0.26158595 -0.15293182 0.06576123
-0.11323267 -0.25519335 0.083019726
0.08594129 0.011458398 0.013344722
0.0746396 0.09705714 -0.031194303
-0.09892424 -0.12070268 0.09804494
0.06714511 -0.2478995 0.065323316
-0.09808766 -0.08895353 0.07299689
0.37579316 0.052077133 -0.039395265
-0.15438314 -0.052107804 0.08652729
0.29567063 -0.056533393 -0.0659999
-0.19711134 -0.014735259 0.008659633
0.20450804 0.10166473 0.007471023
0.15186314 -0.20069076 -0.003973765
0.013113573 -0.14659952 0.031351887
0.026035685 -0.24402393 0.14170745
-0.21809751 0.20447335 -0.014042969
-0.29356283 -0.05562342 0.101306945
0.34857303 0.15681453 -0.0088852905
-0.07669837 -0.23108079 0.15692641
0.108961605 -0.033303734 0.034811348
-0.2463259 0.14804807 0.058375645
0.077249184 0.021551123 0.005943484
-0.12996793 0.040930435 -0.0035442463
0.083609186 0.018971592 0.010878035
-0.29499206 -0.02769004 0.14068861
-0.12149272 0.09200072 0.030145228
-0.10532035 -0.08752575 0.077836305
0.015282362 0.2541936 -0.008507278
-0.1049213 0.06965296 -0.030382907
0.14438798 0.20004776 -0.0027472249
-0.18229143 -0.1648304 -0.021713918
-0.11219826 0.14178303 -0.115914345
-0.25552312 0.07697978 -0.07323914
0.019960087 -0.11255346 0.067054056
0.11963294 -0.19781293 0.06067792
-0.04185414 -0.26690742 0.08040336
0.272223 0.024928326 0.015674349
-0.19127955 0.18026118 -0.09654813
-0.14085126 0.02795772 0.030548776
0.003000965 0.23787671 -0.06929498
0.044014405 0.24115036 -0.025547596
-0.023037475 0.21065013 -0.13805568
-0.023747837 0.15056044 -0.13662592
0.19705503 0.04847362 -0.13361204
-0.10068488 -0.22476901 0.12465364
0.38659668 0.055537514 -0.048308346
-0.241243 0.18573296 0.041855037
0.1768822 -0.14932688 -0.016449058
-0.002568314 -0.24308911 0.08989665
-0.0372904 -0.2609976 0.10268752
0.07650485 0.1952605 -0.11448595
-0.037927534 -0.22660425 -0.031238066
-0.24567585 -0.12928711 0.15216522
0.3316269 0.17065139 -0.00961048
-0.21335675 -0.1474398 -0.021030221
0.073241144 0.079075426 0.0045121363
-0.006374296 0.123655684 0.0022242505
-0.101289265 -0.084036894 0.06808523
0.13090436 0.22420101 -0.006959396
0.024174945 0.09945691 -0.004023461
-0.12758443 0.120387025 0.035692826
0.30215046 0.021721128 -0.16152626
-0.013466401 -0.26240596 0.018190596
0.25123018 -0.078943394 0.013520901
-0.03703943 -0.23006739 -0.03044321
0.061690427 -0.032776706 0.0055875215
0.25552902 0.18093419 -0.1356002
0.38427365 0.12209842 -0.022916159
-0.13056529 -0.23429775 -0.0073424317
-0.27481133 -0.11007701 0.09872858
0.017583035 -0.11198105 0.06647991
-0.003911517 0.26693076 0.005893136
-0.09431046 0.2348454 -0.074047856
0.15006573 -0.017263385 -0.12352522
0.08314654 0.084204264 -0.13715902
0.21924312 -0.042603906 0.032167885
0.15521036 0.17569377 -0.009787471
-0.27371395 -0.10067068 0.046727303
-0.17589976 -0.18761888 -0.016773162
-0.14831798 0.2543338 0.033890534
0.08966059 0.19568048 -0.09122017
-0.24099723 0.15385301 -0.01859455
-0.06507928 0.17985193 -0.13842805
0.2825572 -0.020406922 0.01161057
0.21825263 -0.07478187 -0.11724718
0.33154562 0.12810113 -0.023520121
-0.15696032 0.099547826 0.00944145
0.025628826 -0.022528153 -0.17710131
-0.074111536 -0.26617342 0.07437522
-0.07192744 -0.2622322 0.014693679
-0.31233555 0.0110479 -0.038106497
0.3472696 -0.003311041 -0.070898235
-0.23529229 -0.18937667 0.061765026
0.23537268 0.106424645 -0.008840825
0.30341136 0.18126453 -0.030677456
-0.13772902 0.043746065 0.028857715
0.34239036 -0.012867436 -0.12285489
0.31411195 0.1450783 -0.025190255
-0.1812848 0.17062531 -0.10779105
-0.2549278 0.13267139 0.071109295
0.23755315 -0.10955588 -0.0023324708
-0.096039526 -0.11182915 0.09268082
-0.13344832 0.050627448 0.024718424
0.07206973 0.17433228 -0.14546667
0.38861063 0.081500165 -0.037835773
-0.21264377 -0.18533705 -0.00294796
-0.07781474 0.27329764 0.017655078
0.06332924 -0.24044278 0.11278167
0.16168086 -0.16492341 0.09501387
-0.27505654 -0.043587852 -0.036467116
0.03498533 0.13702853 0.0020222594
-0.12607644 -0.2273346 0.09269178
-0.12044237 -0.18717638 -0.023576634
-0.120590195 -0.05942976 0.026780196
0.11738487 -0.19426814 0.11123388
-0.28372005 -0.02435546 0.13109244
0.31649497 0.0846015 -0.008737178
-0.038659144 0.18573043 -0.1437688
-0.06866949 -0.23093495 0.15541674
0.14343815 -0.21105257 -0.029669797
0.044235058 -0.04956771 -0.06465486
-0.0114163505 0.10236136 -0.011140453
0.41517398 0.048449885 -0.076491676
0.047876216 0.12576398 -0.017391961
-0.056828886 0.108817995 -0.00047701184
0.27444825 -0.08090885 -0.09349388
0.3760231 0.120544456 -0.006804102
0.21222462 0.06672485 -0.0041710194
0.079126775 -0.2341393 -0.0013754066
0.20639358 -0.08529557 0.05202428
0.12049772 -0.0007096 0.020772472
-0.026591394 0.11851594 0.0008988056
-0.2202601 0.10655647 -0.090004824
0.0037580468 0.17603636 -0.14881472
-0.057139605 0.13006517 0.011930603
-0.27210283 -0.089457795 -0.020964477
-0.09442147 0.109480426 0.018133994
0.07616443 -0.020120885 0.015782647
0.18793207 0.012405194 -0.13446096
0.2052453 -0.14484243 -0.07769726
-0.08396159 0.2334581 -0.09004472
0.11920539 0.059093494 -0.13899352
-0.18772887 0.20718768 0.003169988
0.30565313 -0.027700763 -0.01377993
0.10357267 -0.07017694 -0.08209673
0.09936306 -0.06233501 0.044892684
0.021255001 0.23600675 -0.062317066
-0.0055085956 -0.20840192 -0.041580986
-0.22088464 0.06388726 -0.07677436
0.021070434 -0.22452885 -0.042282593
0.3127015 -0.009390601 -0.009176561
-0.030527703 -0.24081495 0.15116982
0.18027185 -0.14802134 -0.059178744
-0.27405185 -0.10649334 0.038134035
0.01141441 0.13791819 0.0039502205
0.39166406 0.05269783 -0.058628973
-0.0032684493 0.13564171 -0.13271442
0.20428474 0.11046252 0.011066188
0.11609009 -0.20874749 -0.002140868
-0.16290295 -0.063378386 0.08931251
-0.11884492 -0.2124735 0.1594925
0.30192617 0.19569813 -0.01110257
0.27747384 0.15597554 -0.03446024
0.054228295 0.19183457 -0.13959868
-0.13794735 -0.04570409 0.06862675
-0.1874705 -0.025178757 0.046798207
-0.17038749 0.2615946 0.022053316
-0.28425315 0.11466524 0.07457878
-0.28440142 0.05255647 0.05889374
0.03887793 0.1739464 -0.15142986
0.3891782 0.09872395 -0.023655767
0.08631064 0.045748387 -0.09476054
-0.11686158 -0.15673357 -0.008845037
0.114435755 -0.11548493 -0.08913825
0.15207636 -0.03321162 -0.119483076
-0.26698327 -0.0978832 0.14249918
0.13723579 -0.21045126 0.03716683
-0.088112324 0.15261568 -0.12525126
0.017030243 0.1472706 0.0027407252
0.112435885 0.0501254 0.012254059
0.30896702 0.07773936 -0.0054620025
-0.2744953 -0.04026663 -0.037819296
-0.2381216 0.18951234 0.03531337
0.2224243 -0.003459097 0.021054512
0.22871152 -0.055995945 -0.12608401
0.012445814 0.14509764 -0.14289603
0.00842731 0.15421169 -0.14502709
0.019413155 0.1314111 -0.13807158
-0.17746755 0.010480684 0.07540291
-0.14890306 0.147996 -0.11452047
0.07057698 0.077588834 0.0039988495
-0.19674973 -0.03994082 -0.0034770845
-0.16345608 -0.051188074 0.09016248
-0.21440372 0.21142173 0.021974085
0.2339399 -0.12047443 -0.0632488
-0.16208605 -0.058304742 0.09231357
-0.04504735 0.17645974 -0.1413944
0.18765585 0.006040681 -0.13402982
0.3095422 0.15253513 -0.02740128
-0.19926913 -0.15848072 0.15927719
0.13239534 -0.18465996 0.08372482
0.10078009 0.12761751 -0.15079296
-0.24328618 0.06617504 -0.07462469
0.06857657 -0.084763914 0.052466802
0.11998794 0.036669847 -0.13234714
0.08387198 -0.23093858 0.119149946
0.14837782 -0.16573858 -0.06858639
0.26237628 0.11813269 -0.011799968
-0.15141438 0.2589971 0.028463887
-0.1226462 0.13590318 -0.11130024
0.041728746 -0.050753415 -0.09043044
0.059165705 0.11087592 0.0030016238
0.24739853 0.139858 -0.03537496
0.11797705 0.20585567 -0.016653007
-0.2781434 0.09685127 -0.034520634
0.16402218 0.11039877 -0.109741524
-0.008515309 -0.22123267 -0.03810564
-0.25718847 0.055432048 -0.06849328
0.050496474 -0.06275806 0.021544145
-0.022494009 -0.27675372 -0.016184509
-0.02902178 -0.1350033 0.08860148
0.2916966 0.067769766 0.0004551192
0.4000597 0.06313175 -0.116888784
0.08193351 0.20013918 -0.09301379
-0.13672914 0.123055615 0.037802182
-0.20579317 0.2139125 0.057493392
0.1947704 0.11574123 -0.0043492657
-0.26713312 -0.05509932 0.14310692
-0.1892632 -0.08160085 -0.012863357
0.036629483 0.07900245 -0.009666011
0.087568484 0.045841973 0.009699764
0.08240741 -0.099570744 -0.0046947002
-0.22656508 0.19590673 -0.01838572
0.07752457 -0.10450979 0.015489519
-0.021513656 0.101007 -0.0136334505
-0.12954788 -0.22212018 -0.014989084
-0.08195911 -0.13812682 0.07245965
-0.30501828 0.015784934 0.078631274
-0.13238965 -0.21109517 0.16158986
0.15844198 -0.16418108 0.09540104
0.19911867 0.14000759 -0.020152783
-0.13939907 -0.01637318 0.03457198
-0.06610639 0.27690455 0.014515037
0.40215635 0.026806224 -0.19137895
0.060543917 -0.2534323 0.051407017
-0.16377836 -0.0057627093 0.07218536
-0.08671578 0.25039476 -0.015069334
-0.3111615 0.057376176 -0.02600737
-0.27966648 -0.045083266 0.085471295
0.023870898 -0.2748911 0.012815134
0.41136017 0.035450358 -0.11308213
-0.26114136 -0.14995112 0.07227678
0.12284537 0.1881964 -0.050749317
-0.12975763 0.097757995 0.036261067
-0.27209902 0.12836932 0.09328148
-0.04851616 0.21117589 -0.13625081
0.32066494 0.029805109 -0.0034276687
-0.13267514 -0.13465534 0.012316314
-0.09513597 0.15651557 -0.12613033
-0.22876363 0.13349113 -0.088352956
0.17108539 0.13444422 -0.045650754
-0.17055115 -0.22764581 0.09379686
-0.0010649823 -0.20815507 -0.042552967
-0.26615632 0.11577015 0.018559398
-0.011934396 -0.26578933 0.078414515
0.29694268 0.075149976 -0.0025456974
-0.15586202 0.24002276 -0.047650356
-0.050538883 -0.11169007 0.07393735
0.11181363 -0.059382796 -0.09382386
0.39529797 0.040425017 -0.12570143
-0.10308874 -0.110363975 0.09475906
-0.23956229 -0.16319476 0.10460766
0.098179646 0.02196547 0.016335566
0.06298729 -0.231707 -0.037129138
-0.14097011 -0.02973113 0.057371024
-0.27884948 0.09071397 0.0019729594
-0.19594744 -0.18446131 0.15657526
0.04089196 0.11242523 0.0017093605
0.045161493 -0.21250394 -0.050340537
0.26467934 -0.08946118 -0.07420077
-0.30308872 -0.030635452 0.14131752
-0.070160784 -0.141901 0.069543414
0.04694032 -0.22829418 0.10047453
-0.069951035 -0.2469965 0.14995459
0.007900664 -0.14228643 0.061035022
-0.15194967 0.26181236 0.03213631
0.15423167 0.07953396 -0.13870944
0.34166238 0.16319023 -0.026222901
0.103359096 -0.048739333 -0.047422178
0.0990072 -0.07347761 0.048891354
0.1246931 0.18202889 -0.06285175
0.26881096 0.07958453 0.0013750884
-0.20446625 0.097061895 -0.08977444
0.04241665 0.09760054 -0.106609344
-0.25343427 -0.14994356 0.0073711863
-0.28444204 -0.03329078 0.14024363
0.37006104 0.037108377 -0.19935116
0.30981243 0.03795856 0.0017941463
0.014346116 -0.0967151 -0.051815785
-0.08945879 0.117911085 0.019174844
0.27406424 0.1827156 -0.07864454
0.1046203 0.039805904 0.014244647
-0.27339467 0.10589769 -0.03423698
0.313117 0.17165652 -0.030464815
0.28793168 -0.06249858 -0.04188992
0.35713828 0.005720953 -0.08512799
-0.20605695 -0.012996397 -0.029699024
-0.2530592 0.07250451 -0.073362336
0.1312788 -0.07117483 -0.104674175
-0.014783134 -0.104520395 0.052513614
-0.15228356 -0.012666169 -0.05639734
0.27920827 -0.028793355 0.011963278
0.17756963 0.10146974 -0.08241403
0.24707548 0.023145868 -0.1524505
-0.057313252 0.1380892 0.013686041
-0.054565597 0.07682484 -0.08254009
0.08659358 -0.20649934 -0.05563273
0.08587331 0.099360816 0.00363823
0.2588601 0.0964905 -0.0017137206
0.2583353 0.10419355 -0.0052067554
-0.29019296 0.11047035 -0.0147212045
0.19922905 0.1424265 0.0031521078
0.017254476 -0.13421156 0.08074221
-0.2778795 0.046487056 -0.055829268
0.09796904 0.17384942 -0.1285273
0.14960583 -0.17181112 0.051618896
-0.10376827 -0.23086642 0.16181986
0.28351253 -0.07014984 -0.07731301
0.22216378 0.013380548 0.018285083
-0.26710024 -0.10375433 0.13328984
-0.12242711 -0.25143775 0.08582831
0.024496166 0.047294702 -0.07000965
-0.17379159 -0.122449555 -0.01753735
-0.053143185 -0.25989017 0.1464626
-0.09067302 -0.23717141 -0.017255243
-0.14472565 0.2068106 -0.108507216
-0.14014299 -0.23315719 0.118479185
-0.012070981 -0.26159805 0.09439403
-0.16475624 0.25941417 0.03102672
-0.014542848 0.16243923 -0.143099
0.07081323 -0.0792798 0.04968421
-0.1557319 -0.0053832005 0.06429604
-0.0783391 -0.15912409 0.010109544
0.049256343 0.1738841 -0.15037425
0.25074747 0.19109087 -0.12623778
0.24514131 -0.013308519 0.03047022
-0.060300127 0.09865667 -0.011220733
-0.31654847 -0.0008874056 0.01834385
0.24135055 0.021013921 0.029019106
-0.2756929 0.12922923 0.09370086
0.075019 0.2143338 -0.06712652
-0.056348413 -0.1296871 0.09177959
0.16016442 0.13157094 -0.079848915
0.062989905 -0.12403538 -0.035665274
-0.09825046 0.2550916 0.019989075
0.38130093 0.11079455 -0.014530235
0.09280587 0.23210086 -0.0021724035
-0.13677533 0.060782857 0.034223825
0.04447985 -0.23176825 -0.040544506
0.37794405 0.05496464 -0.040091034
-0.20598546 -0.22289042 0.04479497
0.10768813 -0.23766495 -0.0013074769
0.10390609 0.073201396 -0.14001961
0.30669054 0.16098489 -0.031386577
-0.29106605 -0.1164885 0.037013438
0.105094485 0.031484265 0.016032243
-0.13546525 0.03404343 -0.05890279
-0.22824922 -0.1849918 0.08663561
0.124464035 0.004953182 -0.123229295
0.24872434 0.110932656 -0.008950636
0.27355 0.15312508 -0.03362867
-0.2826188 -0.012341542 -0.04132226
-0.16462606 -0.20881736 0.14896119
-0.28366163 0.04613866 0.07637236
-0.27987915 -0.09766477 0.101081386
-0.2927199 0.090602264 0.0705924
0.081572294 0.24874811 -0.0047203037
-0.23811957 -0.1743362 0.08711981
0.2136528 0.061111473 -0.0041452996
-0.025282482 0.14159992 -0.12982033
-0.20243122 0.18869928 -0.05086219
0.069478095 -0.11156316 0.03069456
0.093269534 -0.21652935 0.12180208
0.30404449 0.007688124 0.0032414051
-0.04864689 -0.23798354 0.1537024
-0.102538794 0.1372276 -0.1113196
-0.31719932 0.011650968 -0.024315562
-0.21873583 -0.13889661 0.15742402
-0.011338024 0.13880888 0.0058635566
0.30363074 0.17760359 -0.038108554
-0.068798244 0.12430618 0.013314259
0.17836097 0.12578793 -0.04070279
-0.046949882 0.2413834 -0.06974424
-0.13831517 0.11473631 -0.025326109
-0.05519809 0.14427315 -0.124126
-0.27319655 0.14082704 0.011744004
0.11832915 -0.09882718 -0.09367476
-0.20303006 -0.17248209 0.10956044
0.20894714 -0.12292225 0.07475081
0.1291331 0.18553872 -0.045550667
-0.19154607 0.20934677 0.03431703
0.40533146 0.08417211 -0.024622414
0.22126064 -0.09593263 0.03830463
-0.07514145 0.14242294 -0.11874256
-0.1316958 -0.08558304 -0.05251453
0.27881882 0.18503538 -0.06929919
0.20768297 0.13386351 0.0039732885
0.10934654 -0.20217845 0.114892475
-0.13031489 -0.12549825 0.03801615
-0.066428445 0.14346734 -0.12110867
0.30738097 -0.029605629 -0.017839922
0.38323542 0.031696443 -0.09853113
0.266582 0.019090919 0.01835692
-0.11179198 0.25393873 0.02922512
-0.030019553 -0.1463922 0.06789123
0.02762722 -0.11779419 0.07113346
-0.21321717 0.17889765 -0.06295043
-0.17862724 -0.21081446 0.06264316
0.30652612 0.119266696 -0.016498871
-0.2262683 0.13135003 -0.09096632
-0.18206719 0.005587282 0.07835289
0.05621274 -0.010568248 -0.032204412
-0.140431 -0.2371298 0.10706496
0.21014075 0.081426255 0.004525761
-0.27819714 -0.07566125 0.13624948
-0.031265114 0.25111967 -0.034607604
0.095431246 0.034116443 0.013270026
-0.15201692 0.10062826 -0.036508817
-0.16186273 -0.08883295 0.046957277
0.07907538 -0.24426852 0.05891618
0.17546283 0.11150663 -0.07351331
0.18146215 0.14457645 0.0026865422
-0.08148434 -0.2234209 0.14433467
0.112337716 0.08663556 -0.14535293
-0.26777387 0.14914721 -0.025233021
-0.14592351 -0.21562323 0.16026478
-0.031390026 -0.11174104 0.06829315
-0.2951236 0.0030826584 0.0328814
-0.0963793 0.1280153 0.024122138
-0.16343099 -0.016464481 -0.14569244
0.0422861 -0.19295505 -0.054856762
-0.17064027 0.21674375 -0.014133941
0.35205483 -0.0018407922 -0.111511014
-0.2936952 -0.034355674 0.14174643
-0.2869753 -0.08665014 0.0023495513
-0.11262041 -0.2280092 0.16264951
0.22415781 -0.04903326 0.05153508
-0.02999566 -0.22446875 -0.03328042
0.26132345 -0.047582135 0.019558417
0.16235627 -0.031993747 -0.12091176
0.028932372 0.11788835 0.0017188279
-0.27186048 0.097436234 0.05684813
-0.15436095 -0.042997107 0.08199785
0.311492 0.113658324 -0.19967556
0.116952136 -0.039332908 -0.10340498
-0.29719967 0.04372183 0.11086777
0.3629542 0.12819844 -0.01658245
-0.10159762 0.13868286 -0.112859026
-0.19979121 -0.15593694 0.15866965
0.14972985 0.11071075 -0.1338682
0.024744835 -0.087933846 0.03592789
0.025955848 -0.08594026 -0.07302305
-0.0042139525 -0.21781634 -0.03983742
0.11494222 -0.21134953 -0.015679196
0.10426795 0.029550062 0.01623454
0.31470078 -0.037016194 -0.069099806
0.048551213 0.044429492 -0.019653635
0.262494 0.1034491 -0.004792763
0.13513371 0.16210283 -0.083494395
-0.028414946 -0.2498573 0.07158503
0.09340182 -0.06752366 0.046964668
-0.29576206 0.03232759 0.12416947
-0.021128789 0.068417214 -0.093055494
0.09404787 -0.07075803 0.048094913
-0.04169151 0.24415596 -0.060152825
-0.11350746 -0.2600621 0.06813369
-0.13276127 -0.22911407 0.13862646
0.30855456 0.18136491 -0.058721587
0.03161259 0.05210954 -0.042715676
-0.2824113 0.034685105 0.0908293
-0.20078616 -0.15197995 -0.022074819
-0.051176067 0.23669094 -0.08657076
-0.06925841 -0.25642553 0.10851214
-0.22474127 -0.14803044 0.16104792
0.13977414 0.20284253 -0.0026759729
0.01917338 0.11201479 -0.00038046046
-0.044317205 0.24320911 -0.06332304
0.11875955 -0.23078403 -0.028665265
-0.16178241 -0.093340136 0.040705647
-0.046393506 -0.23455772 0.15234262
-0.12619123 -0.16891362 -0.019633656
-0.0790642 -0.18635626 -0.02377716
-0.034145918 0.14869772 0.0104409745
-0.27503452 -0.007964645 -0.046678733
-0.20514475 -0.22669543 0.013182801
0.24702981 0.033371195 0.01813995
-0.01541499 0.1018692 -0.011761276
0.015131435 0.26067278 0.0041387267
-0.19898142 0.22410177 0.023599688
0.23757343 -0.029489057 0.043675862
0.00797919 0.24387811 -0.046635795
-0.011429734 0.11693173 -0.0012629197
-0.09697107 0.23358953 -0.0767231
-0.18835095 -0.17428048 -0.018183356
-0.29210868 -0.015921017 0.04467353
-0.2700332 0.06572116 -0.06364022
-0.12858394 -0.23717129 0.12078906
0.09729428 -0.07192208 -0.037538186
-0.15857305 -0.2530605 0.04118387
0.1241546 0.021929929 -0.1288316
0.13734302 -0.06759615 -0.10727917
0.056256887 -0.2257052 0.13111176
-0.29518187 -0.025970278 -0.022092609
0.09241352 -0.2166466 -0.044895276
-0.14859606 -0.039281663 0.0755457
-0.21246931 0.18706241 0.009113481
-0.048664723 -0.20932074 -0.032612216
0.30288422 0.03678608 0.0046466426
-0.09515117 -0.26866528 0.055002328
-0.072026305 -0.16965145 -0.011058178
0.32260555 0.16344072 -0.027695155
-0.27748847 -0.10464098 -0.0030640743
0.09192529 -0.08528625 -0.004028625
-0.3092178 -0.022352217 0.1258658
-0.016659698 -0.26188168 0.09496996
-0.27846217 -0.048177607 0.14326611
0.19464861 0.11081009 -0.012295532
-0.18850344 0.0382043 0.01801356
0.2681051 0.04765126 0.010334883
-0.113667876 0.12601615 0.030677889
0.37049764 0.03419936 -0.20473146
-0.18263377 -0.19092424 0.16323307
-0.27956933 0.1161654 0.09802264
-0.088842385 -0.2766704 0.006191733
0.30159077 0.014465538 0.0058595333
0.35295853 0.01644732 -0.038115345
0.030988883 -0.01126034 -0.14572148
-0.2783365 0.021189302 0.11939171
0.22429317 0.043918062 0.025806623
0.34910664 0.020886669 -0.029410591
0.064848356 0.23247068 -0.02811893
0.16472186 0.1331613 -0.06494155
-0.27192375 0.098281026 -0.054729626
0.24251576 -0.08434739 -0.054184493
-0.14027049 0.12086752 -0.09733011
0.038456388 0.006921453 -0.09764938
0.027138142 0.03839697 -0.07974688
0.23081248 0.046280224 0.023960538
-0.08545911 0.117222235 0.017012773
-0.25943393 -0.086053334 0.15025795
-0.17931691 -0.0044813305 0.08032113
0.015157841 0.25700894 0.0005147216
0.2435965 -0.027260037 -0.13787505
0.3103411 -0.03203119 -0.025220025
0.2559427 0.072625265 0.0056547015
-0.24439012 0.14877717 -0.03643069
-0.30462557 -0.06386773 0.047888033
-0.06921395 -0.25470182 0.1146921
-0.2006893 -0.20718184 0.030639378
0.32858208 0.13784972 -0.025673542
0.035798937 -0.0918431 0.049692977
0.39962393 0.06292086 -0.05992821
0.2565202 -0.061601352 0.018407848
-0.13184613 -0.25032818 0.07913505
-0.13088092 0.04030539 -0.0007102397
0.2414032 -0.08424646 -0.039609917
0.22689594 0.09127994 -7.495625e-05
-0.000547257 -0.25047028 0.05827367
-0.06494405 -0.102855235 0.06670969
-0.14036521 -0.0025501456 0.026028773
0.080028154 -0.14434044 -0.071315385
-0.1758728 0.0723329 -0.014862362
-0.1715337 -0.06727939 0.057789728
-0.14489923 0.11363047 0.041742828
-0.26575008 -0.1638836 0.034758512
0.030994102 -0.043751117 -0.16708729
-0.0827624 -0.24901277 0.12763521
0.3486753 0.07514473 -0.015960187
0.009382444 -0.2728197 0.038451932
-0.064593546 0.086692154 -0.03753684
0.015062281 -0.22856903 0.1394417
-0.13874719 0.099535756 0.041001108
0.3516688 0.10537723 -0.021224683
-0.19305654 0.21121891 0.055908043
0.08313552 -0.09791501 0.024311459
-0.21821062 -0.19065468 0.09615786
-0.15540232 0.10655491 -0.08637148
-0.13127612 0.24507552 0.02892757
-0.1564926 -0.17330888 -0.022371527
0.18003905 0.015780091 -0.13017307
-0.2810256 -0.08266916 0.11759411
-0.27824584 0.05102009 0.115795374
-0.26393166 -0.0075495965 -0.050460164
0.042460825 -0.09877145 0.057840638
0.015264275 -0.10059764 -0.107867025
0.22448012 0.009165469 0.031546928
-0.04678744 0.121118136 0.005853931
-0.06288715 0.14584161 -0.12427442
-0.15121824 -0.035458047 -0.049241964
-0.13064168 -0.23268844 0.13121863
0.18951942 -0.15261778 0.06445027
0.073196426 -0.10244013 0.06154261
0.3089782 0.0677324 -0.0027353617
0.09693461 0.0788269 0.0067689507
0.083013006 -0.050164152 0.03604828
-0.1409971 -0.057484895 0.080436625
-0.17713028 0.07021202 -0.00989805
-0.17001589 -0.24331427 0.052478634
-0.06711485 -0.24355498 -0.018811263
-0.13798395 -0.12197792 0.034361824
0.34366134 0.06606528 -0.013385153
-0.16146576 0.029655695 0.06004313
0.36948958 0.10329345 -0.025949579
-0.2498693 -0.18120834 0.043184694
-0.04079844 -0.23089263 -0.029527104
-0.06311357 0.108032085 0.000793622
0.26924118 -0.07429007 -0.00860867
-0.10819188 0.18787198 -0.13062449
-0.22145683 0.17966917 0.02783705
-0.3066478 0.05820366 0.018133018
-0.21962702 0.18780646 0.067243956
-0.1322943 0.03723768 -0.014084739
0.2019524 -0.113773145 0.07350055
-0.032994717 0.12434405 0.004497603
0.0818806 -0.24519637 0.046280663
0.32737684 -0.016557213 -0.035782617
0.033835456 -0.12587951 0.07504643
0.14244077 0.11061525 -0.13905567
-0.29442766 -0.038061768 0.13043341
0.010342211 -0.14237136 0.056603905
0.2840404 0.17106186 -0.045201436
0.0057185884 0.29137668 -0.0026293003
-0.19510065 0.1929693 -0.056158353
0.19944388 0.033662144 -0.13921973
-0.25035554 0.12850294 -0.069072105
0.23165813 -0.10768541 0.014841768
-0.018534264 0.14766422 -0.13637486
0.003894877 0.13117722 -0.13155214
-0.18984948 -0.17724122 0.16274199
-0.20343868 -0.17590839 0.16485995
0.263448 -0.022886377 0.023453763
0.33750606 0.029970825 -0.014426076
0.2166079 -0.05307037 0.040881366
-0.22527228 -0.1799379 0.15265867
-0.10767929 -0.117179714 0.09675681
0.23885378 -0.07742748 -0.10783725
0.032979183 -0.09081391 0.046679
-0.16111144 0.2527659 0.016094893
-0.14307947 -0.0060890624 -0.002592254
-0.18886372 -0.0050960174 0.05196893
-0.13241293 -0.11593351 0.05862273
-0.19017173 0.2057878 0.0051003024
-0.14648663 0.23728701 -0.081378795
0.2111865 -0.094830155 0.06657297
-0.02965669 0.1441946 -0.13093872
-0.098702595 0.09371306 0.011856003
-0.035611082 0.1229229 0.0041927937
0.045663107 -0.05063469 -0.0442118
0.29273677 0.19097215 -0.032781485
-0.23337497 0.16639347 0.033189204
-0.1322332 -0.22130653 0.1610143
0.20796145 -0.08599865 0.06472054
-0.25145388 -0.12206507 -0.018759781
-0.051625375 -0.10684822 0.06745657
-0.10491386 0.25857225 0.026684964
0.26445767 0.023137998 -0.1556286
-0.031174129 0.27122524 0.009693931
-0.19540064 -0.21595925 0.079185165
0.08998997 0.12541209 -0.15069747
-0.06467103 -0.24760407 -0.01672777
-0.08037156 0.25813577 0.011677543
-0.2751554 -0.08464101 0.06414891
0.09851581 -0.05736165 0.04319646
-0.06301662 -0.14003749 0.080086626
0.22714238 0.102975585 -0.12213941
-0.14603508 0.060811974 0.044216447
-0.28879628 -0.0018210222 0.13233757
0.16935883 -0.15981847 -0.049777012
0.24852549 0.03157027 0.018364223
-0.2730233 -0.12843825 0.075731784
-0.18257564 -0.21667372 0.041331373
0.021286055 0.089777455 -0.010631981
0.26453692 -0.087038286 -0.044406045
0.055876736 0.09132245 -0.12204659
0.2902794 0.115666874 -0.012530877
0.2981004 -0.015077516 0.0012572552
0.27302024 -0.06067995 0.0013201617
0.14088692 0.15381843 -0.0884664
0.042805716 0.24302663 -0.020942526
-0.13562676 0.094423555 0.03929323
0.10264126 -0.24039775 0.0036324628
0.31573236 -0.034632493 -0.05390393
-0.2804887 0.052941043 0.115674436
-0.14686859 -0.10336129 0.05669902
-0.29904008 -0.00198473 -0.018721059
0.032116294 -0.24316618 0.14035721
0.051546786 0.009617705 -0.042628173
-0.15067953 0.0067331484 -0.090739
-0.050779555 0.13453835 -0.11074424
0.021840582 -0.25611565 -0.008097895
-0.17888309 0.00839176 0.0764532
-0.1952354 0.025460316 -0.012091823
0.05401947 0.019121878 -0.024748757
-0.3154543 0.021488193 -0.027980076
-0.29592955 -0.070478015 0.076743565
0.080277756 0.07574052 -0.056609012
0.03625128 0.07986173 -0.009469135
0.12157104 -0.21885619 0.06136018
0.3455197 0.047071688 -0.01634646
-0.22388156 0.19951893 0.06478368
0.29056934 -0.0160216 -0.14151071
-0.112221785 0.0652326 -0.019177046
0.13518019 -0.19365159 -0.027673531
0.32777977 0.14184076 -0.026630327
-0.103225455 -0.25260016 0.0045453175
0.36519316 0.095957324 -0.023693254
0.26862764 0.15505129 -0.037566774
-0.18748039 -0.18996741 0.15733777
0.11574832 -0.20844214 0.0027563071
-0.047047287 -0.24983276 -0.01867313
0.100466415 -0.061700836 -0.043495778
-0.2146249 -0.14783439 0.13686243
-0.21786918 0.11066124 -0.09154957
-0.0061626895 -0.14908831 0.044753708
0.3371106 0.09272647 -0.014961243
0.022940785 0.13949578 -0.14313188
0.2540838 -0.07434243 -0.09243467
-0.1289055 0.037633188 -0.1276148
-0.20750166 -0.1885271 0.12409369
-0.2620487 0.122662984 0.028776787
-0.17845838 0.045963876 0.06632749
0.1383819 0.18609726 -0.024208007
-0.26052445 -0.061959606 -0.03603748
0.25760087 0.02983907 -0.15622708
-0.032831013 -0.23599787 0.15025891
0.034241814 -0.2573025 0.07739008
-0.0861843 0.2604792 0.022730647
0.04568758 0.17698242 -0.14974912
0.35386854 0.06936476 -0.017938687
-0.023205202 -0.10182186 0.04259034
-0.19410673 -0.07032793 -0.015165331
0.090937845 0.23865736 -0.0036437053
-0.15198576 -0.09565466 0.06148006
0.011613155 -0.1112923 0.06588832
0.16855404 -0.18236506 0.00729919
-0.054584462 0.0750523 -0.08909678
-0.06216127 -0.117899306 -0.035625365
-0.1984561 -0.16620217 0.16126388
0.008191231 -0.14652482 0.040514562
-0.037057545 -0.15428366 0.039585564
-0.25467664 -0.10909123 -0.022358969
-0.05988588 -0.1084731 0.07329653
-0.06798492 -0.15182617 0.04011697
0.03918463 -0.2150441 -0.048544746
-0.0136716915 0.07815779 -0.056740277
0.2155395 -0.051887106 0.025917178
-0.22571754 0.17601305 0.044606995
0.06703365 -0.23951538 -0.021114683
-0.3076231 0.016934283 0.06464001
-0.15416639 -0.22944853 0.11201743
-0.19642791 0.19668554 -0.025747143
-0.06684441 0.14069316 -0.117851965
0.3247667 -0.026026862 -0.06302535
-0.04168948 0.24241135 -0.066609584
0.23974729 -0.111133516 -0.024969866
0.084898375 0.037074063 0.009397753
0.0820455 0.21061644 -0.06584232
-0.20840198 -0.1497717 0.15854031
-0.11171101 0.049187448 -0.12984797
-0.25345415 -0.07752033 0.14680435
0.16502278 0.19745243 -0.021708226
0.0014699864 -0.24112837 0.14540172
-0.30626756 -0.027618557 0.13603343
0.1145451 -0.21139184 -0.028381066
0.16158547 -0.16433083 -0.05683656
0.24598633 0.15134524 -0.056775317
-0.17437819 0.2197596 0.024548473
0.3336923 0.11094415 -0.019168464
0.17764218 0.123444766 -0.11112093
0.019239297 -0.24611597 0.14078288
-0.25674587 -0.110442005 0.15567552
0.05185805 0.026041986 -0.025732122
-0.1273203 0.11013194 0.03568897
0.032574542 0.15335467 -0.14920834
-0.29985744 -0.02674267 0.002245904
0.09085402 0.012202614 0.01594639
0.075815044 0.047583576 0.004841056
-0.016833017 0.21435444 -0.1345688
-0.05324237 -0.2550004 0.11978843
0.060970116 0.07289994 0.00073745794
-0.28366518 0.080354765 -0.0071599972
-0.24587952 0.14859526 0.06604429
-0.033778086 0.2186453 -0.13209203
0.031256415 0.044338495 -0.05785446
-0.11905277 0.102261364 0.030986302
-0.19814052 -0.18876287 -0.009601361
0.36131507 0.05473947 -0.025201023
0.33908415 -0.015878782 -0.11791797
0.40075243 0.026075229 -0.15656929
0.19259262 0.09570398 -0.04177929
-0.19686387 0.21139444 0.056556117
-0.030433191 -0.26087824 0.10247623
-0.12816572 0.22751936 -0.06395807
-0.005659885 -0.26163864 0.0134322075
-0.13563493 -0.22854152 -0.009498018
0.21656358 0.05916221 -0.14559437
-0.046973128 -0.10698237 0.064654194
-0.15382795 0.100771725 0.046698514
-0.07004874 0.14387205 -0.035193484
0.117380634 0.18284969 -0.07300353
0.27238166 -0.0700381 -0.008713366
0.12830047 -0.092966564 -0.09838844
-0.03964709 -0.1949855 -0.032749537
-0.15071373 0.085874066 0.047546413
-0.16936521 -0.07441288 0.053202733
-0.2656015 0.118258335 -0.04156901
0.3080632 0.17949337 -0.024408678
0.32694653 0.10005349 -0.014922451
-0.28615034 -0.011388205 0.07577616
0.083865926 -0.03617337 0.029360723
-0.27578005 -0.15105791 0.029465923
0.038883224 -0.08471006 0.042157166
0.13825583 0.20064284 -0.0017898374
-0.2851399 0.14662062 0.07221108
0.27032724 0.009591642 0.019109078
-0.03469277 -0.15250139 0.045879025
-0.16254851 0.18646304 -0.112013064
0.09879881 0.016848285 0.017659266
-0.23506281 0.16552219 0.046728864
-0.21372081 0.20949782 -0.001195874
0.10521754 0.21623313 -0.013362177
-0.2703898 0.11967589 0.095372275
0.38510725 0.03142322 -0.12424685
0.18900539 0.1255933 -0.009250861
-0.2562975 -0.14274372 0.09854887
0.28497952 0.03698511 0.009924432
-0.27388665 -0.09967232 0.11737929
0.14091223 0.15176508 -0.092089094
0.086448126 0.05445743 -0.117533915
0.2706503 -0.081479006 -0.053633954
0.019279063 0.121238425 0.0017492904
-0.13598089 -0.08753164 0.09488198
0.31894973 0.16608755 -0.029489286
-0.11501528 0.15209655 -0.12121724
0.13964644 0.11441338 -0.13955215
-0.22838046 0.124393165 -0.08977297
-0.10731906 -0.23243192 0.15765843
-0.27690396 0.14741915 0.08432775
0.061106578 -0.083287075 0.04986753
0.13304733 0.17762458 -0.05425594
0.05356377 -0.023333473 -0.03834901
0.29195213 -0.0009540052 -0.15118498
-0.19491722 0.20363075 0.01229441
0.2989203 -0.03870718 -0.01462516
0.16279638 -0.18795773 -0.056168478
0.10896845 -0.0029333518 -0.042771906
-0.30617985 -0.051924914 0.052322365
0.030627916 0.25378013 0.00050744275
-0.28783828 0.0397614 0.054286793
-0.31193215 0.049942926 -0.011342285
-0.12728289 -0.1157928 0.0677904
0.047100734 -0.26408184 0.02730134
0.23687446 -0.0152033465 0.0398531
-0.003925505 -0.2551357 0.041965377
-0.115330584 0.057103727 -0.063814744
0.27526808 0.090943836 -0.0029473568
-0.16967238 0.1853084 -0.10842476
-0.29543033 -0.05634726 0.09321594
-0.26643887 0.1202537 0.094489716
0.18417177 0.09760054 -0.06737538
-0.17844503 0.06832524 -0.019377856
-0.018525995 -0.13716398 0.087665536
0.075012244 -0.15018743 -0.0689674
-0.0142249735 -0.23241691 0.14586468
0.10253606 -0.041145273 0.037244733
0.03179055 0.112141065 -0.12560926
0.2705315 0.0952593 -0.0032743255
-0.16327436 -0.02245158 0.07826359
0.1243986 -0.19110875 0.10907684
0.10730084 0.19223079 -0.0685224
-0.1944649 -0.018830586 0.020251352
0.1738054 0.11523271 -0.07304877
-0.03544826 0.1096814 -0.0048566023
0.090148054 -0.18450327 -0.066097915
0.08781791 -0.036337335 0.031302404
-0.097479686 0.13423802 -0.106595874
0.21608895 -0.09904828 0.058834303
0.105055965 -0.041938983 -0.043716848
-0.024898449 -0.12165414 0.07800143
-0.07036925 0.24942394 -0.032357637
-0.18959077 0.02791248 0.029692013
-0.20129484 -0.040764987 -0.017398985
0.061683405 -0.13116921 -0.048180304
0.101775706 0.025301198 0.016597603
0.038792256 -0.117714696 0.070879765
0.23544809 -0.05785804 0.051909678
-0.17201327 0.2471482 0.042122304
-0.03869334 0.19533753 -0.14344832
0.1330382 -0.14735936 -0.08382925
0.4006111 0.047190353 -0.102800205
0.06579586 0.06818325 0.0019084496
0.21958727 0.07304003 -0.14306945
-0.23656379 0.13943535 -0.07964446
-0.316809 0.020396847 -0.0011779694
-0.08803094 0.14646697 -0.12114164
0.1247066 -0.19184737 0.07541037
-0.03032271 -0.26938146 0.07065713
-0.1766454 0.05715697 0.06307117
0.11815758 -0.21887803 0.110813886
-0.20040251 0.21689853 -0.026601864
-0.05778109 -0.21732558 -0.030076452
-0.065162666 -0.24240993 -0.019869488
-0.13198154 -0.25231043 0.073246606
-0.23881164 -0.12809308 0.15810998
-0.060059436 -0.10072267 0.056747064
0.06349941 0.21790653 -0.07181366
-0.058166277 -0.28049 0.02807839
0.067527376 0.015769674 -0.003331904
0.33697152 0.03782352 -0.012484253
0.32001776 -0.008022646 -0.015938565
-0.009470045 0.041169293 -0.15381205
-0.19541472 0.02828821 -0.019119699
0.25627336 -0.0905971 -0.010133996
0.22157143 -0.023392461 0.025444837
-0.032165915 -0.25304905 -0.017765902
-0.12668483 0.09284801 0.034168437
0.3413887 0.16668005 -0.010298806
-0.2891083 -0.007314444 -0.0369007
-0.078046665 -0.22607294 0.15578793
-0.23192525 0.18571006 0.07007403
-0.11354067 0.1521964 -0.12148515
0.0052177203 0.2835447 -0.013161648
-0.02215113 -0.10672274 -0.0018074858
0.28613514 0.21570079 -0.013744559
-0.1639594 -0.2304767 0.09549734
-0.1947026 0.014275724 0.011139397
0.14659077 -0.17597653 0.03967394
-0.06495375 -0.2706765 0.06348437
0.27170685 0.15001358 -0.03163345
-0.28667572 -0.0090768365 0.1339563
-0.07450565 0.13708973 0.018079273
0.1537378 0.21210566 -0.0077922815
0.24987686 -0.051454265 0.027068581
-0.28155267 0.11196266 0.09954748
0.05362072 -0.23432142 0.13397671
-0.096695475 -0.2164009 -0.023306547
0.016301638 -0.25356236 -0.017065555
0.10928259 -0.029311094 -0.09613617
0.24768126 0.10602965 -0.0064229257
-0.30099234 -0.028879669 0.1420516
-0.16989958 -0.08906726 0.023440626
-0.06777436 -0.19419928 -0.027976774
-0.04517241 -0.114360906 0.07577755
0.068684526 0.08883198 0.004017547
0.015995078 0.23781946 -0.06045674
-0.19186842 -0.2073843 0.049402036
-0.28195825 0.12134186 0.06250442
-0.14242889 -0.19853486 0.15995336
0.34891915 0.09498338 -0.018228425
-0.0575266 0.23672637 -0.08563021
0.31291512 0.15181953 -0.027331699
-0.2530773 -0.0937799 0.15123151
0.06285755 0.25837797 -0.003959049
0.024734916 -0.21201724 -0.046737634
0.2870695 0.19245824 -0.04188099
0.055127118 0.22509544 -0.060561955
-0.15394324 -0.07342244 0.09532683
0.031329643 -0.22703259 0.13604045
0.049364798 0.10676449 0.0021042773
0.058742777 0.09015809 -0.1237172
-0.16340443 0.19941413 -0.102451764
0.06666404 -0.017913174 0.0032211535
-0.026094604 -0.24736002 0.15187515
0.16910411 0.1592514 -0.068523504
-0.09452356 0.20631567 -0.12944204
0.1575702 -0.02516184 -0.122346416
0.17667492 -0.1489542 -0.06434019
0.08248302 0.07139736 -0.05711186
-0.1314996 0.24299149 0.018992502
-0.22684802 0.16751218 -0.04936943
-0.04888239 -0.12962833 0.090139315
-0.067564815 -0.24630246 0.13698506
-0.16728243 0.054031037 0.059819434
0.09540688 0.23928158 -0.0046341224
-0.2648584 -0.06993718 0.14679395
0.07198822 0.15459436 -0.15200081
-0.22084603 -0.17389618 0.15648462
0.041323733 0.09810063 -0.000576782
-0.013911166 0.09543903 -0.018901633
0.06814396 -0.039968334 0.019458976
-0.121939346 -0.108299516 0.09593488
0.016876956 -0.24237198 -0.031953327
-0.27903935 0.06554628 0.11192352
0.38174218 0.038400512 -0.05980717
