# .PCD v0.7 - Point Cloud Data file format
VERSION 0.7
FIELDS x y z
SIZE 4 4 4
TYPE F F F
COUNT 1 1 1
WIDTH 1000
HEIGHT 1
VIEWPOINT 0 0 0 1 0 0 0
POINTS 1000
DATA ascii
0.12702239 -0.13752736 -0.022995355
-0.14964095 -0.1813114 -0.08777409
-0.07414901 -0.11994638 -0.04812368
-0.32955498 -0.02435597 -0.040042993
-0.1129513 -0.09816469 -0.04170498
0.07941422 -0.056588616 0.001930953
-0.031950552 0.28513917 -0.11178191
-0.3382807 0.022392567 -0.018763267
0.1321206 0.0014435757 0.045150746
-0.032657202 0.039690644 -0.061433725
-0.20428842 0.046219595 0.01388051
0.11657746 -0.03864668 0.023276431
0.13726158 0.09348299 0.09056154
0.2595054 -0.17511813 -0.020351535
-0.053502865 0.009015543 0.012794225
0.0053419755 0.056427397 0.045034494
0.045403805 -0.25770903 -0.09408507
-0.0072579132 -0.25342816 -0.100301936
0.07485525 -0.040884856 0.008823012
-0.044788916 -0.23431009 -0.096947
0.013836484 0.25479496 -0.091300584
-0.20548633 0.16147985 -0.17863144
-0.14506303 0.0051755244 0.0033162204
0.2684977 -0.19080225 -0.02653595
-0.09921126 0.13785516 0.07483028
0.20199226 0.1627943 0.13434066
-0.12102086 0.13974789 0.07231375
0.2727999 -0.078870356 0.028381886
-0.1044132 0.08709182 0.049412318
-0.08160989 -0.25445244 -0.112505585
-0.043920908 0.10648473 0.06833475
-0.0073953266 0.2174932 0.12787846
-0.206573 0.026248146 0.003842606
0.13663432 0.1506698 0.118174925
0.23050411 0.18916461 -0.101471946
-0.13324858 -0.004423487 -0.0062743593
0.26661685 -0.030228127 0.05097995
-0.07246963 -0.18984804 -0.07975988
0.06020047 -0.074871995 -0.009953963
-0.14246729 0.21096696 0.10344887
-0.05258838 -0.05864482 -0.019849181
-0.043472704 0.007600029 -0.071732484
-0.24404866 0.13836527 0.052272957
-0.25614333 -0.12091934 -0.07527771
-0.22059637 0.13556406 -0.1935687
-0.094813906 -0.24852611 -0.11171289
-0.04971415 0.27180538 0.14753437
-0.13261151 0.2280634 0.11328511
-0.23046832 -0.121719785 -0.07162266
0.014353056 -0.094938 -0.026896102
-0.10414671 0.124905415 0.06777803
-0.16001251 0.26349294 0.08435994
0.1300009 -0.08489315 0.0029795922
0.037810758 0.18154414 0.11757623
0.23677905 0.017929906 0.06961876
0.11363286 -0.038838077 0.015920592
-0.047603842 -0.10551672 -0.04177792
0.0321393 0.24645405 -0.081234016
0.16291773 -0.25037074 -0.0720263
0.23961493 0.023699276 0.072860844
-0.14242794 0.22331254 -0.13873942
-0.29238078 0.12059765 0.036052782
0.06629338 -0.23595399 -0.08025344
-0.12380672 0.01210128 0.0032201298
-0.09303505 -0.06915404 -0.031310547
-0.004950146 -0.32160857 -0.13297832
0.17436932 0.14146304 0.119654454
-0.25594 -0.049941823 -0.040850494
-0.3100349 -0.014486781 -0.03218686
-0.21184628 -0.011063889 -0.015068475
-0.10258032 0.03881967 0.019509444
-0.022243818 0.28531104 0.12734166
-0.19303428 -0.25145826 -0.12859873
0.1068472 -0.24500763 -0.0782555
0.11359763 -0.17882234 -0.04512018
0.1366834 -0.08709659 0.0029639013
0.07167156 -0.10856234 -0.02447359
-0.22964473 -0.208866 -0.11372321
0.2399866 0.0065513933 -0.18356678
0.26354766 -0.07602047 0.028306194
-0.0452208 -0.11537271 -0.046178527
0.22267134 -0.011999462 0.05289373
0.0736561 0.1297514 0.09812188
-0.17868803 0.25130713 0.086671956
0.30173603 -0.03205038 0.055626497
-0.19189186 0.18142506 0.08135117
-0.028724212 0.10179235 0.06845312
0.15299608 -0.17108896 -0.03516936
-0.30699012 -0.048624195 -0.04824979
-0.055588953 0.12998036 0.07788297
-0.10206534 0.2678188 0.13531747
0.038888678 0.05481799 -0.08457313
-0.035442404 -0.094088726 -0.034324992
0.25696257 -0.0043971217 0.061977297
0.078804106 0.05031511 0.060438655
-0.16528583 -0.043458764 -0.023435488
0.27348262 -0.039896812 0.047375746
-0.09389336 -0.021768006 -0.008482727
0.22757941 0.104591444 0.11016508
-0.08050907 -0.25597426 -0.11306987
-0.14466082 0.2516537 0.12281935
0.039047725 0.058818642 0.051500235
0.24144427 0.034759674 0.078508794
0.03604234 -0.10671214 -0.029186675
-0.04597037 0.15842691 0.09318189
0.15418212 -0.2893356 -0.09228361
0.08816284 -0.23025914 -0.07405046
0.0009281937 -0.2091228 -0.07754371
0.07830598 -0.26638493 -0.0931087
0.21134679 -0.0842773 0.016085899
0.1780908 0.2035615 -0.04664947
-0.22878407 -0.20379335 -0.11112958
-0.09514312 -0.04112375 -0.018059276
-0.31966907 -0.0356743 -0.04397115
0.05483418 0.15133373 0.105616815
0.19294089 0.034033272 0.07051975
-0.15719332 0.19435722 0.09308159
-0.20876901 -0.0026204041 -0.010492276
0.06121873 -0.28118348 -0.102970354
0.12987362 -0.27189204 -0.08765775
-0.04930556 -0.2362239 -0.09858582
0.062705986 0.15605727 0.10914514
-0.04908929 -0.030674506 -0.023218092
-0.055864338 -0.16589743 -0.0655391
0.23221241 -0.18197867 -0.027973562
-0.024769472 -0.15939988 -0.057494663
0.22929075 -0.17730331 -0.026167918
0.059292007 0.050639253 0.050724063
-0.08381253 0.108442545 0.06300219
-0.3214942 0.092370346 0.014317021
0.16307329 0.08114242 0.08864531
0.20683321 0.021975795 0.06686444
0.16341402 0.1244445 0.10968279
-0.037503954 -0.23522438 -0.096242964
-0.21349826 -0.15233937 -0.08378873
-0.116456725 0.09695917 0.05229749
-0.06103615 0.0027498414 0.008571133
0.1671569 -0.12087418 -0.008606111
-0.15041323 0.10200418 0.049395725
0.0140416855 -0.3162914 -0.12741138
-0.042902056 0.077395305 0.047598995
-0.09274764 -0.29221395 -0.13255788
-0.12475469 0.060736254 0.033437975
0.28328645 -0.089659885 0.024804514
0.05701336 -0.10946037 -0.027216759
-0.33354938 0.00041093584 -0.028670434
0.1709833 0.13754079 -0.09901421
0.0054398226 0.10051174 0.073211715
0.06432556 0.09585531 0.08022745
-0.18139388 -0.251545 -0.1268075
-0.01353292 0.21047777 0.12351252
-0.09594463 -0.23056959 -0.10318913
0.03790505 0.07133133 0.05738403
0.19359928 0.14758435 -0.12252796
-0.064175494 -0.08537766 -0.034628224
-0.0053467937 0.030962538 0.031011835
0.00039893665 0.121666424 0.082669325
0.24765854 -0.053111456 0.036905937
0.28767398 0.023125388 0.08014973
0.13409138 0.034435704 0.061448786
-0.18296365 0.074998595 0.031184122
-0.040412363 0.027384011 0.023756482
0.098639786 0.005248352 0.034923468
0.10084487 -0.04942216 0.008778642
-0.23869047 0.18214445 0.074331254
0.07497784 0.10040226 0.084107526
0.016903367 -0.11766574 -0.037508532
-0.045768518 0.23834391 0.13194093
-0.07039067 0.038929828 0.024630886
0.21648821 -0.12936038 -0.004951116
-0.2705039 0.00013840788 -0.01887586
0.050664805 0.18488277 0.121217854
-0.10461507 -0.22513671 -0.10192159
-0.03501225 0.12338529 0.07792676
0.15348335 -0.25621286 -0.076342545
-0.2727376 -0.043466892 -0.040357914
0.013426159 -0.21986723 -0.08078214
0.109416485 0.2353047 0.15490237
0.26516256 0.123934776 0.121006146
-0.009031068 -0.085077815 -0.025800131
0.081596084 -0.108060524 -0.021340802
0.20107445 -0.04413658 0.03392024
-0.18319272 0.20891677 0.09604302
-0.0051078736 0.14321528 0.09224451
0.13535662 -0.04448776 0.023403097
0.22573723 -0.034837496 0.042309817
0.08217597 0.24217285 0.15394153
-0.20170711 0.19415975 0.08597686
-0.021713344 0.17382635 0.10446381
0.22665398 0.0881954 0.10207419
0.19865547 -0.10510205 0.0039964314
-0.10467881 0.039123196 0.019326312
0.28144005 -0.11415199 0.012645282
-0.31841555 0.016970128 -0.018263156
0.1761908 -0.14321643 -0.018010695
-0.32244098 0.085562706 0.014342465
0.30027202 0.008739212 0.075162284
0.053381223 -0.18014719 -0.055243094
-0.22130334 0.06766462 0.021593848
-0.12158715 -0.019147685 -0.011573316
-0.040052716 0.23366025 0.13057072
0.11441266 -0.07722235 0.0042420705
-0.1354814 0.052170783 0.027598115
-0.036347784 0.016993424 0.019360822
-0.041260567 -0.07050896 -0.023815287
-0.2247943 0.1427824 -0.2219846
-0.03411716 0.12568799 0.07918379
0.18392116 -0.09605614 0.0060594804
-0.04068065 -0.052336533 -0.014917357
0.10136927 -0.11826412 -0.017699856
-0.10857451 0.1253278 0.06728572
-0.13548337 0.08986838 0.04586578
0.28029323 -0.034194533 0.051211264
-0.293171 -0.05653387 -0.049906854
0.16111147 -0.025175916 0.036815897
-0.030479196 -0.02214354 -0.07627895
-0.07633227 -0.2600274 -0.11437598
-0.016158478 -0.25584668 -0.10287582
-0.1108628 0.20592976 0.10598414
-0.12342965 -0.22473653 -0.10469017
0.18129373 -0.26883015 -0.07807814
-0.00675401 0.24212305 0.1399148
0.035269435 0.037101053 0.040381216
-0.2519872 0.18890697 0.07551464
-0.21407932 0.22039557 0.0967423
0.09963812 -0.23540325 -0.074736625
-0.059012335 -0.21074726 -0.087768495
0.26326984 -0.015361276 -0.19178559
-0.20434622 -0.09860821 -0.05631026
0.053251434 0.1454959 0.10253864
0.2635581 -0.077019796 0.027823785
0.17914751 -0.10220774 0.0023274126
0.2624535 -0.0582071 0.036766093
0.08191283 -0.16471379 -0.04327241
-0.2489245 -0.15461467 -0.09046931
0.28123492 0.09926708 0.08543598
-0.27750117 0.16204767 0.058481686
0.12713946 0.10409861 0.09411199
-0.14912969 0.2509125 -0.12642
0.091967 -0.2941987 -0.10443598
-0.28302863 -0.12118613 -0.079640284
0.07778332 -0.1165174 -0.02056699
0.2759803 0.0013474042 0.067755274
-0.12241526 0.037124924 0.022364581
-0.009481537 -0.13112491 -0.04818522
-0.2657277 0.102316275 0.03139057
-0.24386796 -0.09743082 -0.061962716
-0.004253687 -0.25226513 -0.09926587
-0.09484866 -0.0012563244 0.0013065324
0.15143561 -0.15745464 -0.028807987
-0.24616893 -0.052907083 -0.040749505
0.23443943 -0.14743243 -0.010882242
0.05937807 -0.07871809 -0.011946966
0.029290661 -0.18421294 -0.061007004
0.050599042 0.15932512 0.10882245
-0.072349235 -0.1319145 -0.051667206
0.13954526 -0.081856854 0.005953473
-0.25153542 -0.21178506 -0.118584074
-0.19461839 -0.023795623 -0.018525297
-0.08874702 0.17341572 0.09371023
-0.23046018 -0.18428628 -0.101940446
0.08158327 0.24798696 0.15666538
0.19867401 0.11388296 0.11011662
0.043693025 -0.06264996 -0.006630307
-0.12013924 -0.2978496 -0.13960171
0.23874973 -0.028516388 0.047421463
-0.1813848 0.19233832 0.08829393
0.12902667 -0.26681823 -0.085332766
0.0323785 -0.15251572 -0.04516018
-0.026768785 0.15679438 0.09541429
-0.22020419 -0.18061134 -0.09854467
-0.17018299 0.15529028 0.07210439
0.00014989903 -0.123049535 -0.042755168
0.070368126 -0.23056406 -0.076999895
0.16598955 -0.040298212 0.030256422
0.014617579 -0.039975483 -0.059369676
-0.19001615 0.17535397 0.0787044
0.18650842 -0.23256475 -0.05968263
0.1310308 0.18209942 0.1325227
-0.29119354 -0.12764607 -0.08405603
0.24494843 0.07889882 0.10044977
0.23202999 0.08243869 0.100131035
0.26088148 0.124759495 0.10133327
0.057935193 -0.06590843 -0.0059664533
-0.09306439 0.19738534 0.104645714
-0.21344346 0.12769233 0.05191969
-0.14975443 -0.20104307 -0.0973535
0.29858547 -0.06352531 0.039877947
-0.28297842 -0.09682311 -0.067826554
-0.30967405 0.108547345 0.027490653
0.14693365 0.056873314 0.074343875
0.075013384 -0.3144386 -0.11691304
-0.18100236 -0.17259689 -0.088489
0.010799169 -0.17277332 -0.0583747
-0.19898753 0.039667483 0.011540161
0.27650124 -0.13107592 0.0036664854
-0.14927913 -0.286947 -0.13890655
0.024042938 0.29606628 -0.097670674
0.16233678 0.013780759 0.055887107
0.12114996 0.17183949 0.12599501
0.1191181 0.15241511 0.11626239
0.061777677 -0.26964426 -0.0972903
-0.24375871 -0.1258088 -0.07569719
0.050558507 -0.22928081 -0.07949732
0.20912953 -0.09172866 0.012125778
-0.16498311 -0.07155803 -0.03700428
-0.1254608 0.052267306 0.029223058
-0.09704547 0.102058455 0.057824817
0.048705734 -0.255323 -0.09240887
0.093448065 0.1900336 0.13045026
-0.20946147 0.015059607 -0.0020336984
0.12051188 0.07948544 0.08114125
0.2658675 0.056478236 0.09287855
0.02429364 -0.15797728 -0.04908026
0.108475424 -0.15370123 -0.033753473
-0.12466703 0.000837899 -0.0023738586
-0.15995336 0.13260904 0.062724166
0.14324208 0.013958092 0.052966338
-0.20024371 -0.14257938 -0.0769722
0.11720533 -0.103765786 -0.00818088
-0.07540297 0.014946407 0.012219626
0.13043168 0.110265136 0.09761844
0.14849013 -0.21008627 -0.05477654
0.004085943 -0.24512522 -0.094492495
0.25976542 0.098402224 0.112233795
0.19788234 -0.05197078 0.029621342
0.1115096 -0.101102844 -0.007787262
0.112111814 -0.19720776 -0.05426375
-0.09438399 -0.15533318 -0.066484965
0.10822118 -0.034495424 0.017173063
0.21547219 0.19600447 -0.095620245
0.26222995 0.11584103 0.12107215
-0.2804273 -0.050323322 -0.0448909
-0.16417909 -0.1913084 -0.09490726
0.08986451 0.08317842 0.0781052
-0.22236738 0.11631038 0.044998813
0.07581467 -0.24290338 -0.082122095
0.04236408 -0.3180859 -0.12382146
-0.109302975 0.05379122 0.0325054
-0.15252373 -0.26220465 -0.1274273
-0.21793772 -0.24347922 -0.12865287
-0.1361444 0.0518515 0.027339185
-0.15211679 -0.11261247 -0.054873135
-0.05248529 0.23208319 0.12784941
0.15279275 -0.115618706 -0.008320766
0.030427743 0.21973354 0.13491976
0.07920165 -0.07411862 -0.0065970956
-0.07177563 0.07086514 0.039888527
0.040578842 0.25413802 -0.09909285
0.21746215 0.16109598 0.13595362
-0.035907414 -0.027308922 -0.059386954
0.037444506 0.09082982 0.07355922
0.029635515 0.19662814 0.123598464
-0.09884465 0.07334206 0.043625887
0.20226547 -0.11914763 -0.0022413216
0.17644347 -0.28141785 -0.08494148
0.2888071 0.002136018 0.07015726
0.1986921 -0.2346921 -0.05879575
-0.22653094 -0.023283606 -0.023302145
0.14673938 0.09848969 0.09448006
-0.22195867 -0.10346866 -0.06143892
-0.10935214 0.2356502 -0.093327805
0.26645952 -0.022119755 0.054884642
0.08158147 0.19955827 0.1331974
-0.015155557 0.097444974 0.06848289
0.21051468 -0.020922499 0.046655837
-0.12353394 0.12658414 0.06553944
-0.2297049 -0.18682033 -0.10304943
0.07257457 -0.12385392 -0.024942504
0.1795885 0.08336104 0.09232115
0.068218425 -0.32187504 -0.12158665
-0.29254398 -0.10739961 -0.074457675
-0.057134613 0.09535702 0.060861535
0.0020121892 0.061906833 0.047165465
-0.3177895 0.10120485 0.016236834
-0.09310665 -0.092074335 -0.04242883
-0.27339143 0.15364109 0.05505507
-0.11627456 0.12370249 0.065285824
0.12663807 0.18269996 0.13212226
0.07527929 -0.12534475 -0.025238898
0.1888906 0.075979434 0.0902086
0.051670812 -0.2139209 -0.07187894
0.21667139 0.09512259 0.10385916
-0.15611465 -0.0464023 -0.023417883
-0.09175461 0.28241888 0.10836667
-0.1641284 -0.18251655 -0.09063904
-0.011771347 -0.11859462 -0.042473197
-0.017005572 -0.22068372 -0.08596958
0.13015506 0.2543415 0.12528646
0.20785433 -0.20816396 -0.04449816
0.020825101 0.101063006 0.07590145
0.05544841 -0.20632194 -0.067601785
-0.20656379 0.08554219 0.032577503
-0.20263064 -0.07059754 -0.04246673
-0.09732939 -0.26577175 -0.12046574
0.021971915 0.20977631 0.12876298
-0.15459949 0.114841975 0.05495795
0.15564167 -0.106980726 -0.0036867238
-0.32699043 0.032804295 -0.011940029
0.24010599 -0.16106808 -0.016597444
0.2761985 -0.1412355 -0.0013041426
0.039974917 0.17531475 0.1148982
-0.050340928 0.06791855 0.041835703
0.21122514 0.15096393 0.13006161
-0.09817201 0.20856357 0.1092586
0.0050585936 0.033964116 0.034104086
0.20336562 0.17523493 -0.107591264
0.08780766 0.11972289 0.095490314
0.05431438 -0.30368876 -0.114963084
0.23855071 0.13458514 0.12642731
0.016315246 -0.3251049 -0.13132434
0.086909786 -0.08294464 -0.00966039
-0.31284842 -0.12672831 -0.08702083
-0.24729772 0.0706514 0.01894809
0.24866836 -0.07676892 0.025600908
-0.228851 0.010286188 -0.00740009
0.09534281 0.16066788 0.11651825
0.29278505 -0.0001667257 0.06966715
0.072413266 0.23785958 -0.078127205
-0.14967111 0.15407568 -0.15977289
0.02633434 0.14470059 0.097915344
-0.24065462 -0.041292805 -0.034252863
-0.22833467 0.12961693 -0.21767087
0.10919065 0.20539187 0.1403714
-0.111273006 0.20490451 0.10542246
-0.20075548 0.06475852 -0.22475609
-0.05185411 0.19523567 0.11009235
-0.071428515 -0.011732692 -8.256987e-05
-0.13033275 -0.055592164 -0.023811543
-0.21818867 -0.13446449 -0.07586544
-0.030140238 -0.22445418 -0.08986439
0.30823734 -0.07939154 0.033709295
0.049006406 -0.13175692 -0.032483086
-0.1302458 -0.16290511 -0.0758006
-0.25842342 -0.063100465 -0.047618195
0.1621251 0.072072774 0.08410132
0.11280943 0.033951428 0.05786334
-0.2429594 -0.020126607 -0.024358824
-0.19322918 0.19863641 0.08948111
0.14608005 -0.2837107 -0.09083329
-0.1630707 0.011796429 0.0036894341
-0.06510383 0.16839013 0.09499797
0.18102056 -0.23399392 -0.061239745
-0.040876143 -0.19787824 -0.07867653
0.21311873 0.12223692 0.11643903
-0.27982277 0.16079669 0.057510003
0.2404347 0.133699 -0.12188232
-0.27269584 0.17372887 0.0343018
-0.15061754 0.066381454 0.032101262
0.18969189 0.21501692 -0.07316029
0.1765624 0.19596304 0.14640993
0.2254172 -0.02134542 0.048797462
0.2715563 -0.13101207 0.0029189973
0.030110806 0.0021949445 0.022654245
0.22429873 0.06195329 -0.15918985
-0.33566985 0.026601996 -0.016312608
0.270703 -0.023817912 0.05472987
0.25899118 0.045224674 0.086342484
-0.25597832 -0.063275054 -0.047317605
0.16783589 -0.23342586 -0.06304042
0.16534962 -0.032218404 0.034070946
-0.003069251 0.033555057 0.032626282
0.13473335 -0.090217285 0.0011442978
0.07660639 0.1760457 0.12101994
0.18223691 0.10290726 0.10220941
0.2547009 -0.10093505 0.014840062
-0.14981413 0.20490998 0.09935695
-0.09742803 -0.27882537 -0.12680715
-0.095046096 0.020302001 0.011722339
-0.27414402 -0.11990046 -0.07761816
0.13497013 0.09811074 0.09244322
0.15030602 -0.18203843 -0.04089856
0.14746574 -0.1866757 -0.043593157
-0.12567548 -0.20052962 -0.09331324
-0.0331883 -0.26699778 -0.11096047
-0.17946245 0.22585325 -0.1479263
0.12054234 0.08168436 0.08221165
-0.1634162 -0.08110511 -0.041383747
-0.023436759 0.18379976 0.10902532
0.18062934 -0.20045394 -0.04504852
0.16710924 -0.12189648 -0.009109366
-0.023376469 -0.084005594 -0.027539218
0.25050366 -0.1593508 -0.014127927
-0.1392919 0.26818693 -0.14566539
0.06076742 0.25080782 0.15475492
0.14725438 0.22629797 -0.08063458
0.18532534 -0.2673901 -0.07674543
-0.12110686 0.126376 0.06582031
-0.06879755 0.23757696 0.127943
0.08959411 -0.12631069 -0.023453008
0.0042299423 0.044036012 0.03885452
-0.19078222 0.08669464 0.03562053
-0.16692388 0.011351333 0.0028668356
-0.056234613 -0.017036531 -0.0002605681
-0.1419973 -0.11368421 -0.053799067
0.21702965 0.09510846 0.10390863
-0.3097267 0.07036204 0.008978497
0.12143967 0.0953362 0.08896846
-0.31469995 0.06428253 0.0052489745
0.20368469 -0.09467083 0.00984288
-0.018327052 -0.23393193 -0.092597194
0.12735671 -0.14286436 -0.025529252
0.11495501 -0.16052003 -0.0360373
0.011265352 0.2584707 0.15067379
-0.15594803 0.18380947 0.08816586
-0.056591745 -0.041797105 -0.012315303
0.008730503 -0.20502307 -0.074328415
0.0541924 0.022314228 0.036195543
-0.30975917 0.045711946 -0.0029723982
-0.014286828 0.15641429 0.097195394
0.2798161 0.03321271 0.08380048
-0.13330552 -0.068832956 -0.030695999
0.0035690512 -0.30116037 -0.121727996
-0.09190827 0.07214506 0.044137854
-0.24900748 -0.18111834 -0.103325635
0.23738782 0.05935708 -0.15838698
-0.041528624 0.28437757 -0.11365893
-0.061799455 -0.30288756 -0.13285714
-0.07103332 0.26297197 0.13989687
-0.11302509 0.23583035 -0.033121403
-0.19402657 -0.22114712 -0.114066325
-0.1094148 -0.009008193 -0.004743287
-0.07248704 0.027287705 0.018659206
0.004142352 -0.05799292 -0.026083864
-0.12885448 0.21033089 0.105283864
-0.058059856 0.26978287 0.14524022
0.06351531 -0.023004994 0.01570201
-0.32726306 -0.036819976 -0.07631921
0.11846725 0.26172712 -0.09944343
0.14756188 0.15159933 0.12034567
0.13040598 0.22436067 -0.071594894
-0.047421362 -0.29293817 -0.12577178
0.24235493 -0.09175501 0.017345099
0.2180663 -0.1166105 0.0014757704
0.016846558 0.17905827 0.113070436
0.06338192 -0.26912943 -0.09678813
-0.13315105 -0.16509795 -0.07732068
-0.2224589 0.03829369 -0.24099785
-0.025241897 0.2620509 -0.09220096
-0.07635023 -0.08987585 -0.03872493
-0.12062355 -0.19573899 -0.09019638
-0.017028848 0.15308571 0.09515068
0.17524765 0.16204098 0.12976466
-0.3242585 0.06570785 0.004434675
0.0020288553 -0.14112797 -0.044420786
-0.106684454 0.035203226 0.017110504
0.056312326 0.16244206 0.1112323
-0.1343713 -0.052462265 -0.022930736
-0.047211908 0.23704122 0.13108218
0.25291544 0.11879209 0.121036045
-0.1588561 0.24745476 -0.14191577
0.2612555 0.06690456 -0.15097179
-0.011010319 0.3097063 -0.100711845
0.022617806 -0.06429156 -0.010744434
0.08526819 0.03221106 0.045884036
0.07335455 -0.2662729 -0.093833804
0.24131708 -0.1222222 0.0024172692
-0.2539291 -0.1983803 -0.11246529
0.06555176 -0.15052575 -0.038973138
0.26971656 0.10560934 -0.13655297
0.1406774 0.227643 -0.0813518
0.014904493 -0.08027976 -0.019706381
-0.09940675 0.25649667 0.13229214
-0.029858585 0.22331627 0.12716347
0.14192963 -0.07985096 0.0073009306
0.1825001 -0.18914169 -0.039272234
0.18996732 -0.0072189667 0.050061263
0.011916908 0.15140027 0.098891534
0.0750278 -0.14898758 -0.03673565
-0.14092954 0.0699442 0.03535314
-0.042469405 0.19919007 0.11348673
0.20513843 -0.07818988 0.018058384
0.1420463 -0.11187529 -0.008199116
0.08718203 0.06903218 0.07082765
0.24149974 -0.13949662 -0.0059249965
-0.32342333 0.005866202 -0.024432499
-0.00017274662 -0.31757617 -0.13027169
-0.14100814 0.18401955 0.090620495
-0.15422752 -0.13924569 -0.06811115
-0.21618335 0.23359619 0.057768196
0.16561797 -0.16164075 -0.028603483
-0.06395174 -0.05894575 -0.021784201
-0.2279646 0.14708954 0.059032746
0.0960258 0.20536084 0.13828334
-0.14895996 0.18204449 0.08841131
0.2199418 0.11748065 0.11520859
-0.009655973 -0.31912643 -0.13251637
-0.17375945 -0.17528021 -0.08864888
0.09862093 -0.038308397 0.013813724
0.12738688 0.19220546 0.13684642
0.14279784 0.19731335 0.14174801
-0.14867292 -0.015948363 -0.007488674
-0.06108287 -0.21801454 -0.09161617
-0.082494564 -0.22728062 -0.09947764
-0.13269098 0.10702996 0.05462158
-0.1376359 -0.1887315 -0.08947944
0.29790348 -0.029403526 0.05630552
0.074406825 -0.10310649 -0.021399042
-0.012119735 0.16379751 0.10111464
0.047717623 -0.16047904 -0.046604518
-0.30238065 0.036169544 -0.0064349757
-0.023224697 -0.24886878 -0.1006068
-0.16438143 -0.10669919 -0.05393834
0.13150147 -0.2775769 -0.090156436
0.063349694 0.06438617 0.06482383
-0.18370463 0.21938704 -0.14714077
-0.20721948 0.08782609 0.033581145
-0.045146547 -0.12428046 -0.050483588
-0.057976037 0.08015397 0.046562795
0.2568283 -0.0990547 0.01608613
-0.019150317 0.28435233 0.12782991
-0.2576091 0.13113026 0.046631616
-0.047021758 -0.046959832 -0.013310393
-0.23065193 0.1918057 0.08027871
-0.21839884 0.18618792 0.07948565
0.06997007 -0.016170623 0.020030303
0.26153365 -0.15120824 -0.008446003
0.089430586 -0.19443572 -0.056491606
0.2258317 -0.24595937 -0.059982743
-0.14814417 -0.14545704 -0.070163466
0.019764835 -0.071851425 -0.014856574
0.30497533 0.028362302 0.08541199
0.15224995 0.22612852 0.13186269
-0.19166788 0.046676762 0.016089134
0.009579443 -0.045434155 -0.050891686
-0.23499347 0.01513047 -0.006019584
-0.13090092 -0.26577953 -0.12575509
-0.11370476 -0.08782319 -0.03681249
0.15250386 0.17780383 0.13382202
0.02922981 0.21578728 0.13281903
-0.26553208 -0.19401322 -0.11217627
0.2371636 0.12360794 0.12088947
-0.08143723 0.26497525 -0.07930037
0.21264528 0.12957533 -0.12825617
0.13934079 -0.26390913 -0.08229867
-0.2559854 -0.065502584 -0.048398294
0.0055995854 0.23199536 0.1369526
-0.21267904 -0.21438125 -0.113724455
0.050193734 0.035458896 0.04193558
0.15018903 0.049857236 0.071456514
-0.13221614 0.19637516 -0.15018493
-0.078563094 -0.07991296 -0.03424563
0.3158072 0.03758069 0.048262864
-0.2907091 -0.12496316 -0.08267944
0.029529711 0.212623 0.13133277
0.07918788 -0.27586338 -0.09756252
-0.03474188 0.28591457 0.12511024
-0.053343423 -0.0018741026 0.007541838
0.251736 0.1490836 -0.112647854
-0.14103688 -0.22526293 -0.10771715
-0.02936913 0.28953394 -0.10924615
0.05957081 0.25581607 0.15699336
-0.054145817 0.22239843 0.122894965
0.050716203 0.20942512 0.1331189
0.08078463 0.22949643 -0.06464712
-0.18024239 0.21365012 0.09880121
0.015504166 -0.0336424 -0.07351526
0.075625524 0.14121065 0.10398501
0.03357784 0.29481277 -0.09677685
-0.3241231 -0.0029680838 -0.028823521
-0.0820853 0.26168594 -0.07304298
0.19194955 0.17730837 0.13979283
-0.08078036 -0.15070504 -0.062100112
-0.08248178 -0.20128714 -0.08687969
0.08685705 0.042646803 0.05799054
-0.32110393 -0.08952159 -0.070290886
0.22536242 -0.12340331 -0.0006671027
0.2520863 -0.03801998 0.044916287
0.10076484 -0.30400336 -0.107801996
0.069270656 0.20957838 0.13611442
0.08328823 -0.014693005 0.022842968
0.06755373 0.27173278 0.13536641
0.22295241 0.14993498 0.13140942
-0.16693231 -0.25466904 -0.12604417
0.2258483 0.04781953 0.08238137
0.018518837 0.11010145 0.07991826
-0.26336128 -0.08051131 -0.05683279
-0.30047533 0.11969909 0.007063774
-0.010532024 -0.034740653 -0.07537458
-0.12146443 0.18690613 0.095095985
0.21385299 -0.124292105 -0.002909792
-0.08505682 -0.17145033 -0.07282643
-0.088031024 -0.16153924 -0.068491995
-0.028340183 -0.28762588 -0.12019336
0.30385274 0.03620914 0.06046437
-0.0034127675 0.19555034 0.11787241
0.118634015 0.26291114 -0.098843664
0.25699273 0.08343419 0.10454366
-0.033017978 0.24820282 0.13872553
-0.039247688 0.28348926 0.12424711
0.11037105 -0.0021695879 0.039975513
-0.060180802 0.06487711 0.03881255
-0.1559019 -0.008730053 -0.0051291147
-0.12076825 -0.1855157 -0.085265
-0.19898699 0.057967767 -0.22776823
0.09760499 0.12921596 0.10163317
0.009227542 0.28057033 0.1304651
0.30621284 -0.0272584 0.05865356
0.13046812 -0.22877018 -0.06666821
0.11093813 0.07148658 0.07575758
-0.10820605 0.23683739 -0.108123235
0.016836205 -0.2753673 -0.107140124
0.15087494 -0.27540004 -0.08605107
-0.1263269 -0.0032492864 -0.0046156025
0.19923453 0.14839034 -0.12125023
-0.097254895 -0.2548678 -0.11517038
-0.22103757 0.13707341 0.05527009
0.10582955 -0.13818112 -0.02664898
-0.324018 -0.05958632 -0.056243382
0.05276154 -0.2343497 -0.08160664
-0.04461549 -0.24524474 -0.102218576
-0.029181888 0.038676385 -0.04624058
-0.25837767 -0.10260869 -0.06675632
0.019025788 -0.12420032 -0.040340837
0.030719582 0.080637775 0.06276912
-0.001102989 -0.10317284 -0.033320263
-0.07558034 0.2000526 0.10869133
0.09645849 0.11574736 0.094926044
-0.12551449 0.19604614 0.098887555
-0.11418093 0.0024516126 5.930286e-05
-0.15751866 0.13615532 0.06482599
-0.08322131 -0.29715753 -0.13345365
0.20173426 0.105642185 0.10660502
0.26428592 0.114704154 0.12084519
0.19489567 0.10303255 -0.121206835
0.173773 -0.16081719 -0.026920596
-0.16672593 0.23786612 0.11266414
-0.17223988 0.11726907 0.053356327
0.24047124 0.09259429 0.10638158
-0.20916055 0.20782906 0.09142719
-0.0011191888 0.09849712 0.07120264
0.007859674 0.27316615 -0.111315705
0.15966757 -0.09058877 0.0048906696
0.056926556 -0.13887025 -0.034682814
-0.059180137 0.26708275 -0.090385415
0.11284141 0.13605332 0.10734567
-0.018906731 -0.29471192 -0.12214211
0.0035762605 0.25142896 -0.08125083
-0.16626295 -0.12957507 -0.0653201
-0.27903408 -0.14669625 -0.09137296
0.15932332 0.2047886 0.14797227
0.049963508 0.1428812 0.100753725
-0.14447366 0.16262701 -0.15526801
0.30298573 -0.13565351 0.0056184623
0.15885872 0.21513043 -0.062790066
-0.05011126 -0.12603463 -0.05211535
0.037224863 0.09475429 0.075426385
0.095712714 0.21987066 -0.050651997
-0.14643894 0.041654482 0.02077666
-0.06156267 -0.24940218 -0.10690169
0.25265774 0.103510834 0.113590196
0.2516513 0.1000207 0.1117405
-0.044657 -0.24655123 -0.10285807
-0.15588112 0.1136883 0.054196805
0.08206961 -0.24952361 -0.08434532
0.3041262 -0.091699645 0.027097471
-0.016987942 0.15753815 0.09731477
0.025643112 -0.14830288 -0.044179562
-0.17262308 0.043691643 0.017641397
-0.16352372 0.22546975 0.10716162
-0.111266226 0.19495405 0.100601636
-0.2233106 0.184414 0.07785259
0.043303568 0.058014266 0.051780727
-0.14431956 0.22928381 0.11203324
0.23214342 -0.17311841 -0.023690838
-0.052117433 0.05588729 0.03572573
-0.13300686 -0.2659985 -0.12619312
-0.14596102 0.20599204 -0.14768893
0.17376895 0.021775162 0.06156099
0.068942256 -0.31851617 -0.119845524
0.010441233 -0.20760734 -0.07531139
0.1628814 -0.092341356 0.0045473166
-0.14983365 -0.21421053 -0.10374645
-0.099419184 0.10891083 0.060771905
-0.07361618 -0.29023454 -0.12858662
0.18125874 -0.27098304 -0.079126745
-0.092651874 -0.030245673 -0.0123954
0.08049658 0.11872151 0.093853876
0.06170613 0.26883566 -0.10493586
0.042663727 -0.006086452 -0.039039668
0.14448671 -0.0037250654 0.04459329
-0.15063415 -0.0029993295 -0.0015221256
0.093491234 -0.0115669 0.025964273
0.23605786 -0.050046157 0.03656498
-0.14938709 0.20435865 0.099157
-0.18495256 0.22072452 -0.15407927
-0.2351489 -0.035158694 -0.03041338
-0.014809593 -0.24038479 -0.09517052
-0.21745129 -0.16377816 -0.089953944
0.26205128 -0.17948791 -0.022068225
-0.10923186 0.017581949 0.008170717
-0.21179992 0.18138078 -0.20318323
0.2211828 0.040457502 0.07807958
0.13503018 0.1024889 0.09457429
-0.29627836 0.0944061 0.022747083
0.19020526 0.008023052 0.057484735
-0.0012713728 -0.19158167 -0.06938984
-0.07353971 -0.05378704 -0.020794261
-0.27001098 0.001137388 -0.018314045
-0.21373172 0.16754475 0.07118644
0.061627507 0.068020105 0.06631397
-0.101785384 0.043665268 0.02198254
-0.17372414 0.06693421 0.028731357
0.15111044 0.070337914 0.08152608
0.13387921 -0.15274207 -0.029288916
0.07350265 0.116541505 0.091696374
-0.274367 -0.08754957 -0.061976448
0.0026464118 0.19814482 0.12008357
-0.02378365 -0.30744556 -0.12908027
0.03188028 -0.19818375 -0.06736906
0.10198226 -0.2528092 -0.082802415
0.20274155 0.20728283 0.117636606
-0.28380182 0.08787557 0.021547072
-0.028482057 -0.30277738 -0.12755805
0.1257688 -0.27409276 -0.08937078
-0.057226934 0.15456529 0.08953862
0.21838968 -0.082166314 0.018217867
-0.106818795 0.030843858 0.014977107
-0.30501652 -0.07964309 -0.06297107
-0.14909452 0.26839015 0.0866095
-0.028716188 0.2628046 -0.09249313
0.22395246 0.047473174 -0.16626164
-0.23282588 0.21254756 0.05939062
0.15630555 -0.09872266 0.0004196007
0.22682828 0.08614727 -0.14706746
0.2553166 0.10502233 0.1147413
0.27182934 -0.02097753 0.05628353
0.088980116 -0.16522634 -0.042407587
-0.04640219 0.09780122 0.06373571
0.12560381 0.28125462 -0.08885753
0.069390774 -0.22466138 -0.074293494
-0.18536791 -0.07517163 -0.04196514
0.128874 0.24392924 0.13154814
0.100781634 -0.16390209 -0.03990795
-0.17476773 0.0996072 0.04439965
-0.329576 -0.051112458 -0.053012133
-0.13812646 -0.029457994 -0.012374577
0.19784777 -0.12009485 -0.003396223
-0.022910787 0.299446 -0.10342563
-0.036277156 0.15782744 0.09441804
0.120735325 -0.20993173 -0.05907175
-0.023451064 0.16183212 0.09837778
0.17683138 0.17291938 0.13528574
0.042526364 0.04534528 0.045518775
-0.080505714 0.2166011 0.11593507
-0.33301738 0.009056212 -0.054994073
0.12428809 0.23116069 -0.08265567
-0.09747784 -0.021219598 -0.008781547
-0.13952006 -0.21783601 -0.10387972
-0.22370599 0.07908231 0.02674804
-0.09247972 0.2825969 0.107552506
0.018838707 -0.3101106 -0.123660855
-0.11637094 0.035951722 0.015948279
0.23054984 0.14357148 0.12952209
-0.25881764 -0.20466167 -0.11627903
0.27475318 0.03175179 0.08229545
-0.012385505 -0.3171121 -0.13196988
0.22758052 0.061304048 -0.15898791
-0.07201922 -0.016380288 -0.0024278015
0.031100212 0.16673908 0.10934542
-0.17748421 -0.11138871 -0.058273938
-0.109953344 0.22899523 -0.13087218
0.024268335 -0.025817735 -0.08279886
0.15105961 0.21615301 0.15217815
-0.30291292 -0.027254576 -0.037252747
0.27952603 0.011636736 0.07329958
0.22992268 0.0026386222 0.061129153
0.003220058 0.25608587 0.14825118
-0.12194092 -0.23035297 -0.10717737
0.29003343 0.008246814 0.0733114
-0.05057044 -0.025993623 -0.021169923
0.18318374 0.12323522 -0.10879417
-0.09642397 -0.2145668 -0.09550995
0.06753478 -0.057859 -0.000555067
-0.1048069 -0.002243804 -0.0007400201
-0.06897247 -0.08501835 -0.035209734
-0.033952195 -0.26990908 -0.11249156
0.19328192 0.1785475 -0.0634498
0.117107935 -0.17777295 -0.04405927
0.27387968 -0.08908744 0.023600876
-0.23361944 -0.18633793 -0.10343206
0.13059898 0.07777627 0.08190103
-0.06710676 0.2199575 0.11967114
-0.1601595 -0.023022754 -0.012725279
-0.33231044 -0.06563545 -0.06887316
0.029564401 0.24697416 0.1479843
-0.19652991 0.14393409 0.062453408
0.2071918 -0.09361401 0.010907186
-0.08984289 -0.2248213 -0.099442884
0.2628589 0.10704928 -0.13126582
0.14930852 -0.22141899 -0.060139198
-0.04728716 -0.27771232 -0.11837251
0.10374879 0.26898786 -0.09824262
-0.15416224 -0.12825231 -0.06277381
0.24878733 -0.18011777 -0.024462039
-0.14636667 -0.036049057 -0.016865637
-0.012496668 0.043600958 -0.035555348
-0.046077967 0.06142519 0.039360385
0.03741178 0.23870668 -0.06790386
-0.0020005289 0.25433233 0.14657997
-0.15430714 -0.1792608 -0.087515116
0.19579755 -0.14594012 -0.01624346
-0.13071914 -0.23738168 -0.11196524
-0.034591272 0.2528581 0.1407337
0.10018842 0.15843573 0.11619914
-0.2410234 0.026823645 -0.001303034
-0.1396211 -0.23019598 -0.10988514
-0.33512154 -0.046064865 -0.051439326
0.29485962 -0.121700145 0.011100761
0.070213415 -0.03174008 0.012524158
-0.048060734 0.27588195 -0.11144999
-0.13280807 -0.17223501 -0.08072524
0.08492732 0.053728756 0.063057095
0.03781783 -0.3026781 -0.11707065
-0.09297341 0.013645136 0.008822667
0.20185754 -0.021531513 0.0449975
0.12945989 0.04140283 0.06409554
0.031073172 0.037046272 0.03969433
0.04555051 0.14366007 0.100436375
0.116254985 -0.062648885 0.011594516
0.092178784 -0.25340396 -0.084634125
-0.25169927 0.1292693 0.046660274
0.1301798 0.09408337 0.08973749
-0.10016321 -0.067290165 -0.031529456
-0.03628677 0.15251732 0.09184295
-0.21889757 0.009631606 -0.25432622
0.08227692 -0.017294832 0.0214229
0.16031845 0.05423395 0.075172186
0.24396794 0.14371185 0.13170286
-0.0033844085 -0.059955917 -0.025558513
-0.041780967 0.1456242 0.087637715
-0.019890318 0.104480475 0.07114663
-0.024665982 -0.14847851 -0.052185856
0.03833079 -0.11706613 -0.03384378
-0.10237554 -0.121210024 -0.05120748
0.16256282 0.26363844 -0.09642014
-0.121993676 0.22878247 0.115305245
-0.13710156 0.098707855 0.04989447
0.06447874 0.15936837 0.111028805
0.014703824 0.2053659 0.12548168
0.059078872 -0.0814267 -0.013307042
0.12116128 -0.03334656 0.026566233
0.056126423 0.23363078 -0.06434881
-0.13975963 0.25568214 0.12554322
-0.13156313 0.20889185 0.10416014
0.19600692 -0.070904024 0.020151451
-0.2351139 -0.1666628 -0.094133295
-0.2503156 -0.058508255 -0.044116307
0.12722354 0.18474233 0.13320403
0.009310347 -0.31602642 -0.1280278
0.06593743 -0.108292624 -0.025245894
-0.07253876 -0.11344187 -0.0495446
0.04780438 0.16992347 0.11351816
0.2751472 -0.076919496 0.02969673
-0.029540729 0.27590403 0.1464253
0.10832059 -0.23046981 -0.07097893
-0.11101084 -0.09301333 -0.038903203
-0.10341731 -0.11206414 -0.046939693
-0.315188 0.0618339 0.003985618
0.1358836 -0.059397615 0.016260685
-0.08044151 -0.24725807 -0.10883544
0.08478524 0.06705897 0.06949397
-0.05620949 0.027391814 0.021272516
0.04104193 0.16345823 0.10932056
0.093512364 0.20514807 0.1377844
-0.032744534 -0.18736488 -0.07230177
-0.19285949 0.10906065 0.04613204
-0.060841043 0.23212144 0.12655196
-0.13628921 0.24703969 0.121902
0.038309436 -0.119239 -0.034900077
0.2760317 0.035870556 0.084492795
0.076324716 -0.042209845 0.008412364
0.12874226 0.00038938771 0.044108205
0.28869036 -0.11264752 0.014516121
0.02679588 0.25426558 -0.0946649
0.19998336 0.20806725 -0.07744968
0.1263612 0.22202331 -0.06533146
0.16130131 -0.039912663 0.029704753
0.30087382 -0.13940741 0.003466926
-0.3273 -0.061513808 -0.057694223
-0.16834061 0.19764613 0.092920035
0.012650159 0.23736225 0.14066319
-0.14250393 0.20428684 0.10020594
-0.1841466 0.07246567 0.02977043
0.04539285 -0.18012328 -0.05648961
-0.007005435 -0.12255336 -0.043641243
0.17411736 -0.12571011 -0.009853637
-0.035472263 -0.28717336 -0.12109681
-0.3220531 0.08481833 0.014042999
0.12033887 0.06631756 0.07473291
0.15444933 0.12492938 0.108506
0.013977026 -0.3009634 -0.11999361
0.096804865 -0.2778504 -0.0957521
-0.04661217 0.0057771746 0.0123097375
0.02668033 -0.09426341 -0.024628455
-0.14845836 0.25657067 0.09400738
0.060603343 -0.2870982 -0.105933435
0.22021568 -0.072320305 0.023276776
0.05795307 -0.06376051 -0.004923133
0.014356129 -0.28603396 -0.11269952
