# .PCD v0.7 - Point Cloud Data file format
VERSION 0.7
FIELDS x y z
SIZE 4 4 4
TYPE F F F
COUNT 1 1 1
WIDTH 1000
HEIGHT 1
VIEWPOINT 0 0 0 1 0 0 0
POINTS 1000
DATA ascii
0.049405716 -0.256951 -0.06235452
-0.07570582 -0.07528443 0.07881081
-0.08807503 0.22728723 -0.058501903
-0.15003678 0.19878054 -0.18671885
0.042935163 -0.15498076 0.060467307
0.05390966 0.030649055 0.018770546
-0.17676286 0.101229824 0.06956777
-0.03768535 0.23281975 0.003668282
-0.10168885 0.0074720997 0.05840193
0.1386478 -0.11823918 0.008403855
0.030790374 -0.28031757 -0.12008728
0.17336695 -0.0915458 -0.035152603
-0.105689235 -0.03160563 0.066507
0.051682323 -0.18773153 0.030837072
-0.1564391 0.09140563 -0.35469857
-0.26175827 0.0924183 -0.10277841
-0.19964379 0.0061953915 -0.08746171
-0.20206471 -0.01959898 -0.031507798
0.046691097 -0.08664836 0.14487702
-0.20548391 0.052897014 -0.035445727
-0.13464947 0.18055245 -0.18772455
-0.12350077 -0.14261575 -0.065638416
-0.23943844 -0.01730696 -0.17655003
-0.11303029 0.26685694 -0.063075975
0.0438981 -0.19939505 0.004239462
0.018059092 -0.04466666 0.10318765
-0.07351581 -0.006525089 0.081710964
0.13135259 -0.15536873 -0.14307576
0.24611577 -0.13975967 -0.062096357
-0.091180414 0.1628234 -0.107126795
-0.08952353 -0.069952995 0.06936063
-0.034310162 0.2360993 0.0128938155
-0.087781146 0.17762151 -0.112510815
-0.14902905 0.051035445 0.04524964
-0.12603694 -0.12779085 0.026133494
0.019083915 -0.030945867 0.15564737
0.2471781 -0.042390373 0.06584261
-0.25386897 -0.0006436499 -0.17616722
0.096369214 -0.117466934 0.07644526
-0.025550505 0.017230399 0.15765604
0.17057002 -0.034018744 0.017681058
-0.08648496 0.088362485 0.12183221
0.01785516 -0.23871768 -0.085137025
0.02280698 -0.031118287 0.07812564
0.047964726 0.19349815 0.07872509
-0.036859296 0.2621494 0.04295186
-0.07721029 0.0026019288 0.08811802
0.09706699 -0.071388185 -0.023222005
0.081239365 0.094267726 0.022946103
-0.02083887 0.08335983 0.008449948
0.16670224 0.038887385 0.072051786
0.02586906 0.22149555 0.08253423
-0.020009087 0.033150844 0.06583974
0.19884683 0.006507656 0.058155697
0.1379328 0.15539317 0.12086833
-0.044129316 -0.13326436 0.050806258
-0.041363083 0.23606102 0.0024605142
0.029785229 -0.029668357 0.06956595
0.06971164 -0.012663238 0.017149722
0.028803376 -0.06864309 0.11033003
-0.2463915 0.1029504 -0.030704351
0.14280634 -0.005074681 -0.005255216
0.25762245 -0.16715567 -0.08071341
0.047280557 -0.08383999 0.065457754
-0.14621185 0.10237922 0.096884884
0.06693861 0.10925427 0.02031961
-0.2041536 -0.024212712 -0.13356757
-0.13730249 0.032610483 -0.4028364
0.17519283 -0.15305018 -0.16456398
0.16741803 -0.045094594 0.023669692
0.23185162 0.020884221 0.10620805
0.075592145 0.1033862 0.022844128
-0.05220849 0.292882 -0.00075479416
0.020776507 0.14241412 -0.00022093671
0.05329629 -0.08845283 0.14034216
0.1316923 0.027273014 0.011861988
-0.10495298 0.073089644 0.13348724
0.012456318 0.18992199 0.04100193
-0.0881381 0.28400648 -0.004171759
-0.091481656 -0.20084849 -0.017816244
0.19303584 0.101053216 0.11488119
0.25937974 0.0118153915 0.08378579
0.0012634646 -0.11761837 0.04761129
-0.02940786 -0.1582525 0.038552888
0.04227214 0.035766743 0.022226593
-0.0043890583 -0.26152128 -0.14748141
-0.10113777 -0.15146448 0.03206341
0.22455502 -0.22026789 -0.19832897
0.03371387 -0.27961668 -0.114873216
-0.26030326 0.08754319 -0.07118193
-0.021807404 -0.27416605 -0.18953581
0.109444186 0.14592701 0.10749125
0.04475679 0.22516413 0.108162865
0.0916488 -0.1369717 0.09721435
-0.10600428 0.19817105 -0.122686885
-0.1294071 -0.04413492 0.053492542
-0.17723958 0.23694678 -0.19642328
-0.08811683 -0.017330725 0.055411406
0.22669303 -0.025840154 0.057166193
0.2675639 -0.039791286 0.050474316
-0.23233384 -0.059108417 -0.2203451
0.25023094 0.009774211 0.07938819
-0.17032109 0.11632436 -0.09161585
-0.13497332 -0.17321481 -0.0459779
-0.113629214 0.11974637 -0.08249688
0.0152148595 0.18139076 0.033990026
0.06527615 0.18417697 0.09211275
0.00058986776 0.028489733 0.055931218
0.2162226 0.02770345 0.11124551
-0.181102 -0.024563255 0.0045775236
-0.20814799 0.10545791 0.028851066
0.271936 -0.08239957 0.036806427
-0.18807936 0.08302767 0.029283173
0.07268438 0.042149276 0.012754256
0.052400194 -0.15993777 0.06796774
0.13726501 -0.13955949 -0.091550566
-0.012491112 -0.18208316 -0.027652133
0.14614512 0.010077698 0.005133809
0.08338799 -0.17999731 -0.35388392
-0.14472857 -0.065537766 0.046518706
0.016325502 0.16208264 0.010565273
-0.21439494 -0.019641738 -0.06743633
0.07251993 0.22309104 0.09765856
0.040361278 -0.016901508 0.05171754
-0.07712097 0.034724027 0.12994024
-0.08083922 0.10187743 -0.022936942
-0.14338343 0.11073814 -0.08267828
-0.025223969 0.09139213 0.00029094552
-0.117461324 0.082508184 0.12395603
-0.15026794 0.003139556 0.02589706
0.05562831 -0.17701806 0.050551206
-0.107785165 -0.12296244 0.059270173
0.006985788 -0.18206424 -0.027608654
0.24163309 -0.1678286 -0.10512594
-0.27138966 0.08450795 -0.091442406
0.15959744 0.14136486 0.11863134
-0.08059248 0.021958768 0.10826203
0.18949035 -0.016552886 0.033643942
-0.13631828 -0.07589489 -0.07488067
-0.018997477 0.27040976 0.059255417
0.1614999 0.10625792 0.13264035
0.007437397 -0.26126397 -0.1297367
-0.12498611 0.08742812 -0.29436404
-0.08573394 0.041681804 0.12629119
0.1583197 -0.07572794 0.04033631
-0.18123215 0.25277936 -0.18175218
0.08425181 0.14017397 0.07998747
-0.1491323 0.1654452 -0.22865301
0.13951343 -0.10824121 0.052516114
0.011955338 -0.101972245 0.08365895
0.08675339 0.09477877 0.026894225
-0.19236723 0.0038524098 -0.058264665
-0.15873787 -0.0909952 0.025749031
0.051183917 0.14644873 0.041591723
-0.057319704 0.095437594 -0.0058645494
-0.08649111 -0.17419928 0.024119174
0.110745095 0.16850175 0.13320492
-0.2048729 -0.040838365 -0.047319222
0.050908938 -0.109730564 0.13093585
-0.13391744 0.19399466 -0.1692002
-0.02879941 0.22413152 0.009055117
-0.07205435 0.07792089 0.12970237
0.034590624 -0.095246404 0.1257111
-0.19356224 -0.079173446 -0.01017546
0.048123613 0.17450261 0.066002645
-0.19780533 -0.08397953 -0.022659643
-0.09272788 -0.16547401 0.02626193
-0.09502041 -0.14569278 0.048560373
0.050492678 -0.07741922 0.059534136
0.0095388265 -0.10747728 0.07295592
-0.1165684 -0.18955672 -0.12965982
0.11648709 -0.1233231 0.07372091
-0.122124985 -0.090209864 0.05941111
-0.004488728 0.08253237 0.00767189
-0.19670597 -0.0665191 0.0016209913
-0.15020329 -0.019529268 0.0415022
0.18492152 0.092264 0.1303466
-0.1172476 0.2560079 -0.08336577
-0.06509241 -0.1198766 0.053674515
-0.13132761 0.037224665 -0.38805148
0.07731002 0.22633417 0.09510802
-0.020090902 0.15260546 -0.032134864
-0.057322185 0.16588394 -0.07493928
0.20467526 -0.08648681 -0.034768626
-0.14496939 0.10554277 0.093455516
0.039450485 -0.26804307 -0.09140642
0.06883495 0.2016056 0.11997229
0.19591269 -0.19289668 -0.20497064
-0.17136516 -0.09335307 -0.028394112
0.21159844 -0.15193406 -0.11833159
0.16077995 -0.18672875 -0.2486862
-0.11534187 0.10229478 0.10537096
-0.009041267 -0.06517979 0.100501634
0.015034125 -0.04001245 0.09099602
0.28618786 -0.03347865 0.04599269
0.08964582 -0.20125279 0.056704972
0.07762139 -0.23719324 0.0048284573
0.105250455 -0.06922331 -0.030069001
-0.083055735 -0.103946775 0.05638543
-0.14144118 0.11324623 -0.08278695
-0.040430907 0.30365673 0.008506987
0.10074333 0.12695877 0.08191568
-0.03139912 0.17216186 -0.04342794
0.123943344 0.1374595 0.117846236
-0.17677996 -0.052664075 0.02114686
0.04154002 -0.08675659 0.074599564
-0.17432249 -0.048925888 0.017091535
0.019193511 -0.033079054 0.083102085
0.005004219 -0.14613578 0.016106067
-0.11840757 -0.16126637 -0.030508595
-0.16673808 0.08872744 0.06809914
-0.146974 0.17131111 -0.21786265
0.026110312 0.22858475 0.09209064
-0.22584273 0.07422165 -0.037739966
0.041753102 -0.19250982 0.010017493
-0.045526415 -0.24647489 -0.18851396
0.080972105 0.10833345 0.035976075
0.0046342253 0.27243048 0.050917856
0.18924274 0.047965527 0.09782475
-0.16632259 -0.15516692 -0.24783921
-0.09371064 0.11318657 -0.07537081
-0.06933502 -0.012776674 0.079751596
-0.01459199 -0.10317157 0.04431811
0.17806743 -0.022597989 0.010019666
0.0177267 -0.036215868 0.086226456
-0.04848884 -0.12113866 0.059364974
0.06181868 -0.06681386 0.040678628
-0.0050094975 0.1254879 -0.015367603
0.13033168 -0.12543002 0.014407203
-0.052230414 -0.06519259 0.06625815
-0.15228532 0.29047737 -0.16982505
0.03075975 0.12198947 0.0039063664
-0.050898623 -0.060894202 0.06450429
-0.15107633 -0.10559182 0.018083077
-0.14541295 0.028144056 0.020862734
-0.21694349 0.064876504 -0.036768544
0.008092974 -0.02699292 0.16047418
0.019510567 0.18371621 0.043332204
-0.19225496 -0.048514638 -0.010199922
-0.17147657 -0.02125846 0.017818091
-0.078628354 -0.048607506 0.07071646
0.24293481 -0.18163228 -0.12112519
0.13890888 0.15271291 0.13171366
0.20631695 0.070901066 0.111983344
0.2093614 -0.21757792 -0.21720529
0.11140839 -0.015791532 -0.008949877
0.016742343 0.018939476 0.05138976
0.18002476 0.13409209 0.12268059
-0.023241313 -0.18534212 -0.002176046
-0.030932883 -0.1673411 0.025244199
0.170852 -0.14638877 -0.16230892
-0.0069854846 0.010281777 0.07748678
0.06539748 -0.13871224 0.114650734
0.2265126 -0.18089075 -0.14433916
0.05799665 -0.09764621 0.049357533
-0.016165987 -0.0045680203 0.16346648
-0.17531678 0.2700149 -0.15795584
-0.02529397 -0.0027828128 0.15755886
0.06668313 -0.18366934 0.058192965
-0.040999208 0.02895874 0.15601404
0.11772627 0.1614215 0.1345176
-0.0947945 -0.036766477 0.068235956
0.10539248 -0.19429013 -0.20658886
0.17800729 0.08053886 0.12356107
-0.15020472 -0.03122317 0.038575754
-0.008594689 0.13041948 -0.019073876
-0.25566167 0.083499454 -0.069597594
-0.20150182 -0.024999708 -0.03222186
-0.16100554 -0.03832177 0.026709152
-0.09015863 -0.10609186 0.052318625
0.16247065 0.14486782 0.116357855
-0.15316427 -0.096722536 0.026520886
-0.061714523 -0.006203226 0.09950222
0.05018677 0.033232123 0.019603824
-0.01489413 0.14688571 -0.027038803
-0.11098928 0.17618732 -0.10796771
0.01384652 0.26693085 0.05825718
-0.11937532 -0.16322266 -0.019483997
0.1502921 0.11580676 0.12853348
-0.072374426 0.18527977 -0.089909025
0.008736968 0.10424431 -0.0025233263
-0.15230009 0.19593991 -0.19912013
0.043727558 0.18128571 0.061014954
0.21546692 0.052114233 0.11756752
0.09753464 0.11822131 0.0731921
-0.056508064 -0.2307599 -0.18428485
0.12746975 0.12492061 0.10676394
0.10426215 -0.021666465 -0.00824113
0.16211975 -0.07704576 0.03991963
0.08741593 -0.18468586 -0.06586464
0.23076338 -0.05272834 0.028259723
0.08202908 0.16193867 0.08791242
0.1753132 -0.06802932 0.03217057
0.20654425 0.099123314 0.117600456
-0.23471947 -0.04102954 -0.20039298
-0.03133257 -0.12749273 0.053598817
-0.12068277 0.07853273 0.12266891
0.11391553 0.19915867 0.1127894
-0.09733813 -0.14659502 0.043977123
-0.10251212 0.01665665 0.06911085
-0.108198814 0.29879048 -0.07486212
-0.24179018 0.007997686 -0.1471696
-0.1243157 0.26604536 -0.080743484
-0.09477636 0.19386944 -0.111740224
-0.14616372 -0.0018587154 0.03541398
-0.22288173 -0.02900922 -0.16736434
0.021167684 -0.06965558 0.13916422
-0.045433987 0.05293021 0.14383659
0.027390918 -0.23765807 -0.06972285
-0.026768599 -0.011176394 0.14449434
-0.04375881 -0.23983121 -0.1772893
-0.18365578 0.23840667 -0.20397455
-0.08708332 0.106146924 -0.04130546
-0.19285524 -0.022617849 -0.014062333
0.07490777 0.09030191 0.019314598
0.14815408 0.16654044 0.12085928
0.048848856 -0.24814712 -0.051747624
-0.0465474 0.048477713 0.06418045
0.15309352 0.049290538 0.06551967
-0.14658359 0.11589823 0.079828136
0.0014389638 0.079270266 0.009841285
0.017423892 -0.25821242 -0.111074105
-0.142864 0.04763278 0.049909517
0.23837656 -0.21044879 -0.16523719
-0.08308812 -0.050072726 0.072789416
-0.03637093 -0.104522094 0.06080209
0.063810274 -0.087406754 0.13312599
-0.10314876 -0.22371595 -0.2438055
-0.19229996 0.08319178 0.023283016
-0.079194896 -0.09840694 0.061111968
0.060245045 0.13217634 0.03640698
-0.16930565 0.15439351 -0.29188892
-0.097740665 0.07100695 0.13539107
0.120534666 -0.068081655 0.046461094
-0.16033886 0.12193044 0.06410945
0.13951494 -0.05657799 -0.006249233
0.2149531 -0.17520824 -0.1539816
0.022865308 0.21531655 0.070092276
0.11417205 -0.14514221 -0.0027229849
-0.044343617 0.21329857 -0.012277135
-0.24478509 0.09046157 -0.044548847
-0.03451768 0.29020154 0.014226783
0.019671377 0.20045842 0.046105962
-0.049281076 -0.03708548 0.07772447
-0.23269527 0.09097357 -0.026086489
-0.057768263 -0.19774273 -0.03929457
-0.16067159 -0.1256683 -0.2012335
0.0066235494 -0.24629898 -0.11151194
-0.09372864 -0.0033443626 0.056082074
-0.0846581 0.024268888 0.10527502
0.20166604 -0.0530727 0.011822546
0.01212346 0.073515706 0.012327422
0.100044 -0.17016831 -0.055440113
0.16265516 -0.16340724 -0.19646408
0.0004965997 -0.16891694 -0.02009754
0.027430981 -0.103161335 0.10489817
0.17581515 0.02047283 0.061566632
0.093154505 0.15310276 0.09282305
0.1114358 -0.17080748 -0.1174777
-0.24141768 0.09552542 -0.03301862
0.0793196 0.112315916 0.038711857
0.07627573 -0.11251295 0.07958137
0.15357189 -0.050911047 0.030111352
-0.2207602 -0.037611622 -0.17540601
-0.02508729 0.030253896 0.07199452
-0.06853987 0.22885093 -0.027713202
0.19763131 0.01924114 0.07289259
-0.110075384 -0.08591954 0.053714003
0.13160576 0.15837654 0.12148018
-0.025266621 -0.0861748 0.053569034
-0.06825597 0.24791798 -0.02174092
0.027138857 -0.069596075 0.14803232
0.22388017 0.0018036609 0.08890373
-0.15760627 -0.005784133 0.034386057
0.07849117 0.13657174 0.068973504
0.20205891 0.07338918 0.12411332
-0.03361006 -0.06782651 0.060895957
-0.033787865 0.022974221 0.08500326
-0.19616878 0.09220796 -0.03468655
-0.036257494 -0.27041918 -0.20594595
0.26289666 -0.16696547 -0.072701775
-0.036667816 -0.26116776 -0.19454263
-0.10186706 -0.12765469 0.05960345
0.041122403 0.055638663 0.015961897
-0.21820419 -0.081607394 -0.22874476
-0.1973553 -0.051681142 -0.15921065
-0.043987386 0.28081617 0.037459813
-0.10900302 0.101088434 -0.035837945
-0.035042726 0.05511685 0.050305728
-0.20440349 -0.10344549 -0.057637937
-0.006493079 0.003331942 0.15709946
-0.117621504 0.16546212 -0.101199985
0.14408217 -0.17407447 -0.256845
-0.22574368 0.04957526 -0.06958296
0.056814168 -0.11177462 0.06387288
-0.03986117 0.059456844 0.0469435
0.06802833 0.16285494 0.07069364
0.069125906 0.17985527 0.09217063
-0.13868333 0.0065830676 0.027695013
-0.11180051 0.06834206 0.05528168
0.1473754 -0.12588231 -0.075702496
0.21836765 -0.014240073 0.059965402
-0.20115101 -0.11863638 -0.07256642
-0.15892604 -0.042075936 0.028265398
-0.004010822 -0.050400667 0.12708838
-0.11769417 0.17398383 -0.15546991
0.1936761 -0.10654592 -0.07699516
0.110020086 -0.17350729 -0.12597555
0.027833482 0.07951589 0.009333573
0.10296506 0.2020492 0.10728747
-0.15748535 -0.038427256 0.030319782
-0.1612741 -0.003580237 0.029112548
0.1475537 0.016297653 0.014542818
-0.115497954 0.16919547 -0.10350552
0.21599378 -0.026689235 0.040312823
0.014750464 -0.25381294 -0.109299794
-0.12932923 -0.065600604 0.047652196
-0.15235643 0.071373455 0.06674809
-0.08638647 0.2672628 -0.02332513
-0.032993723 -0.18420196 0.00032710607
-0.04539804 -0.16122487 0.024307923
-0.13531864 -0.1716411 -0.22357775
-0.20315382 -0.0064048474 -0.024458136
0.054164335 -0.06836813 0.052474186
0.15117559 0.050382968 0.06411375
0.17495249 -0.099350445 -0.083841465
-0.1614373 0.09172844 -0.3616381
0.10203102 0.18786699 0.1254638
0.07756582 0.0924445 0.020958599
0.09164767 -0.2273633 0.017134527
-0.019502597 0.00946161 0.15889461
-0.109437354 -0.20591614 -0.05082792
0.23492923 0.037802193 0.09405887
0.078352146 0.073619835 0.016048322
-0.014789493 -0.06903556 0.087034024
0.19918148 -0.18694054 -0.19242781
-0.027538039 0.020775897 0.15684365
0.01316242 0.023947725 0.05036201
0.2141285 -0.18670198 -0.17011389
-0.036648694 -0.04441675 0.08680601
0.21228285 0.032636672 0.11184851
0.13848798 0.12106241 0.117977604
-0.07041034 -0.07815087 0.07777246
0.07496098 0.042635616 0.012392749
0.29285312 -0.07186716 0.017327
-0.034553446 0.16463755 -0.046578415
0.0856765 0.095850855 0.026700241
0.26333022 -0.010919108 0.06371378
-0.08325281 -0.14442037 0.044495475
-0.18234661 -0.15119264 -0.087137505
0.07502969 -0.18092287 -0.36739033
-0.117069855 0.014047417 0.044292808
0.11152193 0.13845222 0.100848556
0.06417967 -0.15904075 0.08647304
-0.053578984 0.128492 -0.051056676
-0.04597086 -0.13761938 0.046656314
-0.041865807 -0.23626693 -0.16987634
-0.14612374 -0.033326108 0.042116452
-0.027010536 -0.16526112 0.029691169
0.23686317 0.0077543785 0.10176254
0.08292657 0.11459179 0.04697563
0.11932847 -0.07047233 0.048296858
-0.105243556 0.21772721 -0.096185066
-0.035647452 -0.024794672 0.1137478
-0.21881412 -0.018322164 -0.14750504
0.27663833 -0.09347152 0.0070073786
-0.119011834 0.022191126 0.052003484
-0.07227696 0.06461228 0.052627042
0.22777915 0.042821612 0.099633306
-0.10480296 0.26680306 -0.051033672
0.23998608 0.056925897 0.10164315
0.27866924 -0.027288351 0.056404445
-0.1267044 0.16006961 -0.1799864
-0.048916165 0.12764628 -0.045881107
0.05003194 0.2553426 0.084385104
-0.054795776 0.03903552 0.08015946
-0.06743359 -0.04481032 0.06546617
0.07256547 -0.22190477 -0.18163894
-0.0013056184 -0.10025992 0.066358484
-0.16916098 0.012184368 -0.0069572246
0.06625604 -0.15115213 0.09976821
-0.059011552 -0.101931125 0.06880336
0.29798472 -0.12203928 -0.040134497
0.127048 0.18318571 0.111562125
0.14337677 0.16250029 0.116176814
0.17785957 0.035025664 0.06649521
-0.11050544 -0.029617554 0.06546994
0.2685008 -0.1809696 -0.15300184
0.045685176 -0.08702181 0.06839896
-0.050084554 -0.14868832 0.03560517
-0.08291211 -0.17620552 0.026783694
0.17570604 0.102863625 0.13223054
0.054098014 -0.15815282 0.0727837
0.21135327 0.023720372 0.09890741
0.23136696 -0.13509122 -0.07774988
0.088798985 -0.16713667 0.015136332
0.037730683 -0.13061538 0.084428184
0.15305394 -0.1100374 -0.02615762
-0.090905406 -0.20979013 -0.20770697
-0.18007573 -0.026106289 0.005656148
-0.07680589 0.026515577 0.11975073
-0.04720768 -0.11076051 0.06828324
-0.14381617 -0.074063286 0.052965995
0.03857819 -0.14675818 0.06472424
-0.19380178 -0.12559035 -0.070772365
0.2035791 0.11412746 0.116467394
0.017389102 0.10754504 -0.00085686275
0.18812662 -0.2136027 -0.24330704
-0.06312465 -0.061934285 0.07016261
-0.013849319 -0.27190346 -0.17488389
0.05963099 0.2058226 0.11189545
0.13106357 -0.12047611 0.035561252
-0.1557416 0.13910915 -0.29175794
0.014370391 -0.17738798 -0.010667442
-0.11340912 0.039173316 0.08229278
0.1616198 0.031011583 0.054346915
0.04251443 0.0053409347 0.03736555
-0.16910277 0.27222115 -0.13866203
-0.004790095 0.22301899 0.039375305
0.023720473 -0.08163156 0.1273795
0.043075148 -0.07590702 0.14742169
0.28948227 -0.12460114 -0.04895254
-0.09422213 -0.044087533 0.07220251
-0.14838009 0.021356255 0.0076850536
-0.07214404 0.10267125 -0.02335274
0.012501121 -0.14449826 0.029267885
-0.26516452 0.039114483 -0.14119397
-0.23271653 -0.06902428 -0.23377809
0.16099206 0.068663344 0.08309827
-0.19448952 -0.058639232 -0.16402256
-0.13444737 -0.11328613 0.032577153
0.020969072 -0.22593766 -0.06396579
0.15937625 0.08929719 0.107500285
0.029812554 -0.09726867 0.11605205
-0.04695128 0.22487138 -0.0010962716
0.1062846 0.16227642 0.1240598
-0.07730296 -0.0124363825 0.0684633
-0.17655332 0.031228093 -0.02097882
0.12292503 -0.18587583 -0.30330816
0.056559935 0.16700456 0.06970188
0.020709543 -0.017018475 0.15212633
-0.04095185 0.27583313 0.045180462
-0.04396239 -0.1912341 -0.017757168
0.26984885 0.004607326 0.074384004
-0.016401893 0.17469034 -0.021251734
0.12714845 0.0736362 0.058921743
0.08869904 -0.0016512052 0.0045938757
0.051419996 -0.07217574 0.05725195
-0.1621449 -0.17815685 -0.09239388
0.123696 -0.14208077 -0.037960406
0.034332313 -0.20688528 -0.01956448
-0.08962705 -0.015281138 0.0541009
-0.102177724 -0.045422286 0.074445695
-0.110389 -0.12911184 0.047455337
0.101150654 -0.076409034 -0.025710803
0.19486003 0.030329444 0.08320477
-0.14701064 -0.16566202 -0.14346334
0.08536974 0.22633378 0.10484658
-0.22593993 0.09860284 -0.00623851
0.17624629 0.08019708 0.120524995
0.02609555 -0.21569256 -0.04312144
-0.041634936 0.26296046 0.036973286
-0.17040002 0.018725876 -0.027824884
-0.018340185 0.013118147 0.08323867
-0.018378256 -0.1819219 -0.007529287
-0.12730294 0.1653857 -0.14911035
0.15917753 0.00022212933 0.010790852
-0.08351906 -0.22335725 -0.22566575
0.19050905 -0.19638667 -0.21745521
0.08052668 -0.14571615 0.105208665
0.029841958 -0.048288886 0.07787298
-0.18533947 -0.05196297 0.011956255
0.045194637 -0.1616195 0.055177003
-0.01895442 0.08350948 0.008172468
-0.012445488 0.004180027 0.15879628
0.29824093 -0.08489275 -0.00046850138
0.032618158 -0.13074847 0.0767296
-0.12189446 0.088185385 -0.28882995
0.07657648 -0.23938665 0.0004426455
-0.069830105 -0.2093969 -0.17617
0.20886536 -0.09295031 -0.036988057
-0.23558111 0.11343236 -0.010945143
-0.10445279 -0.16908614 0.0043121027
-0.031214552 0.057331976 0.045681614
0.1986662 -0.016825574 0.045192298
0.10078969 -0.1913391 -0.34298658
-0.1302316 0.16392076 -0.20280688
-0.09415478 -0.18133223 0.0035784529
0.09250873 -0.07856037 -0.015300993
0.120304234 0.08406097 0.06237602
-0.053121015 0.29041782 0.0024873284
-0.0027784535 0.17107695 -0.0058856
-0.20282257 -0.06006158 -0.0520216
-0.1488487 0.134156 -0.17012268
0.17123851 -0.10111594 -0.07308721
0.04137351 -0.28063455 -0.104918264
0.102593765 -0.16814531 -0.09838979
-0.078339055 0.28440973 0.010777649
0.22940883 -0.113974385 -0.053225003
-0.14167467 -0.065534964 0.046859916
-0.27731368 0.020667475 -0.18302195
0.023265902 -0.02966295 0.15327144
-0.0007006018 0.2405219 0.06811297
-0.12389297 0.27583 -0.06742181
0.15258044 0.104749106 0.11755082
0.13819592 -0.067045674 0.0417518
-0.20035979 -0.046106644 -0.0371866
0.20406127 -0.1998648 -0.20201872
-0.009692727 -0.15297963 0.0155601045
0.00067493366 0.18705568 0.019937053
0.1963049 -0.010580116 0.04884468
-0.039510988 -0.19755006 -0.11615901
0.24834628 -0.12062806 -0.033982236
0.15988654 -0.12511808 -0.13608404
-0.19071496 0.0017180605 -0.018573873
-0.18340553 0.1402379 -0.33101898
0.10789623 0.15798354 0.120860346
0.023323318 0.26135868 0.065222025
0.186023 -0.07625943 -0.024036044
0.081164405 -0.118252024 0.113308854
-0.09469186 -0.22475334 -0.23270234
-0.13650411 0.20008366 -0.16510518
-0.04788332 0.27899772 0.03804141
0.03167736 0.1681513 0.04104262
0.035283674 0.06912576 0.012826008
-0.049272418 -0.117899805 0.06241502
0.024989648 -0.037043292 0.123142794
-0.16715662 -0.1392541 -0.22841361
0.10099166 0.025087751 0.007289907
-0.13768828 0.18928358 -0.18086582
0.20997696 -0.16085579 -0.14267905
-0.050994966 0.24638605 0.001681439
-0.22343768 0.04249342 -0.075379655
-0.12400475 -0.020243052 0.058425244
0.13905518 0.11397744 0.10961646
-0.12811214 0.05024474 0.07501687
0.27725926 -0.09082284 0.024447704
0.15804492 -0.030249903 0.013673733
0.1435624 -0.16779056 -0.23026122
0.13668045 0.12075989 0.114924
-0.070825055 -0.1772413 0.0047195638
0.03357551 -0.15279752 0.049521465
-0.083564356 -0.23763151 -0.23303464
-0.2101563 -0.07663047 -0.03130407
0.10595667 -0.1762453 -0.31578976
-0.08102198 -0.2197387 -0.22745185
-0.13196503 0.16396843 -0.13543421
0.2741686 -0.025505666 0.057118114
0.015928518 0.1682789 0.018022804
0.04482362 0.09794314 0.009381392
-0.12527044 0.2922991 -0.05670831
0.06953749 -0.019897219 0.018865122
0.0026016836 -0.24437296 -0.1149334
-0.11795121 -0.16796102 -0.19323319
-0.113043055 -0.18853213 -0.21270707
0.09573008 0.028066799 0.008163564
0.044877447 -0.17859839 0.03267257
-0.049046192 -0.25484753 -0.20456219
-0.11605778 0.09126756 -0.0002771729
-0.076194294 0.13327365 -0.08694813
0.042011254 -0.20864357 -0.010542509
-0.09544062 0.07795911 0.03450629
-0.017882906 0.25639665 0.06342132
0.23953713 -0.08953562 -0.006595497
0.20053853 0.04606418 0.11198635
-0.008006873 -0.15059678 0.015125964
0.029070748 0.09214014 0.005781307
-0.15816025 0.102734365 -0.34252936
0.109840706 0.031024788 0.009361049
-0.004458905 -0.07691053 0.092021324
-0.11876778 0.16947864 -0.10275306
-0.10918387 0.19099453 -0.13668193
-0.11436448 -0.2185149 -0.2535665
-0.05969985 -0.17246202 0.0055449996
0.031056749 -0.2351767 -0.0611058
-0.19905764 -0.034926854 -0.13997144
0.07535659 -0.114236936 0.11985285
0.26556814 -0.03949704 0.0650678
0.056590337 0.12207115 0.018408284
-0.104160495 0.10126912 -0.0327173
-0.058431167 0.27222893 0.024275353
-0.20833664 0.050357632 -0.04294106
0.25670952 -0.030106816 0.076620534
0.09639233 0.005316159 0.003045252
-0.23498288 0.099420905 -0.018489713
-0.21286988 -0.1017858 -0.067947716
-0.13218163 0.101679064 -0.07384568
0.042298593 0.18261284 0.060050357
-0.02622898 0.26202184 0.058435965
-0.05048118 0.24554728 0.0013494474
0.25487942 -0.15713464 -0.07174582
-0.09567116 0.053375214 0.126839
-0.037409466 0.07765572 0.021148456
-0.01973476 0.2518887 0.05484466
0.099186786 0.033466272 0.009858258
-0.03600681 -0.13212955 0.05666096
0.1601875 0.10032016 0.12300155
0.01782511 0.2518194 0.08521612
0.053300634 -0.26470366 -0.06668271
-0.07562734 -0.14476308 0.037305407
-0.23432288 -0.05985882 -0.22424689
0.047979016 0.23452641 0.101385705
-0.030698238 0.1873539 -0.02586215
0.22280417 0.013216137 0.102131896
0.028202923 -0.06083056 0.08486401
-0.0049860063 0.24445593 0.06691021
-0.038628735 0.29823297 0.016805723
-0.18341048 0.11419184 0.012628389
0.0036105306 -0.053329956 0.1345063
0.06068298 -0.2301294 -0.010940042
0.032184836 0.008949838 0.045441672
0.23134108 -0.1936211 -0.1537538
-0.06271755 0.036811735 0.08668856
0.039226815 0.06966988 0.0124355145
0.26491204 0.009937273 0.079231165
0.21305479 -0.033406973 0.0272665
-0.21086259 -0.012613163 -0.12838937
0.051000547 -0.19474474 0.020730842
-0.04577331 -0.0041324906 0.1256583
-0.024000287 -0.028621469 0.12592763
0.2610386 -0.14320445 -0.044598084
0.03776131 -0.27279735 -0.10006419
0.0012953962 0.06584648 0.019534506
0.10924502 -0.15663849 -0.03547409
0.10370048 -0.14468482 0.052566815
-0.060498863 0.050851017 0.1470208
-0.085222736 0.24054448 -0.05628939
0.15299207 0.0734982 0.07759661
0.09395543 0.14165175 0.07914036
0.22849755 0.04093472 0.09898549
-0.12189346 0.26017958 -0.0847907
-0.23259063 -0.06087259 -0.22301292
0.007904091 0.23117976 0.068655476
-0.090713136 -0.16650544 0.027888509
-0.081237346 -0.014375352 0.06015437
0.060308773 0.22300175 0.09828642
0.08425298 -0.09370858 0.01378147
0.16348688 -0.021533722 -0.006479998
-0.11880468 0.30408883 -0.0936277
-0.21101882 0.123606995 0.010206027
-0.031642668 -0.028369812 0.11500347
-0.17586914 0.26971948 -0.15298793
-0.076219805 -0.15845574 0.031514212
0.068979435 0.10617857 0.020638747
-0.084980726 0.1276501 -0.0880039
-0.022915745 0.23121499 0.023329284
-0.008578094 9.805657e-05 0.08650504
0.1428198 -0.12303038 -0.039298918
-0.014603625 0.019878943 0.074474454
0.14305541 0.14838037 0.13227606
0.028172875 -0.25094137 -0.08581298
0.01263206 0.25367695 0.08269373
0.10566413 -0.033489123 -0.01380728
0.012118429 -0.26667255 -0.129866
0.16946152 -0.1293421 -0.14223103
0.13086054 0.10805655 0.08986793
0.19079047 -0.22258922 -0.25104848
0.16859354 -0.06509145 0.03262528
0.02792334 -0.026016323 0.06997253
-0.17570981 -0.099706106 -0.03478578
0.07290099 -0.08306716 0.02251249
-0.1944501 0.058188755 -0.012333644
-0.035597593 0.28397304 0.02181279
0.10804202 -0.060069766 -0.030249156
0.15929006 0.06328952 0.07561446
-0.12192239 -0.12679912 0.03347797
-0.09291754 0.043609872 0.118217856
0.21176131 0.03832248 0.11846058
-0.090438694 0.0444144 0.1229118
0.00419334 -0.24203227 -0.10955202
0.14783974 -0.19765338 -0.2819155
-0.15583944 0.11917775 -0.3177706
0.04529739 0.14563632 0.031871956
-0.12140044 0.09072474 -0.00014568213
0.10241347 0.072824754 0.023901345
0.12422453 0.06284372 0.04060931
0.08717389 -0.19699068 0.064593635
0.07922743 0.054134373 0.013256652
-0.0323747 -0.049252976 0.08682112
-0.14378348 -0.18911476 -0.25871855
-0.049645554 0.11171495 -0.028869916
0.15241288 -0.095271245 0.050996833
0.16548264 -0.22155602 -0.28696525
-0.1666599 -0.035594087 0.020846823
-0.044049628 -0.13824603 0.046773802
0.28197578 -0.11028332 0.0009590936
0.109960854 0.061890803 0.022111587
-0.027233994 0.20761864 0.0055390573
0.049147766 -0.22898984 -0.026443476
-0.06303431 -0.11489202 0.057693366
0.04154108 -0.25170466 -0.067123346
-0.064044215 0.17294201 -0.085406795
-0.025185298 0.18197049 -0.02473362
0.08533702 0.18360326 0.12090089
-0.10186663 -0.022188086 0.05973091
-0.21259235 0.107981555 0.025583547
0.04193186 -0.0324187 0.056985773
-0.25918704 -0.0053945174 -0.19016269
-0.09174951 -0.13921697 0.052678898
0.19257328 0.0074729137 0.054588094
0.04539988 -0.07052987 0.06592031
-0.07561247 0.2953517 -0.023737557
0.13477995 0.047185082 0.03582543
-0.15042458 0.1920718 -0.19599706
-0.13572666 -0.003056995 0.03982
-0.22106186 -0.041495908 -0.09138703
0.1634451 -0.06122473 0.03222446
-0.010844944 0.0034485967 0.08593647
-0.14897707 0.28241688 -0.15914221
0.1248869 0.054120164 0.030262964
0.19375561 -0.15039939 -0.13379589
-0.16859028 0.076267496 0.04920095
-0.15481715 0.09970754 0.09658658
-0.15585695 0.07424671 0.06532374
-0.028325869 -0.1322137 0.04994475
0.01670886 0.13594791 -0.0036008004
0.21004367 0.03794863 0.11544629
-0.024742624 -0.15381178 0.035644084
0.11880079 0.109921925 0.08297205
-0.00640088 0.0479447 0.04186791
0.18655176 -0.03433933 0.013507848
-0.20617202 -0.11677547 -0.07754295
0.19836958 0.108600765 0.11958538
0.09182064 0.016864872 0.006304929
-0.054124787 -0.11009606 0.06540018
-0.06866299 -0.24009824 -0.21429893
-0.11228717 -0.2148713 -0.2457793
-0.013714174 0.010537747 0.15660691
0.02478321 -0.02309295 0.07179775
0.08087681 -0.18158692 0.081791446
-0.16794096 0.11672018 -0.18829721
-0.09412908 -0.22890787 -0.23726568
0.05567327 -0.18204531 0.04409315
0.07182438 -0.052092854 0.023118107
-0.06964762 0.12637313 -0.066200726
-0.044466093 0.2162518 -0.008624489
0.10862223 0.14808974 0.109087646
-0.19727746 -0.096733026 -0.21756864
-0.17330542 -0.11860463 -0.054194916
0.20243628 -0.05284359 0.008885821
-0.087268606 0.1296602 -0.090639375
-0.20208912 -0.08738374 -0.033384424
0.043968987 -0.22599648 -0.030182587
0.09249584 -0.14424203 0.09331614
-0.14142999 0.08510199 0.10065192
0.08615336 -0.039753295 0.0013082796
0.096109375 -0.019286485 -0.0029000815
-0.18423115 0.12970659 0.031867657
-0.07875738 -0.22198272 -0.22812869
-0.040276125 -0.13230063 0.05696858
0.12490322 0.15926425 0.13323186
0.09765301 -0.0059715784 -0.00030815188
0.22236027 0.006413494 0.09264927
0.10603942 0.040010598 0.012212946
-0.006186485 0.2735055 0.04612671
0.073029615 0.04664154 0.012491576
-0.1541158 0.14054671 -0.0863633
0.093314074 0.04186174 0.012062175
0.294383 -0.09242455 -0.0014440808
-0.051976223 0.25264257 0.008357454
-0.067884006 0.1848975 -0.08379466
0.036209937 -0.09619506 0.126864
0.056724023 -0.17034969 0.06081911
-0.17569937 -0.009733066 0.016681634
-0.17469546 -0.0006267982 0.0136018945
0.0033911744 -0.0023431727 0.15504435
-0.05705821 0.063331775 0.13873877
0.20004061 -0.13739693 -0.10766746
0.2009814 0.021424586 0.08065831
0.26722685 -0.105560504 0.013369886
-0.13301976 0.09281299 0.111034304
0.034757193 -0.05290665 0.15062132
-0.10837703 -0.021167796 0.05948153
0.07179127 0.01726161 0.013510328
-0.1279283 -0.12917708 0.021550115
-0.06207739 0.25580764 -0.0024054868
0.04950114 0.18717799 0.07278379
-0.16984817 0.26664162 -0.21854287
-0.03001691 0.04620374 0.058266845
-0.035037562 0.30167726 0.014813031
0.18839595 0.04624878 0.094350085
0.075522915 0.07905614 0.01658165
0.11170153 0.041374244 0.014145992
-0.10581679 -0.13684893 -0.067005634
-0.059996124 -0.0004457922 0.109504476
0.076870956 0.015443376 0.01134191
0.04214667 -0.21951209 -0.024449093
-0.012074227 0.021313421 0.071386166
-0.12161646 -0.092646986 0.060199358
-0.035984427 0.21557486 0.0029832067
-0.119442455 0.08850227 0.11847658
0.052994505 -0.19711901 0.020584857
-0.2124687 -0.06997224 -0.11563324
0.07799073 -0.15794155 0.1023748
-0.112899885 0.013976903 0.050340205
-0.12666523 -0.05626315 0.05203885
-0.15958777 -0.10719285 -0.063680574
-0.14311129 0.10575965 0.09396957
-0.030387279 0.002814965 0.15732606
0.13803008 -0.1728105 -0.24492039
-0.0811266 -0.15601468 0.0385204
-0.15064377 -0.09564299 0.03163268
-0.10988994 0.0690052 0.12619258
0.16048838 0.0035716584 0.017067026
0.16982763 -0.039136138 0.020254638
-0.19709195 -0.03531139 -0.0256718
0.24380934 -0.04331384 0.05968522
0.19863579 -0.0068575502 0.04767152
0.03192475 -0.072909094 0.08409797
0.19837134 -0.060143415 -0.007000036
0.045562126 -0.23455723 -0.10236608
-0.06616297 0.2973782 -0.018578125
0.0166001 0.17266531 0.024704574
-0.08410727 -0.13390993 0.047674756
-0.14166474 0.13889593 -0.21141157
0.034049407 0.23524822 0.100238554
0.1961782 -0.04427036 0.01550998
0.12952194 -0.09500089 0.057061516
0.033133913 0.058872953 0.016075136
-0.13117684 -0.16146487 -0.20427223
0.14189768 -0.1979795 -0.2910869
0.025367796 -0.07858707 0.13375607
0.19667695 -0.07799836 -0.03552599
-0.031975348 0.2465013 0.029831616
-0.115690045 -0.20138386 -0.0541504
0.10926874 0.02878817 0.008590792
-0.048664495 -0.22106877 -0.16015916
-0.118930265 0.06763584 0.11110628
-0.07086512 0.08998 0.006825007
-0.013073195 0.11967153 -0.017411705
-0.102396086 0.098233566 0.111568555
-0.099563494 0.2344475 -0.07042012
-0.2536647 -0.04982673 -0.23970082
0.20031822 0.09415059 0.11200213
-0.028818715 0.0019024357 0.158451
0.24031739 0.059883792 0.10130211
-0.10245643 -0.057587527 0.066840716
-0.069463655 0.039619207 0.14756688
0.23416124 -0.014072596 0.08343354
0.070627816 0.1476501 0.071776025
0.013421086 0.26437056 0.060649194
0.0068545584 -0.03462383 0.1625801
-0.10838009 0.26119214 -0.06358203
-0.20537074 0.039870918 -0.05218562
-0.099279605 0.30931282 -0.0581708
-0.016340777 -0.009840472 0.16157974
0.06472077 -0.26301092 -0.04767324
-0.16416356 -0.07126056 0.04337488
-0.037923142 -0.08589999 0.06175698
0.031467095 0.20467387 0.06894238
0.15647723 0.12929615 0.13346498
0.13238408 0.054077547 0.04124422
0.1211949 0.039996512 0.015899898
0.1438414 -0.11613958 -0.009870237
0.043357942 -0.23939694 -0.04847443
0.06083353 0.19087471 0.0942653
-0.068529084 0.24352165 -0.027849084
0.03277414 0.2531273 0.07406566
0.027850147 -0.18151729 0.003817374
0.2475948 -0.19273505 -0.12867521
0.053423975 0.08787466 0.011960112
-0.12730075 -0.022515384 0.060111426
-0.057719823 -0.14379248 0.037654944
-0.08934565 -0.0828412 0.06423261
0.0519278 -0.20902996 0.0035553623
0.105015 -0.08468347 0.058903974
-0.13361354 0.27304426 -0.085347496
0.09705986 0.015421076 0.004895818
-0.17675152 0.044099547 -0.0045646867
0.2513422 -0.102782585 -0.006409356
0.013553645 -0.19667046 -0.03689698
-0.022584932 0.0076644514 0.1606128
-0.14790446 -0.07711504 0.055337127
-0.011886008 0.24759874 0.060831204
0.07944633 -0.1780026 0.08433764
0.08887171 0.012924965 0.006672686
0.07702166 -0.1791544 0.079273134
-0.061228707 0.034112938 0.15254323
0.028457755 -0.03581906 0.15182081
0.042903233 0.07405359 0.011152806
-0.064952515 0.1238424 -0.05680641
0.08255793 0.1923337 0.12657544
0.06823134 -0.11121246 0.12636422
0.03044185 0.09053879 0.0064510466
0.08908986 0.10227384 0.04006167
-0.18461265 -0.08585563 -0.1848065
-0.075773984 -0.21853761 -0.19678405
0.18571885 0.03671004 0.0780284
0.112629235 0.06658729 0.02839862
-0.18277954 0.124702856 -0.35026023
-0.19313382 0.03192585 -0.044482283
-0.21937199 0.12762032 -0.021603093
-0.263178 -0.029502269 -0.2273273
0.16730134 0.031684577 0.06358512
0.04017175 -0.0827253 0.07598066
0.13139945 0.09626038 0.08228653
-0.20084964 -0.04070696 -0.036590874
0.12415071 0.094894364 0.08209964
0.010945253 0.06023879 0.02083725
0.08106684 0.13719995 0.07358059
