# .PCD v0.7 - Point Cloud Data file format
VERSION 0.7
FIELDS x y z
SIZE 4 4 4
TYPE F F F
COUNT 1 1 1
WIDTH 1000
HEIGHT 1
VIEWPOINT 0 0 0 1 0 0 0
POINTS 1000
DATA ascii
-0.23359625 -0.19700044 -0.013361486
0.044786002 -0.0697506 0.0031688088
0.20333166 -0.20020655 -0.033512995
-0.109660596 0.034683026 0.048897382
0.059698842 -0.17287165 0.06987866
-0.00971609 0.24673225 -0.093343265
-0.045366615 -0.16043591 0.04952597
-0.30765665 -0.11331086 -0.047952704
-0.17118016 -0.12749368 0.039809227
-0.12488109 -0.23930004 0.02557672
0.04680221 -0.029287955 0.12440344
-0.18931709 -0.21411936 0.016602814
0.050487317 0.37891617 -0.046136443
-0.2639007 0.07753019 -0.060353898
0.0062364973 -0.30137274 0.0020455217
-0.10815299 -0.18732484 0.057659496
0.16891494 -0.21984449 0.02517012
0.08912944 -0.2798161 0.014474598
-0.0990345 0.0022654524 -0.034431145
0.15824823 -0.050615683 0.048384245
-0.18401748 0.012117591 -0.0059079155
-0.26104155 0.09507931 -0.064689286
0.11510286 0.40276766 -0.05947703
0.1475389 0.19401678 -0.014767645
0.11737658 -0.19571361 0.050684445
0.15997644 -0.20330404 0.027889695
-0.16310179 0.11649048 -0.03087465
-0.057908088 0.09377008 0.092708185
-0.27879727 -0.00621124 -0.039715704
-0.20832187 -0.058504023 0.018185435
0.14010741 -0.018994711 0.03416379
-0.14373058 0.046242326 -0.047592666
-0.029240722 0.17230843 -0.043788712
-0.02150145 0.08121019 0.0178197
-0.27857795 -0.11886623 -0.012933847
-0.12166266 -0.10750999 -0.007714966
0.07077241 0.05888429 -0.042182744
-0.014764084 -0.1403993 0.004918989
-0.13136914 -0.08314505 -0.014283764
-0.054553226 -0.11863469 -0.0021986712
0.20061089 0.07179697 0.0024684796
0.10343659 -0.0019336028 -0.025447773
-0.16661939 -0.123494975 0.040075764
0.018065369 -0.23106891 0.05665948
-0.030491425 -0.26224577 0.03518696
0.18003318 0.17457928 -0.030658884
0.10281386 -0.27146286 0.0070990217
-0.101687185 -0.028750118 -0.044435896
-0.07113388 -0.114424974 -0.003932227
0.15035425 0.03373927 0.028431144
-0.12184999 0.22754051 -0.0928422
0.21679878 0.08671792 -0.04337603
-0.12959816 -0.16920573 0.05323011
0.22844918 0.09871033 -0.04594968
-0.091141686 0.04978125 -0.0131556
0.09278607 -0.21775043 0.04340256
0.17397028 -0.13659976 0.04388706
-0.12268693 0.11961494 -0.034523062
0.06154867 -0.06534911 -0.0014304157
-0.009479759 -0.08996577 0.07077884
-0.0085294945 -0.22028735 0.06555133
-0.052161135 -0.08994883 0.05229884
-0.25143093 -0.14044778 -0.0045747682
0.18898058 0.114722356 -0.0077742166
0.085820474 0.1655854 -0.026080908
-0.26114085 0.0679728 -0.057819255
-0.010193081 -0.3036158 -0.01708179
0.13227572 0.26047483 -0.0072238236
-0.1904471 0.016436942 -0.0046278015
0.0024187444 -0.18961972 0.06971675
-0.062290605 -0.10910217 -0.00492684
-0.07470494 0.08869112 0.09545881
-0.00046349538 0.08199684 0.028511683
-0.01594097 0.17415807 -0.044246387
-0.16020158 -0.20984389 0.016688136
0.1333654 0.20575726 -0.015501569
0.07382743 -0.25397137 0.03727843
0.14344549 0.044682242 0.024227262
0.056051414 -0.29338354 0.042392574
0.10154971 0.37740257 -0.038821343
0.04859098 -0.14489657 0.05373855
0.24491718 0.06085998 -0.036922876
-0.1770708 -0.23675948 0.021489458
-0.22676253 0.0088110715 -0.0072824745
0.056858543 -0.30842057 0.044440743
0.08756497 -0.25206527 0.037347063
0.09143395 -0.026177522 -0.019781634
-0.040356033 0.062334098 -0.043407265
-0.027231624 -0.09867452 0.04209209
0.15589176 -0.23759136 0.00493414
-0.17408639 0.058980055 -0.017443214
0.05249317 0.14358988 -0.039542623
0.060447272 -0.105533116 -0.0009017916
-0.08067156 0.0732665 -0.051912807
0.018497773 -0.12071034 0.0012618804
0.074764565 -0.018897315 0.012755021
0.025211513 0.39672482 -0.07025081
0.12757532 -0.035388425 0.02875678
-0.1573952 -0.16131403 0.04516169
0.0444138 -0.15499306 0.06048592
-0.16293368 -0.1602854 0.0428263
-0.16539828 -0.0025645725 -0.027289141
-0.25911364 -0.122792244 -0.009360396
0.15633556 0.256853 -0.022514554
0.16143118 0.31120557 -0.04001075
0.11832962 0.17510067 -0.008133754
0.17969798 -0.020427385 0.041412532
-0.10595273 -0.12537816 0.0009153683
0.04488697 -0.12695612 0.003905786
0.24765886 -0.12144043 -0.040046122
0.21066804 0.060856618 -0.0049322234
-0.1424724 -0.19652808 0.039175265
-0.23168969 0.14918756 -0.10186364
-0.29139614 -0.12524953 -0.05948992
0.08137238 0.42161456 -0.049827
-0.26198405 0.039348304 -0.050594084
-0.21258208 0.16302723 -0.079973996
0.11682283 0.26601422 -0.005860188
0.029492255 0.06297835 0.0050082207
-0.20162132 -0.12068797 0.02671306
0.24266842 -0.123818465 -0.008648914
0.1956569 0.14827745 -0.042840652
-0.09611521 -0.027723031 0.124120854
-0.046769556 -0.06578221 0.1357544
-0.06561894 -0.057761077 0.13296312
-0.10672962 -0.21937564 0.042043034
0.12278378 0.09146019 0.0076600458
-0.102509804 0.009890685 0.014834062
0.040140424 -0.2714584 0.036678266
0.1129929 -0.07157915 0.03298691
0.10220626 -0.26196593 0.03414267
0.012575023 -0.2664017 0.037970554
0.12170305 0.37581164 -0.048622858
0.048641782 0.15025839 -0.038996287
0.04966589 0.17061394 -0.04540603
-0.17918982 0.134729 -0.07145674
0.10277742 0.010533075 -0.028635766
-0.25802824 -0.13617614 -0.005922721
-0.08209545 -0.120234214 -0.0028992349
0.15087938 0.3235291 -0.03182869
-0.24565838 -0.07634563 -0.020598555
0.15210275 0.24664769 -0.013308404
-0.16131084 -0.24321568 0.02484
-0.22074293 0.060518995 -0.029530097
-0.017043145 -0.14368583 0.005661052
-0.021197477 -0.201519 0.06904695
-0.19835985 -0.0038111547 0.00269235
-0.23471168 -0.10123507 -0.013847893
0.0062293536 0.24940577 -0.09555577
-0.09983171 0.031786557 -0.02293715
0.09965039 -0.13967763 0.06502028
0.0018699801 0.24279346 -0.091589004
0.028499277 0.060608078 -0.007649151
-0.109905295 -0.25269538 0.02957541
-0.09922157 -0.22967102 0.030385876
-0.20949413 -0.08845553 0.02287213
0.044008892 -0.19051191 0.07131537
-0.16683254 -0.1602899 0.040910795
-0.2274631 0.14012155 -0.07476274
0.13970725 0.026145434 0.025464684
0.13896388 0.2508204 -0.006639294
0.23635432 0.08713812 -0.043190606
-0.10099033 0.17374906 -0.052017562
0.04151065 0.073125474 0.10407372
-0.071554825 0.0745699 0.05919064
0.27522248 0.024605382 -0.033972543
-0.21309988 -0.114179395 0.017781481
0.18964571 -0.07727097 0.043670557
0.02624354 0.37841994 -0.070534706
0.27235448 0.06703625 -0.039608598
-0.0736037 -0.1523664 0.044176184
-0.10801827 -0.06975402 -0.016741827
-0.0077027096 0.094032265 0.07321317
0.12265994 -0.2633888 -0.0043846783
-0.26806337 -0.07333303 -0.022263423
0.17102593 0.19426681 -0.030415801
-0.1024387 0.24814312 -0.1656029
0.17243305 0.2982817 -0.057699952
0.03728875 -0.22953081 0.055708528
-0.11212866 -0.030142674 -0.021541001
0.06929315 0.112017624 -0.05571673
0.029249024 0.19757092 -0.0790211
-0.20872143 0.018235216 -0.0034515006
-0.19544196 -0.03879136 0.013175438
-0.07202536 -0.07174514 0.029390955
0.18097447 0.026001671 0.030860111
-0.20156167 0.013830163 -0.0018011109
-0.094576575 -0.19117898 0.060362313
-0.036562815 -0.29071623 0.03171222
-0.106779955 0.02989127 0.013555894
-0.1622508 0.071430854 -0.023531575
-0.13176575 0.13892737 -0.036002338
-0.15478234 0.08913823 -0.026486227
-0.13291633 -0.20107555 0.041971464
0.07009225 0.42593393 -0.05000953
0.18952397 0.15955085 -0.10367571
0.09255246 0.16444708 -0.019472824
0.053760912 -0.2773843 0.014267232
0.09694627 0.13279551 -0.014476561
0.060397245 0.3950808 -0.044722583
-0.08600538 -0.04894342 0.12990813
-0.012716217 -0.2709359 0.03810477
-0.27309817 -0.027899498 -0.033986602
-0.03427858 0.19607916 -0.08119407
0.23803778 -0.14462301 -0.037939973
0.085632734 -0.16049549 0.06881133
-0.26049796 0.052205306 -0.053794634
0.119719066 -0.021077348 0.01387482
0.0058542304 0.22857215 -0.08782251
-0.037761465 -0.2597915 0.034272548
0.022605674 -0.097415246 0.006103009
-0.2362388 0.085490614 -0.061261527
-0.070587255 -0.17844382 0.061624162
0.08098295 0.2857308 -0.0018983943
-0.043203525 0.2358397 -0.091635704
0.06660413 0.2782836 -0.007425032
-0.036708698 0.12455667 -0.06315427
-0.26854107 -0.070363045 -0.023035057
0.17119695 -0.22900838 -0.009190447
0.104435414 -0.1769731 0.06520478
0.031019395 -0.16757473 0.06534732
-0.055522617 0.13447826 -0.053648967
-0.009467778 0.0892792 0.053167377
0.071529426 -0.002801312 0.08942911
0.18445542 -0.09700879 0.045733806
-0.2235212 -0.15358393 -0.00012229054
0.15774332 0.22725715 -0.025651688
-0.10542962 0.07149792 -0.05245889
0.14017323 -0.19855858 0.025890796
-0.14099452 0.08349915 -0.036237095
0.027604835 0.23826413 -0.089406334
0.22036493 -0.07541837 -0.0016813366
0.17422354 -0.031482775 0.044496104
-0.21847808 0.09208274 -0.062219825
0.16636099 0.27103904 -0.05250304
0.09887086 -0.19979565 0.05809487
0.04433893 -0.06237737 0.08236055
-0.11252744 -0.17063412 0.056322098
0.23085828 0.07183422 -0.039036963
0.013359482 -0.19745012 0.07107392
0.08092182 -0.29279903 0.008051613
0.23531914 0.012285639 -0.023756556
0.22028546 0.012082109 0.0057672984
0.1092342 0.17759024 -0.011273226
0.009350343 -0.26124752 0.036533732
-0.02215422 0.2139834 -0.08524785
0.066213965 0.049346514 0.111096494
0.041657947 0.2554611 -0.06870957
-0.25085768 0.0022384943 -0.04073625
-0.107295625 -0.18552494 0.057972565
0.27144864 0.022494322 -0.033033874
-0.19638476 -0.013709983 0.005372196
-0.09877786 -0.18619218 0.059819173
-0.19193138 0.019264247 -0.004630903
-0.21083494 0.035080962 -0.009382263
0.0866259 -0.1517141 0.06686413
0.077477075 -0.05060909 -0.013294676
-0.26287064 0.02135003 -0.04606523
-0.27755868 0.052006923 -0.05442949
-0.124066144 -0.062403854 -0.019250602
0.1464349 -0.2530771 -0.024805577
0.14857942 0.23754713 -0.0125675695
-0.09669863 0.024032027 0.004722871
-0.01919608 -0.11783809 -0.0009151828
-0.17319942 0.043717667 -0.016613236
0.1954673 -0.1919985 0.021015448
-0.25344682 0.038690567 -0.050084285
-0.15176657 -0.23479736 0.023355149
0.22167768 0.096216284 -0.04558907
-0.03383505 -0.08680732 0.08397294
0.105232276 0.3708517 -0.034890316
0.23224884 0.101727806 -0.049761146
-0.21268682 -0.13702595 0.0025008603
0.1672081 0.083057344 0.016423125
0.05632546 0.035659898 0.030436425
0.11200585 -0.22239976 0.030805469
0.114917986 0.26226813 -0.004667985
-0.18827794 -0.20563427 0.014492762
0.22826454 -0.004614673 -0.008486031
-0.031388488 0.16904047 -0.042948894
0.14191186 0.3082057 -0.01642394
0.17203249 0.18291394 -0.025637092
0.13035959 -0.15229794 0.06335718
0.24139015 -0.068644345 -0.0029893885
0.12547262 0.4166673 -0.1231796
0.0014153293 0.19784926 -0.08020944
0.04039454 -0.047794264 0.13469361
0.099313565 -0.13234034 0.062297534
-0.16497977 0.20147665 -0.08781266
0.16657569 -0.13657025 0.049890425
-0.18190391 -0.23155174 0.020578438
0.15954691 0.32300895 -0.045746118
0.23196809 -0.13107888 0.0106555065
0.12437547 -0.25118205 0.031189937
-0.05343393 -0.2279731 0.05521409
-0.0336248 0.15654142 -0.043551445
-0.01351779 -0.29576996 0.014097799
0.012101319 -0.2537113 0.03473349
0.1577829 0.10751698 0.010649011
-0.10399497 -0.25089467 0.029356087
-0.25927684 -0.11059511 -0.012460338
0.1075529 0.24088392 0.00049872085
0.16538395 0.32684207 -0.06529748
0.024733722 0.11169457 -0.05742453
-0.023053704 0.092907146 -0.054579534
0.11670871 0.243912 0.00039611218
0.10070059 0.09510842 -0.009855265
-0.035889693 0.24404728 -0.093423314
-0.08799532 0.15930496 -0.040539756
0.02245555 0.38354948 -0.07698968
-0.16137043 -0.14033382 0.0438228
-0.20029919 -0.0023859031 0.002632865
0.05467571 0.41241023 -0.049645424
-0.13269953 -0.14234741 0.04659913
-0.16536012 -0.14586484 0.043148737
0.04850319 0.11416625 -0.057096463
0.1293523 0.2358983 -0.00020617792
0.01740218 0.11317163 -0.058093432
0.027110131 -0.2723939 0.040073972
0.1750281 0.015000342 0.03424754
0.032730162 0.31439927 -0.04134268
0.1338353 -0.067108065 0.046954565
0.20479126 0.095118396 -0.01852768
0.033698436 -0.09712266 -0.0014402372
0.11783747 0.010469322 0.0062147076
-0.2780755 0.067702025 -0.08968244
0.1937435 0.12052295 -0.017227
-0.19385545 -0.23169588 0.011742138
0.029795479 0.39319795 -0.06454304
-0.1810771 0.025280666 -0.010316352
0.066284806 0.4243356 -0.049639806
-0.26781797 -0.14233956 -0.013735945
-0.03898769 -0.098153144 0.032803237
-0.10109484 0.08506824 -0.055726208
0.026257584 0.10310072 -0.05518363
-0.11122442 0.24448739 -0.09800683
0.13245879 0.06610483 0.016420722
-0.24769057 -0.11955134 -0.009723738
0.049639765 0.21702251 -0.08313456
0.09485697 0.35166186 -0.019906398
0.053193443 0.26791337 -0.034130517
-0.070011824 -0.18109532 0.062364206
0.042832684 0.35648322 -0.04745623
0.12979147 0.13110778 0.003939259
0.14918312 0.28249767 -0.028220192
0.2545128 -0.06868175 -0.0047181505
-0.07195906 -0.20561664 0.0627356
0.045446772 -0.07960659 0.019329462
0.020188056 -0.13336198 0.004538321
0.08779162 0.38994873 -0.041119386
0.10944652 -0.18753412 0.05987945
0.072742105 -0.25253522 0.036870662
-0.10201679 -0.009007758 -0.03852173
-0.060975716 0.071135335 -0.049904704
0.050585642 0.1859453 -0.07521582
-0.14437088 -0.10634319 0.026189396
-0.014899229 -0.23210822 0.057071496
0.013662375 -0.06167771 0.114640065
0.18137166 0.12788746 -0.007359286
0.04339668 -0.18631104 0.071217254
0.07260186 0.013050363 0.07955447
0.17371204 0.17058147 -0.021028895
-0.2637242 -0.15816374 -0.05976751
-0.08722409 -0.25053975 0.029939607
0.20336032 -0.13487993 0.012280422
-0.13252951 0.11212814 -0.032561533
-0.25851995 0.0036008034 -0.041389663
0.0887624 -0.17713404 0.068691626
0.050949622 0.15820533 -0.03945305
0.111362904 0.071147144 0.0007819151
0.013806619 0.16012791 -0.04191287
0.22816794 -0.15208897 0.0022527531
-0.14620352 -0.16125439 0.048940934
0.12363636 -0.0799924 0.047150575
-0.116551064 0.17417462 -0.07894384
-0.17298394 -0.2009536 0.013920392
0.009089961 0.08043861 0.034747384
-0.11183195 0.019882845 0.03393519
0.030798152 0.06626918 0.022408746
-0.2709532 0.029081322 -0.048350412
0.11792073 -0.07669773 0.042256307
0.12156453 -0.010828234 0.013945839
0.026776712 -0.11103318 -0.0008598284
-0.061259266 -0.10738458 -0.0050348663
0.07271992 0.12331634 -0.041083407
-0.13753106 0.21489681 -0.09011346
0.15288685 -0.22923282 0.03126321
0.1589687 0.18900397 -0.018014474
0.14501515 0.09099989 0.015153742
0.07802705 0.15041888 -0.037713744
-0.05322067 -0.10264688 -0.00048299844
0.16540818 -0.17027746 0.021915562
-0.14519045 -0.13126664 0.042568464
0.029001236 -0.1316004 0.0044453824
-0.20851836 -0.19291028 0.010453118
0.060526554 -0.053600784 -0.02920734
0.15983777 -0.15356423 0.048113134
0.25211576 0.031322937 -0.02883388
-0.10056247 0.20188059 -0.085327834
0.13609636 0.27342102 -0.014275308
-0.04686719 0.21593986 -0.08673638
0.046753824 -0.043395527 0.1338339
0.042616494 0.26831293 -0.031223645
0.18915686 -0.018761916 0.038974464
-0.032923665 -0.30251244 -0.014548983
-0.050200615 -0.2046583 0.06635786
0.18332483 0.13124134 -0.010560026
-0.11546582 -0.14137702 0.043933578
-0.234768 -0.0067724492 -0.010002051
-0.021782836 0.23235193 -0.08989097
0.12426856 -0.13432969 0.06440452
0.06337548 -0.05918763 0.006371105
0.12627693 0.1173241 0.005145614
0.12424342 -0.12352934 0.06269283
0.101869956 0.059680842 -0.012360421
-0.055237584 0.23533162 -0.09199027
-0.14739811 -0.17460528 0.047046993
-0.07183854 -0.0961506 -0.0056987526
0.118886806 0.29906765 -0.003094094
0.16327538 0.02341226 0.03250299
-0.041297894 0.14495397 -0.046945326
0.1512562 -0.14121486 0.056911252
-0.023218485 0.094914 0.07195806
0.054762986 0.06213583 0.10739301
0.19802442 -0.20846401 -0.037373334
-0.082561634 -0.069338 0.05941189
0.101681925 0.2134722 -0.010341086
0.0654141 0.00058307196 0.0022643155
0.15512024 0.33233595 -0.044069152
0.10024374 -0.2198691 0.0296914
-0.19291271 0.12775306 -0.07023873
-0.1676342 0.0037736793 -0.021965062
0.2051772 -0.075231865 0.031430136
-0.12999842 -0.16206875 0.052529905
-0.18660986 -0.042716302 0.011632864
0.009350587 0.081050225 0.037855156
-0.010894126 0.08711551 0.043720406
-0.20792021 0.00206537 0.0016082169
0.021932386 0.40139842 -0.07432594
-0.07826976 -0.21136181 0.058889005
-0.034943815 0.2371621 -0.091639385
0.0738541 -0.11911643 0.040045444
-0.12989986 0.15832703 -0.048295587
-0.21073292 -0.19352233 0.010519406
0.005963764 -0.22236978 0.06507142
-0.19757609 0.09170078 -0.031193918
0.03355603 -0.13985635 0.035176553
0.11934827 0.100403026 0.0046222326
0.11707834 0.37518537 -0.04435167
0.1496528 -0.04565635 0.045548387
-0.115507714 0.02110224 0.07653664
0.13529108 -0.10997912 0.060325474
0.14854138 -0.25118142 -0.023868693
-0.087906174 -0.14598691 0.0400062
-0.051357113 -0.18742006 0.06546659
-0.13820857 0.13489336 -0.035096824
0.05791745 0.24717915 -0.033347767
-0.08116022 -0.17159727 0.058822103
-0.045776762 -0.2228536 0.06061307
-0.1389 -0.055601347 -0.021571027
0.10826941 -0.23722835 0.0344157
-0.104294255 0.01726543 0.049132828
-0.036842152 -0.2544043 0.03294341
-0.15970823 0.101016924 -0.025969394
0.047928367 -0.21107355 0.066696525
0.030040368 0.18678236 -0.06094077
0.21966779 -0.13619973 0.013269908
-0.092296734 -0.2444001 0.02817897
-0.15659244 -0.10755071 0.032860216
0.21598504 0.048283663 -0.0037462085
-0.19278215 0.1312821 -0.07112842
-0.12670144 -0.07723465 -0.015595288
0.04965999 -0.039416637 0.13294135
0.20699449 0.04546661 0.009362982
0.036140572 0.37875614 -0.058118876
0.11005918 0.22044359 -0.0048967022
-0.030780701 -0.095933974 0.04996249
0.15660955 0.2670427 -0.029060274
0.01538765 -0.2164241 0.06729311
-0.098503396 -0.04229219 -0.021974962
-0.22167867 0.028479097 -0.011818479
-0.07383039 -0.13160709 0.0003169795
0.18203333 0.16791916 -0.029450012
-0.032229368 -0.12974632 0.0015159759
0.14580171 -0.07637904 0.053299278
0.22961108 -0.16267033 -0.03652698
0.1326268 0.21147755 -0.015042705
0.030089408 -0.08781057 -0.018385764
-0.108803906 0.2325284 -0.09343073
0.038783766 0.33094543 -0.03861767
0.16081992 -0.22396006 0.028498976
0.065086514 -0.23897955 0.033125784
-0.16408195 0.10377034 -0.026494902
-0.20176011 0.005240937 0.000684383
0.21525466 -0.06187665 0.019567225
0.05199073 -0.046198156 0.102397345
-0.04787687 0.15301108 -0.043009162
0.042573705 -0.13030356 0.004661762
-0.06698561 0.23157907 -0.09151044
0.0059536793 -0.22055738 0.06600271
-0.074991204 0.0924874 0.094484374
0.075591125 -0.000100208774 -7.751355e-05
0.11730874 0.41022667 -0.06518503
-0.13768251 -0.0041357367 -0.034573715
-0.00324437 -0.13095906 0.0029876626
0.18699384 0.026427766 0.028752932
0.06432863 0.41406786 -0.04774383
-0.19123 -0.09682523 0.030517867
-0.29873607 -0.12179008 -0.061264876
0.14336868 -0.13260782 0.0614327
-0.11242036 -0.022778723 -0.01658777
-0.0038749836 -0.07273461 0.1364058
-0.0580152 -0.08120601 0.078803025
0.05140541 0.23461638 -0.057827104
0.02109245 -0.06700409 0.11956587
-0.06279831 -0.063106455 0.09630674
0.12259157 -0.14990923 0.065385066
-0.122083865 -0.11415415 0.012588088
0.089714386 0.32854542 -0.009379201
0.041655343 0.3983575 -0.05410469
0.034505647 0.3222644 -0.04044615
-0.018035565 -0.22643918 0.061716326
-0.046896994 -0.26570335 0.03540475
0.24363473 0.024216624 -0.026448462
0.015269298 -0.3024343 0.008918734
0.14645876 0.04998701 0.024324033
-0.13608825 -0.20767845 0.03341314
-0.04431027 -0.2266833 0.058305718
0.091148116 -0.21128699 0.053262047
-0.2441619 -0.07101129 -0.02189146
-0.276105 -0.036990397 -0.031802062
0.08170436 0.026821587 -0.033612598
0.018816214 -0.24986787 0.034028407
0.24066699 -0.11456269 0.0056011085
0.03226448 -0.2613895 0.03749079
0.108887576 0.3211049 -0.007938529
0.06162888 -0.022803435 0.12293066
-0.064537704 -0.2483431 0.030293817
0.17916833 -0.07319425 0.049567077
0.06790594 -0.24247237 0.034124367
0.21482174 0.13098773 -0.08393094
0.034097966 0.26346374 -0.052233074
0.15405427 -0.17317629 0.036147863
-0.17219833 -0.23528886 0.022659013
0.19854446 0.075533725 0.0026659528
-0.10787704 -0.19965486 0.055061158
0.22514229 0.002898709 0.0006817594
-0.096154235 -0.18547119 0.060323734
0.20791091 -0.12510252 0.009983627
-0.17430258 0.039312925 -0.01580033
0.14157401 0.32735276 -0.02515798
-0.058982324 0.23616 -0.09235066
0.110096164 -0.24717791 0.03701251
0.16644755 0.07874565 0.01799517
0.11011692 0.038363345 -0.0019325695
-0.14034878 0.19529268 -0.08525494
0.19335511 -0.19409752 0.021506634
-0.052897945 -0.072705254 0.12346213
-0.13428248 -0.22254163 0.020949446
-0.047985367 0.07637532 0.01695921
-0.20279273 -0.10608834 0.027203156
0.14711165 0.18726923 -0.012266156
0.23507294 0.039413944 -0.030646196
0.063866384 -0.21675843 0.05931922
0.03392059 0.30042228 -0.04068655
0.012923246 -0.09356077 0.04180966
0.19857392 0.12419181 -0.028680256
0.06559414 -0.001889611 0.014095026
-0.023905525 -0.11524268 -0.0009984411
-0.056408186 0.080657855 0.042338748
0.16763565 -0.12012822 0.05343419
0.08408742 -0.269994 0.04053717
0.20031346 -0.10844078 0.024989692
-0.055773605 -0.08676594 0.059394524
0.17007758 -0.17388947 0.020836039
-0.013818373 -0.21012256 0.068140276
0.09665854 -0.206023 0.054534305
-0.0006183813 0.24056071 -0.09112255
0.061139666 0.19815479 -0.06619761
0.024300799 0.21899574 -0.08465281
-0.3100519 -0.11440724 -0.068993114
-0.15529615 0.16418314 -0.077966236
0.09432351 0.062275816 -0.035173062
0.08129469 -0.04138495 -0.01593828
-0.13268384 -0.063973464 -0.01919852
-0.12343978 -0.086216934 -0.013186581
0.060646884 -0.019720033 0.0715989
-0.17729555 -0.21848834 0.018193815
-0.025250463 -0.09366919 0.06270503
0.07390282 -0.06493148 -0.010657876
0.04069267 -0.16835745 0.06707009
0.16477571 0.31448662 -0.050009377
-0.21027292 -0.11102499 0.021520028
0.12920116 0.092052035 0.0109178955
0.012527437 -0.282165 0.041966237
0.20652324 0.022340644 0.018897828
-0.07311202 -0.083942205 0.027658176
0.060758773 0.3708257 -0.03954247
-0.11815392 0.1419937 -0.036233246
-0.24356996 -0.016036162 -0.025442073
-0.14242455 0.026682047 -0.042579573
-0.14926416 0.13347208 -0.03576522
0.0041359635 0.074945256 -0.043835975
-0.031792246 0.0962145 -0.055769254
0.20359112 0.1420373 -0.058927692
-0.046580594 -0.17179827 0.05919991
-0.2881491 -0.0006712203 -0.04149607
-0.11838426 0.07671406 -0.05430199
-0.23265503 -0.038284544 0.00018380425
0.1270644 -0.037329987 0.029225707
0.162242 -0.1834006 0.022933317
-0.0405758 -0.22132806 0.06198713
0.06834296 -0.13416052 0.052933168
0.043921385 -0.043960027 0.09089574
0.15043421 -0.22411396 0.03278365
0.22626969 -0.14427614 0.012311736
-0.19591135 -0.022916289 0.008266748
0.07141347 0.33819184 -0.016378164
-0.21343607 0.16366285 -0.118687466
0.16375369 0.119601466 0.00558486
-0.032949597 0.07876321 0.013455653
-0.260116 0.004575574 -0.041700657
-0.24721262 -0.010048338 -0.037473742
0.05510595 -0.06482396 -0.0312842
0.013204222 -0.19501533 0.07096584
-0.0047314567 0.083126165 0.0308501
-0.1592507 -0.22712848 0.02110955
0.08552208 -0.096474 -0.00011848191
0.07404925 -0.23555423 0.032616943
0.21690148 -0.18357693 -0.03862597
-0.2757532 -0.12592423 -0.013635502
0.1398787 -0.24867201 0.01274452
0.1397895 0.25628638 -0.009279825
0.12806632 0.30735034 -0.008671849
-0.04175764 0.11348219 -0.06054863
-0.02603967 0.10783385 0.09255896
0.08780931 0.26303503 -0.0086371275
0.16881761 -0.17233926 0.020392211
0.108212404 0.14151002 -0.0066314037
-0.049497325 -0.06861702 0.09732623
-0.21272418 0.032510616 -0.009226587
-0.09985723 -0.042876344 -0.048409663
-0.25033018 0.11915059 -0.07094749
0.07058304 -0.22331391 0.051432647
0.024221718 0.091170006 0.09880346
-0.16274412 -0.13058053 0.04195377
-0.011959396 -0.2762759 0.03948919
0.148913 0.36006302 -0.070247374
0.048613656 0.051255867 0.04406262
0.062358223 0.018485423 0.023706615
-0.19820696 -0.07868203 0.025139028
0.1325752 -0.16087414 0.060853694
-0.21869154 -0.14983432 -0.00087912026
-0.19294715 -0.08484875 0.02742373
-0.18795794 0.05268523 -0.012702719
0.16454722 -0.20983644 0.029729772
0.1676673 0.11112212 0.0072273347
0.015890261 0.24881516 -0.094861746
-0.21868424 0.119261496 -0.06912016
-0.059066586 0.06607777 -0.0036658763
-0.18896697 0.019693695 -0.0056932424
0.20973168 -0.17654608 0.015759254
0.12105123 0.27807593 -0.0102424035
-0.21026239 -0.027691036 0.009842749
-0.07584897 0.06371445 0.03599932
0.21468824 0.05594197 -0.007471258
-0.102179974 -0.19713826 0.057661787
-0.1860345 -0.24603489 -0.024710445
0.1975266 0.020291977 0.025827743
0.03743181 -0.30816954 0.043901954
0.06883928 0.1971751 -0.045731246
-0.110863045 -0.14922792 0.048273403
-0.131965 0.038812432 -0.04523598
-0.2869733 -0.0638255 -0.025433134
-0.2126191 -0.15057239 -0.00044808193
0.097485974 -0.16778545 0.06811931
0.039395466 0.059042938 0.026627155
0.06419293 -0.04820492 0.032341294
0.098901704 0.27841163 -0.00935195
0.22475974 0.0934628 -0.04476699
-0.1415724 -0.104619645 0.023002895
-0.07172396 0.08657955 -0.05492947
0.060019817 -0.031122439 0.041179
0.048608743 -0.16798854 0.06789827
-0.06627636 -0.2989134 -0.012531044
-0.03456536 -0.15405902 0.038127612
0.09150944 0.21655752 -0.0111673735
-0.046158537 -0.25539172 0.03281938
0.048812266 0.3175975 -0.023735119
-0.017966531 -0.30195794 -0.010964751
0.18492553 0.022919657 0.030204846
0.037181754 0.04968676 -0.026509732
-0.24804144 0.026433833 -0.0467586
0.18171081 -0.18484518 0.024081672
-0.26405928 -0.1559419 -0.048908748
-0.14790727 -0.10004654 0.02305337
0.12911211 -0.020814344 0.025787454
-0.063242696 0.1822238 -0.051644545
-0.20301042 0.17649078 -0.0844329
0.040239133 0.08364779 -0.04968912
0.14969872 -0.01277481 0.037465945
0.2699386 0.015587651 -0.03681164
0.1642768 -0.120369695 0.05523345
0.14515004 0.33800542 -0.033778265
0.120980754 -0.057364717 0.033391003
0.113953166 -0.27014598 -0.01108691
0.15386222 0.09376392 0.01496404
-0.12170868 -0.2416 0.026287453
-0.08598879 -0.12944798 -0.00071927975
-0.17105585 0.04237206 -0.018179402
0.1500209 0.23215486 -0.015988324
-0.057752635 -0.27049437 0.036183637
0.13203211 -0.18586735 0.04885328
-0.20733136 -0.04930631 0.016162558
0.13452803 0.08242391 0.014315199
-0.28285968 0.0033560663 -0.042305216
0.065023296 -0.027331397 0.006426172
0.28645974 0.026461663 -0.08867853
0.23086181 0.092649505 -0.044315368
0.14975299 0.13473064 0.0038384255
-0.0954377 -0.26045442 0.032123975
-0.013175481 -0.11717413 -0.000748476
-0.11847887 -0.053584564 -0.021262782
-0.029542984 -0.16746248 0.057095725
-0.2562126 -0.09228053 -0.016981956
0.030281462 0.17905249 -0.049093474
0.08341033 0.036222894 -0.03592848
-0.15098856 -0.058672555 -0.021278294
0.09863568 0.3562557 -0.023059148
-0.06810795 0.049920037 -0.03651925
0.12615925 0.29553497 -0.0035187637
-0.048810393 0.23779932 -0.09235786
-0.18569519 0.07465247 -0.018565902
-0.20762862 0.044639997 -0.011716499
0.20312415 -0.18507235 0.016666729
-0.083452 -0.16383271 0.054913286
-0.13789272 0.01943251 -0.04055921
-0.216656 -0.030360822 0.009073779
0.15237045 0.037320603 0.0282286
-0.18349136 0.08264011 -0.02082793
0.09334392 0.07881004 -0.024220707
-0.08753345 -0.13108023 -0.00036705227
0.10348416 0.34279573 -0.014126074
-0.14272892 -0.1272461 0.04059786
-0.13677861 0.20555215 -0.087713294
-0.05877929 0.07435343 -0.01098435
0.1573938 0.14332293 -0.00054664304
0.080130495 -0.059156906 -0.011872463
0.14451623 0.32862145 -0.028736716
-0.15083349 0.03852504 -0.04592071
-0.059388794 0.07618073 0.033217434
-0.119667366 -0.19646369 0.05206828
-0.044236608 0.075512975 0.010218988
0.05514584 -0.06744073 -0.039424725
0.06087778 -0.18773605 0.07099522
-0.09003396 0.14467865 -0.03862862
-0.03473498 -0.27571946 0.038433343
-0.12912692 -0.19774562 0.04694695
-0.059865657 0.17561428 -0.045902964
0.0097953575 0.17615227 -0.04511848
0.27730653 0.04737691 -0.031688318
-0.14223105 0.0059729456 -0.03732015
0.078034446 0.4296881 -0.051639467
-0.03372232 -0.15653661 0.043402486
0.100985095 0.10419091 -0.010070669
0.19689944 -0.18865077 0.021597508
-0.009385387 -0.094684474 0.051996704
-0.009452173 0.17213854 -0.043310698
-0.17057766 -0.07561514 0.02006101
0.0036077392 0.087762214 -0.052204113
0.025320828 -0.2058749 0.069585815
-0.10358523 0.16829112 -0.047313586
0.16704544 0.06195462 0.022904733
-0.27135795 -0.060321853 -0.025694374
0.017390592 0.16270588 -0.04118515
-0.19602238 -0.14878894 0.022511484
0.074926384 -0.24905057 0.03607481
-0.030076025 -0.2811179 0.03998948
-0.076649785 -0.18380798 0.06262075
-0.2850992 0.038444363 -0.113486685
-0.21166942 0.07531752 -0.030984296
0.07846784 0.09269802 -0.050448682
-0.055162914 -0.17850299 0.06259252
0.062312033 0.25552323 -0.026786333
-0.26931396 -0.05038212 -0.028132793
-0.044471156 -0.2884044 0.03532146
0.06643167 0.18328485 -0.058240484
0.06533497 -0.055461537 0.0037757463
0.25107703 -0.10237766 -0.01793245
0.24435523 0.04607582 -0.055187043
-0.19406414 0.012255364 -0.0020841833
0.2339128 -0.12318736 0.009839586
0.15823634 0.124000296 0.005307391
-0.17848282 -0.19817038 0.012993722
0.019307982 0.06580408 -0.0074133724
0.20735613 -0.071508646 0.02934226
0.22137342 0.035272457 -0.0069325683
0.27795672 0.063353285 -0.047791064
0.020966213 0.06302354 -0.015431327
0.12184378 0.23371634 0.0006240155
0.067267455 -0.041033246 -0.04854387
0.048975274 -0.26769343 0.036204062
0.14044403 0.29447237 -0.012868148
0.22268823 -0.08654988 0.0008000804
-0.13615228 0.020755446 -0.040824838
-0.064581454 0.09473945 0.094331734
0.0823635 0.29173377 -0.0026753694
-0.21034919 -0.17558637 0.005986185
0.09627732 0.35806552 -0.024194047
-0.11548241 0.23772122 -0.09701082
0.18208171 0.1583583 -0.0234707
-0.26312724 0.05308252 -0.05412273
-0.07832151 -0.08602537 -0.0006102096
0.22891504 0.073230006 -0.03946901
-0.13791305 -0.0401366 -0.025453707
-0.18876503 0.03748176 -0.009497877
-0.20970333 0.14333768 -0.07486536
-0.17437528 -0.10459747 0.034222573
-0.08877322 -0.21962267 0.050640203
0.086527616 0.37151286 -0.03316824
-0.18395357 0.18277249 -0.083831765
0.055680856 0.16665648 -0.043629214
0.14161079 0.10175439 0.012291998
0.07453624 -0.27462098 0.04254358
0.077637166 -0.27065393 0.041662123
0.11731685 -0.14907174 0.066172644
0.02833626 0.16827361 -0.042048406
-0.07609167 0.06275934 0.03351811
-0.12405297 -0.18443699 0.05364934
0.04763513 -0.06610077 0.056490865
-0.05245714 0.09265531 0.08290586
-0.041587017 -0.14925204 0.023424506
0.06123363 -0.28009495 0.037602574
-0.060832065 -0.12722972 -0.00027102215
-0.1493902 0.20936245 -0.089186445
0.16589063 -0.1438177 0.048042126
-0.17512305 -0.010530469 -0.0073212483
0.076551616 0.31340003 -0.00862164
0.19650188 -0.0047680372 0.032350693
0.0050381063 -0.2819183 0.04160288
0.14734289 0.19709755 -0.015818257
0.06761145 0.012503759 0.120495506
-0.302453 -0.059046686 -0.051823243
0.2129873 0.12948145 -0.055341393
-0.182201 -0.04475764 0.010798591
0.124038175 -0.16324827 0.063523374
-0.18726742 -0.023514815 0.005385885
-0.24088848 0.07157836 -0.057920117
0.04717471 0.10251408 -0.054194707
-0.04514531 0.2150006 -0.08642899
0.19736572 -0.1806591 0.023292024
0.12201546 -0.23668985 0.034831673
-0.16995002 0.18594351 -0.08407342
-0.117064014 -0.029710313 -0.026414653
0.042979766 0.25196543 -0.084079735
-0.11294194 0.16449761 -0.046894316
0.16352165 0.03570363 0.030123046
-0.060604665 0.19041447 -0.064653575
0.05635688 0.0690449 0.10141283
0.10008431 0.34632754 -0.016356794
-0.1519958 -0.097204775 0.023390975
0.12983175 -0.09998021 0.057338927
-0.23055983 -0.19520488 0.004520999
-0.0888128 -0.066855475 -0.03571825
0.117523156 -0.14445767 0.06596032
-0.082357265 -0.28849384 0.013410221
-0.12530944 -0.15813024 0.052541297
-0.100223 0.19579566 -0.08377102
-0.31685308 -0.099049196 -0.057091873
0.19011992 -0.10721924 0.039798573
-0.1002531 0.06470915 0.10051418
0.0066617033 -0.12753966 0.0025185572
-0.2759549 0.018586067 -0.045889955
-0.12794913 -0.18920399 0.05102538
0.12440601 0.20137121 -0.013228037
0.05016219 -0.2988527 0.046977155
0.090770036 0.19301544 -0.022951234
-0.07602109 0.26348257 -0.10027083
0.053430844 0.34468234 -0.030253492
-0.23252048 -0.025813792 -0.0025045956
0.12744467 0.0769137 0.012158664
-0.15528859 0.12672484 -0.033850793
0.10609565 -0.24980904 0.037519
-0.13508768 -0.22586359 0.02175952
0.078401215 0.20644876 -0.026939156
0.06886931 -0.29334033 0.045315318
0.020737827 0.38075116 -0.083050825
0.0438382 0.3139774 -0.028278643
-0.122138 -0.05888921 -0.0200644
-0.16796327 0.1691413 -0.07973258
0.13195512 0.23325329 -0.0029671416
0.14759813 0.31361696 -0.023788806
-0.23337738 0.14132813 -0.075306535
0.11274663 0.20644155 -0.013471077
-0.09669926 -0.03752553 0.038828474
0.03101026 0.0645053 -0.03148122
0.00052702613 -0.15292877 0.04174261
-0.090502605 -0.056283176 0.0057752766
0.15964161 -0.09641434 0.05624747
-0.107228614 -0.0748066 -0.015428791
0.19109565 0.022858452 0.02840458
-0.17182392 -0.21905287 0.01855678
-0.122880064 0.17974973 -0.080612086
0.035033464 -0.08157077 0.040213376
0.06022569 0.27327272 -0.01505873
-0.09168675 0.059180107 0.07565861
0.19254118 0.15870051 -0.04262989
-0.28484035 -0.108927496 -0.013909772
-0.114960566 0.067829154 -0.051911235
-0.22481056 -0.075193085 0.010892256
-0.054568548 -0.168074 0.056544293
0.0898031 -0.2547643 0.038121223
-0.1524751 0.043379024 -0.047217973
0.14187813 -0.079119764 0.053512953
-0.0064721564 -0.2684465 0.037724294
0.15217282 -0.16119727 0.049568217
0.021494828 -0.065313645 0.12470897
-0.2675625 -0.11744827 -0.011055192
-0.08503398 -0.17434463 0.059400328
0.17246024 0.24588974 -0.055410713
0.055613887 0.16984555 -0.045897234
0.19114642 0.056009423 0.017330008
0.14965916 -0.15452386 0.054116443
0.057882514 -0.061813764 -0.03833451
-0.082298145 -0.05027276 0.08918571
-0.2020986 0.038820807 -0.008606093
0.0369742 -0.13769539 0.03242437
0.23005825 -0.14904624 -0.0076350872
0.07074368 -0.021178802 0.05888025
0.020756615 -0.1630406 0.060638186
0.08257871 0.3820952 -0.038554236
-0.15805422 0.066976644 -0.02558186
0.13909252 0.016801279 0.026354939
0.037403177 -0.28581527 0.023635587
0.14572611 -0.20550908 0.02787666
0.23676898 0.09811162 -0.05528999
0.20030609 -0.1120585 0.02263025
-0.30810884 -0.07534485 -0.023501066
0.15662351 -0.099185124 0.05742517
-0.1992572 -0.041952386 0.01456168
-0.15776268 0.1389239 -0.043834943
-0.05156339 -0.25807908 0.033283807
0.15643664 0.35011616 -0.08667207
-0.010312328 -0.13009208 0.0024838944
0.102412306 0.24364252 -0.000873795
0.26633987 0.044240333 -0.077561826
-0.20202272 -0.02806056 0.010411086
0.04834708 0.1958352 -0.07781359
-0.024899472 0.07149001 -0.020176444
0.02655577 -0.29483098 0.04449756
-0.107201904 0.19182482 -0.08304436
0.16665359 0.24759772 -0.037380632
0.13015471 0.17833938 -0.0071560144
0.036546633 0.30783162 -0.03668806
-0.31185558 -0.08930658 -0.020911243
0.10777625 0.18328406 -0.012782247
-0.17254634 -0.082213335 0.024790583
-0.11772948 0.23439172 -0.096066445
-0.17288688 -0.048750352 0.0066973697
0.016772624 0.39457121 -0.08914741
-0.23245639 0.033829905 -0.027130177
-0.07805541 0.05496004 0.013198112
-0.12974828 0.1234695 -0.03271281
0.21808778 -0.021233955 0.016292479
0.11550639 0.26656297 -0.005948323
-0.26832032 -0.035452865 -0.031879347
0.061227992 0.05108484 0.04996699
-0.15322457 -0.06291599 -0.020291753
-0.2569526 0.027512738 -0.04739041
0.1471983 -0.13145643 0.060316578
0.21464403 0.04081824 0.0009108233
-0.16661514 -0.116773985 0.038174015
0.15741444 0.054616142 0.025147863
0.03663866 -0.26655334 0.038568076
-0.10807743 -0.2361334 0.025448788
0.08156131 0.08624514 -0.048687994
0.08022643 -0.18804799 0.06872054
0.22603537 0.10667326 -0.04903428
0.18408558 -0.12046079 0.041355778
0.051402826 0.09700472 -0.052628122
-0.23427404 -0.13573347 -0.005080794
0.038312018 -0.0855158 0.019847352
0.23503904 -0.12930073 0.008175023
0.23335296 0.023215346 -0.026607312
0.054116372 -0.23418847 0.043362312
0.2405154 -0.03433347 -0.0117254425
0.19563729 0.020374088 0.027089156
-0.18452176 -0.17306761 0.013760078
-0.19772545 -0.18819572 0.009691149
-0.24747 0.023829482 -0.046075385
0.13261737 0.39585757 -0.08690997
0.13069765 0.4085285 -0.10707306
-0.04762983 -0.064537846 0.11727023
0.035742935 0.09542777 -0.052857243
0.15539357 -0.056963146 0.049615502
-0.009733499 0.23975281 -0.09128378
0.23025146 -0.10888094 0.0067671733
0.04307503 0.29313827 -0.028985072
0.26329264 0.021924332 -0.025795484
0.019048918 0.065216824 -0.010582459
