# .PCD v0.7 - Point Cloud Data file format
VERSION 0.7
FIELDS x y z
SIZE 4 4 4
TYPE F F F
COUNT 1 1 1
WIDTH 1000
HEIGHT 1
VIEWPOINT 0 0 0 1 0 0 0
POINTS 1000
DATA ascii
0.14675044 -0.1857952 0.031468425
0.044894446 -0.11982906 0.1390135
-0.10192238 0.17074372 -0.10318508
-0.15073784 -0.105793886 0.16049094
-0.20884012 0.19820961 -0.10970671
0.19576026 0.07287962 -0.06529337
0.05219189 0.11517599 -0.08730305
-0.12526897 0.012983785 0.04644573
0.05165676 -0.20906119 0.18432833
0.15295425 0.19912986 -0.17421767
-0.033560038 -0.047635786 0.086225495
0.037911143 0.22721738 -0.17988347
-0.17326663 -0.04108484 -0.086499386
0.010569118 -0.012205835 0.037521638
0.048234668 0.060656354 -0.03631616
0.12297627 0.08383994 -0.06259642
-0.23535922 -0.15685496 -0.07890141
-0.30997643 0.09595691 0.0024099795
0.13572486 0.22636127 -0.19630529
-0.01563723 -0.026557202 0.05537102
-0.09802152 0.038618002 0.009748327
-0.17192063 0.020144694 0.0480492
-0.033201475 -0.29773754 -0.006302694
-0.20073509 0.051315486 0.02436625
0.14778125 0.011124821 0.00011335301
0.31571442 0.06611982 -0.080165446
-0.2801503 -0.026525151 0.11014288
-0.012001038 -0.2043073 0.19229333
0.24525309 0.15696095 -0.15156113
-0.04756053 -0.042430736 -0.10518379
0.2135986 -0.08185978 0.07430399
-0.123092726 -0.16845179 0.20108
-0.12131705 -0.1088461 0.1581296
-0.29677868 0.08061007 0.014244497
-0.012495059 -0.19443937 0.21561934
-0.1246901 -0.043117985 0.09809345
-0.07074369 -0.08223734 0.12468557
-0.26022252 -0.14888996 -0.11842192
-0.30821943 0.046257406 0.04794533
0.082473375 0.16112183 -0.12675588
0.18282638 0.019031417 -0.013346176
-0.03358539 -0.06831808 0.10530775
-0.31361705 0.082526885 0.005194481
-0.05433376 -0.11195056 0.14920644
-0.09271859 0.25994772 -0.18708886
0.24981783 0.111473165 -0.11040523
0.14484783 -0.1598976 0.15838586
0.32277521 -0.014854985 -0.006714499
-0.148716 -0.2079124 -0.047050245
0.082735725 -0.07836441 0.09410651
-0.17677578 0.06621268 0.0064088544
0.1514736 0.23010264 -0.20252754
0.0771179 0.1786652 -0.14199622
0.10730668 -0.27933288 -0.031735223
0.14228809 0.16942541 -0.1449408
-0.17799762 0.03246523 0.037753634
-0.0061656875 0.2698129 -0.211419
-0.21364646 -0.053321462 0.12315824
-0.10884512 -0.039117616 0.09161517
0.20560755 -0.21085635 -0.13145368
-0.08736419 -0.009709958 0.060708947
-0.03808245 -0.14357188 0.17551531
-0.13492456 0.252681 -0.17295948
0.22441065 -0.0262622 0.021116644
0.32178706 -0.015424997 -0.0060148286
0.16607423 0.0077892975 -2.882507e-05
-0.067998305 -0.011211341 0.050429408
-0.0211104 -0.179837 0.20598075
-0.14545925 -0.12764424 0.17971739
-0.048787333 -0.1701337 -0.004635621
-0.16488808 -0.06774559 0.12788367
0.07638548 0.113230914 -0.08976608
0.21542205 -0.04540676 0.040357754
-0.07059959 -0.28739432 -0.0033502278
0.085580185 0.20002557 -0.16318862
0.19680323 -0.00455923 0.0059551857
-0.2422053 0.08040608 0.004829631
-0.17713214 -0.2055641 -0.044216376
0.12019429 0.06895402 -0.056632686
0.22839713 0.12418844 -0.11836497
-0.1552886 -0.25809816 -0.024975399
0.30571818 0.038870312 -0.053270634
0.2192904 0.16305247 -0.15261187
0.3086211 0.056668937 -0.07019974
-0.043428287 -0.018890992 -0.09561305
0.04616134 0.09287141 -0.06566732
0.30059096 0.13812235 -0.1439215
0.20707054 -0.016131144 0.014822887
-0.19429317 -0.005911508 0.07602071
0.30138722 -0.068855874 0.046861283
-0.15110359 -0.0047411104 0.06734138
0.18983142 0.040103808 -0.034016646
0.21538247 -0.1252774 0.11403967
-0.036916625 0.16728106 -0.11142948
0.22261858 -0.1568208 0.1418629
0.05093541 -0.15440325 0.16984308
-0.098187566 -0.12313502 -0.0068604634
-0.065097556 0.258904 -0.19098645
0.24627706 -0.11576667 0.09983056
-0.062220346 -0.17638148 0.21002729
-0.032390475 0.019442104 0.01588783
0.31884545 -0.044340946 0.02117607
-0.12558004 -0.039852075 0.09523776
0.28962243 -0.1035771 0.08095943
-0.062268533 -0.17403573 0.20787182
-0.16093513 0.12934181 -0.054610588
-0.19962141 -0.07853627 0.1439492
-0.04167785 -0.18656178 0.21580309
-0.25206426 0.21076797 -0.11368526
0.010734874 0.18930504 -0.14013015
-0.17302766 0.058864776 0.01252746
-0.27112758 0.18824565 -0.089555636
-0.0661474 0.2097265 -0.1454386
-0.17544495 -0.010670238 0.077093504
0.2557404 -0.042233363 0.03033593
-0.14391686 -0.082955495 0.138224
0.008912711 -0.15221202 0.175216
-0.18551107 -0.04294534 -0.116717994
0.23788904 0.16506182 -0.1577378
-0.03838824 -0.13417883 0.16690464
-0.11209994 -0.09391753 0.14273721
0.13249071 -0.21058163 0.16577083
0.1720178 0.07932874 -0.06706464
-0.11493777 0.26314777 -0.18613112
0.2965517 0.11844943 -0.12506375
-0.010767849 -0.04847293 0.08298695
0.052952446 -0.07366262 0.09501017
-0.033941746 -0.20913246 0.1971473
-0.11903442 -0.05149717 0.104827724
0.011862957 0.22537044 -0.17359641
0.17574179 -0.21496446 -0.12240873
0.29144505 0.071524434 -0.08088055
0.2603846 -0.13758527 0.113666676
0.019000217 0.10715739 -0.0740659
0.23383078 0.13990395 -0.13381727
0.12548022 -0.27894238 -0.048274763
0.0063521042 0.066181056 -0.05344813
0.070226416 0.1197017 -0.09465093
0.13227057 -0.072212845 0.07971581
0.056470018 -0.14013112 0.0072084544
0.14578266 -0.19287644 0.17803179
0.110385 0.11635254 -0.09037105
0.20442224 0.18954808 -0.17443603
-0.24164623 -0.0059126094 -0.21702877
-0.06102535 -0.17469993 0.20826565
-0.14229913 -0.035411198 0.09408295
-0.28558064 -0.0055424324 0.09174339
0.19936211 -0.06442347 0.060725484
-0.021300131 0.18443245 -0.12999845
-0.070431925 0.10735728 -0.058513228
0.0834247 -0.18258275 -0.037691947
-0.10864324 -0.15756756 0.20084138
-0.093459606 0.18664949 -0.11934637
0.22466044 0.10952228 -0.10417892
-0.25151294 -0.11541732 -0.11428216
0.15741122 -0.1710008 0.16641745
-0.21428427 0.009316052 -0.23589079
0.008534506 -0.035086043 0.058985483
-0.12882642 -0.12335617 -0.030053385
0.12699132 -0.14741954 0.15001774
-0.18708609 -0.035868563 -0.0913953
0.18200085 0.0069019864 -0.0020127392
-0.20142032 0.208902 -0.12087562
0.08081324 0.07681193 -0.056951176
-0.20924619 0.16466688 -0.07869444
0.11316682 -0.19713672 0.19141763
0.028260212 -0.21544842 -0.028654471
0.17643163 0.15280935 -0.13562165
0.10403102 0.09439201 -0.077253096
-0.24966039 -0.08842382 0.12471833
0.21829185 -0.15922524 0.14484188
-0.045617975 0.11481152 -0.06975625
-0.03476783 0.10394513 -0.061642036
-0.16595408 0.10646801 -0.032628156
-0.05858539 -0.112469025 0.15043293
-0.09293416 0.0890536 -0.037669882
0.030142594 -0.12414982 0.14559491
-0.118455306 -0.03691741 0.091276586
-0.09120952 0.26934883 -0.19602607
0.1827998 -0.083208 0.080967285
0.15013325 -0.16599865 0.052784536
-0.021745017 -0.12534605 0.15582843
-0.12857686 -0.17334698 -0.041828614
-0.20257849 0.109928414 -0.029375708
0.3162741 0.0047413805 -0.0236465
-0.27134663 0.18671247 -0.088102855
0.018282525 -0.120829195 0.14461884
0.13257298 -0.035839356 0.046110455
-0.25830394 0.091550194 -0.0026171692
-0.061424676 -0.103851624 0.14298385
-0.047241423 -0.06874987 0.10810925
0.071874686 0.25802583 -0.21427827
0.19156669 0.043554634 -0.037505187
0.14629869 0.03235265 -0.019206468
0.051442027 0.026208557 -0.05402312
-0.22569577 -0.035466034 0.10880847
-0.015318424 -0.18013372 0.2052352
-0.27591416 0.10896119 -0.015578693
0.01912747 -0.10227754 0.12735757
0.1953005 0.20274462 -0.18500343
-0.04130105 0.07708296 -0.035713702
0.25564396 -0.13300835 0.11408651
-0.085209854 -0.21122909 -0.032651234
-0.24713796 0.031862333 0.050475746
0.25523064 -0.09305511 0.07730507
-0.13870323 0.12413161 -0.053716637
-0.21001723 -0.17209068 -0.069306664
0.07445041 -0.08394066 0.10070825
-0.14080465 0.18423133 -0.108784676
-0.18315066 -0.030637179 0.09686806
0.11654352 0.25028586 -0.21499914
0.02286404 0.16968012 -0.12416171
0.08545277 -0.10260648 0.11599
-0.10508614 -0.052492492 0.10329141
0.16856283 0.072363645 -0.060031626
0.2758975 0.1701485 -0.16911812
-0.06811972 -0.15830413 0.19439052
-0.040313862 -0.23874968 -0.17790815
0.19363765 0.008552711 -0.0055829072
0.049096677 0.015738763 0.0049653747
-0.20293306 0.019448532 0.05414852
0.02273159 0.1854246 -0.13866143
-0.08059751 0.083248936 -0.034486637
0.05237891 -0.16282368 0.17735626
-0.19514132 0.019948144 0.052316356
0.116646454 0.029390128 -0.01951385
-0.16141383 0.07025512 -2.3034658e-05
-0.10654255 0.2611471 -0.18576266
0.15329029 -0.104733676 0.10601533
-0.2736104 0.07447154 0.015830286
0.29290706 0.06750999 -0.07743463
-0.26953796 -0.053702585 0.12721913
0.32367617 -0.044272568 0.020262811
-0.15688588 0.039321072 0.027714498
0.14826201 -0.11918455 0.12023001
-0.2389426 -0.029802926 0.10591559
0.114882454 -0.17788622 0.1802523
-0.05920736 0.1579484 -0.09889842
0.0592454 -0.21506318 0.18717842
0.12285701 -0.20959426 -0.0014882134
0.21516359 -0.012965373 0.0104784
-0.29481742 0.106664106 -0.010134068
0.17731573 -0.015491058 0.019467846
0.17051011 0.09097115 -0.07753846
0.10768495 0.20754674 -0.1740163
0.16548242 -0.024351621 0.029723464
0.16758695 -0.0018239832 0.008572578
-0.17484212 -0.051547885 0.11469412
-0.12773566 0.17794952 -0.10528936
-0.19893757 -0.08223288 0.1472391
-0.05163595 -0.17744486 0.20914581
0.31009677 0.010579746 -0.027945157
-0.3109752 0.039811917 0.04733961
0.10481126 0.065191574 -0.050455272
-0.24793886 -0.0353298 0.112596735
0.02943259 0.26722628 -0.21529645
-0.13767959 0.01775831 0.04422497
0.17048971 -0.15223435 0.14680491
-0.24333268 -0.076915115 0.15014546
-0.12567773 -0.15765661 0.2039209
-0.13470206 -0.23695973 -0.022722356
0.22502702 0.061840467 -0.060260486
-0.2721466 -0.07575868 0.10666306
0.23120102 0.09630392 -0.093136914
0.058998886 -0.15573792 -0.0093717985
0.040104646 -0.1343674 0.1532672
-0.050737932 -0.019957788 0.05545988
0.21405335 0.16159551 -0.15034634
-0.114788316 -0.093418494 0.14275005
0.12489838 -0.08965766 0.09710505
-0.083077826 -0.07445315 0.11967617
0.0263355 0.15633829 -0.11246535
-0.08342107 0.2090752 -0.14179835
-0.15462154 0.20316768 -0.12382051
0.15468681 0.20012796 -0.17544325
-0.21350318 -0.13720019 -0.10087683
0.05029339 -0.007634631 -0.058946297
0.22425908 -0.18278702 0.112381786
0.13417348 -0.03300507 0.043214723
-0.090687424 -0.09858141 0.1432717
0.29132813 0.020747101 -0.034021124
0.015907511 -0.16928239 0.18973124
-0.098673545 0.27075234 -0.19600762
0.26956138 -0.13359791 0.10113116
0.0057130945 -0.2004847 0.19770347
0.09989061 0.018616922 -0.0066275466
-0.010402252 -0.1949812 -0.01215899
0.13141161 0.14754249 -0.12284147
0.019057008 -0.20053178 0.21036008
-0.25354514 0.2023313 -0.10564243
-0.09639498 0.12487129 -0.061843723
-0.121651165 0.25298092 -0.1755715
0.30040252 -0.11550574 0.043042194
0.2855367 -0.116506934 0.058406677
-0.056635443 0.025131358 0.01490638
0.06733232 0.054197535 -0.033719253
0.06265734 -0.1735589 0.1854498
0.29001322 -0.119634315 0.058545135
-0.23201156 -0.045771334 0.11942619
-0.26775894 0.04430675 0.042625077
0.19299616 -0.13894916 -0.19556408
-0.27727908 0.1703635 -0.07197827
-0.18779613 0.1848909 -0.10112422
0.13860862 -0.11079895 0.114193596
0.17032523 0.083719015 -0.07081648
-0.06953314 -0.017173035 0.0561985
-0.23544191 -0.0977214 0.13414435
0.12507217 0.05114703 -0.041065272
-0.24786994 0.014476765 0.06664139
-0.011007621 0.20398961 -0.14984953
0.10985887 0.0032353136 0.005807043
0.2896135 0.01861086 -0.031748813
0.10258067 -0.06308166 0.0765175
-0.27803916 0.060935203 0.029095246
-0.13946779 -0.08937344 0.14336126
0.019104825 -0.18977152 0.20806879
0.048912827 -0.17821635 0.1921648
0.26941893 -0.07528937 0.05842096
0.19521917 0.06742373 -0.060165428
-0.029715283 -0.15504177 0.18462312
-0.16657555 -0.072246 0.13233238
0.13080896 -0.03491758 0.04557119
-0.2849607 3.8356407e-05 0.086486466
0.21335782 0.019726934 -0.019360583
-0.07424734 -0.29046246 -0.0075202812
0.30382296 0.044195265 -0.057849076
-0.24986486 -0.10455125 -0.12459506
-0.050455566 0.13966602 -0.08357452
0.031722274 -0.027133366 0.047568996
-0.2162254 0.20306414 -0.11288543
-0.25276074 -0.029751956 -0.19308275
0.07967061 0.19140679 -0.1541986
-0.14223118 -0.114912644 -0.041675005
0.11788385 -0.05144624 0.0630921
0.056459732 0.10139229 -0.07533926
-0.21927583 -0.05548332 0.12614325
-0.20179977 0.09903208 -0.019461704
-0.068569556 0.2027686 -0.13859428
0.2476115 -0.018063191 0.009471001
-0.1923253 0.09126833 -0.013966772
0.11529157 -0.05528186 0.067085914
0.11077344 -0.13827343 0.14443514
0.015319188 0.06101191 -0.059520446
-0.014553977 -0.14674582 0.17430283
-0.27548692 0.15057424 -0.054039057
0.03922547 0.088903084 -0.0607865
-0.101765595 -0.11965466 0.16465904
-0.14236508 0.1778566 -0.10262958
0.067120455 0.22450401 -0.18252
-0.044489827 -0.15678647 0.0021840872
-0.024237452 -0.1967174 0.21160688
-0.00553626 0.0717119 -0.04175445
-0.1300398 0.02551497 0.035726298
0.13522816 0.14459755 -0.120796375
-0.21936677 -0.16423616 -0.07490669
0.29260933 -0.06432999 0.044230852
-0.028286725 0.2464754 -0.18599917
0.040853404 -0.03875387 0.056681376
-0.29314807 0.08802584 0.006765121
-0.16738096 0.1998098 -0.11847807
0.22632182 0.04150442 -0.0417294
0.12077776 -0.209368 -0.0020276185
-0.2855217 0.06209598 0.029341435
-0.046741784 0.09377176 -0.050150234
0.19629067 0.029158108 -0.025056656
0.072478324 -0.22007471 0.18089457
0.15426171 -0.16602498 0.16238165
0.087456755 0.08423834 -0.06497065
-0.1569495 0.073879674 -0.0041518686
-0.01240255 0.26404303 -0.20499898
-0.108777896 -0.04527634 0.097284794
-0.042421866 0.21013777 -0.14999312
-0.027609104 0.16510849 -0.111063465
-0.15339191 0.11176144 -0.0397214
-0.20856567 -0.030567147 -0.11572265
0.04757473 0.122334346 -0.09309359
-0.3136123 0.017591568 0.03161009
0.029098175 -0.08011515 0.10515992
-0.14144504 -0.15592675 0.18660076
0.307654 0.10760896 -0.11701756
0.09031087 0.093855746 -0.074344374
0.22527815 -1.17469035e-05 -0.0032507798
-0.07562097 0.17320757 -0.11008577
0.20962574 0.1590816 -0.1472487
-0.30849096 0.09308941 0.0047942204
0.1635474 0.07445936 -0.061082218
-0.030549642 0.19545172 -0.13853556
0.26835528 0.119630724 -0.12119194
0.17696008 -0.06879843 0.06870256
0.2778264 -0.042873148 0.027039759
0.057974026 -0.10524282 0.12325708
-0.028310455 -0.13318534 0.16421483
0.06405472 0.21521445 -0.17341179
-0.30145204 -0.031383667 0.061751753
-0.13886732 -0.10146999 0.15441412
-0.00015133417 0.1993102 -0.1474434
0.05241691 0.21019578 -0.16673462
-0.057352055 -0.17917062 -0.010436421
-0.1662862 -0.07713995 0.13679577
-0.046428718 -0.1459605 0.17918742
-0.2357432 -0.07217434 0.14443684
0.30986723 0.0057548406 -0.023453694
0.1174286 0.08991079 -0.06782764
-0.23766886 -0.041245524 0.11624633
0.27361047 -0.119020954 0.098022446
0.0072370023 -0.20060204 0.21045698
-0.20499371 0.23252372 -0.14203621
0.260463 0.14232655 -0.14073855
-0.16443285 0.079347044 -0.007878197
0.07241909 -0.124114305 0.13812315
0.048232857 -0.13506195 0.15247738
-0.3089619 0.030772451 0.025202958
-0.14687246 -0.04824377 0.10672464
-0.046717394 0.0674581 -0.025882779
0.22523722 -0.002441318 -0.0010019392
-0.021146107 -0.08807529 0.121343486
0.07938653 0.24516092 -0.2037329
0.19252846 -0.002050104 0.004392678
-0.0629768 0.14424351 -0.0855934
-0.2688969 -0.009253875 0.09223132
-0.085153915 -0.22381845 -0.1897177
0.1375863 0.24195963 -0.21102138
0.13350362 0.15474872 -0.12985702
0.045422874 -0.1617063 0.17754923
0.056690205 -0.18676917 -0.02411911
-0.16319777 0.19191352 -0.11193048
-0.19152696 0.23140633 -0.14337514
0.03009186 0.0021753071 0.020820538
0.029957674 -0.121298224 0.14299689
0.12909459 -0.05028596 0.060048908
-0.1418139 -0.16887216 -0.05097585
-0.05479935 -0.13118589 0.16703172
-0.1332056 0.01312509 0.047711812
-0.07452381 -0.16640292 0.20298761
-0.0212747 0.24173865 -0.18286398
-0.081214815 -0.1317098 0.17216326
-0.27258626 -0.0020679869 0.08625231
0.015073578 -0.12743658 0.15127847
-0.24667308 0.026184699 0.05563122
-0.032526772 -0.13620238 0.16773993
0.24553663 0.09694758 -0.09625321
-0.045075025 0.28321543 -0.21693514
-0.11128668 -0.152154 0.19631302
0.15736078 0.15321605 -0.13264105
-0.09736875 0.22500643 -0.15403993
-0.1670014 0.12498711 -0.049526334
-0.1048346 0.14698476 -0.0807564
0.03181139 -0.28965378 -0.0034157343
-0.2486848 0.109172456 -0.020565428
0.0047414973 0.12951545 -0.09218063
-0.18436722 -0.12510629 0.1842228
0.1676228 0.12981462 -0.11286042
-0.1756764 0.21487403 -0.13091402
-0.23897262 0.10590966 -0.019264536
0.13598609 -0.13898587 0.14065528
0.006671365 -0.12511465 0.15061516
-0.09924313 -0.18340875 0.18681563
-0.14260887 0.005606192 0.056302104
-0.099585325 0.24747556 -0.17437622
0.2786571 -0.009743593 -0.00366601
-0.045274276 0.2675339 -0.2024351
-0.26906902 0.063387655 0.02525526
-0.003216725 -0.05828654 0.09071032
0.005995284 0.07204029 -0.046838265
0.1207771 0.18290612 -0.15359098
-0.118037924 -0.07675948 0.12795494
-0.16735457 0.11739916 -0.04246471
-0.22012055 0.042845383 0.035590503
0.18110897 -0.12658052 -0.033336144
-0.19179152 -0.06337322 0.12858458
-0.13893366 -0.21703967 -0.040352233
0.31268474 0.03331725 -0.049374055
-0.2842626 0.046435405 0.043565568
-0.17263949 -0.11836027 0.1759367
0.2884356 0.079515405 -0.08772194
-0.011161494 -0.14953305 0.17627722
-0.15095077 0.1673112 -0.09139152
0.12454246 -0.074138075 0.08285171
0.2811486 0.022367977 -0.03372513
0.17534791 0.07624399 -0.06480505
0.11002556 -0.2184092 0.16789757
0.017669832 0.19873735 -0.15005104
0.22781098 -0.09215824 0.08130257
0.26963222 -0.038542487 0.02448735
-0.15732984 0.081692636 -0.0112918615
0.27700207 -0.010681031 -0.0025101488
0.24393924 0.10378736 -0.102281146
-0.1891822 0.04575859 0.027459672
-0.029625764 -0.19658156 -0.013745768
0.27117184 0.05506875 -0.062133957
0.25756162 0.08599492 -0.08826595
-0.1859532 0.0972938 -0.020646386
-0.05828361 -0.09256344 0.13201848
0.06774507 0.059487417 -0.03867104
-0.017505853 0.12030515 -0.07977042
-0.17674749 0.23421751 -0.14856869
-0.071252815 0.120199405 -0.064341396
0.14300041 -0.1656568 0.16402338
-0.20412453 0.17589326 -0.089951485
0.11557109 -0.18356848 0.18537267
-0.15195434 -0.071930625 0.12946872
-0.27637106 0.0866459 0.005085601
-0.2561496 0.08729704 0.00092700816
-0.24256277 -0.020386266 0.097866274
-0.06886395 0.24231812 -0.17502445
-0.03373805 0.13114132 -0.08690956
0.22105227 0.097471476 -0.092427984
-0.25331157 -0.024071105 0.103156805
0.31168458 -0.025793925 0.005327426
0.129302 0.074140325 -0.054762222
0.20275913 0.02316565 -0.020667123
-0.011645458 -0.07261187 0.105407834
0.22531283 -0.06357953 0.055380113
-0.24867937 -0.07766583 0.14763436
0.1835187 -0.19471498 0.14406615
-0.14382061 -0.19660674 -0.058340654
-0.084214166 -0.0020559367 0.053094376
-0.16454785 0.09365841 -0.021059599
-0.17000869 0.062268645 0.00885638
0.19810767 -0.07722491 0.072754666
-0.10626703 -0.134428 0.17907849
-0.20790769 0.16514286 -0.079369456
-0.0535784 -0.060964543 0.10204264
-0.26392543 -0.095897086 -0.13010405
-0.06734104 -0.20201996 0.19527969
-0.11067582 0.2104618 -0.13828166
-0.0028122328 0.2884547 -0.22920464
0.098914966 0.21319033 -0.17767888
-0.19049901 0.24580702 -0.15683948
-0.19284962 0.033323392 0.039575472
-0.24445552 -0.061718088 -0.1650579
0.15483102 0.008775293 0.0010399512
-0.18223734 0.08483066 -0.009803654
-0.23785745 -0.17420922 -0.071501225
-0.22636147 0.109063484 -0.024392897
0.15994292 -0.091634646 0.09276181
-0.08977377 0.13740306 -0.07456827
-0.040235464 -0.16498965 -0.0005652206
0.25300342 -0.14558102 0.11672792
0.17939459 -0.104025826 0.10076916
-0.18556842 -0.22575611 -0.026851239
-0.0036600947 0.1351151 -0.0958676
-0.1693509 0.16784725 -0.088648394
0.016052699 0.18969001 -0.1414206
-0.06749854 -0.12433206 0.16294375
0.04155277 0.14030577 -0.10035464
-0.102022156 -0.16383433 0.20545755
0.09743008 -0.044128116 0.05994053
-0.033911727 0.010915367 0.024020962
0.019613229 -0.081202954 0.10783216
0.15820554 0.04656038 -0.034407303
0.2477911 0.07504365 -0.07644471
0.14959796 0.024397425 -0.012449011
-0.22130126 -0.13355401 -0.10286841
-0.10679794 -0.16883455 -0.026572118
-0.29127553 0.00931477 0.07904112
0.206333 -0.11814115 0.10904965
-0.0029504022 0.101163484 -0.06467463
-0.16999164 0.010110307 0.056965448
0.33177462 0.027695682 -0.04754763
-0.0828087 0.1264785 -0.06571657
-0.068935946 -0.038885664 0.08437904
0.24524218 0.03280012 -0.03702998
-0.05541149 0.25167754 -0.18602484
0.15152483 -0.20518702 0.013579081
0.13048601 -0.21236733 0.16478528
0.24982236 -0.1047007 0.08899902
0.015242131 -0.24133034 -0.038759205
-0.23816334 -0.08492274 -0.14476041
-0.15521136 -0.26220372 -0.028699752
0.15655826 -0.17454688 0.046495967
-0.20231836 0.08432008 -0.005799175
-0.19355804 -0.05508263 0.12124798
0.060409393 0.047285303 -0.026124446
-0.25243762 -0.05721242 0.13357335
-0.31410316 0.08490462 -0.0309173
-0.0954464 0.10127174 -0.04024163
-0.042460185 -0.2096891 -0.020947386
0.21991414 -0.019741677 0.015892928
0.17504299 -0.05957035 0.06052783
-0.039330658 -0.14673139 0.17864949
0.028435977 -0.0015637638 0.024561096
-0.10565344 0.09599427 -0.033577424
0.2726201 -0.14524165 0.076480396
-0.023173865 -0.17556342 -0.0033348189
0.027133673 0.27847022 -0.22526398
-0.19823512 -0.023964314 0.09336702
0.26600125 -0.0954505 0.0776195
-0.102767944 0.06745082 -0.016012913
0.24052453 0.073349155 -0.0736036
0.12641494 -0.07792206 0.086012594
0.2660989 0.08820324 -0.09180512
0.29309344 0.07246822 -0.082040936
-0.166346 -0.052275535 0.1138704
0.27039975 0.13076933 -0.13182601
-0.26540422 -0.007258712 0.08977644
-0.24738032 0.14517824 -0.0540073
0.22376701 -0.05979704 0.052163433
-0.14396624 -0.0364011 0.095289566
0.2623668 -0.05965392 0.045238987
0.07454986 -0.0292593 0.041993745
0.037034947 -0.15020244 0.16841371
0.029004632 0.19468573 -0.14830798
-0.06452999 -0.09388934 0.13434061
0.2863804 -0.061016653 0.042270467
-0.20487098 -0.04577106 0.11464942
0.3190868 0.082747154 -0.13665031
-0.0065181204 0.26417267 -0.2061542
0.12651779 0.116430074 -0.09328152
0.22899736 -0.13214342 0.117977366
-0.2251721 -0.10909952 0.1403553
-0.044636596 -0.167858 0.1990707
0.10311128 0.049097147 -0.03530991
-0.11038266 -0.004292149 0.059762258
0.026751881 -0.0047389017 0.02778632
-0.058418516 0.014728444 0.024816565
0.2615384 0.01118349 -0.019957507
0.2430131 0.10758392 -0.105620034
0.07887665 0.23031884 -0.18995263
0.052815493 -0.08678138 0.10713552
0.029381866 0.13482732 -0.097595654
-0.027687753 0.04259687 -0.047488548
-0.19699231 -0.15219869 0.1546469
-0.19643718 -0.08368063 -0.12702706
0.10573329 -0.21496539 0.17410743
0.06215217 0.043231077 -0.0226917
0.11560387 0.020422062 -0.011057494
0.14414491 -0.0297027 0.03841391
0.039709233 0.28514817 -0.23363666
-0.12667039 -0.11315688 -0.026053725
-0.19999675 -0.016963555 0.087219074
0.07200964 0.11293921 -0.08872717
-0.08272153 0.043238148 0.002794163
-0.07425622 0.15662034 -0.09502547
-0.18459432 0.1451557 -0.06503485
-0.16400573 -0.17031813 0.16948488
-0.034734108 -0.13725269 0.16909693
0.24644697 -0.036324687 0.02652065
-0.3080473 0.08495466 0.012219917
0.15657748 -0.04208138 0.047644395
0.28464028 0.065190814 -0.0738407
-0.26305756 0.13048822 -0.0376984
0.04277867 -0.06756736 0.0911779
-0.12690707 -0.15090385 0.19790855
0.061128333 -0.1801663 -0.022994265
-0.267634 0.15616515 -0.06057822
0.025840126 0.21378666 -0.16537018
0.006362204 -0.0437409 0.067350976
0.05610851 0.08013745 -0.0556721
0.062358614 -0.06358766 0.08406205
-0.120407015 -0.24072799 -0.021761708
0.12678407 0.18146005 -0.15331395
-0.27392364 -0.014809131 0.098240264
-0.21032375 -0.10243329 0.16787599
-0.15114088 0.20637889 -0.12739523
0.11880077 -0.21228628 -0.0057168812
0.099260315 -0.06019572 0.0744397
-0.18371324 -0.10224608 -0.09562873
0.25745022 0.096102215 -0.097569704
-0.17753093 0.024822986 0.04472089
-0.04035589 0.28735965 -0.22158857
0.31344798 0.06113842 -0.07517169
-0.14966033 0.039800733 0.026000904
-0.06759857 0.027499827 0.01465068
0.04817957 0.17062014 -0.12948342
0.28374347 -0.094541505 0.07365892
0.08103693 0.031416684 -0.015116784
0.10362338 -0.21391658 0.17640075
-0.21792716 -0.15108527 -0.087290786
0.22122215 0.1763705 -0.16523679
0.18513447 -0.028380025 0.02998109
-0.20425893 -0.10564997 0.16977562
0.25918677 -0.08567498 0.0698014
-0.12670691 -0.0443553 0.09958956
0.2745781 -0.05554715 0.039302412
0.15107635 0.2048284 -0.17914368
-0.034161214 0.023950692 -0.05681013
-0.044569172 -0.19783992 -0.016045356
0.022466976 -0.1721996 0.19126807
0.3014073 -0.043235917 0.023225034
0.27386695 -0.007772102 -0.004641839
0.038620956 -0.3089914 -0.026717536
0.3118319 0.013945353 -0.031354915
-0.15586214 -0.1506838 0.19416395
0.15810558 0.18017136 -0.15763666
0.25646612 0.0059148357 -0.014205016
0.19149564 0.09855852 -0.088229835
0.16738094 -0.18756694 0.16923396
-0.14014916 -0.26627874 -0.019745141
-0.26218882 -0.08165762 0.120681435
0.14015226 -0.17249419 0.042510275
0.06078233 0.142116 -0.10540736
-0.004667801 -0.1776742 0.20109253
-0.14518058 0.27260125 -0.18952958
-0.17412598 0.09088981 -0.016820345
0.20050244 -0.08934029 0.083508864
-0.034057073 0.015944833 0.019407233
0.24833687 0.11810328 -0.11626038
-0.040923133 -0.038613003 -0.14149173
-0.1697521 -0.09109944 0.15028225
0.07761365 0.24144235 -0.19999067
0.13285321 -0.19978212 0.012153423
-0.11494566 -0.13208811 0.17844701
-0.23824948 -0.062318094 -0.16559626
-0.113229856 -0.18044695 0.18559651
0.04829152 0.16270807 -0.12220432
0.04112371 0.17035988 -0.12800168
0.16226242 -0.2495122 -0.08816931
0.14453605 -0.24065901 -0.0249579
-0.14450061 0.25860044 -0.17673455
-0.19968376 -0.035193708 0.10397991
0.027696513 0.24273942 -0.19240355
0.27666417 -0.06427117 0.046982106
0.100045696 0.20941308 -0.17439376
0.18176666 0.07231875 -0.06231349
0.09750471 0.23457035 -0.19715202
0.02274028 -0.18393677 0.20204675
0.24089353 -0.13685298 0.12022821
-0.11387811 0.1821129 -0.11156849
0.2576594 -0.16177432 0.08365935
-0.1814587 0.18607126 -0.10332834
-0.04187471 -0.01394462 0.048353534
-0.13712291 0.18365043 -0.10889633
0.286014 0.10256476 -0.108557
-0.24864091 -0.051529147 0.1276631
-0.23480844 0.004725123 -0.2280441
0.25482377 0.05782575 -0.061800584
-0.2665883 0.10511645 -0.013673214
-0.16249228 0.177378 -0.09864649
-0.14914697 -0.0059161005 0.068080775
-0.0021687748 0.20908403 -0.15610415
0.3360844 -0.016513174 -0.0075269626
-0.25155813 0.20379658 -0.10734389
0.12237597 -0.07552291 0.08451034
-0.02869088 0.262267 -0.20049495
-0.14917085 0.16833569 -0.09264966
0.2212038 -0.1832539 -0.15965915
0.10336525 0.086280875 -0.06965374
-0.20330603 -0.17415829 -0.06858058
0.15186167 0.08529691 -0.06902284
0.06118122 -0.14991625 -0.006640289
0.13213165 -0.17774473 0.03422271
-0.049102936 0.06099762 -0.019503292
-0.037529413 -0.17008 0.19986999
-0.27946332 -0.071193114 0.0944338
-0.18824288 -0.08999698 0.15251914
0.23312822 0.17766361 -0.1685247
-0.22761397 0.009561578 -0.25357342
-0.0026978932 0.25327247 -0.19677174
0.13654837 -0.24931565 -0.036685538
-0.09892498 -0.0033255054 0.056854088
-0.2580668 -0.08922507 -0.13728942
0.089781165 0.22411563 -0.1861491
0.28286466 0.08754002 -0.094143696
0.24394473 0.08090939 -0.08117878
-0.27848816 -0.025381405 0.108795375
-0.18641163 0.24345592 -0.15539
0.14837335 -0.10520564 0.10731594
0.30896965 -0.009796266 -0.008951519
0.28245035 -0.037896976 0.02163607
-0.036346562 0.013375822 -0.06733292
-0.0072853495 -0.101939395 0.13169307
-0.19169872 0.08079281 -0.0044140443
-0.045171425 0.20346491 -0.14335403
0.1852316 -0.034826357 0.035910357
0.05667051 -0.14782332 -0.0012642472
0.060320154 0.05738403 -0.035424076
0.0787379 -0.20164402 0.19990957
0.027314635 -0.16260315 0.18156315
-0.2928045 0.098437436 -0.0028992922
-0.11240128 0.11391883 -0.0489244
-0.05799551 -0.2744687 -0.0016202612
0.035122313 0.12585351 -0.094148725
0.08546305 -0.14734611 0.1572575
0.034204356 -0.18169025 0.19795728
-0.29974538 0.109371215 -0.048920296
-0.1878692 -0.05900472 0.1238649
0.01945436 -0.30424193 -0.016763814
-0.12350193 -0.14040191 0.18762203
0.23528314 0.13065249 -0.12553908
-0.07502624 -0.05988845 0.10482443
0.2481456 0.11925292 -0.11728748
0.19666405 -0.15160643 0.14162023
0.26969692 -0.14608182 0.08255542
0.06601094 -0.17611173 0.18721469
-0.22016107 -0.010242934 0.08456806
-0.06493792 0.00076496275 0.038843554
-0.23214538 0.09524139 -0.01062523
0.059020743 0.008775161 0.009642661
0.05518929 -0.21579681 0.1885688
0.02172233 -0.0055550365 0.029424237
0.23269811 -0.028962482 0.022149028
-0.04308021 0.2791813 -0.21356519
-0.031190362 0.17835183 -0.12264962
0.18631779 0.06380657 -0.055262517
0.1852727 -0.17376152 0.16406119
-0.18291385 0.24500838 -0.15743728
0.14026892 0.16885395 -0.14405856
-0.19717464 0.20131469 -0.11462366
0.08123489 -0.020530004 0.0327655
0.20071594 -0.1354323 0.12598768
0.13799767 0.018498808 -0.00952897
-0.15214154 -0.2063229 -0.047913402
0.2795809 -0.114790976 0.09307004
0.0933777 -0.1546681 0.16261907
0.025171308 0.096415564 -0.0652435
0.18208048 -0.20151238 -0.13593306
-0.12356179 -0.095192954 0.14593071
-0.1214967 0.08358951 -0.019346945
0.30665788 0.044160545 -0.058315855
-0.1697773 0.031600293 0.03710484
0.20338298 0.0221236 -0.019815654
0.3236274 0.025383446 -0.043981157
0.25139692 0.14744137 -0.14386111
-0.039781474 -0.15378802 0.18523797
-0.20602044 -0.20163734 -0.04275526
-0.20749545 -0.027763149 -0.08729254
-0.18998523 -0.034584343 0.10171126
0.1786399 0.07067119 -0.060243864
-0.008352429 -0.2387469 -0.034227364
0.109955974 0.055518527 -0.042438075
-0.03940801 0.003446808 -0.061558917
0.07373765 0.11390312 -0.08992012
0.051578492 0.005892011 -0.059522282
-0.15509994 -0.24919021 -0.016594175
0.082660556 -0.19842727 0.20223275
-0.07589187 0.11624496 -0.062317688
-0.16082653 0.07968202 -0.008822154
0.10359941 0.08897607 -0.07218104
-0.036556255 0.21673323 -0.1571094
-0.03492491 0.18890527 -0.13172708
0.005839027 0.24840395 -0.193783
-0.20867719 -0.15858662 -0.08199897
-0.014987248 -0.06257332 0.09673565
-0.22114912 0.11823602 -0.033770937
0.0015800591 -0.12086814 0.14759326
0.13198227 0.06404098 -0.052289322
0.19430828 -0.09127918 0.086386904
-0.18390971 -0.095952705 -0.09810646
0.30541065 -0.06158794 0.039448995
-0.049688566 -0.20926142 0.19315545
0.27951583 -0.07409163 0.055539187
0.2751841 0.10387153 -0.107857235
0.21956657 -0.1848988 0.1164168
-0.17006952 0.021725042 0.046265762
-0.1861305 0.17059875 -0.08823351
-0.23003209 0.13558476 -0.048210792
-0.23112544 0.17882906 -0.08790791
0.16262631 -0.026224084 0.031953134
0.21972081 0.18540505 -0.17330654
0.111686006 -0.023846682 0.030467087
-0.15931402 0.11845146 -0.04485058
0.12817194 -0.12909977 0.1329113
-0.17045677 -0.13833158 0.19319081
0.034622103 -0.034412 0.05377279
0.02683215 -0.024480639 0.04598242
-0.10073297 0.22987229 -0.15793584
0.2416847 0.06004113 -0.06153194
-0.012438491 -0.042325526 0.077610455
-0.22993301 -0.07874159 0.14947283
0.039101064 0.032995682 -0.07164829
0.022887345 -0.09908997 0.123755835
-0.015378772 -0.113817036 0.14407352
-0.0022250959 0.122454666 -0.08444181
-0.2716606 0.14064315 -0.04555166
-0.100317426 -0.15591013 -0.018642819
-0.22363974 -0.027094724 0.10072438
0.14895609 -0.043678906 0.05045958
0.09972235 -0.14786243 0.15522458
-0.12117104 -0.00017525078 0.057863094
0.3316054 -0.021111634 -0.0024965757
0.106566675 0.23244469 -0.19678625
-0.25841588 -0.089321256 0.12219416
-0.0026269215 -0.19918215 0.21194744
0.07061642 -0.30036622 -0.030879
-0.11371748 0.24000254 -0.164996
0.27065083 -0.05390118 0.03847466
-0.23599929 0.04148023 0.03964403
-0.29972208 0.12201029 -0.060583062
0.18981212 0.2362028 -0.21490046
0.04297845 -0.016781151 -0.10130585
-0.06877093 0.110981405 -0.06214881
-0.2489941 -0.10404767 0.12707473
0.110759676 -0.16814755 0.17199455
-0.09138202 -0.1192784 0.16248544
0.035535876 0.10044826 -0.07078711
-0.18552412 0.038740605 0.033289295
-0.1710661 -0.15447956 -0.075387456
-0.2994775 -0.004014041 0.055622038
0.24537241 0.13140893 -0.12801221
0.21667695 -0.08704104 0.07854148
-0.13331987 0.03183265 0.03047549
0.061132737 -0.05233528 0.073898084
0.23301956 -0.016978435 0.011038108
0.21571203 -0.16808426 0.1239714
0.11591764 0.04691537 -0.035550732
-0.12721385 0.09099396 -0.025171328
0.1326988 0.004933108 0.008478987
-0.21518598 0.119850166 -0.036309112
0.16677675 0.10693201 -0.09160408
0.035853337 0.16886947 -0.1256994
-0.070474625 0.22859654 -0.16208375
0.13881561 0.2292055 -0.19947317
0.019710517 -0.17821199 -0.007563102
-0.24653797 0.2109989 -0.12703693
0.26598322 -0.049618434 0.035345465
-0.09126196 -0.16218582 0.2020428
-0.23291925 -0.19577102 -0.07658596
-0.226259 -0.06854343 0.13941863
-0.18473136 0.14600769 -0.06579666
-0.20699239 -0.22442228 -0.054076295
-0.24891478 -0.097458266 0.13221145
0.14320362 0.065301836 -0.049055304
0.08424091 -0.09294435 0.107290685
0.084528804 0.08056308 -0.061065525
-0.20035358 -0.094172925 0.1585018
-0.14590143 0.03508983 0.029684935
0.09766719 -0.117871195 0.12792177
-0.15701911 -0.023360154 0.085556775
0.2342595 -0.11462049 -0.22526611
-0.2532977 0.05370227 0.031413727
-0.11725732 -0.17229559 0.18730544
-0.15871717 0.07287143 -0.0029110054
0.13028163 -0.04246047 0.052621327
0.11396226 -0.17768894 0.18023229
-0.23771703 0.19324903 -0.10005004
0.014948302 -0.120370686 0.14478274
-0.0053608688 -0.062001638 0.094514854
0.1166403 0.1618461 -0.13343629
-0.20775326 -0.091733165 0.15755351
0.26049381 -0.020117758 0.0090993075
-0.27660966 0.08928456 0.0026937758
-0.02715262 -0.008118972 0.040389486
-0.04745777 -0.115294926 0.15108159
0.15064561 -0.040349238 0.047090717
0.07164552 -0.029840518 0.04304146
-0.081189424 -0.07833839 0.12292768
-0.14703003 0.038411744 0.026819013
-0.12504195 0.0444719 0.017360147
-0.015851336 0.25725427 -0.1981301
0.24488735 -0.0007047845 -0.0060613262
0.19287807 -0.15075004 0.14149588
0.056816265 0.04554149 -0.028718214
0.09245842 -0.18396859 -0.04471376
-0.17348781 -0.14587775 -0.07788396
0.018042294 -0.109049805 0.13379562
-0.1847063 -0.12029333 0.1798431
0.124123946 -0.03088309 0.043025386
-0.19324556 -0.15993766 -0.083468236
-0.20134062 0.03229746 0.042015877
-0.118348755 0.17384602 -0.10315613
-0.021159565 -0.2294534 -0.028977903
-0.25613123 -0.05020454 0.1277594
0.05160683 0.17792985 -0.13682854
-0.26546076 0.117968075 -0.025726484
-0.018216502 -0.0693344 0.10354086
-0.24100682 -0.046386164 -0.17980736
-0.25651973 -0.053989284 -0.17006412
0.041301344 -0.21381435 -0.03213468
0.15735258 -0.17552494 0.17060062
0.04479375 -0.11041989 0.13035214
0.20777942 0.1862973 -0.17202808
-0.16392449 0.16554815 -0.087482266
0.16338876 0.16749236 -0.14687058
0.03586647 -0.12243544 0.14300618
-0.19829595 0.0765301 0.0006782432
-0.23603226 0.17890047 -0.08711061
-0.27312446 0.07878751 0.01176336
0.12342565 0.028282711 -0.019685207
-0.07501611 0.22788209 -0.16062556
-0.19359763 -0.09198579 -0.11579052
0.2634991 0.086687125 -0.08994921
0.29689065 0.0030228982 -0.018650651
0.1756481 -0.15184045 0.14553396
0.22705294 0.20989056 -0.19718266
0.14022449 0.12173911 -0.10059065
0.16507812 0.20350341 -0.1803855
0.12251021 0.2293945 -0.19677769
-0.03484412 0.11668818 -0.07338283
-0.20278619 -0.027716424 -0.082655795
-0.027494863 -0.19855899 -0.014570004
0.30029225 0.08872967 -0.09830738
-0.110212155 -0.08506078 0.13423555
-0.038074933 -0.15342261 0.0050182287
0.2653082 0.06204082 -0.06753351
-0.009522676 0.21392679 -0.15927714
0.30135232 -0.0061410298 -0.010982754
-0.20977433 0.13615549 -0.052301902
-0.050160818 0.10931332 -0.06388504
0.22371748 0.003872 -0.0065582725
0.04838797 -0.05002836 0.0740129
0.16236886 0.13274892 -0.11464342
0.048762247 -0.14375643 0.160404
-0.18265131 -0.1430783 0.16334221
0.2219345 0.11930655 -0.11272431
-0.2534443 -0.14381948 -0.09302296
-0.24738425 0.05576637 0.028469551
0.06216676 -0.040206898 0.05427118
-0.20532194 -0.1033884 -0.13330214
0.23912063 0.1664983 -0.15927957
