# .PCD v0.7 - Point Cloud Data file format
VERSION 0.7
FIELDS x y z
SIZE 4 4 4
TYPE F F F
COUNT 1 1 1
WIDTH 1000
HEIGHT 1
VIEWPOINT 0 0 0 1 0 0 0
POINTS 1000
DATA ascii
0.03195849 -0.23468758 0.09082114
-0.053822443 -0.06840519 0.14568847
0.2918126 -0.10049064 -0.0023379177
0.0059775766 -0.22169526 0.07802516
0.26270735 0.048327982 -0.012377086
0.04798203 -0.24229816 -0.120885246
0.2668286 -0.054558598 -0.013572961
0.16697541 0.0042252843 -0.037704982
0.074045464 -0.054957524 0.117973246
-0.09970423 0.13272807 0.035623014
-0.07553033 -0.2103071 0.036941025
0.072616056 -0.06369695 0.116966814
-0.17676705 -0.093340576 -0.010797439
0.21830314 0.18533091 -0.030574353
0.31724423 -0.085376896 -0.025523607
0.24899326 -0.12798631 -0.024991851
-0.15489587 -0.17573066 -0.0023117685
-0.15375347 0.21988688 -0.21866712
0.12060338 0.13922043 0.11744811
-0.18190883 -0.046122793 0.048226543
-0.19646958 -0.14746779 -0.02254849
-0.21765529 0.008042984 -0.0283465
0.053366076 -0.01525587 0.10872777
0.2704248 -0.17484382 -0.0155928545
-0.022452412 -0.07252512 0.12929516
0.0032645566 -0.07879655 0.12801057
0.12788036 0.11974741 0.13020855
0.1736874 -0.0785227 -0.050265174
0.025402661 0.20328394 0.10149944
0.19512214 -0.026070807 -0.039143465
0.14878938 -0.0032963909 0.15763514
0.032441594 -0.22755717 0.09129511
-0.050312754 0.20122685 -0.15668002
-0.20897 -0.078472614 -0.026697893
-0.16110441 0.19004993 0.0062336903
0.025033109 -0.19603397 0.08853613
-0.09409758 0.08096073 0.124812245
0.030615397 -0.20268156 0.09116244
-0.2844165 -0.043236252 -0.063936524
0.057793695 0.111041375 0.11502012
0.022122849 0.1086829 0.09680463
-0.046090342 -0.30579534 -0.18073635
0.22686772 -0.0962234 -0.025244663
-0.054637197 -0.09921587 0.11409341
0.04332596 0.04455963 0.10553607
-0.25004292 -0.030242208 -0.27563465
0.2183842 0.07239879 -0.024164135
0.103417024 0.12830321 -0.061019678
0.044178758 -0.14737864 0.09982866
-0.165875 -0.0667445 0.08876035
0.16343823 -0.05379786 -0.042633094
-0.17269588 -0.10738944 -0.009176907
0.113303155 0.13393292 0.13837706
-0.036419984 0.096368626 0.11331088
-0.05154307 0.06458381 0.12941192
0.16875207 0.0720629 -0.04657613
-0.031713966 -0.13200334 0.09011132
0.10982365 -0.318364 -0.13845475
0.25220528 0.1927995 -0.017781358
-0.2559229 -0.029622799 -0.049011357
-0.060324505 -0.07459648 0.14218372
0.023492502 0.15805171 0.09908109
-0.07919606 -0.065227546 0.13288687
0.31873408 -0.06776025 -0.024202237
-0.1514936 -0.08766513 0.06564108
-0.07368723 -0.037210576 0.13658458
0.007916939 -0.29958722 -0.15307406
-0.056895155 0.23216464 0.060573634
-0.124646015 0.07883784 0.11438383
-0.019494247 -0.056575198 0.13435538
-0.102736585 -0.054730505 0.08761619
-0.1799859 -0.015420213 0.08322663
-0.22602656 -0.05117624 -0.034497987
-0.09734799 -0.2823836 -0.20605291
0.041552827 -0.12372033 0.09925012
0.12319665 0.02920003 0.14566009
0.10848888 -0.07855927 0.11951659
0.15479414 -0.084279455 0.13012467
-0.023198443 0.033586536 0.13673532
-0.07657879 0.22447686 -0.16929303
-0.010530021 -0.033040207 0.1385993
-0.017473182 -0.02739195 0.14531587
-0.07183416 0.25786614 -0.17579406
0.1776501 0.07273394 -0.044866983
-0.18134004 0.053994168 -0.22802036
0.10679446 0.13022126 0.14055148
-0.11072723 0.13616721 0.030127859
0.040885914 -0.16753525 0.09750929
-0.07124475 0.055671796 0.14079823
-0.21385613 -0.013632837 -0.2467191
0.008283622 -0.32655218 -0.19194998
0.052034885 0.1490859 -0.07588451
0.24463926 -0.21565096 -0.030010786
0.15673064 -0.22996284 -0.07517203
0.03876141 0.08735444 0.104584135
-0.09327073 0.027392415 0.037245024
-0.05852163 0.2309231 0.059706435
0.15240875 0.27451485 -0.06122997
-0.01698508 -0.30685684 -0.16597
-0.19276106 0.19684009 -0.009647037
-0.10401438 -0.2847931 -0.20951988
-0.032603435 0.28740105 -0.15489972
0.16050175 0.26501468 -0.05741796
0.10784821 0.22126244 -0.075610824
0.03035043 0.054208923 0.10263847
0.09581089 -0.29358354 -0.10818602
-0.24475633 0.06243053 -0.0403882
0.26143906 0.16715047 -0.00922056
0.045733437 0.06195154 0.10731663
0.22101422 -0.2342399 -0.042619407
-0.2652938 -0.023805166 -0.053590912
0.018389748 0.042203896 0.1376038
-0.21113652 -0.18951656 -0.031352144
0.29566324 0.11584984 -0.007910025
0.101928264 -0.03881303 0.13266893
-0.033816602 0.22101748 0.071953006
-0.062594414 0.14746067 0.05496545
-0.21243827 -0.16580723 -0.031255443
-0.16245255 0.1919776 -0.22398335
-0.1380673 -0.19746248 0.005550743
0.08516227 -0.32088968 -0.114474975
0.15167733 0.06023817 0.14063339
0.116913795 0.036856715 0.011200053
0.065398924 -0.32297117 -0.12459146
0.10576826 -0.27592403 -0.10255768
0.11674958 0.12862416 0.1390992
0.07939282 -0.026297064 0.12160976
-0.15312567 -0.116957046 0.0004692039
-0.19348985 0.16648756 -0.010988708
0.17533343 -0.0067562656 -0.03932322
0.1211966 -0.06764694 -0.017434053
-0.15838696 0.022153819 0.095412426
-0.19864301 0.19298087 -0.036336225
-0.1416197 0.05423751 0.104964934
0.016769946 0.03080468 0.1381756
0.26794115 -0.14628324 -0.015941646
-0.060774386 -0.04181669 0.14300337
-0.26785848 -0.08056428 -0.056710765
0.31380597 0.047836497 -0.0016054119
-0.1279225 -0.034315206 0.07233575
-0.12936862 -0.27309978 -0.22203915
0.20955227 -0.23232499 -0.048386507
-0.022570552 0.23123242 0.07799822
0.14426427 -0.11668158 0.12352533
-0.008366699 -0.25504354 -0.1499472
0.05325936 0.04525545 0.110609315
0.17465475 -0.08072156 -0.050818
0.20106608 0.07620302 -0.032848936
-0.15933345 -0.16902621 -0.22396487
0.3031152 0.063779995 0.008665755
-0.11783223 0.11798821 0.025933
-0.04268013 0.22546147 0.06758778
0.28883392 -0.0305662 -0.0016154447
0.10485883 0.13942343 -0.06810909
-0.082170025 0.0831705 0.107392
-0.06820389 -0.059166234 0.13867033
-0.18899378 0.0550676 0.03431679
0.23108046 0.22028732 -0.054306086
0.02919544 -0.21464433 0.09005754
0.11657667 -0.027399767 0.1404831
0.32255733 0.050857935 -0.019853003
0.26386622 0.075796 -0.010908849
0.089320384 0.10998027 0.13101812
0.2144588 0.077939935 -0.025982898
-0.27201977 -0.0036389166 -0.056365762
0.21682712 -0.19219811 -0.043403566
0.08641135 0.1423315 0.13057372
0.20271417 0.16459875 -0.039164953
-0.09727323 0.056261707 0.12758097
0.2340338 0.099561155 -0.02531931
0.14271162 0.070751555 0.1501245
-0.015692517 0.15250194 0.07897703
-0.076001965 0.27658245 -0.17731467
0.09768445 0.15243548 0.13662961
-0.07513976 0.15813635 0.04892754
0.20763163 0.1604158 -0.036798283
-0.13735881 -0.06466605 0.10332783
-0.18100037 -0.22970556 -0.24690646
-0.07354227 0.041273177 0.13916923
-0.045366794 -0.13433573 0.101294324
-0.1140136 -0.105626464 0.09799583
-0.13846287 -0.24724126 0.0037571401
-0.17316465 0.17201118 -0.0004760123
0.071969405 -0.079754315 0.11612444
-0.28841183 -0.03881212 -0.065826684
0.15815711 -0.19457483 -0.063332014
-0.004590685 0.20826147 -0.12337249
-0.14420176 -0.05603879 0.100124024
-0.13832252 0.02400229 0.10567489
-0.033565365 0.26654106 -0.15605584
0.11525154 -0.14060326 0.0013351658
-0.00869787 0.07591748 0.1266677
0.063225694 -0.084857374 0.111514926
0.18423778 0.034143254 -0.042413168
0.20902427 -0.21878442 -0.048222076
0.12443701 -0.021010684 0.14468457
0.097965166 0.14697297 0.13659734
0.31866518 0.08394337 -0.027733717
-0.08927707 -0.12104607 0.088814706
0.23173 -0.021070834 -0.020367468
-0.04560043 0.201634 -0.1410959
-0.2249805 0.12207848 -0.028423531
-0.2366501 0.11006924 -0.03474168
0.11595143 -0.17421772 0.0689641
0.07828248 0.05624141 0.12368568
0.052052073 0.31971404 -0.12109234
0.1759632 -0.07111395 -0.048779305
0.18287121 -0.08193883 -0.04716087
0.03921095 0.14229743 -0.0579663
-0.2538572 -0.059427217 -0.27850786
0.12057882 0.020463735 0.010976391
-0.21032006 -0.13410266 -0.029163953
0.13425645 -0.06919366 0.14813639
0.06392903 -0.0117646875 0.114210725
-0.08782124 0.035527736 0.13172387
-0.099116124 0.011292057 0.0135427425
-0.2526818 -0.063236386 -0.27803198
-0.0221473 -0.11871016 0.11360173
0.034625683 0.19334756 0.10587171
-0.09100241 0.20615812 0.042397004
0.018790744 0.15403928 0.096562035
-0.22545063 -0.17317484 -0.038108595
-0.019171514 0.18232882 0.06625769
0.06756359 -0.024646282 0.11564724
0.16715026 -0.18317437 -0.054802172
0.050762992 0.28750616 -0.11250292
0.11743255 0.20341271 -0.07130809
0.120618306 0.14123112 -0.068772174
0.26750314 0.1549431 -0.006527452
0.15746188 -0.076990664 0.1293322
-0.21966963 -0.16970155 -0.03505757
0.055412684 -0.057959776 0.10840218
0.2362343 -0.23008662 -0.04231279
0.07785194 0.058819033 0.12354904
0.09473087 0.00039935517 0.13026328
-0.14656667 -0.23060569 -0.22942492
0.31950706 0.05140358 -0.019996842
0.059365828 -0.050628982 0.11064686
-0.22218396 0.1295095 -0.25635663
0.2650022 -0.05141879 -0.0144014545
0.14535055 -0.21250921 -0.070418015
0.1296115 0.18203077 -0.06579923
-0.1544384 0.08739453 0.00633869
0.07230774 -0.059754115 0.11693594
-0.23973085 0.04742135 -0.038312245
0.119311996 0.28999 -0.07756504
-0.22086455 -0.14073777 -0.051621582
-0.19384874 -0.044704046 0.031190675
0.22998157 0.14106365 -0.02605194
0.033553433 -0.20460007 -0.09655579
0.18061961 -0.10969027 -0.049193826
0.030450769 0.060376506 0.09949457
-0.12492674 0.21974045 0.025580654
0.0592536 -0.006170042 0.11201257
-0.2028252 -0.14747033 -0.025780452
-0.18725663 -0.1580141 -0.24779439
-0.11253529 -0.092047654 0.11507547
-0.04767956 0.1397591 0.062303707
-0.000979589 -0.18478338 0.075668
0.13166703 0.15926349 -0.06548227
-0.112137094 -0.15574674 0.020071203
-0.10636249 0.16856918 -0.18622698
-0.11362661 0.101786 0.079711825
-0.01654866 0.22787036 0.080952905
0.28340837 -0.03799362 -0.0046118135
-0.11487223 0.14136648 0.028186094
-0.17876674 0.1153046 -0.0051392876
-0.03573032 -0.13732792 0.06196575
-0.1357633 -0.099679194 0.09196844
-0.24973376 -0.049247038 -0.27608517
-0.061001096 -0.3079866 -0.22499111
-0.07337285 0.08864908 0.10770435
-0.25305676 0.12551756 -0.042590704
-0.20751728 -0.1596832 -0.028557165
-0.1632179 -0.08298867 0.05549977
0.14358976 -0.0234231 -0.025366561
-0.20821044 -0.1814788 -0.25920025
-0.17293051 -0.14450671 -0.23009482
-0.013227043 0.29765955 -0.1447182
0.09436908 0.13711956 0.13445349
0.0016432662 -0.19054568 0.07681747
0.16854031 -0.09664244 -0.05476253
-0.2288623 0.030330805 -0.033332627
-0.20995295 -0.14404188 -0.029295346
0.25525615 -0.08550716 -0.020448236
-0.17773739 0.022912849 0.057212915
0.2608276 -0.21660534 -0.0655059
0.15829074 0.031703398 0.14246793
-0.060853526 -0.21603838 0.044221327
0.08040594 0.18165405 0.108545855
-0.024957664 -0.21902575 0.062379297
-0.028574241 0.10566345 0.10188728
0.075382814 -0.27854055 -0.118093185
-0.22909108 0.039313897 -0.03316166
-0.04378484 -0.17146909 0.05432677
-0.20184816 -0.17803033 -0.026261456
-0.18823043 0.20703612 -0.23661023
-0.034418143 0.31535777 -0.15492798
-0.19380301 0.08866635 -0.23324865
-0.032424785 -0.26072547 -0.17234518
-0.0014572194 -0.057963017 0.13368832
-0.110194795 -0.08766463 0.11640562
-0.116264775 0.2284131 -0.19933024
0.019344332 -0.0249 0.13809164
0.05767322 0.27509877 -0.1093859
0.23261279 0.03531814 -0.018114835
-0.11779002 0.15563782 0.027159104
0.013942906 -0.080356225 0.12841368
-0.0048561445 0.04387899 0.13444602
-0.20324163 -0.06266293 -0.023279246
-0.10331003 0.21863917 0.036538124
-0.23539722 0.040973965 -0.03631528
0.096590176 -0.1604508 0.12606296
-0.14400901 0.17180943 0.014343517
-0.030804176 -0.21590413 -0.13917449
0.08257876 -0.10687811 0.12065156
-0.2772677 -0.09191298 -0.06185833
0.22162497 -0.0128976405 -0.025244884
0.03232696 -0.0072490224 0.13503912
0.08197546 -0.1402171 0.11927831
-0.121307135 0.23395203 -0.0032798725
-0.07598025 0.29820335 -0.21896411
-0.052613482 0.2013758 -0.1277381
0.16565707 0.2613597 -0.054913495
0.035238717 -0.23436633 -0.1271119
-0.26897004 0.03970118 -0.053428087
-0.05510628 -0.053174403 0.018510146
0.016089192 0.023055993 0.13758183
-0.146225 -0.09004421 0.09800743
0.13068032 -0.044081286 0.14712128
0.07821666 -0.16256028 0.11665159
-0.061524443 -0.05346496 0.14224958
0.24095143 -0.031517472 -0.016012682
-0.17869806 -0.07840537 -0.011301763
0.09382083 0.3102918 -0.0916268
0.15378714 0.054932278 -0.039682407
-0.066847965 -0.16955833 0.042660113
0.15182611 -0.026821986 0.1584266
0.20135136 -0.25122082 -0.053161383
-0.03417659 0.23162577 -0.14750181
-0.13497573 -0.14241487 0.00888414
-0.2145914 -0.14795768 -0.03177934
0.21369992 0.23053585 -0.03146899
0.13207862 0.18366624 -0.06449238
-0.026824517 -0.051315807 -0.032901436
0.24146914 -0.24019614 -0.075031
-0.084093064 0.22432697 -0.17311905
0.07276407 0.018109309 0.11965947
-0.12350337 0.18418042 0.025166854
-0.08120783 -0.28072044 -0.19779223
0.16866463 0.24409054 -0.053936813
-0.16541761 0.17287125 0.003490862
-0.08937019 0.2156307 0.04353014
-0.20238578 0.1884631 -0.014809193
0.07550143 -0.08836782 0.117644876
0.10633402 -0.26859513 -0.10203558
0.170558 0.21193475 -0.05400268
0.3218702 0.06302694 -0.023632409
-0.14280495 0.022718815 0.103354186
0.12165962 0.040951524 0.14525466
-0.084828526 -0.22044912 0.03188837
-0.036923517 -0.3026963 -0.17597583
0.11744987 0.23488095 -0.08027484
-0.16895697 -0.027139958 0.0884599
-0.041404735 -0.19106954 0.05490997
0.28329566 -0.037714824 -0.004660127
0.16702224 -0.089045405 -0.052373845
0.054982327 0.1337862 0.114318244
0.060149692 0.19370545 0.11269005
0.3293186 -0.026504535 -0.025267059
0.25133625 -0.081898265 -0.022325782
-0.083427355 0.2566557 -0.18172841
0.12770796 -0.24339858 -0.09036019
0.21100047 -0.009907058 -0.030551743
0.11939542 -0.025565444 0.14197528
-0.07635922 -0.22253376 0.036128398
0.26292226 0.037644137 -0.012609239
-0.17730397 -0.042864706 0.08371245
0.101707086 0.24618419 -0.08791892
0.1766273 -0.041267242 -0.042710748
-0.079695925 0.21642111 0.048475195
-0.16192985 0.20218088 -0.22339131
-0.17497502 -0.17825648 -0.012603215
-0.15678392 0.013514141 0.095950924
-0.2907273 0.023476316 -0.06501135
-0.0768378 -0.23221168 0.035575423
-0.13984321 -0.17540012 0.0053533665
-0.06719911 -0.22093049 -0.13388656
-0.03477146 0.040240366 0.14738116
-0.27508667 -0.051132828 -0.05944468
-0.03523862 0.033168543 0.15838803
0.111353986 0.02454682 0.1394893
-0.15504874 0.24096215 -0.25525337
-0.12292477 0.27650258 -0.20117843
-0.06882037 -0.05411598 0.04129263
-0.20152362 -0.15721858 -0.025430566
-0.0069359313 -0.20817141 0.07189085
-0.04096142 0.28695142 -0.15916432
0.078899495 0.18912777 -0.091360085
-0.0045063137 -0.3219083 -0.16010584
-0.10959429 -0.23374423 0.018869113
-0.056204833 0.09703237 0.1085046
-0.09414135 0.25733873 -0.18715452
-0.07760028 -0.07670872 0.13333078
-0.00087694265 -0.19726208 0.0753209
0.15404214 0.04208531 0.14565039
-0.21780385 0.1724072 -0.25275663
0.06624113 0.1675812 0.12112417
0.036934484 -0.066471554 0.0987332
0.054280177 -0.27501705 -0.1287114
0.2784342 0.12961945 -0.001779094
-0.049339913 -0.21271157 0.05018269
-0.26421875 -0.1041999 -0.055616066
-0.19524483 -0.18334648 -0.023073325
0.17491242 0.27145177 -0.053379435
-0.1274922 0.07390224 0.112778604
-0.21473928 0.031697363 -0.026107198
0.2429262 0.034824602 -0.012886338
0.2374801 0.1067619 -0.023336247
-0.05902312 -0.1123843 0.10562321
-0.2548422 0.116054565 -0.04380142
-0.14902817 0.11464614 -0.20964853
0.18128482 -0.17473756 -0.05093637
-0.027450327 0.20415093 -0.14453661
0.11226428 0.11758093 0.14292878
-0.015439947 -0.11387834 0.11716732
-0.27317044 -0.011701253 -0.057209186
-0.14516576 -0.17225404 -0.21686351
0.09351841 -0.18503708 0.118971914
-0.087200135 0.032570645 0.051343564
0.23225364 0.05894695 -0.017541325
-0.16612229 -0.21109965 -0.009152127
-0.18050316 -0.035369344 0.053894624
-0.10774167 -0.08076612 0.117873736
-0.05910279 0.1742177 0.057597034
0.27606136 -0.08713282 -0.009920157
-0.2664083 -0.095772825 -0.056459814
-0.12919563 0.19700716 -0.20638745
-0.052495863 0.30225742 -0.16454004
0.062121868 -0.27878502 -0.12484427
0.027173446 -0.17736697 0.09022136
-0.022329386 -0.25024375 0.062716804
-0.11741732 0.20573793 -0.1906598
0.07873487 -0.24171369 -0.10522811
-0.12495617 0.18062694 0.024314376
0.04850214 -0.12802523 0.10264654
0.11465217 0.013079796 0.14079967
0.33044034 0.00484319 -0.025704991
0.16218942 0.11837481 -0.051269054
0.12788266 -0.011305677 0.14674734
0.04255093 -0.0862508 0.10095671
0.046825632 0.24722803 -0.10581158
-0.039329447 0.27414727 -0.158744
-0.12040123 -0.15092346 0.016023101
-0.17157118 0.045353454 0.089450225
0.02247386 0.08308834 0.09616456
0.10168302 -0.09692564 0.13068481
0.1700564 -0.10122783 -0.05429457
-0.072911456 -0.094508395 0.13514566
-0.05847829 0.20988767 -0.16055517
-0.16438127 -0.10834946 0.041604646
-0.07806058 -0.12986308 0.08778464
0.027618732 -0.19906648 -0.064700864
-0.123827435 -0.039741166 0.07380936
-0.17858832 -0.203763 -0.0152567495
-0.034347452 0.06858202 0.12535517
-0.017234227 -0.27157646 -0.16496743
-0.009971476 -0.12256817 0.08214561
0.025280068 -0.031607505 0.14050631
0.027536305 -0.20672333 -0.12530282
-0.26141205 0.036796596 -0.049677555
0.3256733 -0.05809858 -0.026751572
-0.11073245 -0.19598402 -0.20011258
-0.14656857 0.07196134 0.10301548
0.26337305 0.071137644 -0.011308832
-0.056450546 0.280699 -0.16724099
0.15873331 0.23609552 -0.059242643
0.21551114 0.0518847 -0.026281238
0.05089319 0.17101787 0.11342966
0.028989198 -0.22784743 -0.13008083
0.038456816 0.049860604 0.103229485
-0.08537106 -0.053155266 0.10816352
0.14537634 0.0062281825 0.15620425
-0.07147085 0.03031455 0.082084216
0.09462197 0.16748936 0.1141077
-0.039121825 -0.24057737 -0.16512388
0.24929537 0.16260259 -0.015541552
0.025352627 -0.03130772 0.1405531
-0.05463871 -0.12441355 0.0996128
-0.093673944 0.19931382 0.040819846
-0.130615 0.09884546 0.06925406
0.022688972 -0.23139752 0.08621268
0.26834425 0.09372216 -0.008058241
-0.16465509 -0.030973732 0.09052487
-0.11333769 -0.18116972 0.018647468
0.036962263 0.093334556 0.103860274
0.094006084 0.16344072 0.124244094
-0.02016989 -0.25606927 0.054410055
-0.045939106 -0.2494442 0.050736576
0.12992936 0.122806534 0.122202255
-0.06756 -0.051968437 0.07353912
-0.07612504 -0.21772219 0.036401547
0.27039012 -0.16660576 -0.015346914
-0.2778208 0.085359395 -0.056468453
-0.0018360933 -0.020444024 0.13952939
0.07337055 0.14688139 0.12408763
0.0844488 0.101800054 -0.011398302
0.15112564 0.10552812 -0.0545031
0.0036391553 0.29340163 -0.13627805
-0.1695951 -0.00728699 0.088771075
0.16589652 0.26706946 -0.05460933
-0.09657893 -0.10621785 0.10371243
0.081868656 -0.06813179 0.12152988
0.23411053 -0.17279506 -0.033993658
-0.11829957 -0.23319416 0.014459919
-0.14625207 -0.24003147 2.6747502e-05
-0.08666735 0.28266564 -0.1825436
0.12787023 0.038189504 -0.014967666
-0.10297692 0.1690538 0.035120927
-0.1622549 0.16828714 0.0049525946
0.30761662 -0.05048843 0.0072987475
-0.22585887 0.16609205 -0.027461493
0.094890684 0.12340079 -0.05525846
-0.17291291 0.19118015 0.00026495493
0.17232925 -0.005972505 -0.038759932
-0.035226177 -0.31304476 -0.17544362
-0.008727162 0.20750055 0.055515125
0.15759999 0.17996673 -0.051632743
-0.19574031 -0.050853956 -0.019086717
-0.12519689 0.19616002 0.024688862
-0.12001254 0.21974184 0.028079597
0.30462545 -0.04208448 0.006046429
0.09598257 -0.038238984 0.1296636
-0.2599969 0.0591192 -0.04824378
-0.12667504 0.038934987 0.11207521
0.20037885 -0.17066975 -0.04539067
-0.23307694 0.05347191 -0.034735125
0.09482573 0.0844245 0.13299993
-0.16447774 -0.038615152 0.090370625
-0.11379007 0.23562217 0.031751793
0.12827171 0.2384585 -0.07465702
0.16170758 -0.0070744986 0.14273816
-0.15753116 0.055963263 0.09692905
0.03712114 0.11330638 0.104579955
-0.1290509 0.002583371 0.0657908
0.056248378 0.18703839 0.11666595
-0.032863308 0.07805477 0.12172306
-0.008738203 -0.0425603 0.13698845
0.017197412 -0.0789645 0.123835444
-0.038005713 -0.18128617 0.056951594
-0.059013598 -0.10653762 0.108922176
-0.1843187 -0.0009848367 0.08148507
0.142711 0.048872884 0.1562131
-0.09925679 0.121162444 0.035480015
0.21145901 0.019677553 -0.029372275
0.12360529 0.21011567 -0.067954846
0.06382484 0.292196 -0.10571069
0.004378498 -0.06496564 0.131917
-0.17733635 -0.111348726 -0.011663175
-0.05231007 0.23620966 -0.15657644
-0.26144218 -0.0009948814 -0.05090254
-0.09758649 -0.09627893 0.12254128
0.018851586 -0.26462546 -0.14561157
0.032671455 0.05049119 0.10294654
0.10670584 -0.00793494 0.13608623
0.20799938 0.08660912 -0.0289901
-0.11412112 0.074950874 0.11961136
0.043615945 0.21542546 -0.10846115
-0.13054897 -0.07824665 0.106356435
-0.12580487 0.029773576 0.112224385
0.067509 0.11108057 0.119961806
-0.010256823 0.034594137 0.13631266
-0.04811973 -0.040633213 0.14947648
-0.13328902 -0.1311876 0.040753476
0.0726146 0.123857245 -0.042219035
-0.2383463 0.027584702 -0.0382433
-0.06594308 -0.1431845 0.044015083
0.28572395 -0.036028836 -0.0033715018
-0.15439478 0.16283718 0.008775001
0.07735784 -0.03354161 0.12034296
-0.06585963 -0.030417325 0.14078218
0.31007335 0.046564724 0.0061706053
0.0766623 -0.27447528 -0.11731246
0.0011490567 -0.048753202 -0.071249925
0.21408731 0.048969075 -0.027098462
-0.11281012 -0.16879416 0.019311689
-0.05461505 -0.017157553 0.14692459
0.12004201 -0.11623524 0.13940291
0.04189488 0.0514367 0.10502823
-0.18887702 -0.19498424 -0.020207673
-0.012375988 -0.2650804 -0.16228913
0.0907369 -0.13448316 0.12391705
-0.2303597 0.115957946 -0.26094785
-0.19896962 -0.07432523 -0.021479754
-0.06378154 -0.23254314 -0.17740683
-0.046734247 -0.010447222 0.15114716
-0.07622861 0.20225312 -0.16982561
-0.11299525 -0.03780273 0.050267607
0.17336427 0.056490712 -0.044035755
-0.15121908 0.21514045 0.012063253
0.22682306 0.13089822 -0.027983375
0.057030383 0.21305384 -0.10171514
-0.01985896 -0.32054827 -0.21302414
-0.23043413 0.06393884 -0.26264966
0.24946004 -0.1664504 -0.025984894
-0.12070912 0.13772307 0.025101576
-0.21310449 0.06624652 -0.024170041
0.06292739 -0.19833809 -0.050142992
-0.011802205 -0.054074563 0.13479216
-0.13788979 0.2524776 -0.20955727
0.19518396 0.19334614 -0.042074956
-0.23909104 -0.0664357 -0.27122298
-0.011449835 0.25465044 -0.1409216
-0.2238497 -0.11240301 -0.06541779
-0.17643164 -0.08560712 -0.010379886
-0.14881904 -0.1521932 0.00153189
-0.03537144 0.058123022 0.12895073
0.07534721 -0.11849036 0.11660271
0.29489377 0.08586818 0.005191478
0.12133168 0.056133706 0.1455737
0.08399908 0.24561054 -0.09694195
0.083349496 0.25071675 -0.09710888
-0.15463653 -0.16076182 -0.0017009132
0.063576795 -0.13765857 0.11000384
-0.047588717 0.03246989 0.15208556
-0.075788125 0.20818484 0.050198793
0.11225574 0.08556007 -0.030723434
0.28369406 0.028808251 -0.0023294918
-0.1593154 0.059769407 0.09614346
0.083943896 -0.19974732 -0.10123623
-0.2037962 0.18475176 -0.015645467
-0.25855014 0.118535765 -0.04560715
0.0048499317 0.28925002 -0.13579512
-0.03505393 -0.19591537 0.057984732
-0.0496208 0.19752666 -0.10895046
0.0040025413 -0.10773989 0.09766654
0.026364438 -0.22603837 0.08825345
-0.039475005 -0.17961925 0.056257565
0.29217726 -0.093817346 -0.0019388002
0.046308104 -0.17363639 0.10007173
-0.23756851 0.04647094 -0.2668368
0.0053861463 0.102412745 0.0880938
0.11395359 0.047761675 0.006764301
-0.06217735 -0.06601361 0.14151597
-0.24044071 -0.14636281 -0.04487331
-0.03796317 0.020832319 0.1566079
-0.12057601 0.084572256 0.085945554
-0.23423609 -0.0007174975 -0.037058804
0.05622689 -0.1883068 0.10464612
0.29510918 -0.0067700343 0.0023371633
0.17579563 -0.22391242 -0.065283276
0.097715534 -0.22078314 -0.09490615
-0.11750477 0.15690458 0.027344538
0.04835706 0.15262115 0.111551866
-0.16856939 0.18344408 -0.22736683
0.21639499 -0.15011516 -0.04227683
0.09196233 -0.19520055 -0.072805114
0.26394016 -0.20025413 -0.056304812
0.1503953 -0.14798926 -0.006329969
0.21552753 0.1291214 -0.025137266
0.10132753 -0.050079547 0.13200314
0.23545909 -0.15960133 -0.03288595
0.14538339 -0.14954156 0.003914569
0.14980091 -0.22834146 -0.078644015
0.15035844 -0.15111703 -0.0052754297
0.14684868 -0.29728773 -0.082350895
-0.05161898 0.26582706 -0.16525987
0.18357484 -0.023457516 -0.04202288
0.17509049 0.26987007 -0.085808784
0.272851 -0.10060546 -0.011983726
0.00886037 0.25109684 -0.12499386
-0.1405535 -0.11088654 0.060422994
-0.018393155 0.05575915 0.13098606
-0.14631486 -0.18292594 0.0018220284
-0.10406584 -0.094467446 0.11930471
-0.10176328 0.21983236 -0.18664582
-0.2059775 -0.077277794 -0.025137825
0.033712894 -0.046814788 0.12115575
-0.16893163 0.00081259076 0.08936721
-0.22329493 -0.033309966 -0.032537326
-0.15831031 -0.022307547 0.094028704
-0.092641 0.1939051 0.04117212
-0.03789341 0.24054465 0.047189087
0.22619112 -0.2337362 -0.03997036
-0.19512919 -0.0040311734 0.03509236
0.04956421 0.19198005 -0.106186666
-0.16955177 -0.20742513 -0.24037203
0.23847663 0.026097378 -0.015427947
0.1765816 0.029263457 -0.040772174
0.21848963 -0.15869857 -0.041486207
-0.20561846 0.14429794 -0.24745966
0.24323757 -0.013635315 -0.014277877
-0.12822728 0.2049308 0.023428373
0.063713595 -0.13942999 0.1100165
0.16448443 -0.21418126 -0.07072412
-0.15030177 0.12445429 -0.20998245
0.2096491 -0.09692632 -0.03402331
-0.2008971 0.113057405 -0.016464846
0.05705856 0.10039311 0.114305414
-0.006893926 0.18102223 0.08355109
-0.11707808 -0.23692414 0.014961861
0.01047888 -0.23892581 -0.13984857
0.23476917 0.17319672 -0.022589084
0.28801134 -0.11289433 -0.0046675154
-0.22819938 0.06027181 -0.032037634
0.13236746 0.10802582 0.13597696
0.07339583 0.0423639 0.12075676
0.040629685 -0.16867878 0.09734229
-0.21233343 -0.08963369 -0.2583588
0.09214058 -0.23718598 -0.09826616
0.14340337 -0.17107184 0.014534335
-0.023188855 -0.25489822 0.06213121
-0.25684124 -0.08157562 -0.28073397
0.16623794 -0.14160934 -0.039175764
0.10757379 -0.023636179 0.13602544
0.24048802 0.093019724 -0.022246271
-0.1470539 -0.11203128 0.05316886
0.13536806 -0.2551371 -0.08684047
0.086693056 -0.050343346 0.12455267
0.051907174 -0.109162375 0.104981266
0.095438845 0.14589348 -0.07226814
-0.2852774 0.033224188 -0.06192797
-0.09046472 0.2390512 0.04372293
-0.057887133 -0.08036815 0.14323832
-0.21564694 0.17116894 -0.2516996
0.19925132 0.18296508 -0.040338244
-0.05949551 0.1604577 0.056956977
0.015376165 -0.08654996 0.11595134
-0.22532687 0.13365908 -0.028228924
0.021091951 0.06434463 0.10654925
-0.05761122 -0.19028692 0.04669383
0.041244928 -0.098947 0.09988622
0.038981453 0.32251543 -0.15761018
-0.08586143 -0.28229532 -0.20020926
-0.1061129 0.22632554 0.035358276
0.22734182 0.06066665 -0.01998423
0.30321226 -0.11085075 -0.033474047
0.11779369 0.29954752 -0.07803091
-0.16385216 -0.17939012 -0.23657645
0.04278133 -0.09987277 0.100638025
0.015366755 0.21207705 -0.104746625
0.21814322 -0.22529563 -0.04379317
-0.041708533 0.21289322 0.06767966
0.13704894 -0.068093814 0.14959173
-0.25468495 0.00967873 -0.04712446
0.11742518 -0.09224311 -0.033785015
-0.038032565 -0.050229993 0.15429911
-0.18389553 -0.027690716 0.050679006
0.1438141 0.27802292 -0.06548811
-0.20009705 0.08618309 -0.23652893
0.17513143 -0.27675065 -0.067311786
-0.08347553 -0.05704944 0.13097191
0.3003814 -0.058532428 0.0033622028
-0.13937244 -0.22701266 -0.22565174
0.22308972 -0.073027745 -0.026423818
-0.016511604 0.06321302 0.12862097
0.20575559 -0.13713972 -0.03728969
0.13122599 -0.0214348 0.14812347
-0.022800708 0.096603185 0.12015811
-0.25609797 0.042094044 -0.046806015
-0.08541284 0.046200287 0.13329044
0.28770497 0.13615586 -0.011410019
-0.074056745 0.23639269 -0.16762917
-0.22118482 -0.1386132 -0.034833584
-0.053010024 0.10091497 0.107437395
0.13283609 -0.08574513 -0.04169871
-0.09503355 0.10823435 0.086687505
0.06702955 -0.14429902 0.11154766
-0.069605224 -0.22285283 0.03955259
-0.014348901 0.1781264 0.08030352
0.030445345 0.2963164 -0.122552894
-0.08492261 0.19698972 -0.17441535
0.09359234 0.14551005 -0.07219478
0.08466486 -0.19059147 0.057238925
-0.08529175 0.2028269 0.045194637
-0.20799965 0.15774335 -0.24824017
-0.15628773 -0.23892908 -0.23463456
0.26265895 -0.05341732 -0.015656786
0.12634519 0.29479766 -0.07383489
-0.18434216 0.14985494 -0.0068690944
0.11783065 0.25886825 -0.079314
0.14585464 0.015116635 0.1567316
0.16535194 0.21194658 -0.056649715
-0.20911777 0.16364937 -0.019026626
0.15615587 0.2637419 -0.059668995
-0.09448024 -0.13586773 0.07627053
0.030557675 -0.29150862 -0.1413024
0.116875745 0.09044505 -0.03837472
-0.061199676 -0.11019898 0.1062993
-0.24804133 0.14178121 -0.03951961
0.08738584 -0.06893097 0.12431007
-0.04310332 0.059417456 0.12891488
0.25430742 0.13153926 -0.013986174
-0.08701656 0.10652106 0.09199796
-0.17568229 -0.16938847 -0.012678976
-0.23044841 -0.1015212 -0.26795062
-0.010255264 -0.22421424 0.06968975
0.042327408 0.11682001 0.107340135
0.324346 0.046543404 -0.021510564
-0.14274205 0.13755077 0.013891513
0.107363746 0.13890573 0.14111863
-0.11591526 -0.22692797 -0.21372028
-0.07632895 -0.12142211 0.09416559
0.22945751 0.20879748 -0.024151707
0.11841147 0.17189504 -0.07181876
-0.22145288 0.036878534 -0.029355085
-0.011225455 -0.15999964 0.07125081
0.035915345 0.25096393 -0.11124026
-0.124793194 -0.19622782 0.012340748
0.26860154 -0.036554266 -0.012095373
0.053179607 -0.19967802 -0.04731679
0.029731024 -0.22657023 0.08994816
-0.1835126 -0.08005086 0.032781042
-0.01381361 0.17824556 0.07635329
0.2621962 0.098342426 -0.0110367965
0.06476481 0.3060927 -0.1047881
-0.016864311 -0.16774207 0.06813584
0.041038822 -0.0714729 0.100660376
-0.17468071 -0.07352185 0.046242118
-0.15366916 0.008913221 0.09738801
0.21659818 0.14482822 -0.032737296
-0.009618954 -0.0916234 0.122999996
0.07690831 0.17793062 0.12322128
0.1733915 -0.008013566 -0.03903526
-0.22120318 0.16102423 -0.02525618
-0.2454752 -0.10538322 -0.2757157
0.32942942 -0.006290275 -0.024190782
0.06187174 0.18083003 -0.10028424
0.05612438 0.24258395 -0.101231664
-0.09143444 -0.12066647 0.08802504
0.189233 -0.003108039 -0.04140344
-0.10589543 -0.15939784 0.0231288
0.27976596 0.11130736 -0.0016874293
0.1378209 -0.116061874 -0.059099283
0.052607197 0.31999037 -0.12553734
-0.22511524 0.06394653 -0.259945
-0.040730856 -0.25155425 0.0533177
0.13408585 0.12101059 -0.05943421
0.11073725 -0.17837736 0.080421776
0.18043745 -0.20277531 -0.062246714
-0.14377503 0.2253572 0.01617562
0.00832782 -0.1176494 0.08254889
0.2719554 0.03628637 -0.008059711
0.010351056 0.0032481672 0.13922837
-0.14897414 -0.010722464 0.099147156
-0.13321002 0.113311045 0.062182717
0.01817183 0.058504585 0.11983615
0.31227112 -0.10900271 -0.029735904
0.10640934 -0.13995893 -0.054684483
0.0075216643 -0.2509709 -0.14173752
-0.20060875 0.17653945 -0.2438806
-0.05368938 0.1627754 0.05998361
-0.02088559 0.21648856 -0.14122726
-0.119239904 0.028107338 0.09895184
-0.07899802 0.07177588 0.13737047
-0.058764152 0.009005567 0.14565197
0.13511953 0.16964577 -0.063394286
0.09352357 0.22545035 -0.082761444
0.1096554 -0.15265208 0.13295637
-0.052280117 0.21734525 0.062446278
0.04175617 -0.10917807 0.09981893
0.09159034 -0.10252616 0.12537311
-0.01736766 0.29795754 -0.14681464
0.22355197 0.21278211 -0.027026916
-0.17175576 0.07853519 0.043833677
-0.13306445 0.05029758 0.10918984
0.22058006 0.17915517 -0.029614326
0.11948318 0.118160054 0.14661795
0.014158082 0.14679712 0.093974285
-0.18798295 -0.041872527 0.07831327
0.051896363 -0.08481089 0.105754964
-0.28829736 -0.03294981 -0.065581076
0.13532427 0.20415919 -0.062186185
0.044839792 -0.046382394 0.10339615
-0.15797056 -0.20007055 -0.0046536047
-0.1768305 0.16283444 -0.002633861
-0.0026549627 0.10863375 0.0842035
-0.07406943 -0.23802643 0.03679721
-0.13527706 -0.2157135 0.0063855574
0.31123966 -0.0821537 -0.028473929
-0.033410516 0.3133067 -0.19108336
0.23711993 0.03672714 -0.015777802
-0.021542974 -0.093174435 0.12160965
0.06103175 -0.20043343 -0.08890621
-0.20052871 0.058917895 -0.23762047
0.12250215 -0.25472203 -0.09336967
-0.19748728 0.04577206 0.029700303
-0.23098093 -0.12976155 -0.26912513
-0.1455138 -0.049465418 0.09966691
-0.15194745 -0.21644092 -0.0021149137
-0.104221456 -0.20789663 -0.19718283
-0.17773628 -0.12410724 -0.012274885
0.02905389 0.01021801 0.13881779
-0.17170733 -0.20142311 -0.24127552
0.15261962 0.03912547 0.14984205
-0.04704273 0.178384 0.06386315
0.18292734 -0.27080885 -0.06315684
-0.17275712 0.21601003 -0.22845456
-0.056472268 0.17908795 0.059090283
-0.018064272 0.13980943 0.07736529
-0.06587658 -0.025098091 0.14094393
0.2719347 -0.0028229824 -0.009321421
-0.16324471 -0.23478824 -0.23804009
-0.23117246 -0.12480688 -0.06712138
-0.17897631 0.007234668 0.084465064
-0.18430078 0.035279147 0.044359934
-0.2302874 -0.034058552 -0.03611707
-0.22923617 0.027927838 -0.03359963
0.024465995 0.19380538 0.10072038
-0.219421 0.03571041 -0.028359368
-0.09123944 -0.13686879 0.07788653
0.08786053 -0.23621869 -0.100411884
-0.1409783 -0.14485 0.005753776
0.2813515 0.1656108 -0.035745353
-0.06830809 0.023478193 0.14126138
-0.15888909 -0.2461451 -0.23618844
-0.24846005 0.11926793 -0.040453013
-0.18193632 0.20814739 -0.015252735
-0.17234772 0.21173187 -0.020609181
0.015008913 -0.15687215 0.08469173
-0.21095453 0.09868385 -0.2516325
0.10970386 0.08919452 -0.031609226
-0.1254125 0.1905505 0.02439972
-0.04874453 0.010321231 0.15078935
-0.17775957 -0.095226 0.035221566
0.23727447 -0.0018168818 -0.01693226
-0.10560963 0.1614698 0.033539407
-0.1488876 0.0855657 0.061769344
-0.14820552 0.016996713 0.10042454
0.05922093 -0.111509725 0.10862557
-0.03251956 0.24246089 -0.14631248
-0.18263838 0.06392909 -0.228363
-0.046829972 0.3000235 -0.16173014
0.2359985 0.12599193 -0.02347432
0.25092882 0.19710533 -0.045586124
-0.166304 -0.2049631 -0.009048349
0.08831106 0.3142094 -0.12915663
0.07924521 0.062203474 0.12436587
-0.06812492 -0.2302809 0.040067863
-0.17643014 0.20712636 -0.0010134066
0.13295439 -0.28355065 -0.088977136
0.10941171 0.28552318 -0.0827421
0.25583085 0.043105897 -0.016041031
0.05052585 0.0784951 0.11028319
-0.008734628 -0.23411036 0.0701461
0.005854817 -0.08282844 0.12898941
0.12458389 -0.27295586 -0.092894696
0.28853166 -0.070988506 -0.0030622822
0.05378472 0.1811716 0.115225054
-0.21626228 0.18310162 -0.022037417
-0.18605421 0.030587314 0.04315073
-0.031384066 0.31005567 -0.1535546
-0.17898111 -0.04776995 0.05196329
0.27947578 0.17422171 -0.041013975
-0.12105398 0.07808129 0.11618606
-0.17766644 -0.19270171 -0.014433747
0.12753682 0.037676055 0.14813854
0.20021197 0.067507304 -0.033561353
0.02396814 -0.29056597 -0.14462322
0.25631583 -0.030479101 -0.018148428
-0.23645602 -0.14268976 -0.042729348
-0.08265189 -0.22505468 -0.1765429
0.25017524 0.08950822 -0.01743235
0.0076687816 -0.2484608 -0.14158203
0.07209617 0.24407963 -0.093061745
-0.12874119 0.09484646 0.0732398
-0.13247131 -0.23111735 -0.22227362
-0.18445185 -0.053385783 0.042141292
-0.095854566 -0.10669776 0.09528336
-0.22337559 -0.07718849 -0.26357567
0.05805368 -0.09859149 0.108445
-0.1834588 0.00064671185 0.05288571
-0.14556642 -0.15707877 0.0030293365
-0.17422028 -0.22348051 -0.013665967
-0.032628767 0.2918062 -0.15477146
0.013730669 -0.023479603 0.13849173
-0.14113103 0.098110974 0.06113976
0.07422076 0.06798312 0.121995874
0.18701589 0.11974014 -0.038600598
-0.15866613 0.1815279 0.007200809
0.29918924 -0.029182276 0.0036948205
0.19075607 0.05520765 -0.038763445
0.10696759 -0.117485225 0.13271472
-0.1272483 0.03149029 0.111545466
0.2513987 -0.1465534 -0.024362791
0.11999197 -0.3005605 -0.096112914
0.08015803 0.15445344 -0.079386465
0.23457415 -0.083126664 -0.020906992
0.067708634 -0.2925005 -0.122442
-0.09838803 -0.18743674 0.02604917
-0.117969014 -0.08366585 0.11257985
0.021007579 -0.09080784 0.09779923
-0.040329292 0.21113907 0.068324745
-0.16847835 -0.07346492 0.054173544
-0.09115109 0.017894559 0.006957218
-0.0014311413 -0.17249763 0.07583169
-0.2118464 -0.039150782 -0.026902646
-0.25286433 -0.11756555 -0.05026973
0.16395234 0.010543286 -0.036470428
0.26706448 0.1334657 -0.0074374937
