# .PCD v0.7 - Point Cloud Data file format
VERSION 0.7
FIELDS x y z
SIZE 4 4 4
TYPE F F F
COUNT 1 1 1
WIDTH 1000
HEIGHT 1
VIEWPOINT 0 0 0 1 0 0 0
POINTS 1000
DATA ascii
0.13870366 0.04219897 -0.003401363
0.018773539 0.105937295 -0.19223318
-0.26798844 0.10778902 -0.21211
-0.24337578 0.036567528 -0.12866941
-0.18744221 -0.017418439 -0.1825596
-0.19894183 -0.07880773 0.015567032
0.011964735 -0.0712091 0.1216133
-0.30878255 0.026966825 -0.042386945
0.08520593 0.14448246 -0.2561936
-0.033461522 0.074752204 -0.16304798
0.2573994 0.10004159 -0.0045000305
0.16961816 0.16260661 -0.22700913
-0.14373831 0.110664055 -0.26176858
0.09001555 -0.18519415 0.28538787
0.12225838 -0.10676192 0.32670504
-0.30389893 0.024221694 -0.08493641
0.15569176 -0.08449507 0.11933745
0.21299279 0.14684522 -0.160283
0.22833759 0.05784477 0.045294426
-0.23765397 0.040025756 -0.13449375
0.20000437 -0.07677644 0.23160505
0.09186707 0.0026869471 0.069850735
-0.055165187 -0.09367706 0.15509214
0.20769443 -0.015811125 0.101460025
0.22282664 0.11057921 -0.12906282
-0.27145457 -0.05103547 0.04201614
-0.19982544 -0.022135459 0.02105868
-0.1721081 -0.036032196 0.15080969
0.11862428 -0.09019834 0.29010093
-0.19201013 0.03419547 -0.10468612
-0.021066649 0.19602387 -0.33573368
0.05648626 -0.020295674 0.18735406
0.07422356 -0.046218105 0.16999267
0.028859342 0.08402091 -0.1385653
-0.20667651 -0.035474844 0.13501486
0.052496064 -0.06713525 -0.05540137
0.15823261 0.17326225 -0.23474568
-0.056883913 -0.020882193 0.06987139
-0.3224878 -0.0016123413 -0.09163126
-0.12065185 0.0931559 -0.21346237
-0.012789517 -0.10738039 -0.041684438
0.07505157 -0.14226194 0.28570852
0.15840207 0.17151056 -0.23565124
-0.05456946 0.057687335 -0.16535163
-0.081948034 0.0035363245 -0.16656029
0.10937602 -0.0043638633 0.09227294
-0.21316597 -0.047813196 0.12135123
-0.16348729 -0.09081157 0.04032606
0.13180855 -0.06310943 0.2544098
0.049392182 -0.08744854 -0.05836953
-0.121088475 -0.00048060206 9.6405725e-05
-0.3024779 0.015128973 -0.08857481
-0.15635838 -0.04200267 0.08211689
0.15678339 -0.18641533 0.22417821
0.029325046 -0.0755991 -0.040142547
0.06921803 -0.09672027 0.19596383
0.06816226 0.11146864 -0.18700363
-0.111298315 0.03795988 -0.11317114
-0.2850034 -0.015276393 0.0040926994
-0.12382298 0.15354162 -0.31535336
-0.014643214 -0.06262449 0.18808623
0.16983548 -0.078971565 0.26182872
-0.20799045 0.0037433298 -0.040959008
-0.16305442 0.09698522 -0.23753116
0.25281316 0.033389702 -0.016461782
-0.018457284 -0.08808986 0.09733744
-0.0734525 0.012101814 -0.011401186
-0.17283793 0.057231758 -0.15033394
-0.11545609 0.02392187 -0.07832664
-0.25915575 0.028979577 -0.11705493
0.028049469 -0.07065359 0.1033623
-0.23142327 -0.029657109 0.026803028
-0.057422947 -0.00262953 -0.18656413
-0.13613401 -0.048114214 0.103377536
0.24377933 0.030495463 0.004297607
-0.091944315 0.14120273 -0.31274801
-0.119893245 0.004003306 -0.009704828
0.18211742 0.004962929 0.12774993
0.22586037 0.020466141 -0.01030501
-0.037266336 0.112539545 -0.22756055
-0.20231827 -0.05831943 0.12463972
-0.24030073 0.06815804 -0.19965994
0.16638514 -0.06542487 0.12932031
-0.105949566 0.062250003 -0.13760808
-0.022547256 -0.095824756 0.18319671
0.17157951 -0.03861535 0.14051089
0.17373939 0.10859618 -0.14228104
0.16485763 0.008600646 0.13768655
-0.21469775 0.0792766 -0.21578176
0.16684502 -0.10385159 0.30338827
0.07869363 -0.01004916 0.0941567
-0.31824958 0.04058745 -0.07689768
-0.002376989 0.1300356 -0.25488126
-0.22745322 -0.034482848 0.039252974
0.071709536 -0.12783769 0.21382673
0.20364597 -0.015574114 0.11588069
0.18571705 0.07528591 -0.061924253
-0.18528466 0.066875465 -0.17684464
0.030499144 -0.053565815 -0.20803238
0.18135574 -0.1715244 0.275146
-0.0072461846 -0.09524846 -0.036088478
0.053481933 0.18160751 -0.30383807
-0.06671557 -0.07645571 0.20725198
-0.09101711 -0.0012517715 0.012727205
-0.30888084 0.036366347 -0.063876495
0.17019773 0.08342468 -0.08611034
0.16633807 -0.11869723 0.3241808
0.011141722 0.14117955 -0.27542952
-0.20710783 -0.08556003 0.07517331
0.19078627 -0.16355869 0.23038572
0.08014929 -0.12371723 -0.1053024
0.03941671 0.1403727 -0.26336646
0.05356386 -0.05402533 0.17458613
0.22312292 0.080809675 -0.06100961
0.06401495 0.001604404 -0.105201215
0.13404176 -0.080437645 0.2740238
-0.15709439 0.014493532 -0.047096595
-0.23080237 0.09819265 -0.2606125
-0.07474819 -0.05738642 0.21456388
0.08321721 0.06963419 -0.08607849
-0.076822095 -0.06528137 0.20777836
0.09175876 -0.09478459 0.1670025
-0.0490552 -0.0047059674 0.035780575
0.08872522 0.13535564 -0.23409048
-0.13546456 0.016030312 -0.21341115
-0.17531334 -0.044088937 0.15244205
-0.06475073 -0.02212676 0.0698685
0.15929969 0.0746346 -0.06998733
0.22427861 0.14244214 -0.12408684
0.047912292 0.1969517 -0.30141845
-0.2810884 0.05599637 -0.18664716
0.26441526 0.09757114 -0.004668915
0.15035456 0.09686648 -0.12396313
0.10526134 0.070258595 -0.07953402
-0.050124764 0.18973364 -0.32038382
0.034163225 0.08737422 -0.1443016
-0.10439142 -0.08328539 0.09276672
0.028196905 -0.005313999 0.06509468
0.12779193 -0.028553845 0.17494413
0.036545645 -0.073592775 -0.04376373
-0.16478242 0.13471091 -0.30363563
0.12413562 0.181025 -0.26410958
-0.031978127 -0.113280825 -0.046722807
-0.067921154 0.12651016 -0.27052927
-0.09484001 0.13013718 -0.2885387
-0.09591946 -0.0047650253 -0.15147884
0.22657809 0.0866055 0.012125725
0.17291431 0.038107596 0.018304396
0.1654904 -0.19735758 0.28728542
0.08720215 -0.1622378 0.25777128
-0.13208011 -0.07496395 0.15826118
0.0916806 -0.095834054 0.16534442
0.12963082 -0.18450896 0.19047122
-0.089043595 0.094770215 -0.20572157
-0.17207031 0.11903008 -0.29110563
-0.24425858 -0.069354855 0.07374025
-0.025957897 -0.028956693 0.09948061
-0.042444196 0.10906623 -0.2215046
0.02214401 -0.03358806 0.12743951
-0.05452904 0.18281852 -0.31955057
0.0704684 0.110217854 -0.18331574
-0.20741567 0.019948492 -0.07773826
0.058788843 0.038271427 -0.023326114
-0.2606401 -0.060718052 -0.0008777989
-0.10337202 -0.054814618 -0.07356456
0.027180986 0.06611997 -0.1445153
0.022962566 0.012349972 0.022886131
0.05543969 0.06799657 -0.09238205
0.039274078 -0.02850618 0.18865277
-0.03640132 0.101808704 -0.20275593
0.17909737 -0.05258322 0.22479151
-0.28176537 -0.014237613 0.013776192
0.08771189 0.10086523 -0.15573542
0.12004971 0.04935376 -0.026474815
0.18588236 0.17212433 -0.19639952
-0.21966107 0.020562729 -0.08356687
0.094854094 0.029848699 0.008935569
0.08675656 -0.12502155 0.27976635
-0.09411585 0.03399406 -0.14540464
0.25856093 0.0842583 -0.0057721566
0.120102584 -0.10002536 0.31371546
-0.17990865 0.0938346 -0.23643324
0.09033838 0.026149891 0.015745135
0.08752536 0.025692388 0.015772413
0.024103923 -0.034866232 0.19025536
-0.15226506 -0.09916589 0.13000244
-0.119102925 0.02869167 -0.06576902
-0.13446626 -0.045748014 0.1715062
-0.13571604 -0.018320173 0.035525534
0.16200364 0.07863857 -0.07814835
0.25827366 0.06397359 -0.01213096
-0.15422751 0.10029303 -0.24188994
-0.13719654 0.0054677264 -0.019303456
-0.17513222 0.1107466 -0.2733063
0.2183056 0.15780999 -0.15048382
-0.1108962 0.018577341 -0.03971654
0.018769884 -0.02053138 -0.19676137
-0.023195101 -0.04633866 -0.014381555
0.01184052 0.08696561 -0.15143842
0.18527623 0.0971517 -0.11199023
-0.1396656 0.1687529 -0.30486637
-0.30256668 0.018455844 -0.03822915
0.015478603 0.03162106 -0.17143755
-0.121995986 -0.0133152595 0.029062063
0.067929335 -0.016446467 0.18388359
-0.09814724 -0.062154535 -0.068384916
-0.03771949 0.084366 -0.16342069
-0.30184603 0.016682567 -0.10368614
-0.2908193 0.0067167827 0.010325242
-0.12370613 -0.09950061 0.14932524
0.13866813 -0.0061994647 0.16803268
0.015888337 -0.042261306 -0.021470187
0.22059155 0.074055 0.030831395
-0.047764078 -0.052370474 0.21960716
-0.020358836 -0.0763567 0.18723612
0.016874183 0.15964773 -0.31550896
-0.023736108 0.19355983 -0.33093745
-0.1069367 -0.023327854 0.057359207
0.12788351 0.12980628 -0.2072684
-0.20973715 0.026507765 -0.0935483
0.25265706 0.08583889 -0.113683596
0.04005471 -0.06744063 0.17282933
0.16195782 0.026087796 0.12979119
-0.24801238 0.02714005 -0.10882801
0.13607562 -0.023244632 0.17400146
-0.22496639 -0.025609074 0.1079121
0.2468928 0.09251364 0.006562928
0.21044467 -0.0941689 0.22481921
0.2150706 0.115013205 -0.14198667
-0.035739113 -0.031675514 0.1901636
0.12308911 -0.20271155 0.2746962
-0.1405507 -0.030145487 0.06076861
-0.24772516 -0.07940427 0.05003744
-0.2866909 0.03173087 -0.1332882
0.17358154 -0.06740233 0.12911206
-0.0076058055 -0.081949495 0.101112954
-0.09637709 0.06759157 -0.14633925
0.08071931 -0.08738709 -0.10339693
-0.007095396 -0.043956064 0.19203939
0.13992088 -0.07856272 0.25393066
0.14878073 -0.08432061 0.27933398
0.026500624 -0.11959448 -0.055100318
0.17205423 -0.19416265 0.2904329
0.04854101 0.0005426136 0.05908216
-0.10787469 -0.052700147 0.17906764
-0.104056925 0.11039391 -0.24680823
-0.1452372 0.08351627 -0.20034882
0.22684477 0.112933576 -0.1329842
0.16399597 -0.024383469 0.17331697
0.0755976 -0.11441355 0.23672469
0.2244674 0.019912519 0.04785073
-0.077247635 0.011045198 -0.010362081
-0.21183313 0.04413271 -0.13453381
-0.26614803 -0.011714039 0.06131062
-0.026818192 -0.070164 -0.026494246
0.038612723 0.020305092 -0.16008584
-0.09538797 0.08624058 -0.18854673
-0.06075017 -0.06806529 0.21291111
-0.1167276 0.005281289 -0.0114779705
0.08573414 0.09534255 -0.14384502
-0.0667502 0.10130317 -0.21257325
-0.07527218 -0.05809423 -0.040060326
0.047445755 -0.08068756 -0.05471314
0.004869876 -0.14900641 -0.060289305
0.19079569 0.12308028 -0.16917461
-0.17858978 -0.013853124 -0.17636195
-0.14705822 -0.06527675 0.1563186
-0.21247537 -0.019683171 0.010888283
-0.24042349 -0.02763365 0.10594861
0.07330667 -0.101994365 0.22409171
0.113959044 0.14453195 -0.24591213
0.16050111 -0.08578739 0.27516508
-0.13041069 -0.0953863 0.059408195
0.07649625 0.039887846 -0.23477332
-0.070065424 -0.011960202 0.044742867
0.03911959 0.07860676 -0.12249872
-0.22323534 0.021384036 -0.086733684
-0.077886075 0.14654224 -0.31985295
0.12846698 -0.06266707 0.21383613
-0.12985702 0.03470857 -0.08338976
0.014545124 0.097738534 -0.1750485
0.19978529 0.10985399 -0.1357369
-0.057731308 0.1393991 -0.29626322
-0.103973344 -0.059932712 0.1773136
0.20771804 -0.13571365 0.22433068
0.18180248 0.10180439 -0.123865604
0.020624936 -0.099127315 -0.044894744
0.046645407 -0.051591184 0.17731325
0.19428824 -0.07770825 0.23921426
0.013119693 -0.034310844 0.12582706
-0.20835166 0.14760967 -0.28143853
0.1671583 0.1377638 -0.21123326
-0.03664446 0.1375676 -0.2844602
-0.11419336 0.04586503 -0.104485415
0.18642469 -0.077748425 0.24798872
0.17321545 -0.060198344 0.24207033
-0.077688724 -0.15143621 -0.0976193
0.24538495 0.02670253 -0.0033865224
-0.09233336 -0.06721783 0.18192406
0.104878776 -0.06964434 0.24748947
0.078269996 -0.08793451 0.22798735
-0.29969907 -0.03490963 -0.024954677
0.10113217 0.12880068 -0.214644
-0.22212504 -0.06894967 0.10052218
0.16077287 -0.10656945 0.31597117
-0.13089925 0.13001746 -0.30130026
0.13653632 -0.18549873 0.19216506
0.18146518 0.007092707 0.12434068
0.23215503 0.055936772 0.03565478
-0.2315597 0.13801576 -0.2679308
0.20602809 -0.06611512 0.19836308
0.14349969 -0.045924168 0.2342985
0.24733785 0.09473233 -0.13719647
0.08584155 -0.12278065 0.22898385
-0.15133587 0.025795717 -0.07081079
0.1893915 -0.076168515 0.24355914
-0.06942177 0.096666396 -0.20295548
0.03251893 0.118910864 -0.21687528
0.013799312 0.08782337 -0.15268798
-0.10098621 -0.09743254 0.059229594
-0.32588857 0.037787903 -0.073269434
0.1611506 -0.19755293 0.28072304
-0.13014123 0.1339406 -0.30998102
0.15270108 0.06348428 -0.046922892
0.1909502 -0.15744293 0.30968446
0.07085079 0.18120389 -0.29716533
0.22128469 0.010990245 -0.054744944
-0.28687376 0.030180115 -0.12981524
0.15154566 0.105239846 -0.14264393
-0.12903024 -0.08876379 0.15276599
0.15548055 -0.08047353 0.27051982
-0.054191004 -0.07193236 0.2123049
-0.118902996 -0.00650612 0.014638867
0.029095946 -0.02745032 0.19176246
-0.014283557 -0.14009535 -0.056953024
0.18138596 0.07768698 -0.068969965
-0.09010521 -0.09801505 0.16557407
-0.10356601 0.065529294 -0.14423074
-0.11245019 -0.01942309 0.04645379
0.17707478 -0.06426641 0.24363807
-0.1494258 -0.03667655 0.16048062
-0.04946915 -0.075402394 0.21003246
0.13666688 0.029273333 0.025364267
-0.06404544 0.10596196 -0.22222883
0.15619458 -0.18571788 0.21291758
0.061433937 0.13611689 -0.24569379
0.19500269 -0.057036906 0.20964384
0.16667587 -0.039260972 0.21088035
-0.021589205 -0.0820567 0.10478596
-0.030704027 -0.066519596 0.19971865
-0.16307534 0.007585794 -0.15622172
0.08671933 -0.06529534 0.21846122
-0.02551388 -0.024127925 0.08861956
0.0644432 0.05328016 -0.055538345
-0.16510113 -0.050576057 0.15478083
-0.13988785 -0.05375396 0.1654732
-0.14903855 0.14590134 -0.3078273
0.2196237 0.04657181 0.06064324
0.047007177 0.13396914 -0.24600688
-0.007076556 -0.10576143 -0.040643867
0.23343642 0.12310075 -0.09465047
-0.31333768 0.0006886182 -0.06040901
-0.038608845 0.010021991 -0.18866493
0.13586587 -0.077145934 0.12101354
-0.2960532 0.06487167 -0.15187405
0.16742711 -0.08693828 0.2708083
0.11405039 0.10387699 -0.15308782
0.21488622 0.14105463 -0.15995201
0.07019069 -0.09129204 0.16066211
-0.070241205 -0.03920299 0.18899645
0.17604871 -0.10330295 0.2885994
-0.1605383 0.047723565 -0.1241866
0.14321561 0.05797184 -0.03777034
0.15117435 -0.20189555 0.2776397
-0.111681834 0.119304456 -0.2699019
-0.18315227 0.11866718 -0.2942839
-0.16511855 -0.06735602 0.14604224
-0.046569772 0.10915499 -0.22319858
-0.10471766 -0.007834362 -0.13122627
0.1724258 -0.11262869 0.3117705
0.18253717 -0.16707863 0.16672084
-0.16527459 -0.036832623 0.06709368
0.22642517 0.050437193 0.048320338
-0.097694 0.0019360966 0.0030372308
0.20116277 0.04343509 0.016356407
-0.07873027 0.06761796 -0.15004236
-0.016312333 -0.13302071 -0.05405242
-0.062630504 0.12101087 -0.25606498
0.22142881 0.0071653672 -0.03721261
-0.108599834 -0.0821167 -0.1259069
-0.09270691 -0.08571292 0.17025936
0.19215372 0.049184203 0.08799126
-0.009562404 0.121001184 -0.2368586
-0.001645388 -0.007584723 -0.19853109
0.048863247 0.13517118 -0.2480791
0.03769923 -0.051751673 0.17966431
0.11380402 0.1659527 -0.27991474
-0.2197424 -0.05927488 0.1089826
0.13253884 0.15294553 -0.2583993
-0.1680584 0.105287105 -0.25828868
-0.2633253 -0.0076813074 -0.034886796
-0.23939697 0.100782394 -0.24993353
0.18984357 0.03397647 0.10442315
-0.15032454 0.035726868 -0.093112774
0.10409768 -0.085911475 0.26379696
0.121451005 -0.036619987 0.20518401
-0.03875099 0.14953306 -0.3125319
-0.17495969 -0.07119164 0.13869655
-0.26497293 -0.0022410064 -0.047899757
-0.19167624 -0.011708505 0.00020599282
0.058419984 -0.033442616 0.18167678
0.18089697 0.04611925 0.0029038547
0.2453196 0.13071781 -0.09187734
0.1050041 -0.079047225 0.2576539
0.07882171 -0.0035860026 0.079451784
-0.13286923 -0.036037076 0.07699238
0.108137354 0.07704664 -0.093988
-0.1115322 -1.780057e-05 -0.10595365
0.16692747 -0.08844387 0.27325267
-0.177562 -0.033939403 0.05604843
0.06005363 -0.053068392 0.17352451
-0.11538089 -0.095034234 0.12995642
0.07032165 -0.090030596 0.17106336
0.19092406 0.036592353 0.0282732
-0.2692402 0.020465484 -0.10126754
0.16929886 -0.18129778 0.20861746
-0.055915628 -0.15428069 -0.07923151
0.12845427 0.031620514 0.0170378
-0.06843482 -0.10316222 0.167356
-0.047426578 -0.072954 0.21068786
-0.21652852 -0.04574763 0.06891279
-0.05193846 0.07743608 -0.15853716
-0.09495332 -0.048321072 0.11873624
0.18278386 0.014341165 0.10868647
0.20309739 -0.12856789 0.2407589
-0.15418398 0.013210295 -0.17451422
-0.09127495 -0.08617521 0.09408153
0.07382479 0.07667833 -0.10555075
0.13004832 -0.06151873 0.21203548
0.17360885 0.033489507 0.11710895
-0.30599108 0.047596797 -0.103658125
-0.14177218 0.023623144 -0.062395208
-0.21801613 -0.041193306 0.057980232
-0.04139079 0.13579507 -0.28213012
0.21962681 -0.098316856 0.17278124
-0.22855522 0.014851724 -0.07374723
-0.2572088 0.01660068 -0.08809732
0.019117596 -0.11728376 -0.051314518
0.24036251 0.116704874 -0.04869119
-0.30084774 0.08327655 -0.1680408
0.23012568 0.09716898 -0.095816754
0.18935043 0.12977685 -0.18498121
0.011621786 0.01069472 0.02256453
-0.10271618 0.028682085 -0.1342161
-0.14942543 -0.01358368 0.019759566
0.087782755 -0.13018118 0.31300747
-0.09133591 -0.09069542 0.09109169
0.1762179 -0.00011293651 0.14469069
-0.038683992 0.0039107064 0.01986258
0.2164311 -0.122330055 0.18374857
-0.07368234 -0.050294388 0.13092965
-0.057313118 0.09132718 -0.18639226
0.026675018 0.020868164 0.004786165
-0.30339652 0.039840806 -0.115569055
0.21757366 0.15343912 -0.14086857
-0.103916354 -0.06671151 -0.084244795
-0.16827643 -0.014558514 0.015169945
0.058960628 0.027693948 -0.110410154
0.11803183 0.036125664 0.0029874407
0.110301405 0.07343066 -0.08495227
-0.17738362 -0.09431544 0.12186851
-0.11558052 -0.046210237 0.17872617
0.039836697 -0.07692395 0.07123611
0.19498688 -0.0028452636 0.117563255
0.09707494 -0.04704428 0.19703215
0.17854641 0.040770393 0.10227595
0.04051315 -0.090835676 -0.052144412
-0.18945144 -0.07014686 0.0415515
-0.04536757 0.16495164 -0.32799363
-0.1864043 0.055615332 -0.15154923
-0.05016473 -0.015676701 0.060419526
-0.025762519 -0.14632006 -0.061384074
0.12508248 -0.08152407 0.11789066
0.055384014 0.18049398 -0.30364293
-0.19447148 -0.007780857 -0.009769249
0.00026130566 -0.029880874 0.11106817
0.0064312 -0.03335433 0.12122574
0.046540316 0.16236116 -0.31097808
0.14835453 0.07070083 -0.0649656
0.078543566 -0.11901788 0.24787676
-0.2737636 0.081207186 -0.20369577
-0.03381396 -0.05551926 0.20601293
0.09094759 -0.17282526 0.2631291
0.104604565 0.022615701 0.028969124
0.2102628 -0.11410012 0.22841774
-0.07299636 0.012478952 -0.012097258
0.09613339 -0.035713047 0.16335398
0.2365316 0.019703258 0.021942994
-0.09620812 -0.07273705 0.1746488
0.14267085 -0.07463058 0.24478503
0.089642145 0.08187127 -0.11168563
-0.19886692 0.031138286 -0.10018786
-0.06657891 0.008247811 -0.00012019682
-0.17105196 -0.090792395 0.13086021
-0.048210222 -0.072130255 0.21113367
0.2023488 -0.06774641 0.2108476
-0.048279144 -0.016854325 0.063788354
0.10953612 -0.038836207 0.16830915
0.05069368 0.025530374 0.0028273945
-0.30897078 0.028217914 -0.045310978
-0.004352982 -0.08298627 0.1760903
0.15545325 -0.048079498 0.13529861
-0.24287777 0.08558251 -0.24036163
-0.08716684 -0.1330087 -0.0999612
0.17082003 -0.1755956 0.24145927
0.045708764 -0.08323471 -0.05406099
0.13860984 -0.03635277 0.21236059
0.18268992 -0.17337798 0.21175675
0.20564428 -0.09797398 0.23405004
-0.2042466 0.0036483235 -0.039388828
0.044446483 0.08194651 -0.12819548
-0.16742994 0.09823442 -0.2419646
0.14954667 -0.099351145 0.29475382
0.18589902 -0.0401672 0.16738525
0.032431304 -0.013884163 -0.18673253
0.070636906 -0.050571438 0.16967437
0.17435454 -0.08537418 0.26433223
0.1466739 -0.10162233 0.30117276
-0.035483938 -0.05138306 0.20891972
0.21302046 -0.08115278 0.19785394
-0.051160287 0.079317 -0.1579529
0.039144523 -0.031083696 -0.03300696
0.029215248 0.13426448 -0.253113
0.19229786 -0.062955186 0.22631514
-0.14278252 0.018046962 -0.1915424
-0.06822795 0.120435774 -0.25677595
-0.09005023 -0.052138474 0.12922136
-0.29464668 0.028816508 -0.12951274
-0.20710188 0.014831506 -0.06594571
-0.00018929175 0.04638454 -0.17173505
-0.04725598 -0.08100704 0.20732878
-0.03701497 0.112311445 -0.22694914
-0.090753466 -0.042379893 0.106694326
0.08375198 0.019986331 0.027431654
-0.25950488 -0.042753354 0.06784979
-0.037873574 -0.11921806 -0.05170599
0.15928218 -0.20003285 0.28397167
-0.23000734 -0.05016341 0.103461765
-0.22220272 -0.032269415 0.036099073
0.13767867 -0.08428446 0.28350326
-0.061082613 -0.058012143 0.21754628
0.0479539 -0.006911401 0.07588291
0.008930171 0.121827066 -0.23205839
-0.24575198 -0.039210323 0.0917422
-0.29327247 0.005724262 -0.004833191
0.1794634 -0.17594783 0.27998653
-0.046008278 -0.048453104 0.18433075
-0.119523816 -0.022622684 0.051199645
-0.113823585 0.13792269 -0.31317097
-0.21056446 -0.031152576 0.12577094
-0.12257545 0.10194079 -0.2342081
0.24304211 0.12992586 -0.118758574
-0.08153294 -0.03987767 -0.033189654
0.03148922 -0.0033795969 0.06186993
-0.08566827 0.08717807 -0.18717276
-0.12934451 0.05785455 -0.13603319
-0.027830018 0.09441879 -0.18278997
0.10683881 -0.062251355 0.12420247
-0.0151198665 0.15222137 -0.31012526
0.16002811 -0.06322677 0.251601
-0.14740787 -0.03940101 0.07941453
0.12146934 -0.19977026 0.26941487
-0.057508856 0.07169961 -0.15893199
0.017446022 0.115673706 -0.21493563
0.12242785 -0.04906454 0.23472603
-0.1230954 -0.037380163 0.17160422
0.12107057 -0.1923963 0.2542269
-0.34063464 0.050747454 -0.10817905
0.19737267 -0.08809321 0.24210003
-0.11472402 0.051204868 -0.11557029
-0.10359241 0.08131989 -0.18028116
0.09376208 -0.021473536 0.16936357
-0.072937086 -0.11256204 -0.06833711
-0.24420343 -0.011802493 -0.018567761
0.0602249 0.13255534 -0.23800184
-0.14383602 -0.0565706 0.16220444
0.008157159 -0.026931345 0.19520375
0.030650562 0.068972245 -0.13903707
-0.16894297 0.10765621 -0.26401547
0.062312707 0.07866743 -0.11425214
-0.07078192 0.095037125 -0.19972831
0.1105292 0.045052152 -0.020098569
-0.078968644 0.12968796 -0.28177562
-0.022149317 -0.006571859 0.04976539
0.13401364 0.1158169 -0.1731232
-0.29381913 -0.026740668 0.0040739737
0.1326493 -0.18538962 0.23428638
0.05728735 0.17937973 -0.30344772
0.0036997967 -0.043818813 0.19119287
0.23068838 0.079512455 -0.0025168017
0.06304534 -0.022561802 0.117059454
-0.10480157 -0.097381145 0.07013673
-0.0324721 -0.09333367 0.19445635
0.19688803 -0.014654819 0.1337761
0.021172108 -0.12944423 -0.056815024
0.02979267 0.07428488 -0.13672744
0.028830845 -0.07602782 -0.22042371
-0.11109361 0.0014968343 -0.07722218
-0.19824685 -0.07653634 0.11656331
0.047218103 0.080632985 -0.124195546
-0.2399389 0.078738965 -0.22367936
-0.029985473 -0.003652231 0.040269334
0.09152322 -0.089466564 0.25255278
0.04741103 0.15394261 -0.2914488
0.2561762 0.07417851 -0.007249969
0.025759501 0.022786576 -0.17107733
0.19948003 -0.10884365 0.24802092
0.058517702 -0.027326666 0.12629828
0.13294058 -0.2050697 0.27718937
0.21971178 -0.103529 0.16922806
0.069673374 -0.09432803 0.200261
0.049568765 0.13193274 -0.24043316
-0.104176216 0.088742524 -0.19743308
0.25775433 0.11392942 -0.036069408
-0.16448064 -0.09563677 0.11358239
-0.21243908 0.040948957 -0.12748629
0.028133223 0.005546054 0.040284533
0.19772936 -0.012112213 0.12709357
0.16296425 0.12843943 -0.1914673
0.14300823 -0.20692474 0.28290737
-0.21699348 -0.017634843 0.004579964
0.28190246 0.07981052 -0.03740211
-0.08214127 -0.082075104 0.18490495
-0.07080047 -0.119894266 -0.070916355
0.09190275 0.1182493 -0.19389835
-0.07709734 -0.09335857 0.18833096
0.17710449 0.035436038 0.113929495
-0.07734768 -0.1307819 -0.083148174
-0.08450431 -0.12508605 -0.09004006
-0.060604833 0.080306955 -0.16242966
0.13421436 -0.101478204 0.10943832
0.21614008 -0.0887512 0.19228424
-0.033811294 0.17976032 -0.32141313
0.028864214 -0.0197159 0.09820739
-0.3092151 -0.017108433 -0.05786485
-0.00070185337 -0.15434112 -0.062342077
0.17350589 -0.054122653 0.13489793
0.061933164 0.08133094 -0.12046936
0.24461082 0.049257386 0.0016553479
0.01497008 -0.0911403 -0.039691377
-0.078003295 0.115211174 -0.24838513
-0.30454567 -0.021825613 -0.03141377
0.20834264 0.06278068 -0.025203092
0.029742151 -0.09729968 -0.048274223
-0.11171959 0.015505133 -0.03300281
0.12873949 -0.05426203 0.19447099
-0.21751706 -0.0429793 0.120421425
0.0015122094 -0.06588937 -0.026255606
0.06261924 -0.11964667 -0.07965172
-0.21509258 0.040495455 -0.12741028
-0.026980165 0.07050999 -0.16543223
0.13315946 0.033112086 0.015334579
-0.13847132 0.13633049 -0.31594127
-0.0054570627 -0.07453795 0.17970082
0.025377974 0.14077005 -0.26934853
0.23028655 0.041667625 0.038789198
0.06620526 0.054340392 -0.0573213
-0.041019514 -0.066728674 0.21058679
0.07482916 -0.17001118 0.2930939
-0.20235316 -0.06135678 0.122700594
0.18245368 -0.035765532 0.16838223
-0.15445367 0.02899786 -0.079246886
0.024954027 -0.038337905 -0.02440524
-0.27013168 0.014257988 -0.08742161
0.14429678 -0.090468906 0.29438826
0.14390701 -0.17970714 0.22227375
-0.06443601 -0.1068933 -0.05866602
0.12838824 -0.08178619 0.27580434
0.113353 0.07006431 -0.07616575
-0.22916496 0.0881124 -0.24117881
0.05335794 0.073151745 -0.10490036
-0.1377101 0.046140768 -0.11232108
-0.045867015 -0.117969975 -0.05413507
-0.19154888 -0.035773918 0.14319271
0.12567413 -0.023207726 0.17203382
0.13073584 -0.2044194 0.27547666
0.21278104 -0.11516976 0.22188926
-0.1756662 -0.025448335 0.037353292
0.08126552 -0.15238382 0.22143899
0.12986197 0.017223585 0.050406948
0.1665089 -0.18101174 0.18422556
-0.04461292 -0.05278645 0.21762091
0.18023267 0.06967803 -0.051106926
0.18487848 -0.06794985 0.24081008
0.19529803 -0.09802474 0.25066152
-0.05380432 -0.15489747 -0.07794593
-0.017168265 0.110309355 -0.21520469
0.05134665 0.17313063 -0.30892885
0.22809996 0.081453644 0.027333608
-0.223095 -0.02792053 0.11386412
0.034171853 -0.037731826 0.14124598
-0.07358607 0.08689807 -0.18216564
0.07476536 -0.14305058 0.30543205
0.08285127 -0.06348049 -0.114728056
-0.0766161 0.1458852 -0.31789416
-0.13622919 0.073713034 -0.17471737
-0.29638466 0.00054998405 -0.023091033
0.009950705 -0.08150989 0.096825905
0.0943119 -0.06084059 0.22752747
-0.009374663 -0.08520992 0.09956808
0.23439027 0.048149653 0.029407358
0.17075475 0.047461532 -0.003826374
-0.089715734 -0.1279016 -0.10141436
-0.2548609 0.06112588 -0.18887343
0.0836176 -0.008769044 0.17958485
-0.079579115 -0.14930797 -0.1104274
0.10296615 0.19540888 -0.2779953
0.16623925 -0.029204765 0.1904388
-0.060233194 0.15449916 -0.33096856
0.018826861 0.00011294393 0.049320888
0.19799826 0.17637911 -0.20020762
-0.18140748 0.03491132 -0.102487944
-0.1738597 -0.011969236 0.0072413636
-0.06491547 -0.067727566 0.21212307
0.23782833 0.018045928 0.019146519
-0.16066703 0.076922596 -0.19087732
-0.17858277 0.030112369 -0.09051349
0.23966824 0.09876198 -0.06583222
0.0775185 0.0031830904 0.063530624
-0.12836806 0.08928208 -0.20741028
-0.007746042 0.1137116 -0.21956392
5.872483e-05 0.01635039 -0.18673891
-0.2597213 -0.057331506 0.057762437
-0.104949206 0.04964622 -0.1269229
0.13285328 -0.05205945 0.24240854
-0.12219318 0.13809799 -0.3165968
-0.13465104 -0.037919942 0.08064576
0.07141884 0.07374922 -0.09973555
-0.19029877 -0.0076211705 -0.008624846
-0.038774114 -0.04440749 0.2143324
-0.29312864 0.034669913 -0.14232375
0.050398502 -0.13374104 -0.07328298
-0.21787728 -0.072063304 -0.030859835
-0.16894476 0.027266275 -0.08053331
0.14475493 -0.0006638032 0.16448368
0.0077494807 -0.055600055 0.1856757
-0.14103667 0.17309748 -0.31527787
-0.120610274 0.06647922 -0.15256067
-0.09616992 -0.08241922 -0.079754494
-0.008071753 0.003694743 0.031422213
0.13702302 0.014646113 0.14689173
0.04699127 0.0020186738 0.05515284
-0.09163294 -0.08866298 0.16962081
0.004958016 -0.057398416 0.18538816
0.095355876 0.18149097 -0.28345346
-0.030752424 -0.035134368 0.19986114
0.13413301 0.10824617 -0.15580049
0.10171576 -0.09036236 0.111746825
-0.16720708 -0.05580803 0.15095995
0.02069119 -0.076364316 0.09879245
0.22472864 0.086630285 -0.07371401
-0.042384636 0.033417106 -0.17839897
0.22687723 0.05970582 0.048718244
-0.26211125 0.08129489 -0.22392276
-0.09693278 -0.08551068 0.092915185
0.06840827 -0.04962898 0.17093211
-0.16097768 0.12960194 -0.30771524
0.12142647 0.063669905 -0.05865242
-0.01694869 -0.03158442 0.10873478
-0.07141658 -0.0447835 0.20718387
0.16442055 -0.17676271 0.23332366
0.08946191 0.14708142 -0.26058736
0.060276274 -0.018409228 0.10658007
0.14341892 -0.037131246 0.21466334
0.10237628 -0.17586862 0.21600011
0.029012546 0.12256419 -0.22648127
0.21196207 -0.012139278 -0.046302576
0.10811232 0.1668309 -0.2831461
0.04263759 -0.027640956 -0.03512309
-0.10516761 -0.037302915 0.08989547
-0.05334074 0.039904788 -0.17252435
-0.012415967 -0.08562645 0.17880712
0.14977348 -0.10154743 0.31470597
-0.27562797 -0.0039574383 -0.13584691
0.10132929 -0.17304556 0.18061656
0.047787145 0.04986459 -0.12600634
0.04068815 -0.020864999 -0.03144863
0.1960479 0.049089674 0.08961451
-0.06916206 0.07878851 -0.16205718
0.13624325 0.18667603 -0.25156075
-0.06332471 -0.030635031 0.08980279
0.10755673 0.056708146 -0.04777679
-0.030761244 0.14306566 -0.2948825
0.030113826 0.08745528 -0.14595059
-0.0113058705 -0.07781535 -0.028406637
0.07590816 -0.04159253 -0.0892083
-0.2259917 -0.0066565685 -0.02372987
-0.16501722 0.09414246 -0.23175219
-0.064093634 0.008165548 0.0009661515
0.20059453 0.04460859 0.09214299
0.019294081 -0.00819322 -0.1900832
0.21017945 -0.04319547 0.053743128
0.06439495 -0.015476053 -0.13758391
-0.09299237 0.13378789 -0.29620293
-0.04281662 -0.09839276 0.1995228
0.1308295 0.048403546 -0.020409156
0.20163348 -0.15710592 0.19974262
-0.24283344 0.10109697 -0.24584678
0.07744726 -0.026466101 0.17605856
-0.0045900983 0.14069952 -0.2800206
0.057957787 -0.0076802885 -0.1495324
0.097713225 -0.1155951 0.31943697
-0.25224465 -0.063941255 0.06371872
-0.20010066 -0.056190245 0.12796694
0.24295592 0.030049065 0.006411226
0.19269873 -0.13793853 0.28804037
0.055110265 -0.020403326 0.10926395
-0.09132504 -0.056242894 0.18969484
0.21945167 0.022834113 0.057640783
-0.061553642 -0.024642123 0.07676464
0.17796655 0.13901526 -0.21018246
0.080581605 -0.08322808 -0.10286806
0.028918795 0.15967134 -0.31120864
-0.11117068 -0.04369088 0.102305554
0.16141444 -0.040082656 0.21642554
0.05570568 0.08631608 -0.13409898
0.2159399 -0.014971176 0.040110756
-0.07149875 -0.09745458 0.07393591
0.08541717 -0.0032538958 0.08107831
-0.09415358 -0.072122425 0.17697503
0.15983921 -0.092767484 0.272587
0.17080127 -0.18481435 0.2669716
0.08171576 -0.09870723 0.24333577
-0.117154405 0.009510115 -0.02128385
0.039348386 0.031895038 -0.015800335
0.14923222 0.12008011 -0.17735195
0.23374453 0.0735343 0.03182642
-0.12967929 0.08068889 -0.18827143
-0.14028269 -0.01940032 0.03634072
0.025026925 -0.08151608 0.17217854
-0.011542173 -0.059957772 0.18755871
-0.013793776 -0.0041574226 0.047275502
-0.24501315 0.057533864 -0.17711496
-0.17354529 -0.010507382 0.0040183114
0.04300451 0.07184193 -0.118455015
0.12888984 0.035365812 0.008647535
0.18435808 -0.14051986 0.31616768
0.019520001 0.13726735 -0.26347145
0.15110105 -0.02882054 0.19584636
-0.017564628 0.15355144 -0.31404483
-0.26261675 -0.002300504 -0.046912055
-0.06637482 0.080070354 -0.16397521
0.08630015 -0.18287317 0.28850102
0.017879037 -0.050884176 -0.025600558
0.19338971 0.060305614 -0.024959477
-0.07291925 -0.097691864 -0.05964072
-0.018466393 0.081836775 -0.15998422
-0.06153281 0.14431985 -0.30886832
-0.09773114 0.09989859 -0.22056617
-0.08378944 0.08426155 -0.1798368
0.22130162 0.018718023 0.05359791
0.0148481885 -0.08401254 -0.0368181
-0.2127232 -0.04839622 0.121388525
-0.12540337 0.12053311 -0.2776663
-0.16763274 0.004730847 -0.028624268
0.16915159 0.06104108 -0.035399884
-0.04143124 -0.0232275 0.08081034
-0.22587638 0.030227767 -0.10787356
-0.3180432 0.028964764 -0.050295092
-0.13312554 -0.01303174 0.024392404
-0.1515934 -0.018073086 0.029222496
0.19820377 -0.0232414 -0.05818525
-0.06987097 -0.062016904 0.21329325
0.15869409 0.10174744 -0.13208923
-0.09821505 0.16381633 -0.31991297
0.05438679 0.05692094 -0.09686018
-0.101990454 -0.100117005 0.15553242
0.17690459 0.037523013 0.10909381
0.14489767 -0.101676635 0.3178283
-0.06683721 0.037250374 -0.16734357
-0.0100874035 -0.033198975 0.11490014
-0.15121192 0.035170063 -0.092162415
0.097218774 -0.11178057 0.3143522
-0.27833068 0.027891079 -0.12150223
-0.020501185 -0.08344334 0.18520865
-0.112475365 0.05544059 -0.12442525
-0.3413104 0.009886858 -0.11546158
0.043162037 -0.08224448 0.15999754
0.21925524 -0.10552557 0.17641737
-0.2118404 -0.06364411 0.015506211
0.05962306 0.14499655 -0.26661545
0.055572003 -0.12439683 -0.074690334
-0.30380458 -0.018875489 -0.024853509
0.17694269 -0.0034442972 0.150702
-0.082686976 0.038150042 -0.15576713
0.22507225 0.095489904 -0.093811266
-0.099926375 0.1265787 -0.28225547
0.2194998 0.007723894 -0.06802975
0.20927039 -0.13130955 0.22346812
0.09860079 -0.02759014 0.16480504
0.2005801 0.029318878 0.048364915
0.015712976 0.1559086 -0.30739468
0.1880731 -0.029132614 0.15990397
0.04197197 -0.018562673 0.18832691
-0.09048454 -0.049003623 0.121909775
-0.09513561 0.08223107 -0.17930423
-0.071811795 0.029454613 -0.16725615
0.1809147 0.09112666 -0.099815
0.134453 0.05052751 -0.023947269
-0.05611465 -0.10206372 0.19787814
0.06180674 0.015251668 -0.09761875
-0.15693176 0.02598846 -0.07327422
0.092905685 -0.073258 0.23857793
0.085581064 0.1168694 -0.19303401
0.1319554 0.11617451 -0.17468363
-0.022533106 -0.016185261 -0.20257647
0.10230493 0.02224935 0.028973792
0.021559253 0.159167 -0.31271794
-0.12628739 0.11682256 -0.2695169
0.105019145 -0.060554527 0.12479789
-0.12840179 -0.028147668 0.060600266
0.07374218 -0.16422759 0.29611036
0.05254853 0.11670532 -0.2046008
0.19554919 -0.1530056 0.2412477
-0.06679686 -0.06274845 0.21394514
0.04969555 -0.038081195 0.18201073
0.20216236 0.06405561 -0.03034695
-0.23807679 0.09060197 -0.2500828
-0.039206367 0.12597166 -0.25891954
-0.15460438 -0.08167617 0.06490663
-0.30907667 0.03487708 -0.0605478
-0.07326304 0.034765862 -0.16458483
0.13040692 -0.032236632 0.20032582
0.029930297 -0.07085257 0.17493275
-0.2530794 -0.040634852 0.079560824
0.18644224 -0.13189557 0.3065963
-0.30095634 -0.021167148 -0.015194515
-0.14804064 -0.0027769576 -0.004405304
-0.10181148 0.15988103 -0.320581
-0.055922944 -0.1426775 -0.072581306
-0.2917751 -0.015206829 0.026410017
0.17621678 -0.019517023 0.16570401
0.01869754 -0.049669616 0.18582219
-0.28845128 -0.016178286 -0.008929834
0.18544824 -0.16311686 0.2787407
0.06566588 0.18664096 -0.2964945
0.11454797 -0.18411174 0.24169977
0.0011233914 -0.042807456 -0.016656592
-0.00060415076 -0.041067902 0.13628876
-0.27387992 0.004924734 -0.06747474
-0.20447432 -0.032215618 0.119116895
-0.1839133 0.060780045 -0.16243672
-0.04202559 -0.104863554 -0.04629505
0.14538698 -0.09734558 0.30844653
0.09285448 0.00043546336 0.075345814
0.08803591 -0.0036627476 0.17097117
0.15348996 0.14064506 -0.22275074
0.1312814 0.092221305 -0.12025655
0.12671247 0.08181614 -0.09815874
0.12580019 0.10841354 -0.15919441
-0.15947644 -0.049779594 0.09874007
-0.2981722 -0.031912573 -0.015501634
-0.08981788 -0.04890517 0.19578809
0.20806074 0.0039510536 0.073328145
0.22300713 0.05747594 0.055726398
0.18549484 -0.029485255 0.16281655
0.17677578 -0.08095481 0.2585679
-0.1897329 -0.07966683 0.12173022
0.194431 0.09023463 -0.09289301
0.020105971 0.11370587 -0.20948283
0.2050366 -0.060471363 0.19200517
0.05536178 -0.058761977 0.1722774
-0.25936988 -0.064963184 0.053162545
-0.081901565 -0.08720892 0.09579168
-0.045976825 -0.060040306 0.21612214
0.21829851 -0.10535394 0.18761788
-0.1266494 0.026994266 -0.06462249
0.10407421 0.05971529 -0.05589903
0.24507336 0.062311355 0.003092204
-0.10922788 -0.012006567 -0.086816944
-0.29782367 0.06597372 -0.14605571
0.15679163 0.12391381 -0.18336964
0.20863798 -0.032915056 0.110171355
0.061743256 0.19469488 -0.29401377
0.25170958 0.051012263 -0.009023626
-0.10006757 -0.09019329 0.16360027
0.06415801 -0.11104294 -0.07950747
-0.04420959 -0.046236206 0.1323212
0.11035383 0.006327894 0.06822284
-0.22817999 0.08581188 -0.23557241
-0.16526659 0.049996287 -0.13108286
0.024003176 -0.02981406 0.19219193
-0.033906005 0.2011019 -0.34046808
0.27584758 0.09920385 -0.01953471
0.13215668 -0.19809623 0.26149726
0.053959843 -0.054754153 -0.05382501
0.18526094 0.08730551 -0.08952235
-0.21099755 -0.031836543 0.12717573
0.024320051 0.17440647 -0.31624693
-0.05529175 -0.046147905 0.12811393
