# .PCD v0.7 - Point Cloud Data file format
VERSION 0.7
FIELDS x y z
SIZE 4 4 4
TYPE F F F
COUNT 1 1 1
WIDTH 1000
HEIGHT 1
VIEWPOINT 0 0 0 1 0 0 0
POINTS 1000
DATA ascii
0.1482834 0.109473445 0.06651236
-0.04585765 0.29673785 -0.06606876
0.08411377 -0.06035 -0.051021982
0.11792884 -0.17645529 -0.0436847
0.021454081 -0.222463 0.055995867
-0.17411615 0.14369942 0.039685268
0.16250388 -0.2209843 -0.054079216
0.064578675 -0.36095977 0.08370169
-0.093784705 -0.24290347 0.06824658
-0.19627254 0.1569138 0.0075453264
0.019561417 0.31868282 -0.088245444
0.18556754 0.22342105 -0.12225269
0.2257725 0.0466605 -0.06551284
-0.18205409 0.06433712 0.06009641
-0.17574689 0.25420177 -0.023477448
0.017789923 0.15593784 0.09534683
-0.20085187 0.12778707 0.027908927
-0.04309757 0.017240256 0.03449601
0.101330824 -0.18166828 -0.038111027
0.0050966274 0.012662427 0.12224611
0.19149953 0.24205974 -0.1267193
-0.034947507 0.17974475 -0.04490406
-0.009097114 -0.20879255 0.08805838
0.20195211 -0.15951763 -0.07050863
0.18413028 -0.017973835 -0.058005117
0.100436784 0.14268611 0.04317861
-0.24938533 0.018360361 0.03200542
-0.008979395 -0.40560725 0.08287192
-0.044934608 0.06598946 0.058724783
0.087243766 0.16073768 -0.084541
-0.060713645 -0.091787584 0.052400857
-0.05373889 0.33171144 -0.074459456
0.04740216 -0.28539658 0.08851508
0.025820948 0.15032788 0.07862782
-0.054896727 -0.33684245 0.09029096
-0.11273624 0.0891846 0.033322446
-0.19641507 0.12293282 0.035251103
-0.23724885 -0.009522921 0.03451661
-0.10495536 0.013834722 0.045844637
-0.01922166 -0.1968589 0.08692029
-0.054618977 0.07441153 0.021060547
0.2275791 0.04587043 -0.06591933
0.23905806 0.05712812 -0.07312621
-0.21153276 0.039230026 0.042262804
0.1741128 -0.1575058 -0.062745884
-0.059392832 -0.10257716 0.055634726
0.14625607 0.03167448 0.07240218
-0.06941482 0.1435395 -0.036650553
-0.15674692 0.16798179 0.034994062
-0.07395454 0.27386042 -0.031080501
0.12325627 0.1154784 0.023429591
0.21069679 0.23593296 -0.13137339
0.059526578 -0.0906626 -0.03943254
0.08081098 0.18819086 -0.073335156
-0.06106995 0.07632382 -0.007346512
-0.02999697 0.037784778 0.092933364
0.08680884 0.13924445 0.008335181
-0.04581368 0.30736858 -0.067649424
0.12997118 0.17488627 -0.067802705
-0.2413947 0.04140109 0.028205227
0.056357253 0.15893921 -0.07533371
-0.04582459 -0.24011283 0.10075967
-0.09908799 0.3358588 -0.056813538
-0.13053468 0.16716094 0.036832232
-0.06855179 0.23581904 0.004960256
0.09635428 0.14626019 0.049091678
0.041682262 -0.4029232 -0.01404782
-0.17335224 -0.02532075 0.06713806
0.030932736 -0.27429652 0.09832996
-0.031014815 -0.023376353 -0.013501139
-0.26151502 -0.07885344 0.029866388
-0.00998217 0.16271609 -0.056685258
0.021170229 -0.039726894 -0.040443353
-0.03055661 0.0852915 0.10063335
0.20417696 -0.00023159814 -0.05764551
0.2587458 -0.023025759 -0.1070847
0.16141257 -0.08200085 -0.035284437
-0.021155251 -0.23813477 0.09921122
-0.1878584 0.09828326 0.0499049
0.21532367 -0.13285413 -0.07831321
0.03519895 -0.123732634 -0.0022837105
-0.0026731477 -0.008139658 0.049680766
-0.10654161 0.27630153 -0.045485836
0.113761164 0.17144023 -0.07987796
-0.045912806 -0.3607178 0.07675948
0.16604254 -0.24097005 -0.061007395
-0.0114108175 0.30411342 -0.07712913
-0.23393072 0.012442518 0.03031584
0.25669575 0.18346088 -0.13695042
-0.029429724 -0.14608844 0.044885922
-0.10639757 0.32957745 -0.055523917
-0.11766593 -0.12779202 0.072458096
0.03915501 -0.17457855 -0.016324067
0.113366015 -0.1162361 -0.018022412
0.2115351 -0.17175192 -0.07348967
-0.24560615 0.12171069 0.015741736
0.12511492 0.099679686 0.0011478188
0.14222664 -0.17669024 -0.05068458
-0.14101733 0.07751241 0.05706108
0.2942728 0.024746398 -0.12441653
-0.054039218 -0.3457452 0.08488712
-0.21652214 -0.07261239 0.031572815
-0.05383414 -0.3421546 0.08816078
-0.031687215 0.08878316 0.093966424
-0.020452293 -0.071472295 -0.01910921
-0.13242297 0.06735308 0.054596096
-0.23652497 0.0986559 0.01834952
-0.22476211 0.08227646 0.017360255
0.21388935 0.021383174 -0.060691856
0.112945594 0.015831886 -0.04428481
-0.14317389 0.018017286 0.06865876
-0.10435898 -0.1124016 0.07510271
-0.108361 0.28523967 -0.04627749
-0.13791363 -0.11408268 0.06700665
-0.14166836 0.1620816 0.039457314
-0.07319845 -0.24152592 0.09157223
-0.0051088766 0.20497224 -0.028749606
0.118791774 -0.08594053 -0.048009172
-0.05853508 -0.31404108 0.09636993
0.19382526 -0.078113005 -0.043803636
0.02329619 -0.12505496 0.002574755
-0.14066747 0.22604397 -0.0017651209
-0.118446134 -0.06946663 0.07411846
-0.17394994 0.051772483 0.0645511
0.04666804 0.12544172 -0.10506767
0.067179635 0.3212806 -0.102414206
0.101353325 -0.09728055 -0.040953856
-0.0064591956 -0.26525077 0.112328075
-0.19074488 0.23034002 -0.01433221
0.0031408987 -0.39933065 0.093036406
-0.17814448 -0.020418314 0.06572961
0.29576644 -0.005847353 -0.1203363
0.17625341 -0.21860424 -0.058452602
-0.26686084 0.04314207 -0.006332957
-0.11264485 0.27309927 -0.0432468
-0.022020197 0.13653816 -0.030197024
-0.014285984 -0.14442214 0.017356116
-0.25717518 -0.066413596 0.042542685
-0.05063575 -0.2713203 0.097016595
-0.2129818 -0.045621708 0.03281628
0.24178599 -0.0055227787 -0.073663294
-0.09060646 0.048357982 -0.016475307
0.20659791 -0.09149158 -0.06207545
0.20233123 -0.06221413 -0.04770693
-0.15779956 0.24928035 -0.026660595
0.19635235 0.04505399 -0.06937729
0.22551441 0.048286118 -0.06566914
-0.068789154 -0.20547117 0.08378355
0.116833344 0.030709833 -0.047044706
-0.22657014 -0.06251344 0.0102200145
-0.036597732 -0.2518803 0.101479314
-0.18661983 0.12726411 0.039621733
0.034276497 0.1479233 0.020417819
0.15494162 0.02446662 0.07712411
0.19266327 0.07241613 -0.0717446
0.1508416 0.06342269 -0.08859821
0.07644006 -0.3962579 0.08805403
0.20289378 -0.0061025247 -0.056462016
0.048471212 -0.019321395 0.11440688
0.06280021 -0.29662 0.06743261
-0.025289813 0.1501723 -0.050403476
0.27269378 0.07477409 -0.12554891
-0.055796675 -0.16957028 0.07268413
-0.06386704 -0.25326067 0.09397111
0.20870301 -0.15558103 -0.073043816
-0.09375549 0.116327144 0.0033687027
-0.15185311 0.1260909 0.0499358
0.29113242 -0.03079162 -0.11531534
-0.19442035 0.16655125 -0.0004988113
-0.011522201 -0.3001665 0.11521867
0.042930905 0.31230068 -0.094069004
-0.26864314 0.034582045 -0.012386388
0.048472423 0.16579111 0.056507803
-0.11886051 -0.21235658 -0.035572205
-0.20760715 -0.13399115 -0.017182369
-0.0909847 -0.026153103 0.051423922
-0.01816529 0.13417622 0.031057684
0.0016268259 0.28928816 -0.048632223
-0.2561829 0.10713349 0.008488676
-0.014779468 0.0995954 0.115177095
0.23795749 0.018426606 -0.06905192
0.021809088 -0.24457984 -0.0021614945
-0.17572834 -0.12312774 0.033463802
-0.095343366 -0.24278939 0.0659098
0.08069575 -0.35490373 0.054323234
-0.00089247373 0.1910528 -0.060283367
-0.025900982 0.07686579 0.1205355
-0.1681758 0.1123283 0.052687258
-0.22680396 0.016105808 0.027712181
0.028743744 -0.2938563 0.10498577
0.07827394 -0.032067426 0.060425896
0.25379562 0.16738097 -0.1337386
0.24517296 0.09493055 -0.08796249
0.056415793 0.28736565 -0.067021914
0.10112154 -6.64702e-05 -0.049565557
-0.21631563 -0.056844395 0.033256657
-0.038370136 0.040154036 0.07019773
0.0045325155 -0.3642243 0.09917432
0.051580906 0.28535393 -0.059507005
0.17606221 -0.09102163 -0.03644781
0.23940799 0.13661197 -0.112738036
0.28145772 -0.07128332 -0.107407704
0.17212872 -0.21250966 -0.054216623
-0.18481457 0.17131028 0.011865072
0.20191325 -0.105119966 -0.07852136
-0.1473735 0.08376093 0.057782937
0.027535394 0.20905411 -0.041144866
0.05900881 0.18331791 -0.079697505
0.16679302 0.056547195 -0.09220193
-0.06085151 0.0076628714 -0.016400969
0.19673155 0.098632514 -0.068987176
-0.11390839 0.04820076 0.043756813
-0.036207642 -0.02475223 -0.01840308
-0.06446215 0.23553094 0.004236651
0.21817239 -0.11291237 -0.08207899
0.0058301906 0.25078994 -0.019899495
-0.059238527 0.032388184 0.00015185513
0.20011164 -0.053197857 -0.046974123
-0.08326823 -0.17755039 0.07549793
-0.16813184 -0.044690795 0.066750914
0.08417309 -0.22872432 -0.02620233
-0.13839634 0.29954013 -0.06148103
-0.011487879 0.2686972 -0.02299744
0.075695075 -0.16277933 -0.011626073
-0.0079775555 -0.4129763 0.08030983
0.15723553 0.18063542 -0.06289693
0.10369211 -0.116134696 -0.017283775
-0.08109653 -0.23073079 0.08490878
-0.16897352 0.07990211 0.060584597
0.17641778 -0.11648477 -0.044189855
-0.03543861 0.20751652 -0.0075881337
0.26001307 -0.017096857 -0.108326204
-0.016786145 -0.026049322 0.008651361
-0.03874733 -0.32360408 0.10606791
-0.10774878 0.11488511 0.02880187
0.2420119 0.05622426 -0.07515336
-0.029180486 0.19583642 -0.019046538
-0.087986834 -0.24378859 0.076309174
0.18674968 -0.090318196 -0.0417628
-0.2562272 0.122922026 -0.009608182
0.2366914 -0.085691884 -0.09145586
-0.040951908 -0.33630952 0.10104787
-0.08468199 -0.018892664 0.037324086
-0.20904121 0.0079643885 0.0431342
0.29319173 0.026601473 -0.12437732
0.102579966 -0.17898808 -0.038867876
-0.13800944 0.13635 0.04535269
-0.14666973 -0.16047183 0.036187872
0.022624917 -0.32002944 0.10756559
0.2979438 0.17800198 -0.14850377
0.03135738 -0.19975364 -0.015185144
-0.24114817 0.13205665 0.013697092
0.22486661 0.036032487 -0.06389381
0.22833347 -0.15884933 -0.099249646
-0.2287149 0.20905034 -0.07395012
0.11131444 0.10443576 -0.026633563
0.18945047 0.25424385 -0.1279236
0.097418025 0.18481593 -0.070967846
-0.0759858 0.18767484 0.012535725
0.19072765 0.23101684 -0.12486729
0.027106656 -0.08476925 -0.030916052
-0.077028856 0.08896542 -0.026395997
0.036975145 -0.08270558 -0.03407744
-0.08909692 0.23164763 0.00917416
-0.05987645 -0.10984466 0.05918567
-0.08635237 -0.043456476 0.05462304
-0.1950402 0.24924669 -0.080678046
-0.11597535 0.22506347 0.010907136
-0.075369895 -0.020285083 -0.010760551
-0.24685326 -0.091106564 0.040915877
-0.051385075 0.3311368 -0.07438452
0.052504487 -0.020273302 0.08722531
0.022884013 0.15934546 -0.06570335
0.07211833 -0.038126696 0.004279318
0.12906718 -0.14990571 -0.030372443
0.039259553 0.29281816 -0.071684085
0.14869308 -0.23558865 -0.044822518
0.07760602 0.16038914 0.07946328
-0.06599756 -0.108771235 0.06320992
-0.15124054 -0.03828589 0.07291842
-0.17062151 -0.07721559 0.05613804
0.11289566 0.28814352 -0.11076104
0.10887723 -0.2031252 -0.037130628
-0.08606929 0.13373797 -0.00021597861
0.2030623 0.0015265751 -0.057916913
0.2587441 0.017854894 -0.113114715
-0.039331205 0.22706154 -0.0020310525
-0.27128682 0.014902214 -0.024122056
0.086090125 0.30648857 -0.10570678
-0.12621836 0.2942748 -0.042440597
0.06231523 -0.10037878 -0.038806766
-0.03299904 -0.09063041 -0.012650291
-0.14613993 -0.041375916 0.07337746
0.021348717 0.28027943 -0.040051434
0.24572848 0.20129114 -0.13640532
0.23855138 -0.13619941 -0.084544174
0.24868959 0.2047575 -0.13777359
0.12304841 0.003515442 -0.07171462
0.073596716 -0.348538 0.06406819
0.08006467 0.328721 -0.11118038
0.27266592 -0.06508696 -0.10491017
0.22123437 -0.12229006 -0.08158255
0.019462703 -0.24666624 -0.017715437
-0.053661067 0.17392112 -0.016076047
-0.117947355 0.008406202 0.059929714
0.008768875 -0.10393128 -0.022780472
0.098907016 -0.013544282 0.0569633
-0.035008896 0.0013198943 0.03223597
-0.06938578 -0.21144329 0.08747424
0.13018724 -0.0847393 -0.04032459
-0.06090826 -0.16051048 0.07288494
-0.036673818 0.25525692 -0.009655084
0.018814938 -0.097515576 -0.026635518
0.13593481 0.010810377 -0.07652156
-0.23095037 0.079362 0.019581772
-0.1960814 0.0495448 0.055598628
0.03562352 0.17450356 -0.0716273
-0.09724355 -0.0010026568 0.044808198
-0.2361185 -0.09853028 0.031802684
-0.04904479 0.3319826 -0.08129252
-0.16877182 -0.12896292 0.032310925
0.109183885 0.27353805 -0.08574411
0.03911408 -0.105191335 -0.031379804
0.08854028 0.15725964 -0.0844033
-0.043338794 -0.19843902 0.08850939
-0.0039436924 -0.03583872 -0.04622449
-0.18781698 -0.12341658 0.035378437
-0.03700924 -0.2208053 0.100405045
-0.15273926 -0.16981696 0.026255716
0.116081975 -0.014156252 0.09407134
-0.17537045 0.26860684 -0.094009966
-0.1382901 0.23595873 -0.014918747
-0.028321367 -0.39461368 0.063098714
0.021936534 -0.3992883 0.09985208
-0.21489294 -0.081248574 0.037880477
-0.16090614 0.21391305 -0.009464129
-0.024706267 0.027338805 0.09884792
-0.16974068 -0.17340116 -0.019242596
0.21832827 0.17919186 -0.1103791
-0.18077877 0.23821665 -0.018375812
-0.052332636 0.20271207 0.0015148198
0.0690622 -0.069169015 -0.04536358
0.1482232 0.039905608 -0.084370896
0.22285096 0.027184341 -0.06237649
-0.130024 -0.18039064 0.050531883
-0.055081606 0.23600207 0.0019041323
0.22328022 -0.0076198727 -0.058966417
-0.10054947 0.043813936 0.009446407
-0.069218524 -0.25449762 0.09047974
0.026276601 -0.2981444 0.10711589
-0.16499954 0.06872964 0.06286284
-0.13816674 -0.19834793 -0.025238395
-0.084331945 -0.29264534 0.031431418
0.08518853 -0.07212629 -0.049596176
-0.031610113 0.32175958 -0.073884316
0.21145678 -0.1094139 -0.08065105
0.1785968 -0.015261107 -0.06371796
0.12425611 -0.06076644 -0.062581606
0.060353026 -0.20768541 -0.022409946
-0.21860091 0.1887718 -0.00031204097
-0.005257057 0.32554284 -0.08207206
0.14933503 -0.23092203 -0.055095393
0.21651615 0.058424328 -0.0652575
-0.033729654 -0.1044299 0.006571515
-0.1764437 0.17689754 0.017753532
-0.21374112 -0.117911376 -0.0008667523
0.16264561 -0.04662532 -0.056155678
-0.027137106 -0.31475392 0.11185671
0.09338203 -0.06962654 -0.052336622
0.049964257 0.14641817 0.00020227738
-0.026919227 0.19379584 -0.02309981
-0.15956365 0.2685652 -0.030003997
-0.09447732 -0.2119805 0.06774949
0.16684824 -0.13350426 -0.055968422
0.07857689 -0.34674227 0.046081096
0.16211627 0.27958503 -0.1237482
0.23436065 0.14264803 -0.0973122
-0.0068819327 -0.15430656 0.01299133
0.15919344 0.16052213 -0.06751168
0.2824189 0.18652278 -0.14484875
0.04684763 -0.01688892 0.11451828
-0.21411663 -0.119420394 -0.0046358076
0.27996832 -0.007134661 -0.115572646
-0.047571745 -0.08655957 -0.009032155
-0.062841676 0.16020742 -0.023429891
-0.22877014 -0.023848623 0.034175117
0.06854318 -0.09804882 -0.040953364
0.19104585 0.25421095 -0.12838058
0.094515204 -0.20439407 -0.03278529
0.14070769 0.048071794 0.0319687
-0.16485469 -0.007423635 0.07105809
0.008248379 0.13575158 0.10317686
-0.064126104 -0.3571968 0.03697667
0.012935693 0.294876 -0.07462773
0.06493599 0.24670242 -0.038665544
0.085363306 -0.3790717 0.06834937
-0.052679732 0.030568063 -0.014114556
-0.061769504 0.11381709 -0.034479547
0.026014188 0.307389 -0.08844744
0.17563078 0.019932006 -0.08935917
0.041160833 -0.052070327 -0.03759963
0.20283231 0.1840238 -0.082092725
-0.023074558 -0.18504573 0.069591396
-0.21573986 0.06268484 0.032433525
-0.0038727727 -0.39043486 0.09166468
0.18525867 -0.053697694 -0.04445874
0.1385947 0.23805071 -0.065252475
-0.050978206 0.09706344 0.0036618558
0.18117504 -0.013963841 -0.061816044
-0.14988737 -0.17949645 0.0062641893
0.0051882295 -0.19255595 -0.0086710965
-0.14420219 0.2266182 -0.0055315555
0.09248112 -0.016559033 0.10125843
-0.05037365 -0.3072859 0.10416093
-0.017077541 0.32583958 -0.0786936
0.25859997 0.19215716 -0.13878427
0.029147148 0.16261716 0.09316386
-0.048451673 0.25355014 -0.0065847416
-0.07546526 -0.108626485 0.068677455
-0.097580805 -0.07990722 0.07158323
-0.04877119 0.062524594 0.04639483
0.00034316556 -0.2619547 0.11013491
-0.1630153 0.21277198 -0.01638535
-0.016973872 -0.0023784197 0.06800791
-0.24877511 -0.062582 0.04516491
0.17803767 0.26431224 -0.12610473
0.24581605 0.17437114 -0.13245948
-0.08414704 0.04130137 -0.017304247
0.04472432 -0.23997657 0.05555113
-0.085929036 0.3261372 -0.061792683
-0.14948852 0.2140871 0.005687366
-0.12995386 0.11737464 0.045979697
0.17840229 0.15016519 -0.06672223
0.07659091 -0.3426573 0.04668121
-0.07636807 -0.02322012 0.018548997
-0.06612744 -0.07077639 0.046671115
0.09585525 -0.06551354 -0.053659234
-0.15107735 0.18972296 0.024590636
0.14407273 0.10077137 0.054510057
-0.25494862 -0.049114436 0.03696415
-0.15249474 0.21970028 -0.0078519
-0.17520551 0.16082665 0.031076588
-0.17201905 0.076887965 0.06047144
-0.075249836 -0.21391258 0.08287497
-0.14268908 0.08223573 0.056684237
0.039535414 -0.03706376 0.041590676
-0.01531739 0.107079245 0.114228725
-0.039842896 0.22503006 -0.0017033358
-0.09022792 0.2161583 0.015720487
-0.07039783 0.15615287 -0.01096964
0.28354385 0.07766431 -0.12911646
-0.03003165 -0.037937 -0.021282202
-0.07399915 -0.271926 0.08055646
0.21036632 0.23985466 -0.13185607
-0.016490871 -0.42967775 0.032287173
0.18934679 0.0044880263 -0.06348915
-0.20537817 0.096165895 0.036472972
-0.26273715 -6.494767e-05 -0.0039754338
-0.10317791 0.14639871 0.027715854
0.13651194 -0.04502058 -0.06845283
-0.2154788 0.21886484 -0.038261384
-0.18009895 -0.01308476 0.06545053
-0.10784544 -0.085886076 0.07412619
0.19308375 -0.17002536 -0.06639133
-0.16167314 0.052553397 0.06544826
0.018447144 0.21749605 -0.030602304
-0.044281326 0.19299896 -0.008061794
0.23058452 0.15256295 -0.12483312
0.1977437 -0.007197059 -0.05748106
0.10680019 -0.13843678 -0.013159199
-0.090993986 -0.11825812 0.074542046
-0.063196845 0.18626434 0.0041676727
-0.1892006 -0.15030262 -0.0065205405
0.15146178 0.29230428 -0.122539885
0.10551003 -0.20548722 -0.03580706
0.23077938 0.13170314 -0.08370086
0.033953786 0.19966972 -0.055913478
0.05150388 -0.14817819 0.0025784082
0.24518241 -0.01231321 -0.08150135
-0.032138564 -0.022356085 -0.013305239
0.21758606 -0.06597117 -0.059900057
-0.20241845 0.045424122 0.051095214
0.20803662 -0.035854507 -0.05137055
0.22747156 -0.08435915 -0.08898339
-0.10900332 0.13957593 0.03206357
-0.023752477 -0.33974767 0.1047294
0.15255749 -0.022572841 -0.07640926
-0.05928378 -0.18531099 0.07550589
-0.08329686 -0.22740468 0.0816198
0.08727152 -0.103443675 -0.036996126
0.061997075 -0.22045323 -0.021002173
-0.0999074 0.17502774 0.025560426
0.073710345 -0.19913858 -0.02753755
-0.13959873 -0.07339801 0.07257625
0.088291824 0.13439816 -0.006104144
0.27707615 0.0779437 -0.12728548
-0.022457022 -0.17426051 0.053066004
-0.0813025 -0.22828345 0.083845936
0.20961756 0.08673326 -0.067388244
-0.07121124 0.1785807 0.0077386256
-0.014775334 -0.40795925 0.074650116
-0.13309905 -0.15632966 0.057892717
0.0068969307 0.1503124 0.06869363
0.03165063 -0.24159531 0.08220485
0.061060864 -0.40239742 0.09708269
-0.053615596 0.084873766 0.010727375
-0.18340407 -0.123367 0.035721593
-0.14699313 0.18392351 0.030051371
-0.04823713 -0.2140832 0.10081246
0.013216605 0.26087373 -0.025153665
0.0066671623 -0.29268306 0.11255599
0.06127988 0.16534324 0.052192964
-0.030148726 -0.29260778 0.11343627
-0.035630703 0.26438865 -0.015406462
-0.016651433 0.20322768 -0.023316253
-0.023983097 0.16595909 -0.0531104
-0.029697552 -0.25242627 0.101265065
-0.061249375 -0.16620874 0.07382795
-0.12543969 0.29922238 -0.043933213
0.21624574 -0.045867804 -0.054329135
0.16799414 0.23801708 -0.11931827
0.056765914 -0.04302655 -0.015712766
-0.007638216 -0.10155119 -0.018381951
-0.23137002 0.085025795 0.018867923
0.10555752 -0.036230057 -0.06078822
-0.1430747 0.09714285 0.053982425
0.21729137 0.07721743 -0.067462824
-0.014187168 0.13703047 0.036388386
0.053699065 0.18017684 -0.077696815
-0.22147232 0.19749705 -0.0062915217
-0.21997038 0.13925555 0.0075679803
-0.13208961 -0.03626015 0.0736946
0.07976773 -0.19657727 -0.029668897
0.22261313 -0.07913895 -0.08834677
-0.022869913 -0.14177902 0.026900705
0.03842667 -0.023314042 0.058589898
0.15814707 0.2471887 -0.11782016
-0.18342252 -0.008736893 0.063972786
-0.1713136 0.18293743 0.018275432
0.07324804 -0.024837147 -0.08996628
-0.035519432 -0.38337404 0.058779027
-0.021799158 -0.39782423 0.07138537
0.13009983 -0.20136258 -0.04353436
0.21818542 0.085251 -0.06807071
0.0425763 -0.23442823 0.044118308
0.12435033 -0.099076204 -0.027608814
-0.106883615 -0.1853528 0.06726651
0.015389744 0.13860211 -0.04186971
-0.10332665 0.25670984 -0.016711555
-0.1224573 0.13683516 0.03981966
0.096010365 0.14010261 -0.014129249
-0.014348291 0.19492812 -0.034345582
0.06422072 0.2895742 -0.09688029
0.1937644 0.040372334 -0.07007603
0.29331356 -0.022350669 -0.11719182
0.07589263 -0.0727296 -0.046816263
-0.13617975 -0.10140613 0.069963485
-0.16508426 -0.03354494 0.0697787
0.0066683115 -0.24485219 0.089004956
-0.19537008 0.060876306 0.05445639
0.24652638 0.011425724 -0.077765405
-0.036236603 0.33167365 -0.07723035
-0.04076241 0.286364 -0.045804907
-0.17261472 -0.07060831 0.057029247
-0.032817546 -0.24035 0.10089478
-0.25147334 0.0016021752 0.028752103
-0.12082384 0.059506632 0.047796275
0.13553356 -0.05117592 -0.06726135
0.09443904 -0.22925249 -0.029892826
-0.19963272 0.14018689 0.020669349
-0.15440314 -0.1722999 0.016117753
-0.123340584 -0.118490726 0.07193198
-0.21611221 -0.08718882 0.03985383
0.006677845 -0.362532 0.099487536
0.1493557 0.09040253 0.060530987
0.078452855 0.25221542 -0.044096705
-0.14627403 -0.09404612 0.06710624
-0.039636105 0.17535512 -0.046594538
0.015088079 -0.13184358 0.00953502
0.06502085 -0.34291998 0.07341293
-0.038966533 0.25645867 -0.009907788
0.12380956 -0.24540333 -0.06717013
-0.04704244 0.0323357 0.038475104
0.15886368 -0.089685105 -0.032102298
-0.11751547 0.15725577 0.035011668
-0.11364593 -0.041982774 0.070516944
-0.22707598 0.09290792 0.016461927
-0.03582065 -0.007849386 0.011695295
0.027304107 -0.048521534 -0.029627278
0.014771215 0.2715907 -0.03100984
0.25022268 -0.12360924 -0.08994955
0.20514682 0.23760512 -0.1300135
-0.029555215 0.27597272 -0.02545793
0.008536633 0.14314792 0.10200241
-0.16609575 0.15221874 0.039649602
0.026471328 0.24641296 -0.025871282
0.17386776 -0.1922654 -0.057547543
0.009649545 -0.3906154 0.09715458
-0.17773615 0.07593513 0.058772657
-0.26719275 0.07632587 -0.015198355
-0.034533575 0.33264047 -0.07821744
-0.07223161 -0.23898646 0.092582844
-0.18195678 0.07941233 0.05694575
0.27003202 0.1961001 -0.14649326
-0.2013827 0.22125867 -0.01097106
0.118411325 0.22178668 -0.053198002
0.07480077 -0.20202036 -0.027427802
-0.07956607 -0.072425015 0.060881738
0.10422566 -0.017640783 -0.028129108
0.2941203 0.14599709 -0.14225858
-0.037018795 -0.34710866 0.095566526
-0.19864184 0.14225574 0.020928858
0.0065230536 -0.4089747 0.092702225
0.029388433 -0.31278682 0.10501764
0.14837559 0.08587896 0.054706406
0.12290784 0.29457265 -0.11460809
-0.16408227 0.09422087 0.05727864
0.113611005 -0.18270974 -0.041512392
0.15431263 0.051829465 -0.087892756
-0.043203536 0.09982939 0.033590175
0.1733846 0.08160068 -0.09095842
-0.15380849 -0.06646474 0.068762735
0.090314716 -0.09043881 -0.048378944
0.1284526 -0.01175692 -0.0710262
-0.009667016 -0.25059104 0.09791757
0.11491562 -0.2405514 -0.062050477
-0.0529477 0.06796481 0.026688837
0.23981115 0.16068634 -0.12870218
-0.118269674 0.06394025 0.04416431
-0.14036311 0.1350551 0.046128977
-0.009295754 0.025871946 0.12446428
-0.0062452145 -0.41523123 0.08106244
0.0022855443 -0.37785527 0.09649031
-0.26463994 0.05472527 0.0002976858
-0.17176774 -0.048749406 0.06395453
0.21027917 0.24067701 -0.13195255
0.06949593 -0.14374931 -0.0022552577
-0.15873483 0.060670096 0.0639925
-0.044688977 -0.05570114 -0.0144187035
0.06530064 -0.031656932 0.078657456
0.25142014 0.14947519 -0.1304096
0.061738722 0.25764963 -0.039724007
0.01618244 0.1378855 -0.05007557
-0.15442705 0.17727275 0.030601157
-0.09834827 0.2721446 -0.04724475
-0.20798191 -0.114621066 0.019694526
0.101525724 -0.20111209 -0.03529925
-0.20908643 0.013996739 0.044502303
-0.03788907 -0.38561323 0.04092659
-0.017292943 -0.042551447 -0.023344088
0.13440278 0.043736067 0.01093706
-0.21599296 -0.0033965674 0.027459381
-0.031873014 -0.18537349 0.0729556
0.11069583 -0.21929647 -0.03527129
-0.112116165 0.15618047 0.033046376
-0.2339471 0.062826365 0.022888659
-0.06273692 0.19675252 0.0059779594
-0.022823509 -0.36017495 0.09389287
0.034112744 -0.39145428 0.10055501
-0.17595981 -0.089325614 0.04316744
0.15771365 -0.13559145 -0.042589422
0.1585296 0.037509028 -0.08700104
0.21850948 -0.15933608 -0.07532886
-0.057454795 -0.15761103 0.07128127
-0.18477331 -0.04657223 0.056080986
0.07648102 -0.02893669 0.09208404
0.040726945 -0.14482558 0.005560735
0.026759267 0.25399783 -0.027111452
-0.26858822 0.09344228 -0.030031621
-0.14614585 0.2950314 -0.0868077
0.08409977 -0.3908721 0.07821687
0.088621475 -0.18454748 -0.03400665
0.15353471 0.30025175 -0.12825555
-0.17623356 -0.16484702 -0.0122846905
-0.16052482 0.10177083 0.05593553
0.0471123 0.31962556 -0.09636026
0.08625685 0.28064135 -0.07595453
0.017992696 0.14307292 0.0015773252
0.103245854 -0.13949554 -0.012088064
-0.12092585 0.016136868 0.060237877
-0.07056433 -0.10176373 0.06384451
0.15753919 0.06709834 0.07008345
-0.20918517 -0.01081868 0.037027143
-0.019730696 0.07664757 0.11999566
0.15826416 -0.09258001 -0.03125852
0.21585114 -0.029510375 -0.05442092
-0.035142515 0.19748472 -0.013031133
-0.12900451 -0.013302374 0.07057482
0.21724325 -0.14457847 -0.07713924
-0.08777181 0.057576027 -0.018655598
-0.013276349 -0.31232178 0.11477109
-0.11528209 -0.09218344 0.074851826
-0.03382056 0.10698309 0.05990117
0.10078195 -0.21876256 -0.032480013
0.018321276 0.14614955 0.063912764
0.24023828 -0.11094734 -0.08875737
0.04896052 -0.08972451 -0.036511958
0.050647106 -0.38137785 0.09709801
0.009530772 -0.42794555 0.089627355
-0.15349612 0.012565736 0.07088497
-0.09035479 -0.071282014 0.06693309
-0.018160105 -0.37818217 0.0856061
-0.088900805 -0.0059461845 0.034673434
-0.1695072 0.17274942 0.026406968
-0.1421014 0.006823861 0.07001368
0.19377671 0.24955058 -0.1284835
-0.13153997 0.3149513 -0.061885513
0.22458416 -0.07015268 -0.09024284
-0.24891931 -0.075014636 0.046597566
0.052236732 0.27090263 -0.04324592
-0.1834633 0.19769691 -0.011621563
0.14966024 0.28039414 -0.12026146
0.0006986607 -0.08000151 -0.023974253
-0.08558911 0.24556585 0.00079955824
-0.0516509 0.0023582077 -0.0109067615
0.13339442 0.077849165 0.0027175304
0.29184908 -0.040726416 -0.11482303
0.04578652 0.30368254 -0.093624674
-0.06515366 0.25243554 -0.0043775807
0.22685657 -0.12811144 -0.0823515
0.17493461 0.2820548 -0.12856482
0.13566074 -0.063978076 -0.06540981
0.2530624 0.15361919 -0.13149656
0.27932054 0.030649882 -0.12095889
-0.21697207 -0.08595807 0.039921388
-0.05941861 -0.33881402 0.08510716
0.16243531 -0.14044353 -0.061881926
-0.06254688 -0.27680072 0.08839901
0.0085373735 -0.31382298 0.11324502
-0.26091817 -0.04963801 0.013553143
0.13638444 0.0057251165 0.08526076
0.01917924 -0.0405291 0.00933397
-0.025864907 0.09009817 0.114120305
-0.22452198 0.091438614 0.01593949
-0.048183378 0.00034528185 -0.0040445914
0.057515573 -0.31909272 0.07914124
0.07345861 0.1337832 -0.03309446
0.20772037 0.115839966 -0.06863708
-0.14368565 -0.048203006 0.073406115
-0.096894234 0.09075692 -0.020909198
0.042352833 -0.11527583 -0.019980941
0.08694444 0.1065263 -0.08407826
0.19868156 -0.14433256 -0.071801394
0.24839173 0.2060199 -0.13787396
-0.16242996 -0.026563521 0.07119203
0.21554399 -0.08601097 -0.085286446
-0.06789942 -0.07647866 0.052294515
0.15611596 0.033468608 -0.085706286
-0.0293762 -0.32688653 0.10929253
0.0023985843 -0.18996766 0.04624985
0.23331833 -0.031173855 -0.06775075
0.059213102 -0.13523106 -0.0005602029
-0.21317579 0.2139889 -0.013571763
0.23237549 0.017851608 -0.06476211
-0.15424025 -0.18062916 -0.0062770937
-0.25695503 -0.03371372 0.003363522
0.08512924 -0.37216353 0.063396886
0.20966995 -0.089131385 -0.06520484
0.111321576 -0.009783207 0.09480456
0.116714776 -0.13194351 -0.016110962
-0.1580387 0.18203354 0.026501909
0.011628198 0.21957064 -0.026261227
0.22710074 0.15139732 -0.08997935
0.12654509 0.06645301 -0.02573461
-0.102508366 0.23079038 0.009452339
-0.036417473 -0.14189851 0.051436536
0.095453724 0.23251504 -0.046979707
-0.14020306 0.030333875 0.06567569
-0.24046582 0.17196278 -0.02282701
0.051896676 0.25478223 -0.03549173
0.052910697 0.15222722 -0.028924325
-0.065057345 -0.23084095 0.09727649
0.05646086 0.16442193 0.04659238
-0.171878 -0.03554267 0.066571444
-0.2516648 0.11500038 0.013001884
0.015905509 -0.29184017 0.10993406
0.20731857 -0.08429882 -0.05859336
-0.0056561134 -0.43583333 0.06383292
-0.17388843 0.2081732 -0.015938994
-0.21969984 0.019804562 0.025109984
0.07601358 0.31392115 -0.103885904
0.16474946 0.27608964 -0.123995006
0.17346515 0.218092 -0.07764609
0.024133474 -0.038372815 0.02466578
-0.01207515 0.00090102013 0.08643372
-0.23867834 0.18467644 -0.047000863
0.13722877 0.054701395 0.01459121
0.043237597 -0.17325436 -0.014054391
0.15089111 -0.15815994 -0.05592613
0.094375506 -0.013976154 -0.01781895
0.22763997 -0.11776494 -0.08410451
0.22241177 0.023686381 -0.061879236
-0.022419909 0.18049172 -0.055706486
0.1908822 0.08920045 -0.0714886
-0.116163984 -0.033356722 0.0698409
-0.03036167 0.10153153 0.0840819
-0.031574253 -0.24392217 0.100976445
-0.07972542 -0.13629468 0.07430253
0.029138966 0.314223 -0.090360135
-0.1305315 0.31337622 -0.056605235
-0.03706411 -0.0618974 -0.015712144
-0.16457184 0.062096838 0.06411159
-0.14872871 0.076147504 0.059588477
-0.13807625 -0.024321523 0.07357307
0.041319754 -0.10981342 -0.03133652
-0.13584033 -0.079839595 0.0729549
0.07897405 -0.030733073 0.07209183
-0.09610304 0.27208787 -0.04788628
0.069228135 -0.18896148 -0.027741065
0.028562412 -0.1711301 -0.0060818936
0.08895003 0.14922121 0.049661785
-0.17728382 0.0051780636 0.06755472
-0.16631117 0.0045289914 0.07051775
-0.07685871 0.23042347 0.008571959
0.23052616 -0.13870698 -0.08185084
-0.08961342 -0.18362255 0.07412011
-0.10375276 0.18280011 0.026786556
0.13418399 0.1393113 0.06600245
0.051268753 -0.15252392 0.0019917442
0.04463502 -0.15323478 0.003672437
-0.17244332 -0.056237027 0.061366234
-0.024978481 0.0057719625 0.06553091
0.09806608 -0.10396053 -0.029333767
0.119796835 0.12673177 0.03590339
0.10261284 -0.011957434 0.050633132
0.21030875 0.25789413 -0.13925673
0.059421055 -0.10490462 -0.03730101
0.1249912 0.13768746 0.06909364
-0.23989905 0.17432979 -0.026213288
0.04763888 0.18668339 -0.07690239
-0.051299427 -0.0777286 0.017353205
-0.053513143 0.08756825 0.00838846
-0.00059215754 -0.34788674 0.10445093
-0.090848796 -0.07596672 0.06823568
0.011638606 -0.4191615 0.093015224
-0.11253988 -0.02359503 0.06639957
0.015118954 -0.030953309 -0.0014232569
0.049248356 -0.13202135 0.0001703554
-0.019671913 -0.32394993 0.11254207
-0.23625644 -0.086185075 0.045379438
-0.20245883 0.16480488 -0.0012703042
0.1355564 0.052360732 0.009631415
0.016039303 -0.2731983 0.106319234
-0.046598807 -0.371544 0.059073523
0.1307022 0.202132 -0.05725267
-0.09999948 0.16814649 0.025891505
0.10985363 -0.15765554 -0.023768822
-0.04987808 0.30141783 -0.065595016
0.03509511 0.1494352 -0.057891127
0.021955362 0.14957537 -0.05636195
-0.1237544 -0.06282781 0.07414709
-0.11799897 -0.18728468 0.059261497
0.036299467 0.1635261 0.09095893
0.06030017 -0.14926833 -0.00017800734
-0.25342238 0.010430297 0.028007634
-0.22315457 0.1703529 0.0039026504
-0.0012712615 0.13216051 0.052738532
-0.041712422 -0.24117203 0.101301804
0.07652901 0.16082588 -0.08145186
0.047714736 -0.18614627 -0.021928295
-0.008663153 0.28589955 -0.041563593
0.06425081 -0.04310991 -0.0411404
-0.17538531 0.12339287 0.046685982
-0.017794942 -0.4264033 0.027946897
0.14119922 0.23711164 -0.06637591
-0.0741992 -0.32319546 0.07442014
0.10990068 -0.24576472 -0.09026501
-0.2190893 0.09851607 0.013322529
-0.23244224 0.014180198 0.029628837
0.24413517 0.113691956 -0.0953879
-0.010190163 0.1403344 0.033715706
-0.14946608 -0.0027888843 0.07230604
0.057095997 -0.30327928 0.07947498
-0.24509291 0.05826193 0.026788414
0.030019887 -0.1064299 -0.028564425
0.026067356 0.31830612 -0.09007276
-0.07092039 0.036736917 -0.018158397
-0.09032927 0.2894843 -0.052124314
0.019863786 0.30250552 -0.08594638
-0.042544834 -0.2510856 0.10049401
-0.016527535 0.08711008 0.1175246
-0.10353059 0.1503028 0.028173152
0.123995416 -0.15898782 -0.048017688
-0.09686881 -0.06693822 0.06891246
-0.1827742 0.23137124 -0.016788403
-0.040487252 0.23473679 -0.0021089825
0.15747097 -0.16963306 -0.05613888
-0.08253848 -0.23824441 0.083629094
-0.07842072 -0.22594851 0.08578834
-0.049875233 -0.17334683 0.071420565
-0.052078195 -0.19706857 0.084686436
-0.2270982 0.1559547 0.007168408
0.14358754 0.1761114 -0.06475608
-0.18005146 -0.14557216 0.023197943
0.12554 0.3067804 -0.1592042
0.024591055 0.149228 0.08920957
-0.07679739 -0.018891418 0.012495847
0.008324174 -0.23427394 0.08331632
0.0494277 -0.40722996 -0.013517023
0.24455945 0.1886622 -0.13420367
-0.04915727 -0.24691372 0.099624634
0.09419328 -0.015524688 0.10060989
-0.20768942 -0.0978776 0.03879899
-0.1410277 0.16945136 0.03696763
0.22465676 -0.009763348 -0.059346035
0.18771058 0.02297953 -0.07066024
-0.1783907 0.060695242 0.061812554
0.14239378 0.050500818 0.03674931
-0.04397167 0.12984289 -0.04178812
-0.1918702 -0.07252822 0.030673124
-0.16942875 -0.039143153 0.067125514
0.08630568 -0.0166975 0.09450029
-0.102426596 0.2633531 -0.032573335
0.013264334 0.3138955 -0.085715786
0.027434142 -0.41825762 0.09920848
-0.098306224 -0.23563726 0.062369935
-0.1566576 -0.10574856 0.05747351
-0.2268446 0.15579318 0.0071186395
0.23517644 0.11953874 -0.0844331
0.15312906 -0.19588491 -0.051009554
-0.101026535 0.0039486014 0.04611905
0.14715946 -0.25151715 -0.111464
0.16472907 0.1168966 -0.08288136
-0.19087456 0.101038694 0.046964657
-0.033877004 0.2160046 -0.005495965
0.097020485 -0.10619887 -0.025539596
-0.069517106 -0.1886199 0.07621612
0.13677196 0.110793106 0.0501422
0.23048933 0.20524956 -0.13257743
-0.15631019 0.25519353 -0.027964115
-0.0333964 -0.39157915 0.052692235
-0.11067776 0.18774806 0.02794585
-0.21622272 -0.11701704 -0.0047993725
0.062029745 -0.12546802 -0.0061928895
0.10682131 -0.21230228 -0.03518132
-0.020814706 0.024346603 0.10522788
-0.13736014 -0.046522044 0.07421913
0.26134264 0.19112791 -0.13942617
0.22864856 -0.11463083 -0.08485883
0.22021972 0.245814 -0.13795902
-0.1470007 -0.048922807 0.072986074
0.26196462 0.01219757 -0.11321257
-0.0122881355 0.13893859 0.031274147
0.06917801 -0.040543344 -0.026013158
0.27077833 0.109559126 -0.13012594
-0.26684368 0.045739233 -0.006531259
-0.1567142 0.11452263 0.052437846
-0.09799623 -0.21326451 0.06535931
-0.12688896 0.1241889 0.04362647
-0.0043756105 -0.26852295 0.11225299
0.15403369 -0.13044664 -0.034604292
0.13174202 -0.027746016 -0.06961999
0.21288742 0.09390885 -0.06804867
-0.055470254 -0.23806632 0.09907341
-0.08719476 0.11511469 -0.027310086
0.104135685 0.27379358 -0.0797242
0.08658552 -0.030889772 0.014250451
-0.10987615 0.017790789 0.049434874
-0.24057929 0.064423084 0.024572887
-0.24956617 0.0417339 0.02966457
-0.04671764 -0.20703335 0.0960467
-0.023769861 0.19902267 -0.020841924
-0.10740975 -0.040808856 0.06787425
-0.04532708 0.049025 0.053500235
-0.105041124 -0.06987897 0.07217706
-0.007865195 0.14440364 -0.016979238
-0.0059390324 -0.1761115 0.022152834
0.10881423 -0.04196256 -0.06088541
-0.15055242 0.0038326082 0.0717533
0.2436265 -0.058149632 -0.09752641
-0.11851025 0.25664487 -0.039121266
-0.011342716 -0.3979875 0.08388132
0.014616034 -0.27744508 0.10764165
-0.24001065 -0.00989778 0.035071626
0.018118545 -0.22330561 0.0636552
0.061809976 -0.06584749 -0.04375406
0.003729903 -0.1414652 0.014560571
-0.08354086 -0.28812274 0.053371802
-0.2091728 0.21696192 -0.012435911
0.21818134 -0.1189961 -0.081184484
-0.16142228 0.23398791 -0.023355782
0.08951247 0.17112324 -0.0867295
0.017115729 -0.1638449 0.003929218
-0.06510553 -0.26366085 0.09058279
-0.14961962 -0.009992064 0.072506316
0.19046848 0.04926138 -0.07269856
-0.00037211637 -0.36839753 0.09693777
0.022185618 -0.13502337 0.008837253
-0.16213588 -0.05884885 0.06672256
0.028723652 0.2771894 -0.039424658
0.09088034 0.17698187 -0.0879898
-0.00088479463 0.14327589 0.08146519
0.15025721 0.24883454 -0.09035791
-0.10602445 -0.25465813 0.031879157
-0.14721203 -0.06224422 0.07169312
-0.1764022 -0.15745302 0.00542593
-0.0040484155 -0.3959709 0.09005819
0.15282914 0.10532835 -0.09535442
0.12257799 0.002780643 0.059935167
0.04572852 0.14784771 -0.06580651
