# .PCD v0.7 - Point Cloud Data file format
VERSION 0.7
FIELDS x y z
SIZE 4 4 4
TYPE F F F
COUNT 1 1 1
WIDTH 1000
HEIGHT 1
VIEWPOINT 0 0 0 1 0 0 0
POINTS 1000
DATA ascii
0.25612715 0.12526393 0.008695718
0.15456173 -0.15835331 -0.15489523
0.19236395 0.13268228 0.084484085
0.20943816 0.040956106 -0.022171346
-0.029901769 0.04481031 0.102738775
0.08868369 0.07631855 0.14186704
0.16810822 -0.14327422 -0.15496878
0.09681663 0.16397238 0.172147
0.0076171537 0.1862101 -0.11646902
-0.11086216 -0.053917047 0.23137054
0.21338205 -0.11794432 -0.17933533
-0.030872166 -0.116161436 0.06397827
-0.019197203 -0.18206614 -0.012014511
0.1147129 -0.113852665 -0.0905402
-0.033212516 0.0022907786 0.20186271
-0.09028077 -0.10467999 0.16036052
0.14586172 0.01378307 -0.0012456126
-0.09384353 0.26034972 -0.07224827
-0.032490768 -0.28156585 -0.07208358
0.11253258 -0.11829399 -0.09246688
-0.07265944 0.014919909 0.011293139
-0.26118112 0.120362215 -0.026805008
0.09199828 0.113739215 0.08666386
0.03157223 -0.0025989607 0.1060361
0.13201454 -0.10822937 -0.10375543
0.14760825 0.08042934 0.082383
0.25182265 0.031880595 -0.076537445
0.12597007 0.1234691 0.14709894
-0.18572614 0.114882216 -0.01794195
0.22477405 -0.10531057 -0.17944205
0.008915218 0.13636243 -0.03875677
0.19685885 0.019218339 -0.044769827
-0.22203411 0.048143804 -0.05467303
0.05842396 0.13062084 -0.043175332
0.16866532 -0.005739312 -0.044583734
-0.018780418 -0.02170359 0.16323389
0.1703918 -0.007509348 -0.04814588
0.0026221345 0.2202026 -0.17572093
0.27402994 0.051510528 -0.08155541
-0.2404728 0.16696152 -0.0042553153
0.08834947 -0.21792774 -0.1409413
0.032373566 -0.23818795 -0.100173794
0.14132446 -0.027446926 -0.036038365
-0.28016543 0.15011726 -0.01898185
0.052497063 0.03929026 0.14519249
-0.06335554 -0.010988407 0.09936103
0.14244284 0.06699818 0.053646993
0.1943736 0.13381797 0.08341305
-0.13914524 0.1355638 -0.036702666
0.283366 0.06544467 -0.07819765
-0.040635344 -0.09910629 0.09090262
0.0060208747 -0.17987873 -0.037059434
0.16479655 -0.0037092145 -0.038464725
0.02328138 -0.034048207 0.08469754
0.032696255 -0.14235133 -0.029664345
-0.0068756905 -0.27242184 -0.0908618
-0.058482528 0.04463881 0.045416363
-0.08449812 -0.15161659 0.10896568
0.041025527 -0.15643802 -0.052188292
-0.2529991 -0.009963082 -0.12632191
-0.20911129 0.137185 -0.040094603
0.09209877 -0.0431717 0.0018269995
0.2563345 0.008194332 -0.10418945
-0.039748266 0.08364963 0.04064326
0.038786285 -0.010380257 -0.054049294
-0.108579524 -0.03215306 0.020985294
-0.019967863 -0.22743143 -0.033470057
-0.0452283 0.13328092 -0.0010951342
-0.12653592 -0.078788064 -0.0067378636
-0.12624416 0.18973559 -0.0334402
0.08867831 -0.00895405 0.03843872
0.02399759 0.03125704 0.16814442
0.058605332 -0.19560559 -0.08970379
0.015464835 -0.04892233 0.07879843
0.04849814 -0.1302873 -0.03506775
-0.028470866 -0.008837259 0.18604866
0.07776283 -0.14160174 -0.07746277
-0.06967227 0.1512527 -0.07286015
-0.14781114 -0.22418034 0.07778125
-0.009234646 -0.20008078 -0.040076636
-0.16973104 0.14639738 -0.019950133
0.048140965 0.09518416 0.0030468232
0.17343944 -0.09996563 -0.11903056
-0.09888518 -0.020621663 0.22879034
0.13236588 -0.07544822 -0.07258714
-0.099769354 0.101229385 0.007451039
0.29241338 0.06184941 -0.09390347
0.18246572 -0.17546524 -0.20140505
0.13481393 0.13540708 0.14906585
-0.025122616 0.14848904 -0.055365615
0.048081864 -0.13973248 -0.043709073
0.19435842 0.080671966 0.032284394
0.05608632 -0.24384908 -0.13115102
0.061154984 0.1064049 -0.0080137225
-0.10941015 -0.042279232 0.22392976
0.115469895 0.006102301 0.024083488
-0.0065403976 0.20288226 -0.1417868
0.2287366 0.14932548 0.03427407
0.09243262 0.07028291 0.13202222
0.05260725 0.09872644 0.20227222
-0.023382224 0.0027732865 0.19174369
-0.26599395 0.09720733 -0.036046676
0.043627884 -0.0013903755 0.09421955
-0.15007462 -0.21094488 0.12247279
0.22385482 -0.07920815 -0.15333304
0.20213594 -0.06641945 -0.1176425
0.025619414 0.1659267 -0.165598
-0.10455365 0.21461485 -0.058334757
0.101897076 -0.24398038 -0.18059887
0.07215892 -0.23197225 -0.13702582
-0.120577514 -0.073431335 0.22305082
0.13820186 0.07430777 0.08661954
-0.042719807 -0.048517205 0.16320355
-0.063113146 0.003309107 0.09644343
0.03107716 -0.14326097 -0.02879662
0.12391205 0.055855777 0.06287528
-0.0972483 -0.071692966 0.1996074
-0.13261773 0.17500627 -0.023285482
-0.2118843 -0.015865041 -0.11136412
-0.13386035 0.09392301 -0.00058796623
-0.10265931 -0.19557793 0.08621168
-0.13953385 -0.1360452 0.18101816
0.021802153 -0.19648163 -0.07002773
0.07850396 0.065961555 0.1428593
0.09914777 -0.14200214 -0.10087179
0.2590484 -0.056607492 -0.16947325
0.21287374 -0.072365545 -0.13492557
-0.11342027 -0.15696318 0.13495843
0.08740759 0.0006183442 0.049018595
0.055605557 -0.018869294 -0.03419857
0.11821273 -0.03667559 -0.020036522
-0.24762762 -0.010078649 -0.124263205
-0.106326714 -0.23517825 0.0520508
-0.054488685 0.19561037 -0.0700604
0.019787392 0.026105873 0.16772038
-0.098680906 -0.24676427 0.032669663
0.065211765 0.03637794 0.10732857
-0.04857952 -0.2729563 -0.046476603
0.08547006 0.04515321 0.09396271
-0.24456707 0.012414226 -0.1371976
-0.078795314 -0.09629633 0.15606314
-0.21786377 -0.009259771 -0.11120097
0.14550385 -0.028062768 -0.041130543
0.24221651 -0.024495164 -0.12044877
0.18041351 0.14743517 0.11154767
-0.27574354 0.020777797 -0.10696172
0.0894185 -0.17024478 -0.11292465
-0.14229986 -0.021689396 -0.007346889
-0.047782104 -0.16999094 0.030381342
-0.31252283 0.07777186 -0.05811235
-0.08833205 -0.12699004 0.13679242
0.003866285 -0.17726727 -0.03222728
0.11002941 -0.21082681 -0.15744856
-0.16481562 -0.19039114 0.12842129
0.03500542 0.09045998 0.21326718
0.012785681 0.23521625 -0.21123451
0.21080728 0.11369119 0.046350997
0.034907762 -0.24940677 -0.11369858
0.1459455 -0.18668212 -0.17288147
-0.020030763 0.023112673 0.025633719
-0.24636094 0.0100441445 -0.13637885
0.15713865 -0.18885638 -0.18702453
-0.097413376 -0.11055957 0.014445283
0.05110648 0.12491449 -0.030357704
-0.12633447 0.1819208 -0.026966423
-0.11875114 0.24175677 -0.06332479
0.08329913 -0.03491347 0.019248126
-0.12758775 -0.16139817 0.14594384
-0.13033348 0.14175938 -0.04022698
0.24937789 0.0020540964 -0.102609426
-0.26681957 0.059521515 -0.07928408
-0.06477535 -0.00023100177 0.23341787
-0.121291704 -0.27834058 -0.01765684
0.21796012 -0.016746175 -0.08687632
-0.008881436 -0.22721107 -0.04519426
0.0063939244 0.21734543 -0.22155124
-0.09733389 -0.18475065 0.09089855
0.13076872 -0.14925568 -0.12052448
0.16832969 -0.17852132 -0.18912725
0.16087927 0.14096732 0.12635422
-0.102974735 0.05304534 -0.0063074175
-0.098295726 0.14867257 -0.06806719
0.104697265 -0.03414214 -0.003047676
-0.030337397 0.030256808 0.22568044
0.14638335 -0.21364364 -0.20816697
0.0942143 0.06894069 0.12881264
0.10068102 0.08317417 0.13554803
-0.13270617 0.16045497 -0.01968106
-0.17311956 0.16898063 -0.032601215
-0.11788703 -0.14556068 0.15074103
0.16536166 -0.18534236 -0.19249576
0.16866818 -0.06697448 -0.10351638
0.1963647 0.13223732 0.07974844
0.088836156 -0.17271468 -0.11091503
-0.08781662 -0.035222698 0.22455004
0.12661387 -0.03592756 -0.028361743
-0.23729901 0.056863114 -0.071679674
0.13941304 -0.14748788 -0.12812991
0.0776085 -0.20751448 -0.119356014
0.051148575 -0.12726817 -0.035015415
-0.26348364 0.15900199 -0.015524213
-0.21452668 0.025839018 -0.0636638
0.18541566 0.1518956 0.11045449
0.1582776 0.0746016 0.06528789
-0.24560036 0.0036436582 -0.13209489
0.11278531 -0.018912014 0.0029014968
-0.07442176 -0.25331473 0.00024786952
-0.16266084 -0.15307367 0.13933611
-0.007659217 0.17102474 -0.075130604
-0.10550208 -0.0989461 0.18226616
-0.09023405 0.042318147 0.04768853
0.13202448 -0.11231392 -0.107697204
-0.06254036 -0.042340063 0.19048734
0.045848258 -0.08193979 -0.01348603
-0.010329338 0.100644015 0.21907529
-0.10691584 -0.21977825 0.06750563
0.14382166 -0.14169599 -0.1273028
0.029354477 -0.26789826 -0.12551485
0.14221452 0.063477136 0.050504543
-0.091822505 -0.010824067 0.2316456
-0.25703716 0.15652281 -0.0030079903
0.1378007 0.032412272 0.025361132
0.18300398 -0.14509603 -0.1727586
-0.14201267 -0.18466885 0.13907881
-0.015905362 0.007864331 0.1885929
-0.004877198 -0.051471245 0.09824628
-0.09061379 -0.20899296 0.06033375
-0.24961689 -0.033741355 -0.18755727
-0.07857876 0.12491723 0.00047449218
0.24183975 0.11856564 0.017631948
-0.0563004 0.22209427 -0.07119896
0.08307128 -0.11895333 -0.061382644
0.07568622 -0.1396059 -0.07330654
-0.052620854 -0.04543836 0.176826
0.0066420254 0.019486735 0.17550282
0.18238594 -0.16501749 -0.19126517
0.023013294 -0.1796407 -0.055124816
-0.0056139706 -0.28366306 -0.14139052
0.13628179 -0.22262852 -0.19706987
0.10916446 0.106915906 0.14926225
0.18454643 0.081198774 0.043355178
-0.24331293 0.074641034 -0.038468253
0.046403363 -0.049919073 0.04453024
-0.10073432 -0.12171472 0.15522166
0.03203898 -0.16802156 -0.053660702
0.032229364 -0.25271165 -0.1139955
0.11804346 0.07541116 0.10938436
0.061329294 -0.26040077 -0.15272434
-0.022940472 0.04836176 0.1537504
0.24698287 -0.032082587 -0.13288173
-0.056030136 0.06948148 0.043481834
-0.03660797 0.0877622 0.03923257
0.06553032 0.066021815 0.15688558
0.07990074 0.10660047 0.072543696
0.081445724 -0.08933926 -0.03113362
0.107423075 0.13245596 0.17571543
0.0648465 -0.024693908 0.048948977
0.14626485 0.062962666 0.04564854
-0.0590875 -0.22419582 0.011760784
0.03350296 -0.041503385 0.066518456
0.074104175 -0.24183369 -0.14860988
-0.014271089 0.16848178 -0.07168777
-0.049553137 0.17487152 -0.081129566
0.019189354 -0.19748494 -0.06818019
0.0012412698 -0.09933892 0.045593705
-0.036840573 0.07097279 0.22917849
0.04820081 -0.23245911 -0.11170096
-0.0646325 -0.20794304 0.03337185
-0.007909125 -0.062666394 0.09073697
0.25811073 0.021354707 -0.093436405
-0.04978707 0.0029115034 0.2203046
0.0033254463 0.0021102251 0.16235135
0.25360873 -0.08386771 -0.18985091
0.072080754 0.1313037 0.20495085
0.06512566 0.121593736 0.21080062
-0.059097614 -0.016334623 0.10343025
0.097987495 0.15584625 0.17371032
-0.067103215 0.093594596 0.024307264
-0.07784808 0.058567375 0.04223801
-0.17988166 0.05574363 -0.05478951
0.20969312 -0.04263417 -0.10288898
0.24655464 -0.0032509316 -0.10467515
-0.28651702 0.11215603 -0.024258358
-0.17023522 0.19781148 -0.013842829
-0.15746045 0.11376008 -0.037966978
-0.22624731 0.013587989 -0.089315414
0.025155297 0.17341504 -0.11137007
-0.088490956 -0.22359538 0.043995127
-0.04240762 -0.06785306 0.12288731
-0.054882158 0.010882521 0.23346107
-0.050531764 -0.2707929 -0.042292666
0.17492399 0.08430109 0.056700647
-0.036351178 0.16552557 -0.070651434
-0.21257092 0.16269755 -0.038397904
0.07227517 -0.056280017 -0.02402072
-0.15500472 -0.20678382 0.09375272
0.19110282 0.13280372 0.08595848
-0.11652699 -0.089024685 0.20368402
-0.10938367 -0.07831417 0.20630047
-0.0328816 -0.23111276 -0.023109436
-0.12989677 -0.10714286 0.20064236
0.10596615 -0.12529512 -0.092134915
-0.1682071 0.12911814 -0.015302442
-0.25491443 -0.008845346 -0.12772943
0.035375133 -0.13335992 -0.023895863
0.21815857 0.013404277 -0.058074903
-0.027347326 -0.2118219 -0.010502743
-0.045203492 -0.2881009 -0.06468611
-0.21025506 0.11846443 -0.03686021
0.18290909 -0.09016638 -0.11979549
0.21738635 0.032008637 -0.03933902
-0.07058323 -0.038738526 0.09545511
0.2199763 0.032293413 -0.041853104
0.21189769 0.009801287 -0.054801453
-0.008378905 0.014887081 0.1872482
-0.07696918 -0.2828358 -0.025419453
0.10700093 0.020540258 0.047095872
0.08288111 -0.24451803 -0.1606433
0.027009793 0.08684575 0.21839687
0.14520983 -0.06491289 -0.07627646
-0.07528224 0.17192757 -0.070464246
0.22637461 -0.0031285814 -0.08283088
0.11010559 -0.15205759 -0.120308384
-0.28607202 0.07246269 -0.046102736
-0.14384678 0.14645264 -0.021161681
0.12177545 -0.17988889 -0.14032173
0.041789882 0.031709302 0.12805237
0.23371835 0.16058247 0.039933424
0.1988473 0.07237741 0.019469587
0.050485794 0.14526816 -0.06784854
-0.11782448 0.17265812 -0.023959445
0.24240571 0.083022244 -0.017183177
-0.2648251 -0.029125737 -0.16674206
0.04020998 0.09665259 0.0008650767
0.20559421 0.012151318 -0.045753527
0.19890739 -0.10260062 -0.14898527
0.14753361 0.09801182 0.099384286
-0.03293427 0.14766198 -0.057166696
0.25770038 -0.07865649 -0.19058327
0.17205897 -0.1514763 -0.16711524
-0.10004055 -0.10920749 0.008895307
-0.07035226 -0.07516255 0.16731128
-0.02190244 -0.24985999 -0.052971248
0.015830712 0.18788624 -0.26006112
-0.15702595 -0.20333652 0.13480778
-0.084196374 0.0887422 0.021019896
0.047703758 -0.04840638 0.0445858
-0.03417997 -0.17008074 0.015650855
-0.0015231429 -0.25444064 -0.07931989
0.064267956 -0.1483423 -0.06942076
0.09999674 -0.014723463 0.020700643
-0.021819182 0.095459566 0.232872
0.035744682 -0.08569702 0.021575058
-0.01925941 0.09190589 0.23813634
0.13199718 -0.15673345 -0.1290433
-0.106850274 0.14663237 -0.060820345
0.14285573 -0.046975467 -0.056480583
-0.12604745 -0.038247924 0.21552096
-0.25495356 0.11824577 -0.035546552
-0.17583573 0.092014715 -0.0391102
-0.15221117 0.20518272 -0.050873972
-0.015225385 -0.07308298 0.08858982
-0.16479537 0.13772547 -0.014548842
-0.17906374 -0.0126106925 -0.044335194
-0.06323548 -0.13000247 0.085501686
0.13176842 0.037577186 0.036826253
-0.0029585056 0.14938933 -0.051803555
-0.06519574 0.21994318 -0.06465577
0.06714619 -0.099054426 -0.025087085
-0.14596093 0.2835241 -0.041038495
-0.08118594 -0.009317432 0.23868461
0.08354887 0.057435345 0.10785124
0.033492252 0.20660968 -0.26105753
0.18851392 0.10024232 0.057410363
0.010096244 -0.07445825 0.06000427
0.25673905 0.087046295 -0.028741801
-0.18792391 0.2134912 -0.011530171
0.0071261944 0.09905666 0.22507614
-0.13016741 -0.019765016 0.0022239664
-0.020521885 0.28040227 -0.13189048
0.10388927 -0.028030856 0.0037035127
0.030534431 0.111518286 -0.013856901
-0.019605543 0.20843779 -0.110944584
0.2680753 -0.025160812 -0.14892955
-0.011077067 0.09454349 0.22331236
-0.0032131593 0.061714627 0.22675136
-0.060106415 -0.26126555 -0.022816114
-0.06189992 0.13027228 0.0032939904
0.118948705 -0.117761284 -0.09886219
-0.068941936 -0.01357137 0.09521885
0.12067652 -0.2283239 -0.18574983
0.17360877 -0.072023444 -0.11255094
0.20563245 -0.0153975235 -0.07230594
0.23918745 0.107889354 0.010213019
-0.20008843 -0.026001528 -0.09855193
0.08902116 0.09553397 0.1599953
-0.19297606 0.19705237 -0.01921041
0.16080558 -0.109331794 -0.11595553
-0.11275136 0.25296998 -0.058993556
0.01407033 -0.18937588 -0.054865178
-0.25642896 0.14169073 -0.011395788
0.1761128 -0.02553905 -0.07165653
-0.09375861 0.23923273 -0.09223322
0.17037979 -0.005481805 -0.046182115
0.13160469 0.058456056 0.057095535
-0.043543793 0.29561034 -0.12596884
-0.10453996 0.29205433 -0.0652842
0.0950203 -0.13478062 -0.089478716
0.080648474 0.01978029 0.07473593
-0.23976368 0.20517768 -0.009099319
0.007873796 0.13039447 -0.2744037
-0.08211758 -0.005712349 0.23709148
0.1764614 0.13445175 0.10330798
0.20830464 0.13632934 0.07083132
-0.25601625 0.052634023 -0.09754386
-0.12572134 -0.10475852 0.19844125
-0.081753366 -0.01317757 0.2392379
-0.008448273 -0.13656612 0.0202001
0.15086813 -0.062837064 -0.08037086
-0.09999253 0.20775871 -0.050721824
-0.09306333 0.21814376 -0.06511662
-0.28127056 0.076089956 -0.047781702
-0.2745509 -0.009445945 -0.13461629
0.07078772 0.08555446 0.17002255
0.14869508 -0.17740615 -0.16691518
0.16538157 -0.15672949 -0.16498204
-0.21036115 0.051320713 -0.044529613
-0.013371479 -0.0038537155 0.17458847
0.20980476 -0.052878384 -0.11286763
0.0438987 -0.13900092 -0.03850138
-0.10499961 0.24494407 -0.07506272
0.10818451 0.09343857 0.13734744
0.07221563 -0.16150066 -0.09064042
-0.24904437 0.2019656 -0.012732119
-0.2346122 0.18211888 0.0036615706
-0.21175294 0.20014368 -0.0032428177
-0.013159095 0.16853732 -0.24747033
0.18942156 -0.059006732 -0.0972556
-0.011614261 0.021910323 0.19749051
0.2218132 0.1343983 0.054429166
0.067676425 0.1058422 -0.008154872
-0.2975059 0.040730685 -0.06433091
-0.08796916 0.1389845 -0.07195529
-0.050246593 -0.11951076 0.08161445
0.057695486 -0.109212354 -0.024688313
-0.012800082 0.02628883 0.116058275
-0.012378702 0.2857548 -0.14270952
-0.06691454 0.0107299285 0.24188748
0.014752951 -0.17482997 -0.041602187
0.04560969 -0.16948816 -0.069682576
-0.09460611 -0.059406754 0.20858589
0.20491908 0.14090224 0.078876905
0.051220886 0.06855259 0.17472664
-0.23889337 0.18761021 -0.0065182094
-0.054727852 0.21045393 -0.06807452
0.057693645 -0.16600673 -0.07934238
-0.26435092 0.0886137 -0.035345457
-0.28625536 0.076079965 -0.042424377
0.007386682 0.07623688 0.0025512935
0.03636369 0.16006397 -0.087783985
0.054757703 -0.107273884 -0.01965981
-0.045975775 -0.12603924 0.070733316
0.018443074 -0.005175622 0.117691815
0.030544182 0.037876405 0.1674665
0.18577708 0.10875781 0.06855217
-0.21379478 0.08747302 -0.03786439
0.11164197 -0.2369829 -0.18435624
0.15887804 -0.16241564 -0.16345139
-0.15385838 -0.018035766 -0.018185718
0.012256978 -0.14161077 -0.006946341
0.10737401 -0.2089804 -0.152813
-0.14144443 0.15944496 -0.017247453
0.14541142 -0.19694532 -0.18218338
-0.055730302 0.16189541 -0.074359626
-0.11752745 -0.05812616 0.20656937
-0.19370472 0.22756727 -0.0015635579
0.06319676 -0.1921053 -0.09380412
0.030187158 -0.250549 -0.10971561
-0.09597991 -0.04408682 0.10024487
-0.15638784 -0.21469395 0.07443403
-0.16034119 0.23064864 -0.029237904
-0.12606426 -0.19025896 0.11652868
0.0061260085 0.20218374 -0.1631568
-0.0017097677 -0.2705776 -0.094648845
0.050584745 -0.0634309 -0.033212014
0.182434 0.12157607 0.08448674
0.24528806 0.08221137 -0.021066045
0.24371664 0.08949751 -0.012362446
0.05621905 -0.21709906 -0.10555129
-0.09025206 -0.07807887 0.18592931
-0.08072063 -0.07970014 0.17410688
-0.27159527 0.007464301 -0.12424061
-0.024425004 -0.24878836 -0.049223956
-0.020801827 0.059546355 0.11270018
-0.12178619 0.07811725 0.013761911
0.13403675 -0.115428574 -0.11286118
-0.18624188 0.036109883 -0.05085664
-0.23628078 -0.020066842 -0.18875498
0.061433468 -0.1837805 -0.10047294
0.20649348 -0.009062845 -0.067137204
0.24753588 -0.069403335 -0.16939268
0.1210038 -0.09412378 -0.078326575
-0.28924605 -0.032034773 -0.15858223
-0.13132013 -0.178543 0.13346228
0.046576735 -0.07517702 -0.02270798
0.0007828228 0.000774739 0.14243169
-0.098107494 0.0066114073 0.22262768
-0.24490651 0.109849125 -0.054443855
0.07222358 -0.15947232 -0.088696636
-0.10992458 -0.108607456 0.17772958
-0.021748569 0.18731467 -0.093676746
0.2788408 0.09237893 -0.047405124
0.01372049 0.022643337 0.17091995
0.022205 0.09186998 -0.0017441368
-0.103911445 -0.16341811 0.024781791
-0.041749038 0.1443577 0.0019381117
0.20033635 0.04109383 -0.012239755
0.16738385 0.027627856 -0.011093383
-0.09123538 -0.09364092 0.17201193
-0.1505434 -0.22096358 0.07720898
-0.15281981 0.10259063 -0.053712048
-0.06197458 0.005543029 0.096678846
0.29677165 0.06456499 -0.09347656
-0.14743967 -0.11320784 0.18036528
0.03955075 0.10708356 0.2243716
0.1792449 -0.12456415 -0.14895305
0.17861365 -0.14106527 -0.16415308
0.23615201 -0.08842572 -0.17544298
0.025500039 -0.04351465 0.07319859
0.04367683 -0.057880037 -0.039163597
0.107379444 -0.115625896 -0.08435121
0.1506334 -0.109710224 -0.12216035
-0.30291212 0.042713493 -0.06269576
-0.04281865 -0.006825006 0.20343247
-0.11558181 0.08626607 0.010960306
0.20240597 0.11403444 0.05572653
-0.19480588 0.13759667 -0.03031704
-0.120467484 -0.02827786 0.011211309
0.069584884 0.08011003 0.07527839
-0.105485804 -0.13978021 0.14295204
-0.042514447 -0.06513454 0.12561849
-0.16155586 -0.20442706 0.1255802
-0.11148789 -0.099469595 0.18820715
-0.28785563 0.032347538 -0.082787365
0.030393342 -0.026187591 0.0846047
-0.1402386 -0.055759404 -0.011326573
-0.15222512 -0.11723893 0.17262627
0.18796918 -0.15250565 -0.18523543
0.0050771697 -0.27525452 -0.106457025
-0.24459562 0.058045726 -0.0815252
-0.108482935 -0.08917526 0.19487844
0.23366854 -0.026350783 -0.11303177
0.024561092 -0.2349626 -0.08865854
-0.2874721 -0.025459463 -0.1388307
0.18255414 0.063073896 0.028057378
0.0060031223 -0.17131968 -0.028803654
-0.005251178 0.06687978 0.23391546
0.21410236 0.07104969 0.0017675764
-0.21975313 0.06792817 -0.037514225
-0.06101998 -0.05833504 0.17345762
0.20720215 -0.076632366 -0.132926
0.20868526 0.036364384 -0.025779404
-0.11301572 -0.041420493 0.019400194
0.15092361 0.0027598417 -0.017303204
-0.14144078 -0.14939556 0.17229448
0.056285355 0.12533012 0.21073961
0.22764942 0.14254421 0.042709492
0.06808058 -0.176157 -0.100293316
0.011489622 -0.18834287 -0.051093068
-0.0058458587 -0.13162865 0.022149634
0.19241403 0.12726434 0.079215966
0.21631968 -0.12315717 -0.18751481
-0.21676964 -0.063743785 -0.251794
0.067292474 -0.016678896 0.054029003
0.024266437 0.11866323 0.21348742
0.1453665 0.016503818 0.0019054938
0.09112537 -0.17787173 -0.106027074
0.035081003 -0.22712979 -0.092446916
0.012461982 -0.09303952 0.039575342
-0.10913719 -0.056392424 0.22713137
0.08110881 0.06515402 0.13927794
-0.1546318 0.19049485 -0.039963286
0.0032483588 -0.0039172843 0.1352619
0.22741626 -0.085495956 -0.16321836
-0.07165007 -0.0149051715 0.093033336
-0.020248078 0.28521252 -0.12755589
0.13017687 0.072507545 0.0935269
-0.22079627 0.044463962 -0.055000804
0.24658097 -0.035552666 -0.1357884
-0.06668471 0.10815995 0.015352854
0.022035478 0.050776616 0.1890414
0.21308132 -0.08226763 -0.14467825
-0.02764892 -0.18031235 -0.0012272033
0.09745372 0.15903696 0.17224649
0.089000635 0.08591534 0.15076156
0.0015039355 -0.22607766 -0.055284265
-0.09203036 -0.05995778 0.20528251
0.035657793 0.02963354 0.15402842
0.23271242 -0.048047967 -0.13288215
0.18082318 -0.14636827 -0.17163499
-0.13303907 0.0054972665 -0.0074782004
-0.07281366 0.18481159 -0.060723305
0.18043244 0.17147602 0.091202736
0.0019856405 0.2148554 -0.21920164
-0.023354508 0.004646759 0.19351679
0.05814586 -0.14717053 -0.061701875
-0.19834556 0.23848346 -0.015329173
0.21968408 0.077438496 0.0019061666
-0.27035064 -0.041786335 -0.17297678
-0.009518441 0.06355771 0.23358609
-0.19062674 0.2092765 -0.010922241
0.07341361 -0.016051527 0.048042692
0.13198705 -0.15263544 -0.12508857
-0.17217293 -0.016545132 -0.037087273
-0.24680667 -0.026290685 -0.18341257
0.1421762 0.057786856 0.045069434
0.047832225 0.095627405 0.060087293
-0.004615938 -0.14510527 0.00785621
-0.063865684 -0.027129063 0.20655242
0.09292263 0.023938378 0.06552289
-0.061617903 -0.14451331 0.0911681
0.048290487 -0.19403322 -0.090010144
0.17645013 -0.11629094 -0.13798237
-0.13034916 -0.17309055 0.13766398
-0.29290563 -0.023704223 -0.13623026
-0.07065838 -0.10803538 0.13600549
-0.023883197 0.26747826 -0.140709
-0.12674117 0.11040609 -0.008263381
-0.08996688 -0.05877244 0.20420201
0.07079815 0.14693542 0.18800598
0.25354263 -0.046150874 -0.15348308
0.062663704 -0.25529897 -0.14925148
0.12572047 -0.19164862 -0.15588567
-0.029195283 0.2890775 -0.11420369
-0.10791748 -0.0030884347 0.00898013
0.044838842 0.08188903 0.07938801
-0.01612182 0.08427511 0.22668661
-0.082215905 -0.035566688 0.21818903
-0.12566286 0.06321887 -0.025618708
0.12894127 -0.016612606 -0.012280005
-0.18844903 0.03147217 -0.05178954
-0.16571355 0.26202595 -0.027538782
-0.026473396 -0.0998915 0.074900106
0.21892598 -0.09916876 -0.16723537
-0.02032679 0.0792089 0.24988109
-0.03022705 -0.2231224 -0.018277807
-0.03340401 0.0063681677 0.11492687
0.051160347 0.12847097 0.20738037
0.07760895 -0.18174794 -0.1044151
-0.27929226 -0.014844261 -0.13490275
-0.1491304 0.23795223 -0.034278937
0.17248252 0.11589947 0.08973804
0.18028867 0.104404375 0.070271365
0.21078895 -0.14410776 -0.20172204
0.19016056 -0.07702513 -0.114956245
-0.22584614 0.07399858 -0.035601303
0.10196223 -0.09748551 -0.06106144
-0.15374222 0.1317582 -0.024649447
-0.104118295 0.2288713 -0.07589546
0.11450941 -0.12672119 -0.10270508
-0.06817685 -0.016916951 0.09614925
-0.21892586 0.07669292 -0.03299641
-0.28744528 0.028203875 -0.08721703
-0.18420383 0.06696568 -0.05420672
-0.21359497 0.20451066 0.0029429516
-0.125777 -0.1788241 0.12722383
-0.06873131 -0.21227124 0.033619042
0.054585576 0.14800625 -0.09853332
-0.047904655 -0.28757998 -0.061276134
0.19397247 0.12223477 0.07269835
0.18548277 0.14408179 0.10286247
-0.05560706 -0.17154552 0.058682185
-0.049011946 0.14229876 -0.059619438
0.17713141 0.15799648 0.12524487
-0.057111323 -0.25281754 -0.017910965
0.061298322 -0.26655492 -0.15861334
-0.051357497 0.27039355 -0.10832367
0.025371842 -0.26006174 -0.11368569
0.17670754 0.15275778 0.1206599
0.0070176907 -0.12297525 0.016628405
0.16231288 -0.04275694 -0.07336815
-0.21929537 -0.06038643 -0.24584386
-0.037775952 0.26798925 -0.12525986
0.00035901673 -0.0358273 0.10766411
0.22786899 0.103065945 0.017756851
0.2770531 0.026219973 -0.10914835
-0.118344314 0.2515987 -0.054291554
-0.0408821 -0.28513765 -0.06648703
0.12923335 -0.15161881 -0.12114567
0.1748964 0.088245094 0.060525782
0.112705834 0.109849244 0.1482723
-0.21657869 0.1537727 -0.0426723
0.09012468 -0.0035757248 0.042057414
0.14586586 -0.15351625 -0.14087814
0.05107539 -0.13928944 -0.046505097
-0.032153606 0.09703594 0.03508047
-0.0448165 0.0071834503 0.10765581
0.10742115 0.11902831 0.16279547
0.0040220777 -0.21843548 -0.05064048
-0.13972439 0.02997176 -0.023152215
-0.18766497 0.16556516 -0.037610207
0.22808155 0.045763504 -0.037617028
0.13935366 0.121649615 0.13093856
-0.19806199 0.11516851 -0.026880426
-0.13875785 0.23302896 -0.05018447
0.054769915 0.10113993 0.048366822
0.062269792 0.012118052 0.08714967
-0.03249883 0.21728426 -0.112052046
0.121076964 -0.20605001 -0.16474599
0.0894259 -0.20574938 -0.1303802
-0.0011083407 -0.23224102 -0.058402874
0.05716263 0.034567427 0.11425211
0.2562335 -0.06395193 -0.17351098
-0.24916592 0.1102949 -0.0494291
0.16479222 0.17018436 0.11283848
0.13413817 0.06450818 0.06019183
0.105322406 -0.23984358 -0.18030554
-0.028553648 -0.014527396 0.18066174
0.019805437 0.099347614 -0.0073621226
-0.1314193 -0.046049714 0.22226742
0.20170888 -0.097381845 -0.14697981
-0.25710353 0.1475435 -0.005037408
-0.20609115 -0.01258502 -0.08658906
-0.30303803 0.062278956 -0.051775254
0.23246661 -0.029480884 -0.114749305
-0.10237496 0.1791734 -0.034322824
-0.08852285 -0.14000401 0.015831007
0.15014903 0.036613762 0.016109888
0.00736006 0.15345865 -0.28407294
-0.18477078 0.16918108 -0.038006693
-0.13865244 0.070854574 -0.048093546
-0.01800968 0.03986352 0.015905889
-0.11532228 -0.098807015 0.19297296
-0.08431396 0.21135508 -0.058728743
0.2330408 -0.0729057 -0.1571575
-0.21676281 0.18120137 -0.016078345
-0.075274855 0.068846494 0.036761537
-0.2778487 0.12365 -0.014084207
0.120282926 0.07514146 0.10671362
-0.0131757585 0.17147186 -0.24462864
-0.24808973 0.07792003 -0.077243716
-0.028669002 0.22249979 -0.17184511
-0.037371524 0.15385312 -0.062842056
-0.26241156 0.012651207 -0.1291361
0.14545272 -0.0055558016 -0.019415803
0.21833931 0.13656944 0.06025844
0.042477354 0.11392485 -0.014760965
-0.1082153 -0.07691483 0.021099335
-0.046774827 -0.19136013 0.030104563
0.06966092 -0.024722759 0.002239626
-0.05972495 -0.27942008 -0.040697813
-0.09929236 -0.053961024 0.09063247
0.015741603 0.07743313 0.085130416
-0.11497602 -0.19650999 0.09857504
0.1565864 -0.025263917 -0.05036896
-0.31283465 0.0066794357 -0.121730514
0.042884782 -0.18259305 -0.079360396
-0.30104208 0.10899972 -0.03677043
0.18204166 -0.09567669 -0.12416427
-0.25015327 0.12657008 -0.032703813
-0.22298278 0.042711657 -0.059160106
-0.03877024 -0.14259133 0.047046766
0.11578737 0.13986385 0.17383945
0.040169504 -0.24955277 -0.119503975
0.014479371 0.049323805 0.19577836
-0.15246917 0.12090523 -0.03646391
-0.12745047 0.1716481 -0.02123833
-0.035384823 0.02000748 0.22125132
-0.097161785 0.2154785 -0.06038266
-0.0014917445 0.206641 -0.16876152
-0.09320342 0.22590704 -0.07561337
-0.25262937 -0.013140982 -0.12419811
-0.24988031 0.030709608 -0.11722053
-0.08500961 -0.27761716 -0.011740742
-0.20405625 0.154859 -0.041793518
-0.1092185 -0.03411503 0.22269304
-0.04317231 -0.19871351 0.019149488
0.14209834 -0.12980548 -0.11900234
-0.218427 0.19372879 -0.0022308067
-0.05193605 -0.048307296 0.17332822
0.07847565 -0.015096396 0.043512084
0.10338479 -0.14933623 -0.11249155
0.11374664 0.052861318 0.07093757
-0.22055727 0.14013864 -0.04882482
0.036093213 0.008511812 0.11186107
-0.223257 0.20417087 0.0001072656
-0.06146101 -0.009275765 0.030565608
0.04583592 -0.13530381 -0.037028946
-0.03516639 0.0073966915 0.11346222
-0.21904196 0.029377466 -0.061683383
0.2033421 0.022165932 -0.033690933
-0.11884613 -0.18553199 0.113306545
-0.22095484 0.22593935 -0.010683703
-0.24542645 0.032500163 -0.10487461
0.21267004 -0.053813614 -0.11685252
-0.046469435 -0.061683815 0.15456913
-0.07608611 0.14827643 -0.07337078
0.11410261 -0.04005342 -0.018862676
-0.23636007 0.18314977 0.002235559
0.22153047 -0.067826144 -0.13987698
-0.17152445 0.0817986 -0.053582866
-0.2136292 0.20723473 0.0028312588
0.004665197 -0.28228298 -0.1127769
0.110105515 -0.201807 -0.14885046
-0.022993589 -0.14026207 0.032303065
0.13134018 0.110338844 0.12868123
0.17551592 0.17115384 0.09898893
0.037786126 -0.1604021 -0.052515026
0.14796366 0.051505513 0.032793734
0.10473471 0.052880306 0.08065795
-0.040272966 0.1709265 -0.07604236
-0.12833637 -0.06579731 0.22807348
-0.07716572 -0.2342277 0.021570345
0.258182 -0.0027144547 -0.11667664
0.16852349 0.12722924 0.1049033
0.07561317 0.091850586 0.06568368
-0.06638663 0.27587205 -0.0831891
-0.2829372 0.03023413 -0.09011695
0.12335237 0.09521818 0.12272948
-0.21881866 0.11231301 -0.04273571
-0.22972813 -0.004596766 -0.17002876
-0.12409331 -0.11071877 0.19095244
0.024578854 -0.17739992 -0.054653987
0.08316909 -0.0827306 -0.026629036
-0.2382497 0.04191397 -0.08253446
0.02983789 0.07686714 0.20574962
-0.09663149 -0.043575946 0.22600138
-0.022280501 -0.16151656 0.011081171
0.005663765 -0.16466536 -0.022034649
-0.19546482 0.17304568 -0.04495407
-0.20884663 0.1420902 -0.041252173
-0.14342956 -0.23610362 0.059704997
0.050728448 -0.25189632 -0.13312715
0.06831561 0.11104076 0.19721054
-0.052960217 0.24299029 -0.13297023
-0.14700973 -0.19361219 0.13585252
-0.119500466 0.006520802 -0.001362156
-0.12712514 0.17480077 -0.021856926
-0.13339968 -0.2006764 0.11440173
-0.0848265 0.29679075 -0.082012564
-0.119579285 0.09425367 0.004486864
-0.26242244 0.04067101 -0.102159575
-0.017164605 -0.2760947 -0.083318785
0.17866555 -0.16420913 -0.18648145
-0.051141724 -0.15955372 0.044043016
0.16639777 0.0876075 0.06906193
0.24358581 0.0017773408 -0.09663984
-0.061793655 -0.032177124 0.10341182
-0.10467602 -0.085921295 0.19391121
0.20236543 0.1179894 0.059576325
0.018058525 0.1565003 -0.063738614
0.037871856 -0.18070388 -0.0721454
-0.12482554 0.16181676 -0.026854942
0.17862517 -0.12799758 -0.15158992
-0.10388671 -0.18706912 0.0957222
0.15928997 -0.0120217735 -0.040535938
-0.08161683 -0.014979296 0.08223338
-0.15096824 0.16831733 -0.01588496
0.019409567 -0.044095803 0.07919698
0.12355152 0.025351066 0.033906724
0.06452135 -0.09407455 -0.017469218
0.07044987 0.13128592 -0.0634551
0.02115471 0.16474907 -0.07964223
0.068723045 -0.0334092 0.036388565
-0.051878035 0.02071705 0.015352962
0.24560392 -0.07624663 -0.1738984
-0.26083532 0.0010779713 -0.13612485
0.02307788 -0.11279848 0.009130939
-0.10766172 -0.21742345 0.070574544
-0.10644168 -0.087995924 0.19381568
-0.060111493 -0.0042061107 0.10045357
-0.15476659 0.2736751 -0.031234372
-0.0331089 -0.04270264 0.15845177
-0.048612256 -0.19100966 0.032419603
-0.045973755 0.0023553395 0.21566397
-0.026856506 0.23264495 -0.17102903
-0.13669929 -0.043000482 0.21840774
-0.12329142 0.11281843 -0.06865534
0.017871443 0.09283838 0.2325895
0.0461795 0.102473125 -0.0036690838
0.09647462 -0.21906991 -0.15078816
-0.0061931494 -0.1441961 0.01042937
0.11533913 0.13215609 0.16690409
0.04028301 -0.12544267 -0.021560466
0.023359533 0.07910128 0.0066674347
0.09556274 0.1098825 0.1667613
0.266994 0.008256806 -0.115605325
0.12634705 -0.05122433 -0.042795047
-0.057504844 0.08507529 0.033184726
0.01994579 0.2565308 -0.20203456
-0.018624509 0.20542434 -0.10638355
-0.13888042 1.801819e-05 -0.0085138865
-0.03215433 0.2241735 -0.14605033
-0.052487668 0.0880856 0.033157352
-0.10546098 -0.22619472 0.05976407
-0.011848431 -0.26020333 -0.07374949
-0.115944594 0.23804565 -0.06991806
-0.0059408504 -0.13951445 0.014663044
-0.11718838 -0.085842736 0.2074581
0.21326727 -0.10754257 -0.16920197
0.17891133 -0.024450138 -0.073621355
0.033581864 0.1413023 -0.047791667
0.03546965 -0.12141097 -0.012498279
0.19161838 0.07551823 0.030274661
-0.15615612 0.036514033 -0.033858683
0.23941877 0.0045309425 -0.089503415
-0.24398652 0.13686448 -0.029436145
0.08148119 0.04565866 0.09874375
0.052022796 0.016762774 0.102651305
0.21452092 0.12339395 0.051690016
-0.27977872 0.14203371 -0.021992069
-0.2527481 0.08212762 -0.03646008
0.1654138 -0.16857307 -0.17641398
0.13215451 0.07084243 0.089795254
0.028598832 -0.012449808 0.099757224
-0.05676774 -0.092461266 0.13603874
0.2184161 -0.05568991 -0.12484471
0.22844334 0.02529342 -0.057706214
0.112053186 0.15382859 0.18576717
-0.01601253 0.24712926 -0.1687656
-0.05308973 -0.02125525 0.20060328
0.18123949 -0.0015019819 -0.05404348
0.23699105 0.11396475 0.018425075
-0.009610306 0.26735458 -0.15619387
0.15484437 0.14888893 0.14047489
-0.020190338 0.076697916 0.25098026
0.04992016 0.038213946 0.14693086
-0.13731316 -0.17020907 0.14793506
-0.15091519 0.15019506 -0.01533718
0.011175202 0.23580287 -0.1947603
0.21299602 0.08616154 0.017501744
0.088425726 -0.1269846 -0.07487605
-0.005734082 -0.23818639 -0.059144244
-0.081116095 0.013398425 0.23190437
0.0700655 -0.034374285 0.034014344
0.0027592378 -0.12545326 0.01882816
0.056927342 -0.03580425 0.046782836
-0.15861386 0.23366378 -0.028195972
0.14845702 0.09671558 0.097142205
0.05859453 0.059205513 0.15779287
-0.11124416 0.28641993 -0.058068894
0.066473 -0.097964734 -0.023314258
0.04434197 -0.11341452 -0.014355214
-0.14746463 0.2778974 -0.035032585
0.25116217 0.07449699 -0.034814652
-0.10182361 0.11238341 -0.060443606
-0.25656623 0.06374505 -0.086259
-0.06911436 0.1393363 -0.005042264
0.17498155 0.076385126 0.049020875
0.09443711 0.14866161 0.18289064
0.050710984 0.05742825 0.16457044
0.2574473 -0.03129719 -0.14339224
-0.11707708 0.2505655 -0.05664976
-0.07126088 0.14913951 -0.072126165
0.24118775 0.10795501 0.008123019
0.118278965 -0.15776928 -0.11527096
0.13040306 -0.06422711 -0.05967524
0.22470652 -0.0009124363 -0.07890177
-0.27147946 0.06994392 -0.06423806
-0.029429946 0.039158218 0.23326986
0.034094635 0.03701149 0.16281182
-0.11365569 0.20680404 -0.048878174
0.099377945 0.02112184 0.05586292
-0.061901975 -0.1657741 0.04964148
0.2289127 0.022492113 -0.060906667
0.042343006 0.15599395 -0.08784244
-0.29476836 0.044516575 -0.0636346
0.22113934 0.1552632 0.060106803
0.050482396 0.094877705 0.20085593
0.035387732 0.12743695 -0.02964902
-0.19401897 0.25114518 -0.017706873
0.15016998 0.039490122 0.018855125
-0.094911404 -0.010615588 0.018768476
0.052128877 0.034248054 0.11936353
-0.23742233 0.08682226 -0.03630609
0.10463033 -0.24509212 -0.18461134
0.0070583248 0.057374462 0.21151611
-0.18493061 0.031392653 -0.04895109
0.017844548 -0.07444575 0.05167414
0.2636808 0.018122053 -0.10254469
-0.0039134533 -0.23934452 -0.062219083
0.028315486 0.23544553 -0.22773409
-0.101901196 -0.025583975 0.22722879
0.24727124 0.030127704 -0.0733241
-0.18670806 0.15917781 -0.034276355
-0.05385457 0.050239876 0.23228262
-0.062158722 0.03009291 0.23710369
0.1560081 -0.02504235 -0.049533073
-0.13300365 -0.2348604 0.08107817
0.17036866 -0.07961435 -0.11445915
-0.25721118 -0.0036845868 -0.13180645
-0.056863282 -0.17222157 0.051435582
-0.00042798906 -0.10402923 0.042876948
-0.28172478 0.063635595 -0.05927794
0.076808676 0.026114667 0.0849661
0.23490523 0.11559265 0.022236817
-0.107040696 -0.05451896 0.22667722
-0.017567884 -0.060591146 0.10313289
0.041473165 0.07767704 0.014257595
0.088318646 -0.23230065 -0.15473968
