# .PCD v0.7 - Point Cloud Data file format
VERSION 0.7
FIELDS x y z
SIZE 4 4 4
TYPE F F F
COUNT 1 1 1
WIDTH 1000
HEIGHT 1
VIEWPOINT 0 0 0 1 0 0 0
POINTS 1000
DATA ascii
0.010214081 0.16770524 0.2120198
-0.050545387 -0.14667211 0.07805681
-0.13353074 0.17436358 0.1646178
0.12398766 -0.26751518 -0.008419616
0.07172295 0.14820956 0.21477303
-0.13569406 -0.20642993 -0.19096936
-0.21459523 0.2235831 -0.18022574
0.11950818 -0.0074968534 -0.042731464
0.24335815 0.12014248 -0.19323537
-0.06149094 0.1632052 0.2005674
-0.2313978 0.19042961 0.022781514
0.029594487 -0.24602136 -0.01923199
0.15048581 -0.06981062 -0.103862606
-0.06817005 -0.04306871 0.031530548
-0.1482882 -0.120908216 0.029661065
-0.08593914 -0.054786637 0.03352155
0.20676754 0.12894592 -0.23429915
-0.08947581 -0.030735293 0.033750996
0.05593469 -0.25208005 -0.011466484
-0.10186084 0.19872962 -0.2311566
0.17496194 0.13654652 -0.26595604
0.058277503 -0.15008488 0.031535916
0.13535333 0.12968892 -0.1037026
-0.17133209 -0.16901866 0.10615643
-0.258864 -0.14632711 -0.02511314
-0.20643651 -0.12781332 -0.003433112
0.06173978 0.14785321 -0.22176622
0.24637039 0.08462157 -0.15562044
0.15657093 0.1403237 -0.23596734
0.12538634 0.09972686 0.13552101
0.007341303 0.15894681 -0.12689292
-0.19955255 0.18306483 0.035312083
-0.16489649 0.21202265 -0.15545866
-0.14540365 0.11260545 -0.09771375
-0.12960854 0.2006875 0.10656866
-0.11998285 -0.08873582 0.029978357
0.040136363 -0.24839242 -0.02032852
-0.15219413 -0.20520516 0.0051279827
0.14457968 -0.22254188 -0.0097274175
-0.014921284 0.043645304 0.01945598
-0.026906716 0.14250737 0.15243815
0.105498314 0.045736138 0.0038378537
-0.03226384 -0.1351461 0.07810159
0.08312446 0.091334306 0.079552546
-0.025930908 0.061851274 0.026030086
-0.051154885 0.118643776 0.11334128
-0.17581126 -0.07026259 -0.027875071
-0.22025116 -0.15428437 -0.08597952
0.057787076 -0.21907821 0.06183192
-0.14778577 -0.106139876 0.02284809
-0.09766195 -0.21799628 0.040600218
0.13985394 -0.20625784 -0.15870292
0.12936783 0.048662778 0.035817083
-0.2643189 0.19946937 -0.06644458
0.2224365 0.122870766 -0.036485493
-0.12683523 0.20410046 -0.20931627
0.141606 -0.04964392 -0.06925044
-0.2697153 -0.17665702 -0.14813532
0.17974973 0.11900767 -0.053903352
-0.109302774 0.07467289 0.020582693
-0.10219827 -0.21563499 -0.0637745
-0.21579617 -0.1570545 0.051802535
0.07750204 -0.25593436 -0.091596484
-0.066729635 0.06620596 0.035081666
-0.19067888 0.21860205 -0.21382137
0.17293878 -0.24373458 -0.047273267
-0.099841125 0.18134616 0.01770534
-0.11725077 0.20242406 -0.24777259
0.13020381 -0.15999459 -0.10607784
0.11586806 0.14444453 0.16179971
0.034312695 -0.13419068 -0.020318415
0.30236024 0.096228704 0.04187147
-0.22083694 -0.18796435 -0.1286365
-0.0024981278 -0.09517842 0.037254103
-0.2300573 -0.18662417 -0.07033086
0.11069489 -0.23022866 -0.0022311248
0.08296914 -0.009089385 0.031169614
0.076127775 0.07871716 0.07236117
-0.09095352 0.025989342 0.032301284
0.014995585 0.14555651 0.21621321
0.012728484 0.13417386 0.10289527
-0.14683345 -0.057719037 0.012668392
0.06114292 -0.18331636 0.045636836
-0.17196243 0.19678785 0.13011226
-0.060307223 0.16560143 0.20082061
0.008301723 0.17507799 -0.33055502
0.03223489 -0.14983927 0.06486144
0.0026727624 -0.13795373 0.06661955
-0.19186617 -0.10936893 -0.12537125
0.020606091 0.15717398 -0.22290644
-0.013889441 -0.20370944 0.1280767
0.06343394 -0.21597081 -0.2810047
-0.2422471 -0.1849092 0.011183296
0.12482493 0.13083406 -0.00700464
-0.016513642 0.05352351 0.021186676
0.18504871 0.057553027 -0.14684008
-0.20172696 -0.1932274 -0.05518558
-0.18115407 -0.19766955 -0.07177862
0.13801399 0.14043164 0.08382151
0.15441492 0.10274847 0.053678997
0.32636517 0.0704518 -0.09659893
-0.14524882 0.17102881 0.15687604
0.1262817 0.12999156 0.0330958
-0.06406979 -0.09242242 0.025413154
-0.012706343 -0.19213237 0.075818405
-0.11162385 -0.0136770075 0.028721087
-0.045207866 -0.22874987 -0.046464223
0.11095098 -0.13563503 -0.057696808
-0.038142014 -0.03442762 0.028763846
-0.075992875 0.045004856 0.034312885
-0.12623735 0.07751558 0.003788006
-0.13858 -0.17703116 0.124065556
-0.0367073 0.056741893 0.029687013
0.047941636 0.07907906 0.07932287
-0.22659339 0.22454108 -0.042901006
0.09526621 -0.0015347743 0.026828123
-0.01025948 0.16119248 0.00885987
0.073725805 0.15976973 -0.29094064
0.024895886 -0.18808313 0.08723839
-0.1620059 0.13798141 -0.01198457
0.21742482 0.07325542 -0.1587205
0.22281188 0.08895679 -0.077874176
0.07768358 -0.116349526 -0.0365766
-0.21630576 -0.15672508 0.035056707
-0.1259351 0.11596129 -0.008006078
-0.11699034 -0.015597564 0.026610663
-0.157803 -0.029397242 -0.008056253
0.12153417 0.016786795 -0.04067188
0.069928125 0.051631562 -0.013202882
-0.10387694 0.074781 0.023692993
0.08821604 -0.15662818 0.013549426
-0.0086851325 -0.23424402 -0.26290897
-0.1542772 0.2015995 0.14521246
-0.009867784 0.13796374 0.20628455
-0.16167702 -0.20383608 0.0658154
0.05710087 -0.14993282 0.04045783
-0.054111555 -0.22855783 0.09600932
-0.14405921 0.20881598 -0.27333596
0.026527576 0.01436102 0.057350475
0.07219407 -0.2546014 -0.10192622
0.11945641 -0.16300647 -0.040359452
-0.03143472 -0.19636285 0.07794406
0.010742552 0.15826902 -0.1340601
-0.21324788 -0.1914641 0.075991414
-0.22487646 0.1892853 -0.0030997198
0.010224476 -0.2208446 0.13433596
-0.062024634 -0.19255811 0.10763089
0.099212386 -0.028149482 0.022309992
0.021137007 -0.0011107004 0.057944927
0.11301128 0.15095402 -0.2965915
-0.27069542 -0.1467593 -0.12510097
0.15399459 0.1415001 -0.28237033
0.10614288 0.14691237 0.14087489
-0.1216255 0.20325677 -0.23550871
0.07130909 0.0122208 0.0054238318
0.2562954 0.114496455 0.01934831
0.060685124 -0.05714817 0.03533787
-0.26330587 -0.14490694 -0.057571784
0.15206738 -0.24210292 0.031213984
0.112086214 0.096225545 0.1308684
-0.011084431 -0.23791683 0.06665217
-0.05535498 0.1830372 0.17311804
-0.14369556 -0.18590628 0.11897763
0.059358504 0.082430966 0.07707569
-0.08388714 -0.025067879 0.034114778
-0.11833821 0.19355676 0.17144625
-0.0013002553 -0.06295581 0.060693953
0.06695697 0.12021977 0.078112066
-0.15387772 -0.15808748 0.03192743
0.03565815 0.13587353 0.2163991
-0.18807189 -0.10852133 -0.019941531
-0.02005319 0.112193406 0.07573237
0.01263557 0.112036586 0.081529304
0.106068164 -0.26315376 -0.032445893
0.118081324 -0.21893944 -0.012996181
-0.1461546 -0.16225772 0.039200507
-0.045293488 0.15422685 0.22075845
0.20847633 0.12807302 -0.19628276
-0.031232795 -0.20820406 -0.12261375
-0.10112319 0.19390343 0.13311657
-0.07036221 -0.19033404 0.08123759
0.09227571 0.1506002 0.09783623
-0.019934742 -0.23355383 -0.11789829
-0.14782907 -0.20714335 0.07944417
0.23781338 0.10719785 0.1333099
-0.052235324 0.0071275304 0.030484661
0.084268466 -0.22511834 0.065663695
0.29909724 0.07238983 -0.13194272
0.026250605 0.10239658 0.0820397
-0.05919623 0.028203769 0.03338616
-0.2328273 -0.16423757 0.041619487
-0.2696644 0.22723365 -0.045911323
-0.117548175 0.19760491 0.13425303
-0.11227246 -0.21355258 -0.048375744
-0.017591305 -0.21485065 0.13929692
0.20062925 0.12672128 0.048200037
0.15632361 0.13505825 0.18005793
-0.13654937 -0.20867987 7.2303075e-05
0.2885162 0.07435701 -0.098579854
0.12995028 -0.26685882 -0.16519089
0.25630334 0.08341265 -0.2368119
-0.07924145 -0.034731213 0.033566892
0.029766643 -0.08179446 0.045644965
0.07497818 0.010059342 0.0365798
-0.23395175 -0.1864137 -0.017901495
-0.18123026 -0.07801689 -0.03775197
0.040560216 0.15235221 0.21666032
-0.05859007 -0.042794675 0.02820197
0.13846208 -0.26393938 0.04293703
0.16246149 -0.27540928 -0.07174937
0.09713702 -0.25947836 -0.16182314
-0.15336888 0.16737416 0.0068240906
-0.07960475 0.015999923 0.034270618
-0.21017656 -0.16100755 0.07272562
0.016664892 -0.2398678 -0.27161816
-0.16066915 -0.1480492 0.022886101
-0.17466024 0.2147427 -0.1954218
-0.12213269 -0.11962095 0.050713304
0.25155756 0.11829705 -0.19398971
0.10531983 -0.05398553 -0.041474134
0.040874757 0.1499721 -0.018361509
-0.025939927 0.164404 0.03512882
-0.12181174 -0.16934165 0.105013885
-0.12756562 -0.17267404 0.10710778
0.17173634 -0.24535328 -0.014043819
-0.17239062 0.18091683 -0.2771844
0.15520638 -0.25617707 0.004851267
-0.08070329 0.15908344 0.19392627
0.10665787 -0.16019447 -0.033812385
-0.12329391 0.012694446 0.019812701
0.04088787 0.16208795 0.10862951
0.12424677 -0.057540074 -0.05344353
-0.07247001 -0.06261807 0.031228881
-0.012445175 -0.041708685 0.026121784
-0.1805906 0.16723986 0.018219246
-0.06785687 0.19215186 -0.31834286
-0.20520844 -0.15191828 -0.09531912
-0.17009063 -0.015900128 -0.051770203
-0.17103969 0.19872475 0.13057579
0.1170788 -0.1903587 -0.0155369975
-0.014006959 0.13993822 0.12511002
-0.111079924 0.19521181 0.17536798
0.02321288 0.15348385 0.019473244
0.2731778 0.07635623 0.016399851
0.006822282 0.17463876 -0.2700529
0.040907174 0.074070744 0.080020405
-0.055455483 0.17797144 0.20168991
-0.058185615 0.14919727 0.18266414
-0.1322491 -0.17628339 0.077376716
0.095046274 -0.10275266 -0.042481642
-0.14103541 0.20282838 -0.063520126
-0.04861644 -0.06397915 0.021997033
0.12407226 0.14931367 -0.36398518
0.11739498 -0.26515877 -0.07603136
0.02672929 -0.07378289 0.047779996
0.17882653 0.118828826 -0.023586852
0.07133042 -0.2563658 0.051299855
-0.006558371 -0.23846188 0.02922445
0.13012218 -0.07668201 -0.063540265
0.058969185 0.14525154 0.030635754
0.10286957 -0.26052713 -0.18122381
-0.059529666 0.10507065 0.06081352
-0.02453363 -0.07915288 0.010269907
0.16446094 0.100132786 0.08047335
-0.21971409 -0.1884076 -0.11385927
0.05065402 0.12519167 0.13430075
0.086422294 -0.23388577 0.10173696
0.32790047 0.087927125 -0.059030753
0.09641291 -0.042917818 -0.03652463
-0.15120229 0.171952 0.048923295
-0.08591999 -0.06615547 0.033076614
0.26850316 0.11130102 0.053240415
0.058424585 0.15747246 0.15930898
0.03554514 0.16279472 0.14789136
-0.13335705 -0.2075436 -0.14523377
-0.040824994 0.18614289 -0.32669216
-0.11126983 0.07580011 0.018965755
0.15687723 -0.23976718 -0.017258275
0.08316905 -0.12745729 -0.040071428
-0.19726993 0.21998368 -0.20525834
-0.12964883 -0.21062818 0.030324088
-0.030575728 0.15341873 0.2262305
-0.095030025 -0.2161147 -0.15304962
-0.25320402 0.21294469 -0.020748861
0.19302365 0.11689683 -0.123650454
-0.0038190042 -0.17395642 0.075076245
-0.008450207 0.17225549 0.18640125
0.1782215 -0.25348777 -0.04229834
-0.11504035 0.16470239 0.176865
0.06116391 0.12361814 0.21485323
-0.092327006 -0.009763026 0.033691186
0.17610097 0.13149682 0.10868276
0.29009196 0.1067603 0.026384553
-0.04025231 0.022601416 0.027808703
0.0029745048 0.16956893 0.1943787
-0.22116132 0.19191551 0.07030408
-0.1069679 0.004730412 0.029147416
0.03251652 -0.16671234 0.07783901
-0.27096403 -0.15054175 -0.12816182
-0.122481324 0.16596135 0.009258384
-0.14809358 -0.01470869 0.0013146617
-0.07902882 -0.09653292 0.030327922
-0.11297522 -0.05033372 0.030607324
0.02146752 -0.083251946 0.048966344
0.12469542 -0.16423257 -0.05048296
0.31978112 0.08187244 -0.017014926
-0.014636054 0.16576833 0.2172287
0.050298803 0.13858823 -0.11665481
0.00027609343 -0.09590156 0.044727445
0.09236315 0.08635741 0.10289144
0.13694674 -0.23345463 -0.2143522
-0.22035153 0.22184344 0.057596475
-0.2537703 0.19589658 -0.008919849
-0.21740653 0.18777862 -0.017420314
0.002901561 0.15804972 0.021762712
0.16936085 0.11493718 0.18204533
-0.015651252 -0.065748826 0.061428413
0.15032321 -0.03849727 -0.07959076
0.047661465 0.12732102 0.21589053
0.21830958 0.12196851 0.10704898
0.2811559 0.093443155 0.08430528
0.113372065 0.13353872 -0.015890516
-0.028245097 0.023383953 0.022860272
0.09139549 -0.09104149 -0.039600644
0.12905715 -0.16696914 -0.06859694
-0.029739596 0.14323181 0.14590704
0.08858097 0.13998024 -0.08100613
-0.09415411 -0.09983403 0.032772347
0.07893561 -0.1883598 0.02960416
-0.11492377 -0.077232815 0.030786017
-0.16681658 0.19326243 0.13545239
0.32725173 0.087926276 -0.05409798
-0.17127723 0.21474294 -0.25527704
0.05676389 0.07088189 0.07673567
-0.2110768 0.19898911 0.08319139
-0.14003074 0.06503838 -0.014470539
0.3005678 0.10665673 -0.15081966
-0.1719414 0.1763227 0.074045956
0.029143801 0.006283189 0.055384714
-0.1801871 0.21667108 -0.24842359
-0.14441209 -0.17377706 0.09657216
0.08548176 -0.070681 0.023487886
0.0710772 -0.22785805 0.11301771
0.1450341 0.023024779 -0.054135136
0.00786273 -0.2188357 0.1388982
-0.21741274 -0.15301518 -0.23540021
-0.0732447 0.06303212 0.034558818
-0.16794138 -0.044547293 -0.022912946
0.11767804 -0.23217402 0.026336454
0.18133378 0.1227249 -0.19151244
0.14347614 -0.24005316 0.043870986
0.033344325 0.15325545 0.2167485
-0.17347813 -0.16677065 0.06290552
0.058407042 -0.03056649 0.0391531
0.038062453 -0.14508483 -0.0018286306
0.011600951 -0.1421772 0.06967705
-0.07932071 0.014299122 0.03432356
-0.057688367 0.14888167 0.1985345
-0.06930591 -0.08968148 0.02763807
-0.03865789 0.16881335 0.22326402
-0.22445375 -0.14513455 0.002987414
-0.06437533 -0.072666466 0.027495671
-0.18015812 0.20584252 0.13081512
0.13692729 -0.2304905 -0.004792959
-0.04650278 0.17598288 0.20492178
0.13706367 0.1289411 -0.07549258
-0.20599824 0.21977171 -0.034289464
0.020935383 0.08084927 0.08179619
0.08923917 0.15060855 0.15088484
0.09379939 -0.026375948 0.02476973
-0.08580904 0.18106256 -0.2083116
-0.21239598 0.22025555 0.041040897
-0.19460262 0.21798405 -0.09610907
-0.06855198 -0.06591414 0.029481316
-0.056748863 0.09377721 0.06353718
-0.104053885 -0.0812145 0.032753766
-0.025986893 0.06765893 0.026678566
0.0576356 -0.24704008 0.11728451
0.13553102 0.100003555 0.0417184
-0.16175237 -0.10028826 0.0076382337
0.108383596 -0.15502676 -0.060071375
0.11668155 0.0433742 -0.009310213
0.16779761 -0.24179037 -0.10831818
-0.060890518 0.17030554 0.20031005
0.11619352 -0.07666856 -0.050803773
-0.05408728 0.1204739 0.11380243
0.19328983 0.1320607 -0.23942819
0.2146561 0.0917323 -0.15060917
0.045307755 0.12628987 0.14302106
0.056791004 -0.030790031 0.03980645
-0.022511434 0.07389695 0.06637101
0.034384828 0.16263238 0.18110432
-0.14260034 -0.010974228 0.0075906175
0.053918008 0.16527511 -0.3710155
0.24583907 0.07505995 0.013083352
0.07527612 0.14523254 -0.256303
0.14865382 -0.07378369 -0.09957666
-0.213246 0.18711372 -0.03902506
-0.011852697 0.11112664 0.07768492
-0.007790702 0.17247191 0.15781623
-0.14618373 0.20652646 -0.056753878
-0.06235664 0.17296992 0.19962746
-0.11362728 0.058899004 0.019826092
-0.0016362809 0.043902606 0.013915421
-0.101278566 0.019466164 0.030252777
-0.037223157 0.18455672 -0.26638332
0.31042325 0.10461315 -0.16537274
0.14285238 -0.06514297 -0.078003675
0.08551886 -0.062207848 0.02438444
-0.15082332 0.20515874 0.13223949
-0.1305035 0.20525523 -0.23470207
0.22197995 0.12619221 -0.28808066
0.25106987 0.10497019 0.11969895
0.029578568 -0.017393958 0.052654106
-0.27057517 0.23464356 -0.05477736
0.23471656 0.092050545 0.13282128
0.07414171 -0.06268193 0.029102135
0.032839704 -0.18416002 0.0910626
-0.08772254 -0.22089374 0.091328636
0.04179734 0.15286021 -0.26047808
0.025801182 -0.24309638 -0.18081711
0.01087898 -0.23841278 -0.28303754
-0.21461932 0.21159011 0.074157454
0.07759392 0.11937982 0.11216546
0.0847148 0.14026555 -0.034924082
-0.037780184 -0.12817435 0.017563358
0.0021761172 0.14593545 -0.105104804
-0.24988797 -0.14773898 -0.07350816
-0.11244857 0.022323547 0.024834223
0.14917493 0.039929267 0.009016518
0.07429738 0.0059112147 0.036418848
-0.012090823 -0.23303838 -0.2969438
0.33030096 0.0949773 -0.072537564
0.17348641 -0.2745873 -0.13822173
-0.19741501 -0.13347061 -0.007090764
0.035126098 -0.024209222 0.049595144
-0.17576754 -0.13117942 -0.0015620816
0.1408256 0.03762987 0.013260185
-0.14447667 0.044691343 -0.014375497
0.1190101 -0.07019031 -0.05177111
-0.1936087 -0.12432946 -0.14204845
-0.11541521 -0.01602021 0.027421797
0.11719292 -0.01191917 -0.04212489
0.30052882 0.071770094 0.033770964
-0.087393 0.011443289 0.033959303
0.06365893 -0.25440547 0.033724755
-0.2478656 0.23018658 -0.10801468
0.06338437 0.019531406 -0.015960172
-0.085062675 0.15534177 0.17765234
0.14203815 -0.005614544 -0.057752572
-0.14448494 -0.024242612 0.008662778
0.29098958 0.09775919 0.0853533
0.016527006 -0.07850581 0.051548056
-0.22197369 -0.1870365 0.0663421
-0.22676614 -0.16572855 0.050978173
0.08853949 0.1410304 -0.16237555
-0.26136613 -0.14564139 -0.03446465
-0.19915274 0.18290031 0.041101195
-0.16502641 0.19225128 0.13726905
0.030665971 -0.15036078 0.06625547
-0.21023059 -0.15842299 0.06034724
0.1198958 -0.17584205 -0.015533091
0.050674282 -0.25067344 -0.028390594
0.16387351 0.12915812 -0.21416324
0.13017713 -0.22651926 -0.15441257
-0.09273412 0.03222861 0.031535465
-0.08079308 -0.22132938 0.0028260623
-0.22946362 0.22688228 -0.1751629
-0.10708555 -0.21467395 -0.05245049
-0.26922482 -0.16095826 -0.09831634
0.0694909 -0.019847162 0.0356611
0.12538068 0.1320299 -0.11033776
-0.02459652 -0.2345145 0.039660007
0.11983331 0.15003914 -0.3457279
-0.009778114 0.16102417 0.013504249
-0.15581658 0.15926139 -0.14844559
-0.09585426 -0.21816276 0.021651704
-0.13357058 0.18987794 -0.052725304
0.13978884 -0.10305396 -0.09118198
-0.07947432 0.17048112 0.19355805
0.29877064 0.104934335 0.015634563
0.08990977 -0.2264189 0.067562535
-0.24762069 -0.18288271 -0.052197244
-0.20272262 0.21783866 0.0588867
0.29893255 0.07076655 -0.0021267114
0.114106044 -0.11960843 -0.0570076
0.08483418 -0.17448102 0.027015252
0.053264756 -0.23178497 0.115537584
-0.121798374 -0.17228964 0.1078186
0.0049583525 0.17537893 -0.2949553
0.06132108 -0.08950776 0.031589232
0.22198492 0.121127784 0.10776341
0.286355 0.076180235 -0.20290086
0.023150722 0.054593544 0.0046767266
0.037224382 -0.009233755 0.05032778
0.009921414 -0.20904362 0.123953365
-0.18630879 -0.19655731 -0.06755985
-0.1493237 -0.07927051 0.014600482
0.27467072 0.075195216 0.08076244
0.1360818 -0.25663146 0.03896108
0.10940545 -0.17966677 -0.0076612984
0.05485099 0.07533807 0.07762389
-0.15932605 -0.10367262 -0.18923575
0.22389466 0.06600093 0.0067178407
0.118119135 -0.16843115 -0.019341001
-0.095210366 0.10279715 0.03491973
0.004311257 0.020201227 0.013494619
-0.12690176 0.20062383 0.06366973
-0.08694595 0.17918606 -0.04150366
0.19501235 0.11611039 -0.09735768
-0.21544859 -0.18872318 0.073314615
0.26945683 0.11448224 -0.21234842
0.035019014 -0.14425291 -0.013039266
-0.18897179 0.21849515 -0.23565976
-0.05526669 0.17403989 -0.19950655
0.14913826 -0.07774703 -0.107887015
0.11906113 0.141622 0.20418914
-0.010821805 0.17364739 0.119526066
-0.18240884 0.184518 0.12946314
-0.030377751 -0.120357595 0.008284966
-0.12000972 0.19948158 0.0310567
0.017141819 0.167425 0.11138323
0.13556375 0.038918443 0.005052246
0.12317855 -0.26438165 -0.2390896
0.028378319 -0.16134895 0.076247945
-0.087644234 -0.21839625 -0.10531279
0.2148678 0.102728784 0.15244783
-0.052979156 0.057631508 0.03381182
0.12958546 0.05301819 0.03658321
0.10316129 0.11243578 0.20286213
0.1702887 0.13768117 -0.27200124
0.0946889 0.12713902 0.2094313
-0.0042067063 0.06823615 0.019928701
-0.046481013 -0.18634272 0.07838194
0.21008576 0.109006606 0.1566526
0.103001684 -0.02860096 -0.037745476
-0.05467541 -0.008415256 0.02992775
0.16891256 -0.27462113 -0.025125142
0.18986943 0.12248084 -0.17851508
-0.11775621 0.01417894 0.022830095
0.10733734 -0.23033972 0.0658252
0.08867691 -0.08873494 -0.038212534
-0.21346089 -0.18820113 0.075118676
-0.19657397 -0.1363863 -0.14229538
0.019845724 -0.14169197 0.055134483
-0.05665949 0.18357612 0.15405594
-0.15951087 -0.200087 -0.2655931
0.0908284 0.15055536 0.12693538
-0.08459933 -0.022312539 0.03418953
0.07446092 0.119207196 0.18110475
-0.123299405 0.011017707 0.02006566
-0.08489613 0.17234795 0.19095798
-0.08751597 -0.22018993 0.032648843
-0.22834134 -0.18772137 -0.0149055915
-0.15214364 -0.17199138 0.09371117
0.028103096 0.03148942 0.00011456437
-0.060663566 0.038705982 0.03410186
-0.12317289 0.16506052 -0.0060814796
-0.04000584 -0.22834492 0.14468789
0.008197046 0.15910856 -0.15466191
-0.12581399 -0.06312886 0.026919816
-0.12120625 -0.04884876 0.027638527
-0.15339112 0.2108697 -0.2688251
-0.03332947 -0.11054668 0.010578174
0.1851447 0.10028553 -0.29730913
0.06718746 -0.17044023 0.04332116
0.026569135 -0.025684997 0.05302313
-0.22559525 0.1915994 -0.17131364
0.005319602 -0.24247982 0.13325053
0.042665306 -0.24844365 -0.061055526
-0.26157233 -0.14487748 -0.09053525
-0.19658016 0.21724017 -0.002961697
0.17234746 0.12500416 0.1817832
-0.14216416 0.16908784 0.112971306
0.23787306 0.07021953 0.0046382584
-0.011211272 0.1729152 0.18367231
0.26689678 0.07881324 -0.06458911
-0.029049879 -0.017058669 0.040642437
0.14528282 -0.27212882 -0.024376357
0.07456368 0.15088229 0.21462432
0.1413896 -0.08021935 -0.08136822
0.021341166 0.16574481 0.1684718
0.119830996 0.030572124 -0.038431328
-0.08748153 -0.11754084 0.062457953
0.15065593 0.012015639 -0.06301131
-0.21218036 -0.18998356 -0.123897836
-0.017580938 0.14132859 0.079629235
-0.04676721 0.17053817 -0.07606224
0.08309705 -0.06516378 0.0032589491
0.1466988 0.09158705 0.028677547
0.16735452 -0.26279077 -0.031852614
0.053775977 -0.1702483 0.05244446
-0.20068944 -0.16937664 0.083558224
-0.10365743 0.18391837 -0.115891345
0.08751481 -0.2564099 0.09717155
-0.060847465 0.088790424 0.06187694
0.2535357 0.09185557 -0.293684
0.07006073 -0.25265786 -0.21614985
0.05041983 -0.24103926 0.116638556
0.2015642 0.09154282 0.095776856
0.009398984 0.17538348 -0.3738511
-0.058506265 -0.19339927 0.11116955
-0.012649722 0.16448694 0.21344253
-0.2422028 -0.16225089 0.024766548
-0.1356024 0.20162839 0.13901797
-0.09381458 0.049892396 0.030867679
0.28689188 0.07273095 0.05726171
0.076537386 0.15894158 -0.2759215
0.008232403 0.16929257 0.12297014
-0.09311674 0.17455782 0.18703912
-0.13726433 0.13298738 -0.0036267797
0.22103353 0.08661123 0.13696425
-0.041771412 0.04194618 0.030068932
-0.058633875 0.11476035 0.06009282
-0.15668419 0.21054634 -0.1852972
0.10265175 -0.26306668 0.021163447
0.23953725 0.11863424 -0.0077401856
0.0856176 0.07002286 0.090093985
0.12812777 0.14621265 -0.24333078
0.13047859 -0.26309267 0.054001298
-0.24247643 0.19335712 -0.010126507
-0.07903297 0.14445476 0.041268557
0.10470856 -0.01843075 0.021052206
0.15425901 0.008120274 -0.0679205
0.33883825 0.09666194 -0.11811354
-0.117980644 0.18315879 0.17302531
0.08589472 0.04959758 0.04869414
0.20613812 0.09558577 -0.30121273
-0.13402236 -0.09957704 0.026468642
-0.16923481 -0.20166029 0.029402154
0.14447288 0.12635103 -0.004045532
0.07431495 -0.16839707 0.038060557
0.13641077 -0.26896057 0.043797668
-0.08465132 0.15511379 0.18820673
0.32467395 0.08021982 -0.04766082
-0.15104409 0.06824385 -0.06402805
0.0917036 0.14965734 0.18167138
0.043797858 0.1513591 -0.17850173
-0.10372626 -0.076822646 0.03274202
0.16566694 0.13864823 -0.2658637
0.017384242 -0.14212796 0.066995256
-0.0142064635 -0.23685056 0.03852363
0.14648558 -0.23884383 0.03825969
0.07771087 -0.25560838 -0.12076201
0.0047032386 0.06766769 0.07202706
0.1395526 0.1453606 -0.3287401
0.09445679 0.048142698 0.010974591
-0.11652429 -0.13600394 0.056258783
0.13613175 -0.23333152 -0.20956016
-0.07877145 0.046758592 0.03439561
-0.070846036 -0.10875354 0.026470443
0.14794688 0.03234363 -0.054051574
0.004926307 -0.07968178 0.05628403
0.13821252 -0.018183766 -0.056903623
-0.119986 -0.01207164 0.024531262
-0.06724018 -0.121951856 0.05217819
0.08327661 0.11066605 0.0729341
-0.15070343 0.19956525 0.14872171
-0.13402288 0.08149067 -0.0090988595
-0.011999044 -0.0034686 0.054390166
0.097652175 -0.014634038 -0.034000076
0.2796331 0.11134861 -0.14735869
-0.14805824 0.20468098 0.12068449
0.07634034 -0.11760028 -0.036148336
-0.11807271 -0.20986916 -0.2337573
0.013766465 -0.22983322 0.12956676
-0.092701666 0.0350765 0.03162217
0.04670736 0.13725469 -0.11830241
-0.035323523 -0.20361048 0.14498578
0.28060573 0.11018361 -0.07347243
-0.17943126 0.1784109 0.043252345
-0.2300939 -0.16931348 0.040125966
0.21214783 0.122991234 0.1360729
0.06955149 -0.11781388 -0.03332606
-0.13898882 -0.11239533 0.03667629
0.047922187 0.05817289 0.049906235
0.12382542 -0.23338948 0.012629073
0.09976184 -0.24346659 0.081941955
0.10801792 -0.027892986 0.018646944
0.2595014 0.08275664 -0.24208733
0.20860715 0.071465336 -0.15521726
0.12855324 -0.23439434 0.007566753
0.1086889 0.03122936 -0.03369028
0.32298863 0.096583545 -0.1201403
0.025046423 -0.24617074 0.072893575
0.31532025 0.068060115 -0.080399945
-0.23241366 0.20941238 -0.22827403
-0.1375168 0.20244117 0.10933727
-0.088056795 -0.040092412 0.03395741
-0.13961442 0.20246698 0.14442818
-0.017523168 -0.14979763 0.07813726
0.14259648 0.12642369 0.20611723
0.23994327 0.08375476 0.025809469
-0.07871207 -0.103569195 0.029545948
-0.15819722 -0.17035994 0.07323828
0.18205106 -0.25030148 -0.061886627
-0.11358673 0.109576926 0.012750851
0.029073881 0.06442062 0.07799294
-0.047636382 -0.2294839 0.05387958
0.07776051 0.09200818 0.072897024
0.11289355 0.00817974 -0.037933417
-0.25950825 -0.16513702 -0.01799337
-0.06686418 -0.215975 0.14369489
-0.012129068 -0.15322809 0.077382326
-0.0033406217 0.16092436 -0.09255826
-0.10576271 -0.14306127 0.08302808
-0.10488729 0.05466542 0.025384778
0.14569156 0.11240194 0.1822571
-0.1970305 -0.11880596 -0.14379573
0.03999981 -0.18970704 0.09094366
0.010789448 -0.062852755 0.055637646
-0.13652112 0.12180344 -0.13401881
0.041168027 0.13286443 0.21635917
0.25496548 0.08005198 0.049595505
0.08183655 0.0036951976 0.033020254
-0.019233443 0.14100942 0.13381496
-0.051981434 -0.011508056 0.028758567
0.041655995 -0.08146915 0.040696606
0.16937828 0.097799785 0.17587857
0.11888293 0.1335069 -0.110868216
0.33996677 0.071878105 -0.10608634
0.012150964 -0.23663305 0.13651514
-0.091107346 -0.1662671 0.07153983
0.018020496 -0.034448948 0.055663206
0.24286292 0.11669366 0.08515494
0.012963996 -0.24132615 -0.092163734
0.015315255 0.1181934 0.0816847
0.14673577 -0.27300283 0.01826026
-0.14907324 0.17124452 0.15415835
-0.07188771 -0.12096091 0.056892578
0.082960814 -0.15482382 -0.03457909
-0.029877352 0.17734504 0.16750057
-0.23195283 0.22561046 -0.031714223
-0.02522534 -0.20318247 0.14408463
0.030764867 -0.24296242 -0.27907404
-0.08130974 0.18019842 -0.22034328
0.33422494 0.0641571 -0.10964172
0.31142348 0.1036527 -0.10797143
0.21042308 0.11368205 0.15719151
-0.24711649 0.20443863 0.008689169
0.18213649 0.056965914 -0.14568274
-0.1018169 -0.1958138 0.13425177
0.17754513 0.05655071 -0.010684555
0.29387566 0.10647796 -0.0184745
0.25854573 0.113230534 0.07852023
0.2852992 0.07559015 -0.13809341
-0.21096244 0.22116844 -0.055687822
0.0056280647 -0.08350585 0.055578306
-0.024421746 -0.09042498 0.009009835
0.07459991 -0.25571746 -0.05721883
0.14263612 -0.27021042 -0.12754248
-0.12441145 -0.02687741 -0.18055713
-0.04738776 -0.10499258 0.017068272
-0.011904976 0.037152503 0.017493108
-0.06610297 0.1738238 0.19827312
-0.062366787 0.18593188 0.07083446
-0.012021681 0.12702532 0.077243656
-0.06285617 -0.22004682 0.14462446
-0.06230452 -0.035061337 0.030120026
0.03427415 0.09122749 0.08169454
0.044609733 -0.18775034 0.086614
0.06886873 -0.1519436 -0.010483825
0.09113573 0.098775454 0.093935646
0.18656667 0.116224386 0.17275056
0.050815538 0.1592419 0.15555711
-0.061332766 0.1692912 0.20022354
-0.07225957 0.19330145 -0.33034375
0.03203951 -0.15625821 0.07008894
-0.17426033 -0.09558306 -0.11642275
-0.08696893 0.19095011 0.1136504
0.01443083 0.1551987 0.04075306
-0.0020386511 0.16063753 -0.09315923
-0.001097853 0.12856628 0.0800001
0.13379616 0.027913963 -0.04544505
0.23250261 0.08710693 -0.10463067
0.19938734 0.122083284 0.16590099
-0.03130474 0.057778705 0.027844265
-0.0046617277 -0.060710754 0.062344335
-0.21816882 0.18758774 0.010976869
0.05945573 0.14691979 -0.11148697
-0.26156947 -0.15458107 -0.011097324
0.12084533 -0.16489525 -0.034441095
0.07503847 -0.094126105 -0.033076517
0.23537038 0.083645314 0.115241095
-0.09774249 -0.059718646 0.03319015
-0.15401804 -0.074595764 0.00954723
0.04280999 0.15153387 -0.17470427
0.06793741 -0.14376141 -0.035441875
0.16373442 0.123336956 -0.10910453
0.12984678 0.08646353 0.043596197
-0.19155462 -0.10413464 -0.056544445
-0.031263515 0.15124077 0.19969805
0.1390962 -0.06338522 -0.07065374
0.18006718 0.10178289 0.17434521
-0.14895071 0.20994724 -0.27525282
-0.14698999 -0.07399074 0.015705027
0.05882511 0.056022353 0.025189335
-0.027400998 0.17749237 0.11217222
0.16650002 0.13104492 0.20243724
0.16071203 0.05987968 0.00060530065
-0.04717545 -0.098025896 0.017728789
-0.13389426 0.15358679 -0.0028222871
0.100585446 0.127618 0.20818278
-0.063248456 -0.1385959 0.07550722
0.11183185 0.0053412905 -0.037793737
0.20682235 0.12223221 -0.14143777
-0.19241726 -0.16185413 0.0135152405
-0.10090163 -0.0585902 0.033006832
-0.05461521 0.18885835 -0.29507032
-0.22191708 0.22456472 -0.12745304
0.05319649 0.015984407 0.031554323
-0.10351281 0.065589085 0.024910146
-0.15638624 0.023457069 -0.030691119
-0.013044149 -0.08120204 0.036679722
-0.22060598 0.21938118 0.060907587
0.055109385 -0.14495103 -0.02949387
-0.12604168 0.20417418 -0.22910528
-0.02699146 -0.027405713 0.05044378
0.010455867 0.15955503 -0.22953421
0.072443165 0.052865144 0.031162558
-0.035875406 0.1436441 0.22219494
-0.11582177 -0.20939508 -0.31064448
-0.12429913 -0.21179192 0.13267197
-0.14804506 0.17115155 0.05566068
0.16641633 -0.25504863 -0.017889513
0.097932644 0.13815121 -0.103401296
0.26670814 0.11589879 -0.27446663
-0.14637007 -0.05141778 0.011858425
0.1933754 0.11620948 -0.07614615
0.19875434 0.11588201 -0.14569138
0.0085473815 0.13383989 0.20295116
-0.0848322 0.15610869 0.1136281
-0.15719177 -0.16929977 0.030980946
-0.03300216 -0.02817538 0.03725517
0.09042163 -0.09855095 -0.04000013
-0.01830153 0.16242793 0.054511067
-0.023588106 -0.23379296 -0.034591597
0.039775353 0.11490467 0.081949696
-0.11921946 0.1643412 0.078227766
0.112801604 -0.022735668 -0.041282523
-0.03043109 -0.19968915 0.10634328
0.0666838 -0.07718428 0.030667368
0.071706645 0.11957355 0.2011853
-0.2695556 -0.17750771 -0.08443863
0.105349205 0.14704862 0.14425743
0.07023177 0.012501429 0.002514196
0.040299173 -0.24904382 0.027727982
-0.12122588 -0.013135967 0.023957847
-0.051336966 -0.058875427 0.023686439
0.069542415 0.054521818 0.0680273
-0.19735016 0.18489677 -0.14686847
-0.16183303 -0.027777815 -0.01747276
-0.21096663 0.20361046 0.08198824
0.06812287 -0.22615342 0.11460413
0.061861742 -0.031890303 0.03756247
0.15503666 0.06932439 0.012130469
-0.03693553 -0.0026129598 0.023705063
-0.20502733 -0.13470596 -0.14571092
0.12960385 -0.2685581 -0.026224444
-0.07819823 -0.13744089 0.07248613
-0.2145021 0.22161609 -0.028079376
-0.16558959 -0.1992573 -0.22295263
-0.13842331 -0.0066782334 0.010604887
-0.14707382 0.2076505 -0.12887639
0.046767257 0.01762464 0.017022163
-0.08504456 -0.18703148 0.08274267
-0.1264797 -0.21211444 0.09047302
-0.09187868 0.09848846 0.038826194
0.24877377 0.08844106 0.11764145
-0.27608255 0.21528283 -0.058619585
0.13502121 0.13997619 0.1723609
-0.09259352 -0.023947358 0.033438593
-0.12717491 -0.21178828 0.077264965
-0.20934962 -0.17629223 0.067702495
-0.10894539 -0.137119 0.060606584
0.057524163 -0.17259 0.049828578
0.073115416 -0.10906382 -0.033877846
-0.0670203 0.1870519 0.06557486
-0.1672429 0.17792247 -0.13414727
0.2813687 0.1081005 0.07589159
-0.13782185 -0.026616415 0.014894341
0.11496457 -0.24665521 0.06757902
-0.21542104 -0.15527116 -0.0942576
0.12518457 -0.26547447 0.059589252
-0.07606932 -0.2231105 0.058525246
0.1588826 -0.24129772 0.010838491
-0.11689542 -0.011942485 0.026246732
-0.03652214 -0.22236824 -0.123827994
-0.12609248 -0.13384148 0.050060354
0.14416026 -0.09415737 -0.10025008
-0.12172876 -0.032981195 0.025936602
-0.094307505 -0.18543687 0.12190608
-0.12593763 -0.20899442 -0.16303372
-0.1069574 0.18987398 -0.19603743
-0.008798635 -0.12715927 -0.0014916394
-0.15035069 0.07128464 -0.062347233
0.14395015 -0.26983875 -0.17984825
-0.13021591 -0.10907301 0.03857595
0.14150406 0.14438748 -0.28718078
0.10064845 -0.25951368 -0.22115818
-0.15904696 0.18582764 0.14392188
0.08594986 0.049660847 0.042771675
0.01918144 -0.24385752 -0.0042157304
-0.061954804 -0.22673059 0.09188603
0.026414417 -0.103355974 -0.013689223
-0.15313843 0.17283472 0.014148871
-0.028762883 -0.23413287 0.08351577
0.08603678 0.15184803 0.11063159
0.13219582 -0.20633206 -0.008452434
0.1613859 0.12250796 -0.0027589083
0.22507137 0.12540501 -0.2812198
-0.16868137 -0.2013645 -0.0035151485
-0.09684368 0.15833573 0.15196589
-0.098204665 -0.10198103 0.032990467
0.28311142 0.09070407 0.0851758
-0.033060614 -0.22934073 -0.21512711
-0.0640628 0.08359444 0.043157514
0.005388346 -0.044168394 0.059911873
-0.17629005 0.18199146 -0.29223427
-0.045109957 0.18061255 0.18146048
-0.23660102 0.1919986 -0.007848828
-0.014845459 -0.23446092 -0.13699675
-0.16008872 0.21220693 -0.25490183
0.058964454 -0.12813786 -0.029999577
0.009018465 -0.24192263 0.024263145
0.13663626 0.03151471 -0.046286378
0.081573255 -0.17984247 0.0290525
0.17605719 0.09781083 0.05690558
0.04569043 -0.053988364 0.04196252
-0.17188996 -0.2005294 -0.012047064
-0.13605542 0.12890846 -0.0045724446
0.025381573 0.15531312 -0.16187735
-0.030239541 0.14362337 0.124121174
0.28729802 0.0749626 -0.124378696
-0.19757989 0.18225157 0.063999705
0.23556156 0.084326126 0.058651894
0.24305193 0.08547748 0.12282864
-0.01098511 0.023157548 0.015601524
0.0041476525 -0.20790723 0.13724206
0.21462682 0.12341196 0.05933872
0.19098277 0.12738988 0.16654447
-0.24182884 -0.15932986 0.030920511
-0.2217089 -0.15858246 0.059051402
0.18507114 0.13424112 -0.26452473
-0.1882571 0.17995413 0.07871401
-0.22745512 0.19235238 -0.1972729
-0.032667965 -0.18683043 0.07816105
0.21672907 0.1251599 -0.114499144
-0.07295906 0.15406832 0.063138686
-0.2281481 0.22496441 -0.04848571
-0.12562509 0.16676222 0.0022481564
-0.17680039 0.16375563 -0.15676896
0.07109692 -0.23762299 0.103857934
8.071506e-05 -0.18678498 0.073541164
0.11497787 0.15128294 -0.3570818
0.010881061 0.15939142 -0.22425948
-0.093802616 -0.18538472 0.10890268
-0.013666048 0.1637427 -0.13026547
0.3005657 0.07124341 -0.06830235
-0.09504776 0.18198277 -0.116832055
0.10407342 -0.03140812 -0.038496904
0.11368928 -0.1918269 -0.016745565
0.290481 0.108889274 -0.14694712
-0.12307561 -0.112358816 0.04583811
0.14675571 -0.05235582 -0.078718856
0.23874667 0.120481014 -0.13814257
-0.24585308 0.22232312 0.00015212772
-0.06368614 -0.111407585 0.023209086
0.109827146 -0.08688763 -0.047792085
-0.1980597 -0.13387784 -0.055453032
-0.15270647 0.15515 -0.14695895
-0.16042578 0.1927383 0.14134462
-0.13685973 0.20347168 0.017152628
0.0929738 0.11506167 0.1777545
-0.16012798 0.17289536 0.13305119
-0.09688131 0.018362774 0.03144113
-0.15764591 0.03903657 -0.06261758
-0.08138349 -0.016047794 0.034208998
0.026779715 -0.101820506 0.038696453
-0.12458513 -0.014465973 0.022282636
-0.18099163 0.21471809 -0.08151307
-0.02863262 0.061228167 0.027095344
-0.057235766 0.046231903 0.033853337
-0.02592302 0.17175142 0.22642328
0.13926451 0.038605925 -0.035977606
0.29539046 0.085465014 0.082839556
0.08387165 -0.25588694 -0.2079559
0.05868343 -0.05616222 0.036283154
0.0066237333 -0.092290394 0.054215606
0.069949076 0.16126642 -0.34115067
-0.0041391053 -0.14147751 0.07570433
0.18389067 0.09499517 0.13845967
-0.021038536 0.16376054 -0.0012672712
-0.08377227 -0.22139877 0.060945183
0.09942752 -0.26291814 0.06660508
0.13295001 -0.21750697 -0.15460488
-0.098766066 -0.036405116 0.03336072
-0.10913709 0.0052257855 0.028266488
-0.09321747 0.15722683 0.17451254
-0.19983834 -0.15990955 -0.0072496897
