# .PCD v0.7 - Point Cloud Data file format
VERSION 0.7
FIELDS x y z
SIZE 4 4 4
TYPE F F F
COUNT 1 1 1
WIDTH 1000
HEIGHT 1
VIEWPOINT 0 0 0 1 0 0 0
POINTS 1000
DATA ascii
-0.035853956 0.059301518 -0.119516246
0.108891256 -0.24400316 0.03452232
-0.06267918 0.2724153 -0.029900106
0.37572217 0.123875216 -0.122401975
-0.12840861 0.16832684 -0.030596538
0.24121428 -0.038002174 -0.014393092
-0.24382642 0.046998408 0.014521386
-0.06282127 -0.27213567 0.08377383
0.37719768 0.09636734 -0.06840326
0.03420325 -0.19616176 0.0504695
0.04306898 -0.06019931 -0.1462741
-0.17546706 0.047950044 0.0069532357
-0.20582065 0.20460455 -0.00012748402
-0.22477792 -0.12098272 0.05786009
0.19114596 -0.18191911 0.013061529
-0.23116742 -0.08596789 0.04908496
-0.1953046 -0.005832385 0.023602758
0.3020893 0.06353605 -0.044193827
0.19889823 -0.115306735 0.01101462
-0.0065211505 0.25191513 -0.066211805
0.011161565 0.21965966 -0.059390105
0.01932481 0.17099386 -0.04711709
0.24214445 0.0837701 -0.011543118
0.104125306 -0.11776399 0.021814559
-0.26817453 0.13332264 0.029650113
0.15493506 0.16628145 -0.060347583
0.23898204 0.17149355 -0.0780173
0.025952592 0.06851803 -0.025831375
-0.29630324 0.039208528 0.058080904
-0.25606582 -0.12353844 0.09773946
-0.10257985 -0.28419033 0.09302444
0.0050394945 0.113311805 -0.03000809
0.005636449 0.06440686 -0.07501156
-0.19703458 -0.04955949 0.035599556
0.002477275 -0.22032598 0.060389955
0.055216234 0.28773764 -0.046647903
-0.2926426 -0.001016693 0.068555206
0.20295271 0.019827886 -0.025922252
-0.18256833 -0.026740925 0.027888568
0.037060037 0.01955733 -0.12285815
0.15598983 0.042406827 -0.026998889
0.061358538 -0.075311 0.0149206715
-0.043192007 -0.24849004 0.07288215
-0.16203184 -0.22078007 0.105489634
-0.23767948 -0.14488178 0.07137975
0.2891994 0.10392252 -0.042960532
-0.109628715 0.21643515 -0.04560036
0.403939 0.03295182 -0.063596636
-0.068086855 0.06562097 -0.055042863
0.09313347 0.14508058 -0.048011
0.21797532 -0.12862985 0.048416447
-0.13070121 0.05591377 1.4350661e-05
0.17811719 0.197188 -0.035332557
-0.21770117 -0.16755322 0.105526
0.050921544 -0.043900732 -0.04165133
-0.15276694 0.18020497 -0.031199867
-0.16027194 -0.11581083 0.04956399
-0.15129185 0.1382049 -0.020012302
0.102866635 0.23715314 -0.05519976
-0.2879399 -0.0055526346 0.06927761
0.25407317 -0.08187998 0.031927463
0.06270622 0.23217613 -0.06828371
0.20553711 -0.059583843 -0.0047476953
0.28421232 0.16072398 -0.087911725
-0.15853538 -0.21281604 0.07558196
0.22797003 0.14451067 -0.035926573
-0.0035317407 -0.232791 0.06439977
0.0025765568 0.095455706 -0.024921032
0.34782797 0.13990675 -0.095907
-0.18849295 -0.14332904 0.060015652
-0.26748514 0.1432694 -0.016990734
0.041286185 -0.052502673 0.0019708187
-0.11718785 -0.043110408 0.025317928
0.09134285 -0.11628369 0.02278197
-0.1341087 -0.091066554 0.04008171
-0.16559903 -0.16772094 0.064155735
0.1475603 -0.19804361 0.07469764
0.032239974 -0.21208595 0.05498108
0.08551415 -0.02146935 -0.0022065605
-0.008790943 0.24756104 -0.06479283
-0.097905055 0.10281522 -0.01616278
-0.023998143 -0.22144875 0.063524984
-0.057194605 -0.08302856 0.029684532
-0.12617813 0.019341169 0.009409691
0.21783742 0.13174774 -0.02190346
0.03555258 -0.22701539 0.058659587
-0.21431911 -0.111989416 0.05431208
-0.09534901 -0.081224866 -0.07953618
0.21492809 0.005009695 -0.02320044
-0.13511726 -0.1289157 0.05041366
0.35882905 0.10235332 -0.063770324
0.044659603 -0.16184051 0.040080428
0.1571068 -0.14674324 0.023975782
-0.016697323 0.16536069 -0.04174296
-0.22495632 -0.03592956 0.034904223
-0.1727337 0.051186815 0.0057864785
-0.12198382 0.18429938 -0.035597954
-0.24675329 -0.12733632 0.07919814
-0.22507979 0.14089441 -0.012847206
-0.008917761 0.111688174 -0.028076857
0.20329615 0.029751383 -0.028639441
0.35584682 0.085994385 -0.056507453
0.0638543 0.2270198 -0.067013584
-0.0829539 -0.17107922 0.056223944
0.35045758 0.0780303 -0.05370425
0.04810126 -0.15325032 0.037391957
0.15316935 -0.021775326 -0.009359823
0.15823552 0.13969365 -0.053518314
-0.18890451 0.09166754 -0.0034186633
-0.1156167 0.27070862 -0.023777435
-0.0032956053 -0.16639228 0.046438504
-0.122133754 0.038983587 0.0036713989
0.021045871 0.2703389 -0.038966216
-0.13421983 -0.06336199 0.032610103
0.015450528 -0.1321707 0.035189692
-0.090772614 -0.22423175 0.07141809
0.1817042 -0.18990529 0.024074523
-0.32536834 0.08557112 -0.0089254435
0.0124133 -0.25133774 0.086273305
0.06957331 -0.2585991 0.050099943
0.15358645 0.04897534 -0.028516399
-0.1344464 0.20535526 -0.03995292
0.00014581191 0.051789455 -0.12227362
0.14348848 -0.096240066 0.011790219
-0.17630512 0.23980837 -0.008939821
0.24117534 0.098700166 -0.015472467
-0.08222696 -0.103362344 0.037854757
0.040506814 -0.18091327 0.04567673
-0.23596628 0.14521798 -0.012850785
-0.064289294 0.16461603 -0.036451697
0.34828398 0.12953568 -0.07767915
-0.0540838 0.09590681 -0.018983014
0.15512395 0.08525286 -0.038479816
0.053296283 -0.06782362 0.01376038
-0.1032087 -0.23031296 0.07439081
0.34843677 0.07969983 -0.05301511
-0.28305382 0.121091865 -0.001375757
0.026221503 0.2858901 -0.043047857
-0.15954538 0.17141698 -0.028101074
0.2638399 -0.048638318 0.021903284
-0.29786098 -0.042772964 0.049790874
0.1249894 -0.19597134 0.040708616
0.045874815 0.16960047 -0.049579907
0.22912602 0.14306812 -0.0352972
0.011214479 0.036888994 -0.14734574
-0.15883175 -0.1993607 0.07197897
0.18084326 -0.15586452 0.023901056
0.25705242 0.15493147 -0.066490434
-0.06644615 0.26750073 -0.04220401
0.05327252 0.102258526 -0.032180414
-0.049788363 0.2501537 -0.061108373
0.19708884 -0.054346 -0.0052589
-0.1194537 -0.18529986 0.0639695
-0.094849266 0.15475982 -0.03052094
-0.32415244 0.08862176 0.0035494836
-0.09881392 -0.11707424 0.043332208
-0.27910212 -0.06361826 0.0840173
-0.03273921 0.22514877 -0.056177206
-0.093897186 -0.26022324 0.117317446
0.18021311 -0.19007647 0.034444477
-0.17562364 0.0733653 0.00010507175
0.0894939 -0.029999116 -0.00032809316
-0.005631017 0.23416145 -0.061511125
-0.11884991 -0.040767986 0.024863118
-0.036733545 0.1344099 -0.031239297
0.31589156 0.06113578 -0.04490553
-0.22739136 -0.18337968 0.06093255
-0.037172824 -0.12055397 0.03767971
0.13096283 -0.13443115 0.023446094
0.05270475 -0.0037052038 -0.08600508
-0.019273693 -0.10564283 0.031737655
0.34035322 0.09727013 -0.05195386
-0.08634711 -0.24752931 0.08501525
0.15166946 -0.031303015 -0.0066257985
-0.15840204 -0.046053585 0.030521074
-0.042599283 0.22106774 -0.05402029
-0.14672823 0.11000613 -0.012883311
-0.06691708 0.20775136 -0.047822434
-0.13885038 -0.24539903 0.07711401
0.03080871 -0.1798322 0.046421755
-0.13813534 -0.095621325 0.04174284
0.19395772 -0.074126996 0.00041936993
-0.1689811 0.24448487 -0.030922716
-0.25562906 0.0021494387 0.027898531
-0.1504698 0.24655342 -0.013524982
-0.06917613 -0.26479954 0.115909934
0.075228244 -0.08815754 0.01690733
0.063469365 0.13387886 -0.04181258
-0.27882972 -0.033144694 0.039913546
-0.24958566 -0.12414409 0.06136693
0.053725302 -0.12692213 0.02967838
-0.3048787 -0.023195935 0.019685691
-0.032691736 -0.18022111 0.053318165
0.09688404 -0.19187473 0.042607874
-0.11112024 -0.19656141 0.066120125
0.17413674 -0.17313991 0.060694613
0.36197016 0.03983358 -0.064511985
0.061589275 0.26792002 -0.06877625
-0.26102865 0.1305551 0.0102842925
-0.11298208 -0.097888604 0.03966529
0.07339835 -0.050119586 0.006828104
-0.17074205 0.21249661 -0.0380002
-0.13813466 -0.22932118 0.11370161
0.10555756 -0.23216604 0.0884072
0.18251914 -0.17065373 0.06356033
0.065455526 0.21073778 -0.062786415
0.17657901 0.19551387 -0.034715604
-0.22735755 0.07437511 0.005364756
-0.2887406 0.050989076 0.022032162
0.21435326 0.17166528 -0.05921035
0.13406046 -0.13174498 0.022389377
-0.069987305 -0.067426115 0.026837971
-0.18700321 0.16471508 -0.023354162
0.050809395 -0.12780392 0.030228669
-0.22518931 -0.03878064 0.035699327
0.07421486 0.016694168 -0.011307293
0.08841757 0.22823445 -0.069968686
0.1965568 0.053302813 -0.034280904
0.18017738 -0.0690233 0.00051443774
0.23196346 -0.07773156 -0.0026716033
-0.15286274 -0.048064344 0.030471575
-0.08066904 -0.24708898 0.08278404
-0.03640946 0.16850339 -0.040483724
0.12544392 -0.119724706 0.020063972
-0.04783885 -0.26421314 0.09666881
0.24932934 -0.098053716 0.026168352
0.01748222 -0.16362697 0.04346964
0.07897713 -0.06501534 0.010255143
-0.023308378 0.08039929 -0.040894426
0.036465254 -0.010342576 -0.18532117
0.11213559 -0.1885184 0.04007002
0.108733885 0.19539899 -0.06327176
-0.15381333 -0.16425465 0.061959006
0.20431252 0.06869725 -0.039268762
0.2010697 -0.1440822 0.018555464
0.33193037 0.036758944 -0.06254937
-0.041849468 0.1472543 -0.034161787
0.35623702 0.072710186 -0.056144215
-0.19134022 -0.16274424 0.065564536
0.062162384 -0.19668342 0.047620516
0.060577776 0.14935827 -0.04568464
0.24852821 0.0745585 -0.009737699
-0.17069913 -0.22333112 0.083285674
-0.23818073 0.0715685 0.0072803386
0.014596093 -0.23138401 0.062081065
0.3911648 0.10191256 -0.07593831
-0.21874037 -0.056526806 0.039803218
0.24189757 0.009839287 -0.027389187
-0.16245222 0.19029737 -0.03289042
0.035285965 0.2667366 -0.04093811
-0.06266607 0.17908841 -0.040534753
-0.1876693 -0.1295327 0.056200836
0.15057953 0.1033514 -0.042882845
-0.0857005 0.23425712 -0.052973524
-0.15343736 -0.22857441 0.09732345
0.07845517 -0.23560129 0.07987258
-0.10742652 -0.220135 0.07209271
-0.211717 0.2132181 -0.023356527
0.2603982 -0.038916294 -0.01628107
0.23965526 -0.08810537 0.03515098
0.13337247 0.04948676 -0.026492395
-0.1208218 0.13991126 -0.023732025
-0.18613471 0.21950783 -0.015962657
-0.067770295 0.12856169 -0.02634014
0.3992216 0.048082206 -0.05988576
0.06962786 0.16321127 -0.05039474
0.07876471 -0.09985516 0.019689143
-0.21652216 -0.17247353 0.10672918
-0.06920006 0.2682836 -0.091079295
0.15006758 -0.018609827 -0.009883089
0.053181995 -0.03161908 -0.068454094
0.110822774 -0.20685151 0.045162797
-0.24892126 0.09307489 0.002619934
-0.2299521 -0.1269216 0.060017772
-0.26488584 0.054729912 0.0146850515
-0.26978657 0.14099136 -0.0038686693
0.090701476 0.22694369 -0.0698644
-0.019034913 0.26869398 -0.052259177
-0.034925334 -0.24532747 0.07114378
-0.29461193 -0.04112374 0.07268691
0.14576946 0.122341186 -0.047497712
-0.0901989 -0.14189693 0.049116623
-0.0936743 -0.09700284 0.037360948
0.17929688 -0.035995923 -0.008312901
-0.07747272 -0.069084525 0.02808654
0.38229826 0.09479459 -0.06847742
-0.009503918 -0.181457 0.051171873
-0.0063037444 -0.15582371 0.043905493
0.047121733 -0.0052063745 -0.12516525
-0.070327856 0.17389141 -0.038311284
0.3899711 0.07254795 -0.06036073
-0.20459892 -0.20844205 0.053664744
0.06329154 0.22790416 -0.06719228
-0.14716223 -0.14969803 0.05731551
-0.03139589 -0.17848298 0.052710015
-0.2027726 0.14595877 -0.016600875
-0.14714459 -0.0032920174 0.017765867
-0.2359117 -0.16514459 0.08117487
-0.16446394 -0.1763316 0.066360466
0.25305605 -0.075972684 0.0292198
-0.19605252 -0.09280886 0.047177356
0.07881343 -0.18087384 0.041569225
-0.08873317 0.076579414 -0.010056555
-0.021899126 -0.22720362 0.06485487
0.05677266 0.21081688 -0.06187916
0.28025436 0.13947584 -0.057872184
0.053561516 0.3021482 -0.050363805
-0.105773054 -0.11662599 0.043955423
0.09547478 -0.23213112 0.053633004
0.0428775 0.16916959 -0.049143083
-0.24230947 -0.054986525 0.04190802
-0.21481283 0.016500704 0.019656636
-0.25754052 0.1230766 -0.004562536
0.186839 0.025859637 -0.025828222
0.039923813 -0.17664222 0.04458522
0.18670571 -0.061808877 -0.0021324889
-0.28300214 -0.055742446 0.08230693
0.22064553 -0.1290387 0.048241165
-0.13120176 -0.098845914 0.041872155
-0.09342231 0.11738229 -0.020576937
-0.2248615 0.19114184 0.009399499
0.21262938 -0.060786642 -0.0051810374
-0.05027354 -0.13898289 0.044059
0.1022832 -0.17626508 0.03781392
-0.008578694 -0.1644934 0.046490762
0.18433064 0.18009299 -0.031379335
-0.2941282 -0.0031890033 0.06930098
-0.13158166 0.15017085 -0.025352642
-0.11184048 0.23219486 -0.04962061
0.17889151 0.0058476436 -0.019572612
-0.22355646 0.038663156 0.01460481
-0.049627114 -0.23624007 0.0702614
0.1182971 0.18791853 -0.06227366
-0.07354383 0.13525294 -0.027530184
-0.17024255 -0.13173951 0.0549331
0.119329974 0.067015395 -0.029725462
-0.23550981 -0.013777236 0.030048763
0.051748257 -0.027681647 -0.10078188
0.07292458 0.084059834 -0.029366389
0.32379228 0.100209616 -0.045350857
-0.15208182 0.22609517 -0.04366937
-0.27206933 0.13840419 0.0049565993
0.24983308 -0.08251502 0.032552533
0.09340704 -0.13997804 0.028961267
0.1272517 -0.03260981 -0.0036612793
0.028836673 -0.07636209 -0.06651164
0.18386735 -0.007935782 -0.016381448
-0.22701888 -0.032658916 0.034241166
-0.10850131 0.054554455 -0.0019927735
-0.032325044 -0.2540958 0.109077245
0.04982375 -0.005997748 -0.11010398
-0.23930545 0.12390951 -0.0067376685
0.21225707 0.071844645 -0.040968433
-0.22167104 0.081485614 0.0028357224
0.054011934 -0.05110476 0.009167592
0.14148802 0.094283864 -0.039461322
-0.08356564 0.23989916 -0.05472594
-0.19756962 -0.057703342 0.037856802
0.40179417 0.07665124 -0.062809624
-0.060299702 0.17833841 -0.040585183
0.019838892 0.03778036 -0.12524867
-0.23987682 -0.11308058 0.057340305
0.08435506 0.14854565 -0.048008066
0.10578051 -0.2264924 0.086850695
-0.08152791 0.15654762 -0.03242862
-0.12683153 -0.18687886 0.06518486
0.092447825 0.075005494 -0.029008554
0.22703663 -0.097498916 0.012852614
0.26054823 0.017289303 0.0008875891
-0.23937103 -0.16574556 0.06862583
0.06563753 -0.11533173 0.025273344
0.35877004 0.054752838 -0.059534684
0.09188385 0.0668528 -0.02674602
0.042312514 -0.06089037 -0.16114399
0.058838747 -0.09671005 0.020970346
0.032653946 -0.21599482 0.05599268
0.08752779 0.0615666 -0.024852447
0.24021515 0.01601397 -0.02887722
0.09988901 -0.15750471 0.033002507
-0.13776125 0.22337793 -0.044467118
-0.19179498 0.18336429 -0.02787934
0.1655295 0.06678869 -0.034605067
0.010127134 -0.09181189 0.024857305
-0.17236301 -0.21570097 0.10171349
-0.113057025 -0.10235717 0.04088038
-0.076047495 0.2807939 -0.030733455
0.08845077 0.17412083 -0.055354744
-0.15197793 -0.13685623 0.05436209
-0.28609726 -0.069922686 0.07938649
-0.07042212 0.110696204 -0.0212307
0.03783929 -0.22193412 0.05704276
-0.12952876 -0.11203402 0.04525604
-0.12211858 0.018006451 0.009336078
-0.26451024 -0.010178018 0.03217812
-0.15565804 0.18383603 -0.031871468
-0.022138799 0.08984088 -0.020761078
-0.08464552 0.068351634 -0.008271317
-0.28726423 0.044617783 0.055653382
-0.13916305 0.013208334 0.012455065
-0.2635746 0.072102934 0.009851933
0.1180928 -0.16274695 0.032471802
-0.27014706 -0.044780225 0.042128175
0.011241734 0.2788418 -0.07290342
0.11868159 0.092378035 -0.036507174
0.09953588 -0.2368002 0.0903028
0.34448874 0.071114175 -0.052019157
0.0057386025 0.07530209 -0.03937857
-0.013691849 -0.2499165 0.100216545
0.24414565 0.04144615 -0.023201957
0.06979047 -0.08026166 0.015355882
-0.2669723 0.09537687 0.0039285454
-0.13714388 -0.15576129 0.057882003
-0.29492483 -0.020493237 0.07406065
0.16858338 -0.020896407 -0.011245755
0.36859235 0.051560745 -0.059894662
0.16601133 -0.019757502 -0.011278414
-0.044553768 -0.1230876 0.039153427
0.24967739 0.1292348 -0.03476615
0.42095214 0.11098186 -0.12298097
0.3160942 0.068419404 -0.043107037
-0.117840596 -0.17600848 0.06128706
-0.26292953 0.13774069 0.027895775
-0.25657594 -0.057191417 0.04402925
0.04330622 -0.046660166 -0.17964189
-0.105430506 -0.14966863 0.05284459
0.3771203 0.027078958 -0.06950723
-0.28097048 -0.056338552 0.046407912
0.30327943 0.010496 -0.10356879
-0.2440218 -0.0068493364 0.029087564
0.053269893 -0.07480992 0.015650364
0.13909404 0.17054704 -0.059805583
0.09988094 0.23426002 -0.06839569
-0.21760474 -0.12743515 0.05883557
0.15798326 0.1987519 -0.04728784
0.19813237 0.13484225 -0.056475088
-0.27399808 0.015952708 0.026134383
-0.057871252 -0.15111427 0.048148498
0.05448111 0.13997777 -0.04249889
-0.16211888 0.02204206 0.012524213
-0.2948095 0.11888269 0.03639952
0.07599398 -0.16689217 0.03809393
0.38801944 0.09810152 -0.072255656
0.05872885 0.22743766 -0.06657839
-0.25203657 0.019626977 0.022793112
0.090808004 -0.078053474 0.012511689
-0.118286915 -0.08703559 0.03730059
0.31360623 0.14730567 -0.07856272
-0.253687 0.14376414 0.0062529873
0.04662676 0.09165432 -0.028605334
-0.02970465 -0.0912485 0.028964791
-0.016679782 -0.25752285 0.10832974
-0.22310773 0.1239501 -0.008480984
-0.21945827 -0.15881921 0.09573113
0.122094095 0.12329243 -0.04522277
-0.11621444 -0.07339808 0.033395547
-0.19975118 0.0442826 0.010541174
0.10398132 -0.13861513 0.0274621
-0.1398691 -0.012083559 0.019362617
0.246645 0.008857637 -0.021455027
0.07020725 0.1232705 -0.03966747
-0.07838784 -0.22183366 0.0694459
0.35623544 0.014861818 -0.08956501
0.3871005 0.091496706 -0.067324035
0.076458015 0.2478266 -0.057063043
-0.14309174 -0.23781209 0.08806895
-0.10232015 0.16764724 -0.03320301
-0.18301745 -0.077420115 0.04162637
-0.09067155 0.041184597 -0.104302846
-0.19515896 -0.112586506 0.05242402
-0.24781272 0.0028397497 0.02687599
0.14446229 -0.11850747 0.017700965
-0.14845468 0.12511434 -0.016779747
0.23293407 0.07549012 -0.044164583
0.1546372 0.15545496 -0.057390995
-0.22297017 -0.042719956 0.036525983
0.15281409 -0.19263583 0.06709168
0.077799916 -0.2087329 0.049202964
-0.239805 0.18254033 -0.028072216
0.07486291 0.23414168 -0.070114665
0.12823252 -0.032850347 -0.003701241
0.2444667 -0.08306586 -0.0010531341
-0.13006875 0.009519137 0.012479232
0.2209734 -0.03218934 -0.013798484
0.24819234 -0.0012399062 -0.0029801975
-0.10567931 0.23584014 -0.05126446
0.013431264 -0.17557237 0.047129545
-0.0536287 0.13920535 -0.030727845
0.2593925 0.015023076 0.005182409
-0.06252453 0.08328683 -0.014671324
-0.2285365 0.011232041 0.022547169
0.07284671 -0.04584422 0.005732076
0.2571195 -0.08608614 0.032737914
-0.04660811 0.16860624 -0.03942076
-0.20279072 -0.19314505 0.09901329
-0.037922982 -0.09548677 0.0309889
0.13893227 0.23363148 -0.040985893
-0.12605412 -0.25776276 0.088525765
0.058413144 0.17577125 -0.05258799
0.14400163 -0.20656927 0.077381395
-0.030810248 -0.08255937 0.026736004
-0.12967895 -0.24135138 0.112364076
0.0032807838 0.19383137 -0.051570196
-0.006208435 0.13448149 -0.03452369
-0.12827583 -0.15959059 0.057968363
0.12874319 0.07634589 -0.0332525
0.113390416 -0.07478324 0.009213218
-0.17195617 0.13389355 -0.016637694
0.33790177 0.11983425 -0.06048493
0.122641586 0.1432469 -0.050671667
0.18233903 -0.14781319 0.021566195
-0.06700267 0.04471652 -0.15481056
-0.24034369 0.01893108 0.021730393
0.303461 0.013667742 -0.09163911
-0.1592856 -0.0792502 0.039582424
-0.053570937 -0.121343344 0.039646722
-0.08307102 0.18869969 -0.040948622
0.027775304 0.028794888 -0.12952328
0.10329062 0.019961627 -0.015299674
0.053803936 0.17819633 -0.05275003
0.051900398 0.02475665 -0.048043966
-0.22532064 -0.056858584 0.040596914
-0.1584451 -0.09138127 0.042769805
-0.14355658 -0.2153288 0.1105017
-0.19029945 0.21241805 -0.035887416
0.008308325 0.21633889 -0.05818789
0.32726607 0.05679508 -0.050011914
0.007993162 0.047340203 -0.122208595
0.17220029 0.17104231 -0.06348017
-0.12927371 0.08561886 -0.008162422
0.1959496 -0.10995298 0.009883679
-0.044164874 -0.21845241 0.06487227
-0.19149874 -0.1893492 0.10861124
-0.09761336 0.03813187 -0.065526806
0.19268773 0.09328226 -0.044666197
0.20946753 0.05870835 -0.03712173
-0.07927809 0.159759 -0.03353653
-0.09764112 0.11993511 -0.02081528
0.37202215 0.08254837 -0.061068602
0.122384064 0.19507259 -0.06464337
-0.14664043 -0.22799361 0.11019445
0.27224615 -0.081893906 0.029987426
-0.20538753 -0.1531473 0.06447473
-0.2473584 -0.08641547 0.050937556
0.20393886 0.13264196 -0.05650154
0.33355987 0.066947795 -0.048920218
0.034393113 0.05519288 -0.042607162
-0.13267413 -0.09815313 0.04184254
0.05344754 0.13323875 -0.040567778
-0.22436377 -0.17406777 0.0929928
0.13896869 -0.048258442 -0.0006875601
-0.0022039085 -0.2752496 0.046006072
0.32028532 0.08476684 -0.042456295
-0.12334273 0.012487134 0.010958131
-0.19596955 -0.015848877 0.026379654
-0.24188787 -0.08907313 0.05107042
-0.07146667 0.059719037 -0.07433424
0.043953687 -0.23850314 0.060864236
-0.077450395 0.22264378 -0.050719004
-0.22127911 0.1250437 -0.008972249
0.19165826 0.047087464 -0.03207802
-0.25492314 -0.09115449 0.05302662
0.10545393 -0.17224143 0.036388006
0.12906 -0.08284891 0.0097158775
-0.088637955 0.16574633 -0.034152754
0.08454205 0.112360835 -0.038253643
-0.031633936 -0.22020924 0.06400668
-0.051541034 0.13237534 -0.029106284
-0.22109947 -0.13274622 0.06064402
0.10524122 -0.20701377 0.045803644
-0.29039228 -0.010808267 0.038023196
0.305229 0.09843417 -0.0432444
-0.0041297083 -0.10641056 -0.103613496
-0.048941102 -0.26801088 0.08215376
-0.02357267 -0.17380838 0.050610725
0.053328358 0.10816637 -0.033782497
0.27626714 0.15275176 -0.09972506
-0.04039836 -0.12305893 -0.13731258
0.0048123426 -0.24220067 0.066049114
-0.102834724 0.17916816 -0.036260013
0.03643626 -0.21471322 0.055241916
-0.011383894 -0.14965014 0.042781323
-0.11034734 -0.061767086 -0.08841752
-0.2472338 -0.091589175 0.05232168
0.13992514 0.21846041 -0.036994193
-0.26713502 0.010432504 0.026891656
0.12830216 0.017401867 -0.01728323
0.042386733 0.26022866 -0.058011897
0.06725593 0.057020918 -0.02145648
0.09537456 0.017200898 -0.013706922
-0.13911071 -0.17912562 0.0644039
-0.1972599 0.22023895 -0.050007608
0.19603167 -0.17367595 0.021359242
0.15875006 0.21047997 -0.03685147
0.18012606 0.11807201 -0.050018996
-0.10911915 -0.2854141 0.081165485
0.09625967 0.06847531 -0.027652426
-0.03478913 0.06571751 -0.095946334
-0.18266952 -0.20304005 0.111365214
-0.175127 -0.023796992 0.026297493
0.15080406 0.011633373 -0.018131401
-0.26351374 -0.11412034 0.09599224
0.18034811 -0.051259357 -0.0043023797
-0.26025668 0.08731937 0.005386864
-0.14820068 -0.18023635 0.06567595
-0.067341164 0.15099731 -0.032446533
-0.014130555 -0.20557104 0.05818062
-0.043164942 -0.2549365 0.110463694
-0.25702828 -0.051256545 0.04247451
-0.18338357 0.16439424 -0.023654526
-0.13884835 0.1789717 -0.032355115
-0.21248312 -0.11407979 0.054680172
-0.2917907 0.09967699 0.03549855
-0.023093848 0.2025012 -0.051091034
-0.060096424 -0.2004729 0.06171948
-0.024747893 0.18384422 -0.045874808
-0.22425923 -0.026910938 0.03239327
0.037844785 0.02638944 -0.10522985
0.045387294 0.112771794 -0.03417712
0.017876573 0.052908123 -0.08745499
0.20364381 -0.14294787 0.019928524
0.05345349 0.10483546 -0.03289577
-0.091229364 -0.1034481 0.038840286
-0.026717858 0.27485642 -0.034405597
-0.16112189 -0.16178277 0.06207287
-0.19840479 -0.15206094 0.06343405
0.0920033 -0.022844383 -0.0025290458
0.17270482 0.20352404 -0.036465257
-0.02940913 0.24609578 -0.062191747
-0.08894945 0.041590318 -0.10902185
0.046854928 0.029788181 -0.06055135
-0.27942485 0.08478117 0.041831996
0.4026933 0.03059169 -0.16458465
0.0633164 0.077573374 -0.026586475
0.030245855 -0.2272513 0.05929083
0.10069233 0.14259487 -0.04814808
-0.20730837 -0.083061434 0.045748044
0.09635004 0.12041873 -0.04169318
-0.07647217 -0.26405773 0.11649004
-0.23094411 -0.1820332 0.054310862
0.21799636 0.16280289 -0.04813077
0.11380259 0.070673585 -0.030122358
0.09741418 -0.22904031 0.068280734
-0.2265293 -0.121714376 0.05824509
-0.29007068 0.028103655 0.060414206
-0.26379913 -0.03846815 0.039744448
0.2962154 0.13824062 -0.061189204
-0.05115486 0.18194759 -0.042538162
0.24057966 0.014222488 -0.028432209
-0.2543485 0.107720844 -0.00075578043
-0.11599858 -0.17171608 0.059930492
0.11889131 0.17917372 -0.0599751
0.034255862 0.16388527 -0.046793565
-0.12484167 0.011285741 0.011442822
0.056760788 -0.23520158 0.058602694
-0.11488703 -0.2724077 0.10340337
-0.03479003 0.079026595 -0.04691797
0.009247621 0.06414407 -0.069943115
-0.07947137 -0.286296 0.06280153
0.20017104 0.16173667 -0.028114852
-0.16817547 0.23200421 -0.013646426
-0.19555019 -0.06956066 0.04084331
-0.25094455 -0.032796703 0.03683719
0.22607507 0.037745528 -0.033235174
-0.09078094 -0.061120898 -0.016582426
-0.19669813 -0.08221712 0.044385325
0.08261137 -0.13205676 0.02797598
0.052069195 -0.039557423 -0.043674856
-0.12898295 -0.06277736 0.031891808
0.2001592 0.119312964 -0.05249689
0.1212704 0.10954982 -0.041422397
0.15097535 -0.12869368 0.019755978
-0.24941386 0.152598 0.022437004
-0.2592866 -0.12587531 0.09146202
-0.043096412 -0.13173819 0.041334476
0.23476398 0.101239845 -0.015472831
-0.09172824 -0.12872666 0.045722272
-0.23938873 0.109408684 -0.0028117022
-0.052170627 0.18754774 -0.043942273
0.32637697 0.1478131 -0.086205415
-0.2207684 -0.15730116 0.0952503
-0.17593144 0.1066757 -0.008860271
0.17266338 -0.101076454 0.009976593
-0.19625819 0.16393244 -0.022152819
0.12257669 -0.19007707 0.039374497
-0.11958669 -0.19219413 0.06584587
-0.07386909 -0.10318202 -0.09911262
-0.1440936 -0.18302085 0.065989085
0.15202513 -0.15700464 0.027291186
0.06825236 0.27055064 -0.043399435
0.062676564 0.04947937 -0.018929496
0.24751432 -0.021312525 0.009523539
0.12689944 0.14854155 -0.052557226
-0.15489799 -0.18767571 0.06840194
0.27899083 0.08063809 -0.041440394
-0.15842378 -0.06890513 0.036696076
0.3354139 0.135481 -0.072576545
0.17806438 -0.061883796 -0.0011880554
-0.07265057 -0.15448426 0.050639592
-0.21460037 -0.15629868 0.06631134
-0.13156907 -0.13396859 0.05139893
0.012556605 0.06560465 -0.0595066
0.34762084 0.071172945 -0.053145148
0.10759225 0.24829243 -0.041594207
-0.14421342 0.047589585 0.003708061
-0.026841637 -0.13312902 0.039971676
0.41339457 0.05267904 -0.059760015
0.29162332 0.08060701 -0.041299745
-0.2958485 0.04094261 0.057563912
-0.25126866 0.14991574 0.023360226
-0.18121871 -0.22024454 0.07010318
-0.02118014 -0.12802637 0.037987895
0.3630331 0.12268887 -0.08435865
-0.08605241 -0.2793423 0.109598406
0.082418114 -0.13426365 0.028592836
0.08083587 -0.087838896 0.016221307
0.1464968 -0.15281735 0.026751403
0.14406757 -0.0935677 0.01100632
0.222741 0.12133405 -0.01961495
0.3650987 0.05377419 -0.059578095
0.039901514 0.03605695 -0.07477536
0.15930296 -0.07014713 0.0030503601
-0.14208972 0.15802537 -0.026350457
-0.28474033 -0.07619031 0.07659634
0.19993955 0.15715669 -0.02853538
0.40853682 0.043573197 -0.06048604
-0.11224369 -0.02060856 -0.036623187
-0.09948657 -0.24117894 0.08694471
-0.19194148 0.12270195 -0.011477081
0.0005540667 0.049072277 -0.13067567
-0.06383054 -0.08733199 0.03155665
-0.15075167 0.027562845 0.009816782
0.050300132 -0.044547748 -0.055607494
0.3016876 0.12347536 -0.051867094
-0.12016446 -0.18780918 0.0647231
0.039441977 0.052992135 -0.033661656
0.15776435 -0.040326327 -0.0048399847
0.20656049 0.16304313 -0.029150935
0.030267125 0.2116793 -0.05927728
0.22483729 0.17521621 -0.07629407
0.37021494 0.09383559 -0.06514845
-0.04237936 0.2552327 -0.06327278
-0.066214345 0.18605979 -0.04203831
-0.019032802 -0.08548229 0.0025958058
0.069281854 -0.021743964 -0.00039658882
-0.21213925 0.012395656 0.020479579
-0.018570883 0.2341798 -0.060132243
0.35506952 0.11324028 -0.067860864
-0.07357325 0.08100304 -0.012872686
-0.14248061 -0.2320734 0.105832465
0.12329191 -0.04219835 -0.000647692
0.11901217 -0.16313022 0.032476664
0.035653964 -0.06984608 0.016193353
0.0035506655 0.25608552 -0.068415284
0.07068059 -0.051922392 0.0076058963
-0.31803697 0.06708376 0.023966238
0.19639826 -0.14889237 0.052779768
-0.0044402005 0.2581264 -0.06811193
-0.21595587 0.19082028 -0.026099468
0.15084067 -0.07531756 0.0053525073
0.22426769 0.075044 -0.043117117
-0.008489877 0.08335082 -0.025097275
-0.2920756 0.027458461 0.060802788
0.33149362 0.10743857 -0.050856277
-0.03357952 0.10063409 -0.022453222
0.111645564 -0.17731857 0.0370972
0.18891358 0.10221501 -0.0466753
0.13126242 -0.07252684 0.006692121
0.054003473 0.12508729 -0.038425233
0.12552652 -0.035950944 -0.0025743474
0.24601194 0.041339178 -0.009699248
0.0238383 -0.2520342 0.102513894
0.0057038087 -0.11514123 0.031631943
0.15092388 -0.051496338 -0.0010915566
0.06666789 -0.14804904 0.034001
-0.09205901 -0.2003756 0.06511173
0.03889124 -0.057262655 -0.012278583
0.04903911 -0.045856785 -0.08395515
0.10355212 0.025491243 -0.016821187
0.04413693 -0.15055323 0.037087128
0.2542594 0.008234818 -0.05376506
0.1380651 -0.16183048 0.03008789
0.15302458 -0.09309343 0.009920238
0.3440507 0.14373541 -0.09916688
-0.10685341 -0.06787217 0.030901734
-0.31985816 0.099517025 0.040983804
-0.15963535 0.08784823 -0.005517423
0.026139775 0.16124246 -0.045211546
0.39828363 0.073263995 -0.061266568
-0.07562343 -0.068989694 0.027863175
0.23352624 -0.020655435 -0.01825637
0.19744264 0.0622893 -0.036803123
-0.08292925 0.06312554 -0.019313471
0.07179683 0.22614102 -0.06762551
0.07964977 -0.05065691 0.00630471
0.16947792 -0.1782579 0.06700902
-0.17094292 -0.1573847 0.061935168
-0.104560524 -0.091148965 0.03694403
0.08324175 -0.01830084 -0.0028196925
0.1720572 -0.18649553 0.068958305
0.34014705 0.035856977 -0.06518364
0.21845561 -0.050918087 -0.008470146
-0.22624147 -0.025601756 0.032251462
0.1851693 0.006239278 -0.020349775
-0.09923358 -0.2637704 0.11884659
-0.18392828 -0.0860225 0.04404737
-0.23392224 0.19184245 -0.009303757
0.24368106 0.099893115 -0.018543305
-0.11934337 -0.23048349 0.11200572
0.048837148 0.06668977 -0.02209824
-0.30871144 0.081271775 0.04804564
-0.32134196 0.06948887 0.018472025
-0.280433 0.017383594 0.026436167
-0.15851723 -0.1673826 0.06330699
-0.029304624 0.1993308 -0.049570583
-0.055706643 0.13641644 -0.029752133
0.06386807 0.23056944 -0.06797372
-0.23938894 0.09620681 0.00075455115
0.017824687 0.20809525 -0.05697865
-0.15425807 0.15599726 -0.024501609
-0.08268576 0.22242023 -0.050098516
0.046018347 -0.21683107 0.054789476
-0.21230881 -0.05246932 0.038019393
0.056225415 0.1838986 -0.05454938
0.17539391 0.19772062 -0.03518501
-0.06633506 -0.18109885 0.057153393
-0.045131024 0.18830088 -0.04489868
-0.19949819 -0.143831 0.061328333
-0.15555163 -0.21023554 0.10379926
-0.22182602 0.19944352 0.0068323626
-0.13881083 0.19287184 -0.036114167
-0.12551573 0.07582354 -0.005918307
0.02470026 -0.24876106 0.089283586
0.2027768 0.09463901 -0.046111654
0.089011125 -0.18321662 0.041111168
0.17749067 0.19093303 -0.065251626
-0.24140696 0.16449311 0.008958157
0.057367403 0.009755648 -0.041449044
0.17133625 0.013505904 -0.020833129
-0.09942648 -0.07458992 0.031921797
-0.22971746 0.094297886 0.0002357347
-0.063879855 -0.26169795 0.114505835
0.14020783 0.077226005 -0.034716617
-0.074773245 -0.1984905 0.06275389
-0.07564933 0.07283087 -0.010443431
0.04804409 -0.050066542 -0.07828211
0.071331926 0.24583256 -0.069928594
0.037611388 -0.24445282 0.09573353
0.0992954 0.0053532007 -0.010926391
-0.116512544 0.032039814 0.004945635
0.05335299 0.014206301 -0.06024043
0.16096355 0.03874083 -0.02654043
-0.124400616 0.009850017 0.011783595
0.15269746 -0.21808799 0.024153957
-0.0035439353 -0.08831345 -0.027094148
-0.091981225 0.11714589 -0.020667337
-0.2346651 0.010885443 0.023296433
-0.29464465 0.049307756 0.055175498
-0.06225899 0.118775934 -0.024286117
0.18140464 -0.059687085 -0.0021387828
0.03780095 -0.08453137 0.019930605
-0.080335625 -0.10509455 0.038120247
-0.07907705 0.09196124 -0.0152442185
0.02315176 -0.21467118 0.0566515
0.22454847 -0.07642661 -0.0022312005
0.15638344 0.009030242 -0.018025009
0.2425795 0.1138363 -0.028166668
-0.19580011 -0.11691372 0.05366182
0.020448508 -0.16390938 0.043228555
0.024414115 -0.17294589 0.045245424
-0.26430455 0.13603051 0.028504657
0.066609085 0.09548471 -0.031777292
0.095872365 -0.16944866 0.036658414
-0.122354954 -0.17366801 0.06113753
-0.016485611 0.061517347 -0.10558583
0.13050826 0.12266646 -0.045953505
-0.098195925 -0.102602445 0.03935709
-0.23420836 0.19249971 -0.00061412767
0.3097733 0.085852616 -0.042039085
0.080738485 0.12461496 -0.041157056
0.35336608 0.047102153 -0.061807603
0.087326825 0.059089575 -0.024161791
0.30539012 0.14523922 -0.07200894
0.17521189 0.11168866 -0.047769215
-0.16792397 0.08312641 -0.0033553748
-0.048583947 -0.25336105 0.11061764
-0.12523495 0.22505808 -0.046260282
0.021926736 -0.19796984 0.052271035
-0.09258894 0.2402868 -0.05386551
0.16899937 0.16457346 -0.061390232
-0.0973754 -0.049803637 0.0250071
-0.28028855 -0.11124306 0.034452822
-0.043103207 -0.21002665 0.06248305
-0.18457891 0.2190024 -0.02482974
-0.23936746 -0.048251577 0.039774068
0.09117374 -0.2331437 0.09020983
-0.06120006 0.102929756 -0.020118782
0.09633124 -0.09982175 0.01780099
0.060402773 -0.038631484 0.005114715
0.027550874 -0.21510491 0.056298185
-0.16105673 0.10834538 -0.01090215
0.049032286 0.2308301 -0.06645749
-0.007462855 0.23395415 -0.06125944
-0.05095841 -0.26688173 0.08913465
-0.08865565 -0.2870428 0.08076209
-0.22018158 0.031768586 0.01610657
0.3066948 0.117921025 -0.04973846
-0.15848273 -0.13098639 0.053471826
-0.05518625 -0.21057443 0.06392315
-0.23891056 0.08140899 0.0047002696
0.26945165 0.09557229 -0.04058161
0.10833808 -0.23255828 0.08821558
0.21510762 -0.10768111 0.007221145
-0.26918468 -0.0757722 0.05039674
-0.021887045 0.045163766 -0.16556653
0.09328921 0.037217773 -0.018891497
-0.15659001 -0.06880631 0.036473088
-0.07369433 0.2293158 -0.052922927
0.37374017 0.03240384 -0.066890106
-0.093476206 0.21935783 -0.04811723
0.014445172 -0.15171784 0.04057737
0.0025349185 0.18805785 -0.049930733
-0.30564645 0.035114 0.018019551
0.3791848 0.06304545 -0.058745667
-0.20738858 0.2179332 -0.01780101
0.07205024 -0.08151763 0.015453512
0.08667091 0.07160215 -0.027471494
0.19521475 0.01155902 -0.02286127
-0.24133267 -0.09325171 0.052139584
0.25770086 -0.027638802 0.01688745
-0.08653828 -0.062765844 0.027349632
-0.22525951 -0.116075836 0.05658604
-0.105543114 -0.18174627 0.0615217
0.018824773 0.07035854 -0.033831626
-0.037852127 -0.094019376 0.03058457
-0.066958524 -0.14157842 0.046544407
0.3185151 0.046602327 -0.05247112
0.008294257 -0.18273997 0.049615063
0.03628417 0.008704035 -0.14806001
0.0819301 -0.2023246 0.047029868
-0.16770712 0.14269277 -0.019469008
0.1547057 -0.21391487 0.038184136
-0.17841308 -0.2197699 0.077346936
0.04164428 -0.16442883 0.041102294
-0.1648917 0.15838647 -0.024009256
-0.016836148 -0.21908277 0.06211987
0.18044838 -0.06670441 -0.00014074551
0.05013467 -0.07590584 0.016281629
-0.25576743 -0.12639838 0.098480366
0.05865138 0.1325977 -0.04095111
-0.26024193 0.073942736 0.008998649
0.18154511 -0.032234434 -0.009569337
-5.035216e-05 -0.25401384 0.082974
-0.05676666 0.14329888 -0.031497933
-0.06918822 0.14281456 -0.030038541
0.043498445 0.16409944 -0.04784003
-0.011641302 0.0550888 -0.12467497
0.38813683 0.07889856 -0.061860945
-0.22310166 -0.12116489 0.057729915
0.1869322 -0.14717102 0.020901548
0.26214588 0.04945534 -0.055363365
0.13679077 -0.006637167 -0.011697423
-0.018331684 0.14803398 -0.036887717
-0.11175782 -0.19185571 0.064917214
-0.21308123 -0.13973965 0.061675884
-0.18291031 0.0761164 0.00014097174
0.058069903 -0.11240572 0.025292477
-0.24237923 -0.015567235 0.031267073
-0.20882939 -0.009380887 0.026007807
0.12558231 -0.098930165 0.0144318
0.19528137 0.14516114 -0.05895749
0.03476175 -0.13658758 0.034317452
0.014785639 0.10303836 -0.028275028
-0.20348865 0.18126197 -0.026060719
0.07496855 0.03265343 -0.015699197
-0.091471426 0.123443656 -0.022422878
-0.2045555 0.21015921 0.0020903884
-0.15293398 -0.073109895 0.03724456
0.1489633 -0.110931665 0.015173579
0.20568034 0.17677781 -0.065217026
0.19072105 0.1306201 -0.054541714
-0.2250587 0.18441774 0.005520295
0.25168166 0.12793684 -0.037010122
-0.13282424 -0.07880977 0.036633596
0.16031583 -0.06095677 0.0004598576
-0.26530904 -0.097119115 0.09159181
0.24110395 -0.11344549 -0.022319864
-0.09623359 0.18389943 -0.038244095
0.20221601 0.015117687 -0.024571182
0.27259412 -0.079587 0.029327279
0.049893677 -0.10970347 0.025437133
-0.051373333 0.08079902 -0.024381977
-0.2346371 0.036379974 0.016406564
-0.14346287 -0.08354308 0.039050143
0.42318755 0.0862646 -0.071938194
0.08464054 -0.15380411 0.0336336
0.1606284 0.07734821 -0.036933176
-0.27046698 0.05192417 0.016039992
-0.2152615 0.06637116 0.006233151
-0.12830958 -0.07870686 0.036122847
-0.22831175 0.1334832 -0.010499643
