# .PCD v0.7 - Point Cloud Data file format
VERSION 0.7
FIELDS x y z
SIZE 4 4 4
TYPE F F F
COUNT 1 1 1
WIDTH 1000
HEIGHT 1
VIEWPOINT 0 0 0 1 0 0 0
POINTS 1000
DATA ascii
-0.20112519 -0.07785219 -0.17766406
-0.08191723 -0.2765797 -0.10025436
0.21280596 0.11141727 0.08815711
0.19566748 -0.051101834 0.09915938
-0.16367844 -0.15352878 -0.1311916
-0.051889755 0.24216376 -0.18241307
-0.044764824 0.24216163 -0.1857508
-0.11727045 0.011476406 -0.002842178
-0.09079 0.07309434 0.056186195
0.14948933 0.064709455 0.13071564
-0.045949206 0.08495409 0.11575626
-0.0052460735 0.07886911 0.16247126
-0.049855307 0.23526555 -0.17655277
-0.19149393 0.14781506 -0.11990894
0.2260956 0.13366857 0.057106115
-0.12754461 0.07292979 -0.2017301
0.048816774 0.017765308 0.17218447
-0.049767002 -0.1018024 -0.09127953
0.018019095 -0.13225605 0.098493166
0.0058540674 -0.14597043 0.077748016
-0.10531109 -0.11556366 -0.11417408
0.07960577 -0.049527008 0.10816547
0.20839062 -0.06650527 0.07489012
0.08630628 -0.0368518 0.22298695
-0.21713784 0.023613542 -0.25826725
0.028121026 0.085618116 0.11386208
0.015578639 -0.3056373 0.013526786
-0.21167694 0.14766155 -0.11804783
0.12620974 -0.15739636 -0.05825859
0.035222895 0.17375305 0.03973239
-0.18785821 0.09617123 -0.1756944
-0.23465653 0.076696895 -0.1406479
0.11653937 0.0815547 0.09810421
0.2144241 -0.03229103 0.090054534
-0.01100055 -0.073955014 -0.07991187
0.18678086 0.083160356 0.11746924
-0.01911235 -0.2597525 -0.0022240856
0.08647477 -0.11009434 0.027469145
0.113126695 -0.042560305 0.21126334
0.01721389 -0.067288734 0.12588747
-0.012854066 -0.27519318 -0.0013756905
0.16792008 -0.14072904 -0.004435346
0.24038081 0.033358816 0.07279344
-0.035940252 -0.04631068 -0.10714483
-0.07537496 0.04421969 -0.15098736
0.053735353 -0.14166829 0.031141087
0.06560907 -0.062702216 0.18659249
-0.17102472 -0.14577289 -0.13671537
-0.13572262 -0.1316283 -0.08771775
-0.16391042 0.0570818 -0.2324751
0.08147248 -0.045413617 0.1089358
-0.20182684 0.104410775 -0.14078261
0.0020948655 0.15254362 -0.009712919
0.18280585 0.1483389 0.08466649
-0.088738255 -0.06835622 -0.12646317
-0.09957823 0.106599845 -0.15310386
-0.039194763 0.062264882 0.11404116
-0.120914705 -0.18585731 -0.09343763
0.041363727 0.10472417 0.08412235
-0.19784482 -0.083130404 -0.14189167
0.106947616 0.14079657 0.11234025
0.015630143 -0.116544284 0.102456465
-0.1419694 0.14524506 -0.15789834
-0.027566887 -0.26405343 -0.014357545
0.05770643 -0.043702222 0.18530406
0.19039658 0.06486187 0.1211805
-0.10098949 -0.07777792 -0.11832868
-0.11206877 -0.1666585 -0.07432377
-0.071735874 0.089211136 0.08633685
-0.123947375 -0.005062653 -0.018163672
-0.029855017 0.24119836 -0.19537205
-0.23643477 0.10685859 -0.0892071
-0.15961409 0.14901477 -0.12548354
-0.05268457 -0.07621424 -0.083644114
-0.11532661 0.16883735 -0.14502744
0.08505607 -0.03052997 0.113289945
-0.086877756 0.15693569 0.08517476
-0.15540728 0.19005167 -0.15001388
0.14609084 -0.1305195 0.041336928
0.09682855 -0.11377265 -0.011103586
0.24959332 0.09273195 0.058534365
0.035989698 -0.14919654 -0.06482548
0.22339708 0.028380439 0.098405786
-0.0723344 0.24148287 -0.17215617
-0.014233366 0.23034075 -0.20683633
-0.1303069 -0.0108500905 -0.21323235
0.08186881 0.1433 0.083014145
0.03546286 0.12513308 0.05096845
-0.25839794 0.09160593 -0.08011672
-0.12770723 0.1727868 0.054942235
-0.10824802 -0.021472856 -0.19111449
0.01333241 -0.05320984 0.12732774
-0.06758224 -0.18004608 -0.051716898
0.23248076 -0.06567813 0.047818866
-0.103823304 0.16086547 0.07870702
0.14403047 0.034481708 0.11089363
0.095561795 -0.047060408 0.22620642
-0.14128499 -0.03191597 -0.050920762
0.21621369 -0.0550835 0.07474394
-0.05137093 0.15398929 -0.07393477
0.04288738 -0.13916539 0.04922094
-0.032186557 -0.22809444 -0.0042575886
0.014972698 0.0074296626 0.15579851
-0.101515464 -0.16689117 -0.071549274
-0.082171306 0.117846794 -0.12707831
-0.08295487 -0.08049743 -0.13434082
-0.17179397 0.11486159 -0.1668351
-0.17303406 -0.09723632 -0.11795667
-0.064037964 0.20669973 -0.1414311
0.04793707 -0.094093844 0.10296213
0.1475813 0.10659911 0.13247697
-0.18117355 0.14786224 -0.12078355
0.04774751 0.052089408 0.13096656
0.1754786 0.19846936 0.02199755
0.24923445 -0.085607216 -0.02280023
0.06623478 0.019162903 0.13167988
0.13804732 0.0316877 0.102416046
0.14641397 -0.14327636 0.029049274
0.0068352204 -0.006733475 0.1397427
-0.0693791 -0.12827939 -0.13175176
-0.2087549 -0.12849584 -0.17493588
-0.22849785 0.12505932 -0.10186742
-0.048251722 -0.140607 -0.1260543
0.0064518307 -0.17872378 0.05937537
0.015167626 0.027068106 0.16461113
-0.12326732 -0.16534035 -0.08733145
0.042476583 0.19797005 0.051997695
0.002671336 0.09359068 0.14302093
-0.07805986 0.15841672 0.07809064
-0.21367729 -0.10137206 -0.16906215
0.12144799 0.14020173 0.12171993
-0.1312568 -0.05249856 -0.057092376
0.2243126 0.041026335 0.09743213
-0.069426104 -0.23844458 -0.053948093
0.002172002 -0.12746279 -0.096354485
0.034108445 0.1939471 0.047199067
0.102463 0.09899783 0.088647336
-0.012817934 0.08541033 -0.005968478
-0.16169822 0.033821005 -0.23180136
-0.10149996 0.025571818 0.011639251
0.16584015 -0.03683423 0.10620472
0.267584 0.025355019 0.047154438
0.13370672 0.18718083 0.06661083
0.14627412 0.21889581 -0.00589884
0.01811639 -0.08105004 0.12097279
-0.13855986 -0.03049118 -0.2389288
-0.18068062 -0.12622525 -0.13989103
-0.08227068 0.1405547 0.08547251
0.108388044 -0.022875855 0.2192924
-0.18590811 -0.00971053 -0.3590045
0.0701602 -0.16885816 -0.044552825
-0.061425995 0.13320813 0.07669117
0.22735085 -0.008977112 0.08762559
-0.09896258 -0.06319186 -0.11037575
0.04537992 -0.175679 -0.0027366471
0.038120825 0.14170903 0.03186285
-0.04177379 -0.12229439 -0.1474028
-0.032766838 0.093692854 0.1355626
0.09994934 0.0024157015 0.10583427
0.22494996 0.065219514 0.09578972
-0.15789093 0.113641806 -0.18943639
0.11653493 -0.017435689 0.21348332
-0.1071783 0.090366006 -0.16941187
-0.05121436 -0.0349623 -0.120715916
0.036795303 -0.22376408 -0.053813133
-0.27889457 0.026952112 -0.16242844
-0.13352405 -0.04684622 -0.048026685
-0.051344633 -0.23028046 -0.028450584
0.13676369 -0.099325046 0.043646343
-0.12933233 0.03802391 -0.0058796126
0.10590195 0.007879885 0.2043417
-0.018339442 -0.17941368 -0.07283412
-0.08903639 0.036605828 0.010428781
-0.14967209 -0.09305292 -0.0877925
0.19733866 -0.024039395 0.11089936
-0.05506084 0.072151415 0.050678134
0.015832568 -0.19114468 0.016296297
-0.09973696 0.035148963 0.022567792
0.06593471 0.19846123 0.060161754
0.051936444 0.21444798 0.015282893
-0.22668397 0.09423642 -0.12187271
0.10389122 0.13899875 0.10784809
-0.07107821 -0.21613649 -0.046209842
0.021039544 -0.25761485 -0.09682127
0.259738 -0.033273242 0.029631738
-0.1176071 -0.06534148 -0.090906784
-0.06033572 -0.24350579 -0.045131885
0.26343417 -0.04550714 0.014250894
-0.23820151 0.14129114 -0.11163008
-0.1380151 0.022310982 -0.21519932
0.16776852 0.019479709 0.133136
0.011989725 -0.17263858 0.06025523
-0.080895774 -0.036762394 -0.101926915
0.1180366 0.17899078 0.082261264
0.16609313 0.09941065 0.12539859
-0.079266936 0.047423135 0.012597134
0.13554394 0.18642376 0.066617
0.037092946 -0.08421754 0.13484456
-0.057422332 0.07031979 0.07012571
0.07982348 -0.09018701 0.06506081
0.028495621 0.13483949 0.029804917
-0.031640586 0.118262745 0.025827784
0.12678447 -0.16045031 -0.013385996
-0.09345625 -0.06869119 -0.12141538
-0.17072006 0.13308536 -0.13670826
0.09605415 0.011044156 0.20526767
-0.00769045 0.13271707 -0.023132503
-0.04223463 -0.13315733 -0.13944846
0.05549377 -0.08039038 0.10975889
0.08064524 -0.06952293 0.20185246
0.053532057 -0.098545074 -0.021427393
-0.04491379 -0.19488472 -0.025727792
0.07716922 -0.023936696 0.2175436
-0.047983 -0.23031707 -0.02438885
-0.021468379 -0.20731363 0.01781827
0.15196027 0.16969861 0.07990761
-0.037072342 -0.30716506 -0.044713777
0.1227854 0.014369213 0.09163735
-0.1117672 0.07701821 0.032455146
0.111344635 -0.0030763226 0.096192054
-0.09172734 0.06894423 0.05323753
-0.026365532 0.24578911 -0.22243248
-0.16881691 0.062105622 -0.23596264
-0.11301764 -0.023797818 -0.041481413
-0.037939098 0.057945628 -0.027620565
0.117685586 0.10912452 0.11153427
-0.009829794 0.04230203 0.14094236
-0.11196459 0.11190711 0.047451563
-0.049293578 -0.22246797 -0.022550955
0.11432401 0.006453019 0.094333604
-0.16071713 -0.11304924 -0.10992172
0.1464711 -0.14776447 0.014981201
-0.23852065 0.14355119 -0.11303789
-0.16124894 0.02477632 -0.23484743
-0.15354052 0.14403786 -0.14295517
-0.29430327 0.104622215 -0.08467169
0.25500473 -0.039785374 0.030830152
-0.018764101 0.10976929 0.12650113
0.062311243 0.05492519 0.120484605
0.01189296 -0.21818538 -0.011621416
0.0059355786 -0.26977757 0.015251336
-0.13647828 -0.01612535 -0.22302152
0.15041836 -0.12923028 0.044078488
-0.076387644 -0.30677322 -0.0922314
0.2251017 0.009549826 0.09433268
-0.07901259 -0.27680698 -0.08232927
0.07289837 -0.1605318 -0.045045428
0.1774538 0.11051124 0.11295007
0.094079435 0.10190482 0.081324644
0.11454727 -0.010585691 0.21294157
0.22795378 0.04716124 0.09343076
0.07434153 -0.14568682 -0.0063041323
0.07111719 -0.005912734 0.21807395
-0.13774207 0.19807436 -0.15669037
-0.21681277 -0.13540816 -0.18772884
-0.048881087 -0.004811415 -0.09761011
0.17457515 -0.12481042 0.03871492
-0.096923165 0.07011648 0.04744701
-0.25164703 0.05994582 -0.14304584
0.0018860259 -0.24578017 0.00813425
0.120111115 0.15622775 0.108609594
0.06925542 -0.1122596 0.0496808
-0.25932792 0.020875111 -0.20144804
0.11637052 0.18553537 0.07379091
0.11014905 0.15157285 0.113821074
-0.036621217 0.079360016 0.12462804
0.09413103 0.20992424 0.034716144
0.07768334 -0.1432003 -0.007936439
0.025328375 -0.28167298 0.008635832
-0.10438822 0.19786169 -0.15913017
0.045549136 -0.111694776 0.08175736
0.21636 0.050367065 0.10342905
0.17178474 0.07389276 0.1309601
0.11643983 -0.0096917 0.21065974
0.04477623 0.0009638533 0.18912551
-0.13803712 0.16534336 -0.13578594
0.15813434 -0.040657606 0.09518794
-0.052220978 -0.074324384 -0.08225662
0.016120784 -0.20478728 -0.0024367548
0.026127506 -0.11776264 0.10810655
0.1341041 0.14290562 0.1138568
0.11524834 0.20963128 0.034553055
0.23020947 -0.029768532 0.07576483
-0.24968281 -0.0007164585 -0.2656229
-0.10888389 -0.09811272 -0.11465441
-0.1858777 -0.14590067 -0.15478759
0.0056315036 -0.20240551 0.032063257
0.08789481 0.20836622 0.038751334
0.04066368 0.19123842 0.053967495
0.08934184 0.07370109 0.09352092
0.053251047 0.0052140676 0.20126149
-0.15150303 0.17160745 -0.13864057
-0.15495297 0.029865695 -0.22534667
0.06534842 -0.18250898 -0.05570146
0.00787504 -0.10798491 0.09678792
0.049178828 -0.1582013 0.01506577
-0.08709321 0.05748246 -0.15940952
-0.102317706 0.124327615 0.064577304
0.19400045 0.09366334 0.1089551
0.17976707 0.063566424 0.12909442
0.0019333124 -0.11065358 0.088414975
0.03518129 -0.31237575 -0.011917604
0.020189598 0.12247893 0.05492763
-0.09620296 0.06199488 0.04477378
-0.22734375 0.14154322 -0.112760045
0.21660534 0.03431899 0.1044764
0.1449838 0.16746826 0.08555779
0.057135478 -0.028945243 0.19105619
-0.014966701 -0.19574766 0.030755278
-0.120084636 -0.15820946 -0.08035704
-0.010646448 -0.28856274 -0.0045360443
-0.1696281 0.01202394 -0.25088173
0.23666777 0.034209594 0.08750371
0.15618716 0.058066525 0.13593896
0.16750476 0.1875971 0.03801093
-0.08416696 -0.16858374 -0.07089654
0.2281232 0.019248165 0.09343872
0.22262493 -0.07938333 0.04572185
-0.15414189 0.016255885 -0.2303063
-0.04985318 0.22152148 -0.16297671
-0.029794151 -0.2560448 -0.013561478
0.17490055 -0.058483467 0.104529426
0.17941818 0.072618686 0.12563194
-0.1196118 -0.12858865 -0.099241905
-0.05529194 -0.25848514 -0.045555238
-0.121302895 0.14822897 -0.16127627
0.051490963 0.17854758 0.061558932
-0.075893074 -0.01618405 -0.08005185
-0.018733254 0.23067977 -0.19567825
-0.11782351 -0.01574695 -0.023976084
-0.14156012 0.182584 -0.14650483
0.1838853 0.036991492 0.1293434
0.10743911 0.031421002 0.0987344
-0.054845426 0.06974475 0.09832382
-0.13016503 -0.027970808 -0.03570938
0.21435755 0.019099081 0.105133384
-0.08375218 0.1279636 0.08868433
0.2250952 0.055333056 0.09676243
0.2019565 -0.0573353 0.08809312
-0.1609471 0.1635908 -0.1327021
-0.10184924 0.03311634 0.022547523
0.17453903 0.012202578 0.13113712
0.23099656 0.06910358 0.08969702
0.23917425 -0.074190415 0.011318328
0.21638694 -0.07590938 0.057498857
-0.1336495 0.12057464 0.024933534
0.030454796 0.124887794 0.050611313
0.01629349 -0.2629945 -0.07250221
0.13518216 0.15367243 0.10292193
-0.2443315 0.095780574 -0.09380983
0.06814801 -0.0036833747 0.2154457
0.18310517 -0.09614142 0.074534684
-0.20492986 0.12696075 -0.10504802
0.18857579 -0.05127149 0.10661717
0.041710585 0.020104513 -0.08148069
-0.053751383 -0.21725266 -0.025680844
0.18401366 0.14908105 0.08350882
0.17728122 -0.08701179 0.088604294
0.09799616 0.14855865 0.10487243
0.12930277 -0.06909776 0.049131814
-0.1384282 0.055594105 -0.21761297
-0.16582735 0.0031600555 -0.25019944
0.09039257 0.21083166 0.033729907
0.10966449 -0.032716017 0.08691451
-0.18875235 -0.10938604 -0.14232837
-0.010739109 -0.28256515 -0.0020296543
0.11882437 -0.013928368 0.20958936
-0.13734727 -0.11553761 -0.08973118
-0.24010754 0.08968439 -0.11114718
0.09801632 0.14289723 0.102424465
0.065932736 0.023126807 0.13102984
-0.2882802 0.0693396 -0.077490345
-0.039936315 0.2507685 -0.19889298
0.019147405 0.17053689 0.018828792
0.08197232 -0.039903414 0.21639693
-0.051836852 0.0995642 0.11499495
0.13065177 0.035212573 0.094984986
-0.093858406 0.08870288 -0.15398136
0.20327519 -0.1184515 0.004242286
-0.09564534 -0.008272581 -0.04296732
-0.2556219 0.13012812 -0.102979764
0.055669174 0.050287154 0.12674144
0.20920275 0.13831817 0.064289235
-0.11650444 0.13312 -0.16205376
0.042401597 0.036177695 0.14320454
-0.0724307 0.009970477 -0.04841874
-0.067240596 -0.09498263 -0.14657886
-0.15492278 0.16367254 -0.13329242
0.08398401 -0.042984527 0.21749152
-0.22182909 0.11828402 -0.09794092
-0.14256836 0.15739267 -0.13590948
-0.16621989 0.13996321 -0.1314459
0.09444033 0.083064824 0.08746644
0.045824505 -0.07132492 0.15345733
-0.00819547 -0.25464296 0.01324922
0.017136589 0.004289512 -0.059725076
-0.11886485 0.18016195 0.06888855
0.20050484 0.13555431 0.082887694
-0.0538766 -0.1775426 -0.05722024
0.023489434 -0.15980794 -0.08462178
-0.08744621 0.16510253 -0.13031067
0.020969845 -0.12949638 -0.07444109
0.0109028015 -0.020705298 -0.04337436
-0.027021945 0.016025675 -0.06910458
-0.025814109 -0.19392247 0.018394955
-0.11388386 -0.13207708 -0.10107587
0.21172868 -0.01215164 0.10121101
-0.21128352 0.07029848 -0.18378595
-0.109581724 0.22439675 -0.16905566
0.0046588117 0.052160844 0.16282216
-0.13602781 -0.18753465 -0.11250211
-0.2188258 0.16008972 -0.12530786
-0.0152536575 -0.11720443 -0.18360916
-0.21873297 0.085892856 -0.14810143
0.061622594 0.09760306 0.08670045
-0.26647392 0.048090864 -0.14141688
0.0731183 -0.019389475 0.21461593
-0.24239962 0.08353236 -0.11749005
0.07976873 -0.13398784 -0.0035432894
-0.103347756 0.104364604 0.054610003
-0.05691748 -0.19010596 -0.033396434
-0.28113362 0.05961 -0.112439305
-0.0021044412 -0.26702255 0.015231533
0.21836177 0.011547411 0.10055671
0.18201557 0.037872106 0.13087714
-0.1674503 -0.11587932 -0.11932486
0.076327525 -0.011341865 -0.0820987
-0.009737069 0.03322459 0.1370907
0.23195982 0.061382543 0.09096313
0.035123248 -0.1550417 0.038379442
-0.20343067 -0.020528737 -0.35367346
0.13889244 0.101379566 0.13058591
-0.0023853935 0.09873545 0.10509583
0.07187099 0.16602674 0.08081135
0.17154415 -0.06168301 0.10227209
-0.09013346 0.23866801 -0.16103168
0.23308672 -0.08270492 0.0069198976
0.012518713 -0.3101039 -0.084727384
0.07706934 -0.03929684 0.21071485
-0.24732171 0.0051080612 -0.24515498
0.08515636 -0.05949874 0.09560994
0.118867464 -0.16149695 -0.019429294
-0.1665437 0.11423194 -0.17566425
0.19079599 0.0170806 0.12549925
-0.029474286 -0.16001515 -0.09468128
-0.15616295 -0.01134868 -0.24912116
0.11374372 0.00846832 0.095345475
0.20957239 -0.11891106 -0.011230117
0.037948832 -0.17512922 0.0075082583
0.23412807 0.09865641 0.068091586
0.16964678 -0.048015796 0.10593895
-0.048460804 -0.10253814 -0.090016134
-0.033183582 -0.25868267 -0.01882499
0.07514618 0.13823304 0.07264691
-0.042152274 -0.05350534 -0.11782137
0.10192583 -0.06784065 0.06527386
-0.15492529 -0.14301066 -0.115980364
-0.15960306 0.054592695 -0.22953026
-0.12591523 0.14406882 0.044575073
0.063625015 -0.091625094 0.084359795
-0.016392019 -0.18195724 0.03504887
0.050098836 -0.20485307 -0.04642029
-0.301031 0.09431384 -0.08216008
0.14843313 -0.027256304 0.08927307
-0.14253709 0.13909595 0.022241404
-0.10484822 -0.07371292 -0.11300291
-0.041931782 -0.099769935 -0.08088797
-0.2771664 0.112185776 -0.08939406
0.11061193 0.11270793 0.10451905
-0.23551369 0.09907811 -0.1011631
-0.05923927 -0.28674632 -0.06268509
-0.058952395 0.20880342 -0.14590114
-0.07218887 0.14137073 0.07846151
0.016386466 0.13388664 0.021693587
-0.10069168 -0.21413973 -0.081258826
-0.04203485 -0.21778056 -0.011699218
-0.11952446 -0.017111134 -0.20288773
-0.007683954 0.09708759 0.14230114
-0.016340163 -0.03851097 -0.07996389
-0.06218819 0.06795993 0.08337633
0.12345517 0.061603576 0.09778048
-0.12621011 -0.15920371 -0.088221386
0.013021018 0.08180222 0.15102899
0.0067461156 0.015896812 -0.053142108
-0.2629499 0.015731273 -0.27158713
-0.13308577 0.11829309 -0.1886413
-0.27617314 0.09203531 -0.076818354
-0.17957169 -0.093535624 -0.124270424
0.027667092 0.092056856 0.10507402
-0.18798894 -0.14612089 -0.1574446
-0.22559613 0.10328798 -0.10852717
-0.17154345 0.01092741 -0.2537409
-0.2417763 0.018510457 -0.22904474
-0.10247087 0.024083907 0.010864163
0.15954603 -0.047527827 0.09390035
-0.07279272 -0.026585562 -0.09855587
0.24899873 -0.05280295 0.025465285
-0.11997178 0.14296083 0.04652101
0.003506024 -0.2192273 0.016953863
-0.00041799474 -0.039371602 -0.06102694
-0.095378116 -0.07124148 -0.12118872
0.10126974 0.0031964541 0.10491609
0.100599624 0.22555536 -0.03620858
-0.03176345 -0.27314124 -0.023416515
0.2264949 0.028233048 0.09569635
0.17682001 -0.037745405 0.115435064
0.20390235 0.15254036 0.056986395
0.047213823 0.18274017 0.05820163
-0.13778321 0.14074397 -0.1703177
0.103609234 -0.025714906 0.09762465
0.12294114 0.12556724 0.12444368
0.15813482 -0.049639676 0.09126638
0.09600246 -0.04604444 0.22618912
-0.053413518 0.10969231 0.117505394
-0.02863315 0.19125937 -0.03836794
0.19141828 0.1786551 0.04044443
-0.021914009 0.19081363 -0.029231638
-0.16573693 0.1479694 -0.122115724
0.011454643 0.06604725 0.16548768
0.02503976 -0.06910964 -0.043133676
-0.027528245 -0.26757056 -0.01584645
0.048743535 -0.20356727 -0.042997662
-0.07552357 0.16879724 0.07138959
0.10991162 0.17321195 0.0920188
-0.042965457 -0.062166274 -0.09191513
-0.21805035 0.11164517 -0.10481103
0.1264701 -0.13821213 0.014178215
-0.16922863 0.17580642 -0.13972601
-0.05823432 0.17590149 -0.13364398
-0.026975093 0.07815326 -0.006412125
-0.07995481 0.15921216 0.07889443
0.2339112 -0.086310655 0.00042769784
0.20025234 0.0729274 0.1108989
-0.08512621 0.104126595 -0.13665396
0.06469552 -0.06516093 0.16090699
-0.056773398 -0.29629356 -0.06386327
-0.044860307 -0.0632933 -0.0892897
0.019130846 -0.3029734 0.011027638
0.07729444 0.12729263 0.070474915
-0.06367208 -0.2791697 -0.064753205
0.15425743 -0.002161671 0.10729646
0.0631514 -0.06772208 0.16788317
0.13737966 0.22607712 -0.025208337
-0.11126159 -0.21672168 -0.095207125
-0.24419108 0.116712734 -0.09507651
0.047659762 -0.017664803 0.18448837
0.21369277 -0.11461711 -0.0042257872
0.009143476 0.0104852365 -0.055068158
0.23441723 0.12824357 0.05407932
-0.096490465 0.071778476 0.048697688
-0.10697408 0.09650596 -0.16648296
0.06005303 -0.039804388 -0.028036337
0.095842786 -0.048795912 0.22523652
0.09477483 -0.10890779 -0.011470284
-0.083821386 0.10335204 -0.13540943
-0.08939279 0.0035379077 -0.03488572
0.051498547 -0.19536921 -0.035903156
0.08791306 -0.058444478 0.093429096
0.23857768 0.11858924 0.057694137
0.21800214 0.059823703 0.101890296
-0.10550302 0.0063278642 -0.0097100865
0.05522768 0.0021757311 0.20233238
-0.23657309 0.0018073685 -0.26555458
-0.030124636 -0.30866724 -0.036942758
-0.15466361 -0.021136139 -0.26187846
0.1097496 -0.014346827 0.21696901
0.05457482 -0.067314476 0.14097299
0.09826238 -0.05589605 0.08333321
0.02979759 0.056760635 0.13855127
-0.14280923 0.011839216 -0.21848936
0.024986507 -0.1570032 0.06378097
0.11175097 -0.0308919 0.08684929
0.15872966 0.1608015 0.0842038
0.20056447 -0.014188232 0.11098688
0.23320824 0.13588238 0.051567752
0.07036093 -0.14325918 0.0074488814
-0.059865482 -0.033360813 -0.123401456
0.016862616 -0.02226601 0.14512293
0.08112275 0.11280094 0.07426407
-0.123230055 0.13100027 -0.17113706
-0.046606556 -0.16085048 -0.09012025
0.18501814 0.1475678 0.0838057
-0.087898724 -0.12382784 -0.12193515
0.084745616 -0.04442067 0.21778847
0.15424746 0.03581063 0.12386698
-0.15001577 -0.121463045 -0.100615844
0.012841784 -0.116979755 0.09888414
0.09042182 -0.037977047 0.2274871
-0.1195807 -0.076450676 -0.09845893
-0.039250012 -0.26706386 -0.029843315
0.05750557 -0.010535131 0.19954455
0.08671358 -0.07827327 0.07175383
0.25933993 0.013162786 0.051290724
-0.092909865 0.11310356 0.07108736
-0.2488192 0.06101052 -0.14557557
-0.09401862 0.21960273 -0.1592178
-0.25103298 0.085796155 -0.10174342
0.20447218 -0.07295811 0.074185975
0.0805214 0.0068861707 0.21588567
-0.121751286 0.16001864 -0.1512575
-0.020540582 0.058695283 0.13510916
0.043821547 -0.095775716 0.113827
0.08341626 -0.11595102 0.025499165
0.1849506 -0.078079686 0.09246196
0.19190668 -0.06718043 0.0932636
0.017281437 -0.17437728 0.05202274
-0.045576047 0.08656563 0.1169129
-0.12722324 0.14363201 -0.17046472
-0.08587228 0.14882123 0.08716219
-0.14031877 0.184093 -0.14757463
-0.09614417 0.15224347 -0.1305035
0.21825938 -0.01427474 0.0945101
-0.15607855 -0.15358867 -0.121999145
0.07487481 -0.109732606 0.045664947
-0.023349717 0.10958577 0.12687764
0.23414835 0.13434637 0.05168239
0.19830692 0.17935362 0.036675166
-0.02871032 -0.2364052 -0.0036700736
0.24898186 -0.0395224 0.037367344
-0.04371707 -0.21906719 -0.01430165
-0.10267394 0.028276527 -0.1910625
0.0864498 0.10052586 0.07919277
0.09539713 0.16922008 0.10121842
-0.08963257 0.098609574 -0.14452942
-0.12658061 -0.11567337 -0.09778637
-0.115845665 -0.0292022 -0.045223307
-0.0855815 0.053264506 0.035772625
-0.22572191 0.014144182 -0.2602064
-0.12808572 0.013737195 -0.014973242
0.07772726 -0.058367822 0.104212396
0.027343689 -0.13261063 0.08953793
-0.031323947 0.026496807 -0.06975016
0.15780273 0.10913026 0.12472665
0.1949111 0.07380055 0.11433513
-0.15801977 -0.07962425 -0.09205341
-0.22022782 -0.11977731 -0.18504535
-0.2598529 0.11096871 -0.09000594
-0.115224265 0.13667804 0.043225553
-0.10301746 0.12849836 0.06554953
0.06544476 -0.11220945 0.05491564
-0.11681325 -0.018683514 -0.20028572
-0.21802609 -0.1189366 -0.1820073
-0.03299665 -0.17536469 -0.08173589
-0.08680225 -0.22419678 -0.06880307
-0.08315721 -0.09161964 -0.13576531
-0.02740623 -0.20176661 0.013038058
0.021987261 -0.21892565 -0.028927572
0.1466055 0.11072107 0.13051914
-0.03954393 -0.26881748 -0.030965932
-0.018518912 -0.16411576 -0.08786269
-0.09256462 0.107807666 0.06919316
0.13482785 0.15638176 0.10071363
0.109648 -0.0022607795 0.21043283
-0.16248517 -0.07586164 -0.14655358
0.17203426 -0.14371341 -0.046095748
-0.25516686 0.058032885 -0.14141688
0.06552396 -0.0471519 0.1932801
0.023167768 0.13882619 0.018052833
-0.24897483 0.04631208 -0.17047466
0.011882522 0.024294555 0.159415
0.19854328 -0.03887666 0.102796584
-0.23680128 0.056582134 -0.17050686
-0.24409004 0.1445504 -0.11317558
0.040333256 -0.28165185 -0.0054566087
-0.28034458 0.07726073 -0.13123952
-0.10279457 -0.055987198 -0.099470936
0.11354704 -0.0042399513 0.20967586
0.24080305 -0.05385243 0.03435186
-0.040085066 0.074635535 0.009151027
0.20766631 0.03303651 0.111451454
0.22220744 -0.11163419 -0.04547587
-0.07456308 0.12593067 0.08863789
0.14826034 0.15200667 0.09793573
-0.15437424 0.19533758 -0.15346572
-0.010815779 -0.082809545 -0.07629617
0.03409773 0.013033928 -0.07430714
-0.11807898 0.18380749 -0.14937945
-0.12856774 0.13087946 0.03559768
0.22635466 -0.07117496 0.050198957
-0.16806197 0.030893845 -0.23779306
-0.015048426 -0.16132721 0.04568752
-0.18880132 0.117868766 -0.13655165
-0.045201994 0.0620724 -0.011933951
-0.28768852 0.047447816 -0.11310725
0.04730895 -0.12939456 -0.042448025
0.09228871 0.01853461 0.11272306
0.20788322 0.10351213 0.09511747
-0.07143599 -0.035229106 -0.11231819
-0.12599753 -0.054045476 -0.0661912
0.22955947 0.13365126 0.055122618
0.08283286 -0.12687846 -0.02413871
-0.095372126 0.14594845 0.08244383
0.07616066 -0.08836732 0.07240489
0.1465249 -0.08904605 0.059974782
0.2296805 0.0502155 0.09154476
0.14483707 0.0023663887 0.09784735
0.19420703 0.112483084 0.10051846
0.06940382 -0.053321585 0.19529198
0.09181697 0.14350966 0.09517216
-0.071405455 0.054190088 0.013521341
0.20654312 -0.0368921 0.09583975
-0.051417265 -0.22487253 -0.02617693
-0.089202985 -0.19571853 -0.059278425
-0.001282332 0.022117537 0.14249581
0.1407794 0.10999887 0.13198943
-0.073644504 0.15437534 0.07676641
0.06912052 0.054794 0.11609145
-0.21249953 -0.13094527 -0.18054798
-0.15100524 -0.16323802 -0.12005936
-0.28615588 0.07838322 -0.07209827
0.020762121 -0.14843053 0.07853719
0.2292921 0.066300884 0.09230498
0.06500532 -0.13422889 0.026344983
-0.16246274 -0.096674986 -0.1048884
-0.00082212396 0.13150334 -0.0058191204
-0.27802843 0.11788492 -0.09308487
0.11470294 -0.03308445 0.08187992
0.061191782 -0.08182249 -0.0048338627
0.06090373 0.12942795 0.05647867
0.1527053 0.1774392 0.07134213
0.20516656 0.14389993 0.06268222
0.23344964 -0.08049077 0.009724097
0.22815068 -0.08619223 0.028062342
-0.024251834 -0.25687572 -0.0072017047
0.0056920834 -0.24903913 0.0061209723
0.20639643 -0.032994613 0.09757744
0.1252181 0.056720648 0.097786136
-0.015173911 0.057241894 0.14098419
0.0775911 -0.062267154 0.15676193
-0.1407795 -0.115124315 -0.08719939
0.08802912 -0.10469118 0.03399231
0.17890179 -0.049097497 0.10958432
-0.06941488 -0.0015760771 -0.06839541
-0.27738294 0.0990468 -0.08070547
-0.15807118 0.15455611 -0.12708916
-0.076176845 -0.06114104 -0.13408874
0.124488264 0.20464362 0.04193265
0.024697218 -0.06969123 0.13391514
0.090273246 -0.06702154 0.20541437
-0.18543601 -0.12129486 -0.14350599
0.025385736 -0.17561895 0.024063682
0.030827278 -0.17438774 0.018163912
0.113215804 0.105551645 0.10455239
0.23604575 -0.013839581 0.07776566
-0.064156234 -0.24319072 -0.049628466
-0.032342907 -0.21216299 0.0025100298
-0.075858526 0.18431343 0.05425331
0.008025604 0.08437247 0.15117621
0.14100136 0.09042534 0.13164987
-0.09422669 -0.22460647 -0.0779878
0.011819414 -0.17792484 0.05431703
0.03093473 -0.030580131 0.1585614
-0.07539193 0.13446634 0.08407568
0.1821395 0.15934154 0.074336715
-0.003312807 -0.10968316 0.08247547
-0.2908289 0.039469097 -0.1241332
-0.24923207 0.11197393 -0.091536924
0.2501046 0.069995254 0.063809775
-0.0110274935 -0.251721 0.011089818
0.22400713 -0.108442 -0.03522111
-0.07413902 -0.07898264 -0.14154968
-0.0069356915 -0.004131401 -0.05354322
0.17413479 0.16275747 0.07506565
-0.17313404 -0.14837673 -0.14041092
0.17364466 0.022344641 0.13440596
0.16782631 -0.13292244 0.027982557
-0.13585836 0.15717411 -0.14614345
-0.054106623 -0.31186512 -0.06742854
0.049576048 -0.001684196 0.19379129
-0.05906924 0.13590814 0.06764043
-0.229707 0.06957239 -0.15865223
-0.0058674165 -0.29440072 -0.0012888206
0.13796873 0.20465676 0.019802917
-0.11069164 -0.042073432 -0.069862865
0.009803898 0.17250882 0.008356492
-0.3048421 0.062152956 -0.08422784
0.027600383 -0.020943454 0.15872487
0.07498734 -0.10465826 0.052139543
-0.077545315 -0.22532788 -0.058068525
-0.013672615 -0.1959085 0.032254864
0.17978075 0.16894145 0.055009846
0.011032114 -0.27074814 -0.06671601
-0.08082259 0.24098761 -0.1676879
0.17721452 0.13871308 0.093690544
0.042209376 -0.13298665 -0.05020221
-0.08846556 0.15726028 -0.12641227
0.21489 -0.02611992 0.0929226
-0.12977709 -0.008945267 -0.21175776
-0.1000946 0.17741103 0.07587834
-0.08284832 -0.2862312 -0.11398499
-0.27216473 0.035751574 -0.15793242
-0.060440928 -0.15718748 -0.09624615
-0.075234935 0.10251014 0.08790043
0.0474842 -0.10732614 0.08490159
-0.09142283 -0.063052766 -0.118652895
0.063432746 0.034172583 0.12962408
-0.25713733 0.10696639 -0.08758618
-0.08999956 0.119311765 -0.13593395
0.18702412 0.16670577 0.05341965
0.00828306 -0.071976 0.11300753
-0.11316811 0.11263493 -0.16695254
-0.08751042 0.032323074 0.002480298
-0.089294426 0.03273066 0.0054048467
-0.061168544 0.17755023 -0.13508773
-0.28684303 0.027185347 -0.16049802
0.081305355 0.22271591 -0.002341912
0.23045513 0.010189021 0.089787245
0.043788884 -0.16737032 0.010032473
-0.12247355 -0.05507185 -0.07227448
-0.19652966 0.0009203443 -0.3238526
-0.091325454 0.20391989 -0.15664652
-0.092530966 0.09813635 0.0650105
0.07367832 -0.081770845 0.084119365
0.07773045 -0.061725806 0.10239679
-0.02553709 0.1067714 0.08865874
0.26676762 -0.0051450264 0.038351115
0.11328084 -0.028094167 0.08796124
-0.11629548 0.09396616 0.03436348
0.019197898 -0.08432713 0.120853394
0.24281542 0.097711496 0.06222489
0.15216906 0.12128753 0.12050717
0.049046133 -0.0852904 -0.021080313
-0.065520085 -0.22023274 -0.041257408
0.064324535 -0.010688276 0.2077487
-0.17931738 -0.09365341 -0.12401336
0.004516822 0.06669559 0.16889219
0.18213706 0.08318074 0.1210306
-0.060018077 -0.06498533 -0.14450565
-0.124913394 0.14633678 -0.16648158
0.029302726 -0.25874156 -0.0053249365
-0.1528842 0.15507235 -0.12785354
-0.06439589 -0.15493362 -0.10007691
-0.11907755 -0.0040818052 -0.20251456
0.024227906 -0.02810874 -0.04128035
0.12378101 0.10466842 0.11698192
-0.15435013 -0.08822386 -0.09135759
0.010781656 -0.28564253 0.020281626
0.09008588 0.13085496 0.08754594
0.21476038 -0.012349704 0.098339915
0.16434105 0.02156593 0.12988928
0.1302539 0.19956706 0.048230942
0.24895914 -0.000329631 0.056960523
0.07343184 0.22526571 -0.020467062
0.26995572 -0.011378347 0.033324286
0.20063123 0.075196154 0.10982097
-0.14710264 -0.060136475 -0.07030095
-0.16153145 -0.11037206 -0.10974038
-0.12688932 0.11465453 0.030547995
0.06947947 -0.045736987 0.19869605
-0.0702892 0.1628295 0.07071707
0.06666826 0.14604495 0.06577452
0.072467975 -0.000723055 0.22197814
0.00039744825 -0.21440306 0.023833698
0.14884123 0.21713237 -0.0034805657
0.09267797 -0.02978809 0.106515795
-0.01519191 0.18587798 -0.016124835
-0.09950493 0.040154416 0.030024607
0.015625075 0.15001453 0.005594023
0.08301263 -0.027191702 -0.057355
0.032617338 0.21553214 -0.011395352
0.24511112 -0.015735943 0.055006217
0.066450395 0.119417146 0.064422004
-0.18999964 0.026056759 -0.26736033
0.16920872 -0.08599493 0.08774204
-0.066060096 0.18243176 -0.13813694
-0.11458177 -0.07509451 -0.10293077
0.044560824 0.06981107 0.120279975
0.042703938 -0.060474604 -0.017936451
0.26248947 -0.05384309 0.008628604
-0.20822829 0.017238397 -0.27853072
0.17835821 0.10899255 0.11299047
-0.18771124 0.009288882 -0.28854886
0.14844428 -0.10880947 0.0536724
-0.21649994 0.012995317 -0.27575812
0.18979405 0.10098044 0.10820227
0.21899487 -0.031121615 0.08609435
0.01825009 -0.29033557 0.014310737
-0.2952933 0.04243759 -0.11164293
0.060843784 0.1976558 0.062718496
0.08143043 0.13950965 0.08082722
0.08948063 0.014441596 0.11529837
0.23754561 -0.080180086 0.0046131928
0.090959415 0.14142412 0.09322135
0.040757895 0.21189412 0.014280095
0.07772369 -0.03733662 0.21236439
0.106804386 0.086921476 0.08863968
0.15924244 0.19464934 0.031508774
0.22124812 0.087676644 0.090890974
-0.07373987 -0.010870669 -0.075543575
-0.23160957 0.018539494 -0.24395178
-0.17844515 -0.15235831 -0.14859211
-0.049358085 -0.10641955 -0.092799366
-0.022337485 0.032462135 -0.05624463
-0.21115866 0.08812561 -0.15537338
-0.078300595 0.004718489 -0.047925342
-0.31219214 0.07457697 -0.08951119
-0.042667348 0.06766484 -0.0021481386
0.043083128 -0.062859565 0.1592005
0.06029481 -0.104019254 0.072655715
-0.12338635 -0.031504404 -0.038435474
0.2230829 0.056973662 0.09835602
0.21718596 0.066307 0.101580866
-0.17614424 -0.13778226 -0.13943574
0.08157055 -0.06431512 0.20524898
-0.1622127 0.17632052 -0.1406793
-0.09131789 0.114024445 0.07342045
-0.024668645 0.039710578 -0.05590734
-0.03332622 0.23528582 -0.18432087
-0.19207196 0.033822868 -0.26153448
-0.033934064 0.0055617695 -0.08205849
-0.17542426 0.17905971 -0.14124031
0.02867784 -0.030818308 0.15571968
0.16944101 0.17648341 0.064730614
0.17324466 0.003634293 0.12948705
0.117561415 -0.047008216 0.20255835
-0.044049893 0.21570818 -0.17708355
-0.030881476 -0.27591944 -0.023559622
0.060517237 0.007221176 0.21095178
0.058882017 -0.15596788 0.0059467005
0.1140245 -0.0189047 0.21542946
0.19273303 -0.016128339 0.11769684
0.09787594 0.11080971 0.08824139
0.11638905 0.16503562 0.10022837
-0.15818761 -0.065748416 -0.08619744
-0.24871638 0.032558784 -0.19456637
-0.20503592 -0.13742371 -0.17432407
0.09237435 -0.05294632 0.2233187
-0.13741095 0.17520599 0.041754175
-0.123866335 0.1260257 0.03918103
-0.03453336 0.08005951 0.032909553
-0.16925742 0.016183455 -0.24535018
0.021816602 -0.037641842 0.14441745
0.24434473 -0.01549378 0.06862052
-0.24959539 0.09564445 -0.08610693
-0.0208043 -0.16231088 0.03827634
0.1358925 0.19358876 0.056749992
-0.17568003 0.15988438 -0.12903078
0.029244008 -0.26946655 0.00087493076
-0.21131115 -0.09497252 -0.16339712
0.054127254 0.19251096 0.06374557
0.12249906 0.12187291 0.12294038
-0.029983373 -0.23633848 -0.0051853466
-0.06555226 -0.24061295 -0.05019588
-0.020397905 -0.16040458 0.03960181
0.026004827 0.0942301 0.1034731
0.16371349 0.08140675 0.13465546
0.01830823 -0.23751071 -0.0069
0.03351632 0.014551341 0.18140137
0.15283845 0.016974995 0.113932505
0.16790575 -0.13923016 0.00070133485
-0.037537403 0.11380236 0.061971575
0.0060250973 -0.09676578 0.09944296
-0.14919512 0.05528235 -0.22590068
0.06257814 -0.15702052 3.0609608e-05
-0.06227067 0.11144087 0.107525185
-0.122432105 0.0023611865 -0.013083723
0.2072893 0.06680964 0.109115
0.180287 0.18596955 0.035901703
0.115545005 0.11713032 0.112434156
0.11508049 -0.15151457 -0.005446305
-0.03175934 0.111358196 0.122337155
0.1831237 0.0030096392 0.12983938
-0.017096916 -0.26602584 -0.0025192285
-0.13775925 0.15382533 -0.14917004
0.0036718643 -0.15726557 0.070168614
-0.10069464 0.14596818 -0.13726577
0.02741523 -0.22064894 -0.037983805
0.05314891 -0.079222575 -0.013454248
0.19585203 0.050005477 0.119760446
0.037390754 -0.12802139 -0.05387885
0.12866013 -0.08795288 0.03878282
-0.10768411 0.16614254 0.07632854
-0.068437524 0.16196603 0.07010688
0.1323323 0.19302121 0.058550328
-0.045076545 0.030206084 -0.056587365
0.069290355 0.014976448 0.18728274
-0.015359162 -0.23365824 0.013724002
-0.12838235 0.023359677 -0.20884794
-0.27425414 0.1095869 -0.08791692
-0.19412006 -0.14030159 -0.16234006
0.18624312 -0.036857594 0.11638557
0.14906509 0.14030603 0.10867201
0.0331399 -0.28166783 0.002766326
0.11646562 0.022313925 0.093310125
0.0037228717 -0.29076406 0.011931955
-0.19370112 -0.105470255 -0.14662111
-0.11301623 0.15096687 0.059420332
0.15619566 0.0037708331 0.11223799
-0.04278311 0.037725504 -0.04920986
0.012976542 -0.021887308 0.14057441
-0.039806787 -0.3000239 -0.044912245
-0.11551232 0.20606306 -0.1637486
-0.25210428 0.06550675 -0.13303475
-0.15307383 -0.1063981 -0.0977465
-0.099083945 0.030528558 0.015306072
-0.12673934 -0.003258768 -0.020762434
0.20093535 0.002325285 0.11407394
0.038359504 -0.2744436 -0.002826532
-0.14999822 -0.12353783 -0.1015004
0.041201815 0.026564054 0.15105006
