# .PCD v0.7 - Point Cloud Data file format
VERSION 0.7
FIELDS x y z
SIZE 4 4 4
TYPE F F F
COUNT 1 1 1
WIDTH 1000
HEIGHT 1
VIEWPOINT 0 0 0 1 0 0 0
POINTS 1000
DATA ascii
0.18336922 0.2282145 -0.077112176
-0.15266491 0.02278151 -0.11941935
0.056302633 -0.15126915 0.017112395
-0.09743113 0.09535606 0.05112315
0.22051829 0.048044827 0.033526726
0.11181506 -0.10921365 0.0018403275
-0.102534585 -0.23032252 0.044475526
0.3226365 0.19809888 -0.017257135
-0.2685063 0.09935263 0.02081144
0.2350479 0.20962958 0.09535776
0.07257911 -0.23166344 -0.118637934
-0.086518005 -0.13398136 0.013806473
0.170854 0.018767696 0.046401344
0.07031176 0.1029845 -0.0076094232
0.112397626 -0.015304501 0.044302996
0.2461805 0.18837294 0.09373254
0.33882254 0.14440542 0.023932535
-0.023042664 -0.042589974 0.0017403929
-0.112546004 -0.0932647 -0.061494574
-0.062310565 -0.2277858 0.026466085
-0.076408565 -0.167975 0.046356976
0.18797916 -0.035918932 0.0043185474
-0.14389536 0.03683031 0.0004049199
0.12231037 0.1042932 0.02123397
0.07671487 0.2486998 0.07508419
0.06720327 0.27462566 -0.033423815
-0.15022978 -0.15448882 0.04484009
-0.032560494 0.04445616 0.013932107
-0.17481047 0.15294673 0.050403114
-0.14112777 -0.23102884 0.04352719
0.2921594 0.19235075 0.08935329
0.0702733 0.059756193 0.054471057
0.16995527 -0.24394634 -0.12519908
0.18175039 0.023405818 0.044756737
0.16015406 -0.10892875 -0.21026678
0.0768142 0.048279297 0.054399405
0.19953634 0.1212685 0.053991184
0.012509073 -0.16985202 0.048472773
-0.08318383 -0.17090446 0.046134308
0.073612586 -0.19823043 -0.1007206
0.1686541 -0.06174103 0.00088606705
-0.04657909 -0.05737657 -0.034862876
0.015962204 -0.11935475 0.049568053
-0.12562315 -0.16978657 0.045129377
-0.025203904 -0.13744682 0.048208546
-0.1551856 0.07889606 0.038958598
0.15775762 -0.06459864 -0.17029238
0.20310602 0.21403573 0.09384146
-0.04962323 -0.064207904 0.00066376093
0.1694521 -0.0127840545 0.03537002
-0.083961315 0.038397618 -0.08181715
0.20595858 0.15583268 0.059680797
-0.22436583 0.051898163 0.047179002
-0.12437486 0.14756477 0.051516637
0.13268249 0.10634347 0.030745195
0.1562272 0.1161348 0.046596892
-0.04846013 -0.10437288 0.0021597275
0.10000972 0.08302386 0.0052138604
0.13005657 -0.2753127 -0.14774108
-0.051456492 0.024768457 0.0024017747
-0.035956543 -0.19893317 -0.20052251
0.11078316 0.17879686 -0.005110446
-0.19783136 -0.102314256 0.038583044
-0.16372812 -0.20564775 0.043488327
-0.07002459 0.17301492 0.02770455
-0.08591306 -0.12954009 0.008900424
-0.1125928 0.041383725 -0.04313936
0.3693729 0.13440561 0.06462047
-0.05602403 0.045598846 0.0027083931
-0.2581615 -0.17790976 -0.081690356
0.14922869 -0.08773395 -0.019328125
-0.22482641 -0.119146936 0.04374166
0.08350385 0.273272 -0.17405146
-0.21847613 -0.12914996 0.043694712
-0.23400138 -0.07892896 0.04432517
0.30950102 0.1489966 0.06373476
-0.11463162 -0.098677255 -0.0016007918
-0.2851077 -0.16848207 -0.21200669
-0.090498246 -0.23425438 0.03248283
-0.015397425 0.2783417 0.0107190525
0.050066207 -0.17377679 -0.009699611
-0.08262811 0.08510407 0.031518694
0.14497297 -0.21410848 -0.12709233
0.09173731 -0.1863869 -0.10488654
-0.25443754 -0.05194728 0.04437075
-0.030434066 -0.21792856 0.040405642
-0.0053256243 0.02296373 0.04447486
-0.092132255 -0.1072937 -0.0012287745
0.22943647 0.19137375 0.09485605
-0.28067896 0.085215956 0.019661449
0.27576867 0.14017442 0.022321433
-0.13111457 0.06819046 -0.2033286
0.112372436 -0.29168296 -0.19365335
-0.21126302 -0.06719804 0.014490994
0.04906417 -0.17494573 -0.079639785
-0.027087443 -0.08013058 0.0029089598
0.10609231 -0.1202997 -0.09397511
0.13636394 -0.0893073 0.0036995225
0.08751703 -0.16611055 -0.09955581
0.2252491 0.17613222 0.094449416
-0.009409275 0.04446579 0.05223508
0.0126398755 0.11124884 0.054106712
0.047296196 -0.03803689 0.051955488
0.21690533 -0.23138733 -0.15185472
-0.26529035 0.06981992 0.046547033
-0.20197515 -0.13930632 0.043890923
-0.14135186 0.16740757 0.0515033
-0.2448733 -0.1336371 0.042965945
-0.24379948 0.13967119 -0.0045834137
-0.02723335 0.14812037 0.053880077
-0.29732388 0.05100882 0.045394648
-0.22158478 0.14367352 0.01957416
-0.12540734 0.11834004 0.050906334
-0.030790728 0.15487254 0.05392885
0.2270196 0.119336024 0.049776018
-0.14673658 0.090842344 0.04983907
0.16364166 -0.05520917 0.012994544
0.030134173 0.21296708 -0.006378947
-0.21660802 0.076919824 0.04786818
0.03472045 0.1568913 -0.0073910565
-0.058993414 -0.11873758 0.008689588
0.03761834 0.27421597 0.069105364
0.22631294 0.23134235 -0.21438605
-0.12294598 -0.12488771 0.0025321462
-0.21521513 0.035090305 0.047063757
-0.033279825 -0.13488454 0.04806456
0.17342469 -0.0301575 -0.18693615
-0.22184967 -0.0038766104 0.036934912
-0.18500802 0.06023222 0.028534338
0.22509977 -0.22534105 -0.17294095
0.13924347 -0.20325994 -0.12828451
0.13918425 0.056388818 0.046387818
0.20444433 0.091857746 0.053520583
-0.19293024 -0.056021687 -0.23181693
0.008910185 0.28727642 0.06387376
-0.011710086 0.14066772 0.054106474
-0.26633757 0.024901161 0.04562201
-0.20343336 0.15396996 0.040169403
-0.19030918 0.053812638 0.02245305
-0.3221388 -0.013243927 -0.024104292
0.21382062 0.18054911 0.094261035
0.122709095 -0.1909452 -0.12775414
0.008531096 0.25804672 0.06663211
-0.09875938 -0.21658225 0.044842552
-0.10174562 0.09028276 0.050917115
0.121272296 0.0276384 0.042967625
0.22570078 0.19314106 0.09480094
-0.26112324 0.12098874 -0.00074785005
0.18397938 0.13645092 0.053918492
0.15387142 0.017685276 0.0477546
-0.13678235 -0.16248654 0.045005288
-0.03371878 -0.21296014 0.04648985
-0.03978028 -0.20569552 -0.22730747
-0.3067545 -0.0809602 0.019247936
0.2358215 0.22226001 0.055466693
0.15078299 -0.2112 -0.12816411
0.16115344 -0.075084485 -0.20265949
-0.2815842 0.048849992 0.045732725
0.14649083 -0.08742729 -0.010624253
0.0031432717 -0.004449968 0.02636229
-0.23867057 -0.13406737 0.043107476
0.18986991 -0.081496224 -0.21177699
-0.21120016 -0.122783214 0.0439988
0.20747331 -0.05953305 -0.22780208
0.10849369 0.13615474 -0.00602022
-0.23387788 -0.010899718 0.0456911
-0.16796972 0.19611292 -0.23520349
0.036704857 -0.020819155 0.052043922
-0.02544699 -0.095370114 0.0145901935
-0.20107615 -0.04452266 -0.0012026064
0.11003187 0.2651157 -0.1652386
-0.20377728 -0.15156573 0.043601837
0.0872241 0.02004183 0.054085795
0.093145005 -0.33319834 -0.21525429
0.024636704 0.2650146 0.067402095
0.061179817 -0.043678273 0.052178696
0.21890718 -0.2182458 -0.1930359
0.022833645 -0.20926806 -0.10701302
0.16240987 -0.2270824 -0.12811954
-0.1581249 0.025753291 -0.00016144449
-0.045175392 0.0028584532 -0.06380519
0.13094336 0.11900444 0.024756102
0.044502202 0.107955866 0.028504338
0.14897858 0.046158645 0.04917919
-0.19418459 -0.1998088 0.04286769
-0.05401751 -0.1711767 0.046835124
0.011898508 0.13260584 0.05451683
0.107593805 0.040912095 0.035628617
0.12801106 0.2542408 0.068947986
-0.16334967 -0.13748428 0.04486254
-0.23862013 0.034611475 0.04648786
0.1901935 -0.011440857 -0.18615523
-0.13715334 -0.1607574 -0.23274955
0.3240007 0.14662418 0.083513334
0.12722854 0.114641264 0.02270405
-0.039397273 -0.2320398 -0.007174185
0.08205376 0.102640554 -0.007331925
-0.25185978 -0.030190399 0.04486889
-0.2989141 0.040858224 0.04515271
0.03409258 0.040750924 0.05321417
0.10826488 -0.12830298 -0.0984807
-0.04191874 -0.10299187 0.0063559976
-0.3027714 -0.1113089 -0.07387843
0.087652914 -0.12475972 0.0019133294
0.10599505 0.14913858 -0.0058206017
0.3254833 0.14645672 -0.031663883
0.15085222 0.20724599 0.086311266
-0.1469278 -0.22954045 0.003664488
-0.05303956 0.015846983 -0.081901975
0.11513383 -0.008880204 0.044498157
0.21156594 -0.015869524 -0.017989447
-0.17116445 -0.07993006 -0.0025945147
0.03590158 -0.22610213 -0.1239401
0.16643545 0.1314581 0.04855152
-0.19860022 -0.0266703 -0.0021915578
-0.2802733 -0.16929136 -0.24435847
-0.23398446 0.1340768 0.015024463
-0.26017115 0.023511495 0.045743417
-0.03810752 0.20219441 -0.008247101
-0.27059165 -0.13593403 -0.19980691
-0.07335569 0.044434294 0.0022649423
0.3140838 0.19682115 0.08741422
-0.027141297 0.16009614 0.054122142
0.15796322 0.045957636 0.051475845
0.15319408 0.23070177 0.086388595
0.21126638 0.12828533 0.05441578
-0.13743833 -0.20468642 0.044144355
0.14397813 0.21740048 0.08518387
0.108966894 -0.0762463 0.030598922
0.35469013 0.14065233 0.07750458
-0.13290006 0.1575115 0.0515096
0.06465288 -0.25358325 -0.19404565
-0.17309439 0.1852435 -0.1958542
-0.102213986 0.15350239 0.052172344
0.0031210624 0.24313027 0.006618125
0.19317622 -0.21376635 -0.14428821
0.026712703 -0.051635236 0.0511848
-0.1722072 0.09481521 0.049301974
-0.042270936 -0.19552235 0.046632104
0.015487731 0.062078085 0.053190745
-0.08691765 0.03894391 0.0018270571
-0.19254966 0.1357005 0.04962833
0.2617611 0.07312951 -0.0022550737
-0.26266214 -0.17356953 -0.08445882
0.12367903 -0.28604257 -0.16846715
0.0048186216 -0.048966154 0.047208115
0.053146526 0.04459725 0.053752407
0.054437518 -0.30266282 -0.19527633
0.1712258 -0.17452708 -0.15796955
0.15980667 -0.26769683 -0.12979884
-0.3219748 -0.017817393 -0.020474534
-0.13827151 0.03678947 0.00054032955
0.020183094 -0.1935273 0.001071369
-0.18653335 -0.21793619 0.042689882
0.009471734 0.03761527 0.05255504
0.04025438 0.25899893 0.06972378
-0.22504432 -0.11389178 0.04384156
0.12887904 0.01967909 0.04540309
0.11498213 -0.17064695 -0.12822399
-0.14994907 -0.09787405 -0.0024400372
0.0022469664 0.055724103 0.05274282
-0.17091137 -0.04726945 -0.021571204
-0.29216027 -0.091122985 0.042672712
0.13111717 -0.28419918 -0.15483381
0.15888037 -0.17934366 -0.1418562
-0.17318256 -0.015646618 -0.074214794
-0.04422242 -0.104174554 0.005548917
0.0059857024 0.22004956 -0.006821924
0.2540234 -0.030721584 -0.20184262
-0.21767716 -0.06716859 0.02424729
0.19477297 0.24081284 -0.22505742
0.14638734 -0.15020928 -0.15497684
-0.20265953 -0.21213852 0.040011868
0.026974583 -0.1366426 0.04948851
-0.17351127 -0.03281916 -0.024750037
0.11942826 0.25651875 0.07628282
-0.0070172646 -0.17027996 0.047991227
0.09962397 0.23764023 0.07852551
0.053347964 -0.030729987 0.052248407
0.17301358 0.16387953 0.046737183
0.19420634 0.063787036 0.050533883
0.15219659 -0.026411775 0.040052485
0.20088656 0.18121509 0.065898724
-0.112577 0.04085948 -0.0011167746
-0.21175458 -0.1692124 0.04305497
-0.007231033 -0.026967794 0.010318081
-0.26035026 -0.024834905 0.04477062
-0.31942096 -0.0005423853 -0.07114121
-0.2706816 0.09253925 0.0468714
0.015666258 -0.1258245 0.049431298
0.25006887 -0.026006665 -0.18499745
0.2759959 0.20038883 0.09143922
0.13378696 -0.09474582 -0.0028436861
0.057238527 -0.16550338 -0.09561972
-0.036201894 0.09380035 0.052574556
-0.10726831 -0.12180276 -0.0018859557
-0.25568277 0.04929788 0.046368614
0.21629564 0.06748226 0.043635216
0.010621551 -0.20860781 -0.06924238
-0.28135613 -0.10435268 0.042669207
-0.036846053 -0.09037348 0.00084392796
0.225955 0.093774065 0.04711128
-0.083369754 -0.12138918 0.0005167554
0.110747345 -0.0640943 0.033601698
-0.1467351 -0.082117654 -0.03540636
-0.06755722 -0.2079342 0.045771275
0.114358075 -0.2890856 -0.19355348
0.08131734 -0.028641883 0.052967608
0.15259789 -0.004646992 0.04529647
0.27082336 0.098103166 0.0026694916
-0.2086309 -0.21807688 -0.017233867
-0.012050888 0.105295345 0.053389817
0.117848806 0.06743293 0.033594813
0.090186484 -0.14395833 -0.094389915
0.05156449 0.2704595 0.07115285
-0.06753902 -0.10525663 -0.00059240893
-0.18313278 -0.21442997 0.042842414
-0.060392767 -0.18908978 -0.17494081
0.024116546 0.038169242 0.052921012
-0.06378552 -0.13922575 0.04723881
0.11783309 -0.032842714 0.044006385
-0.10418137 -0.23206308 0.04440114
0.06395469 0.017696353 0.053475317
0.11410514 -0.0022038887 0.044606972
-0.057857316 0.021940086 -0.07692001
-0.15637892 -0.23602809 -0.08442824
-0.026806252 -0.11269159 0.048665892
-0.31157228 -0.059567336 0.020574676
-0.24780083 0.09178154 0.047410347
-0.2620177 -0.15704204 -0.200022
-0.21902275 -0.10428685 0.044179603
0.36220968 0.1332286 0.0336658
-0.13988435 -0.18179932 0.044543408
0.03661906 -0.18737012 -0.074986
0.13599096 0.15292417 0.015222865
-0.12571315 0.11893795 0.05091077
-0.007777444 -0.04936964 0.012157805
0.21743785 0.23216954 -0.13123406
-0.22657283 0.047744635 0.047042307
-0.07629915 0.17442858 0.026319498
0.040198516 0.037881017 0.05330456
0.18786375 0.17634511 0.054811757
0.23436777 0.066223785 0.029587334
0.0728462 0.26226354 0.07434198
-0.21689428 -0.06852153 0.02043563
-0.09520225 0.11265989 0.051523775
-0.23100148 -0.16068164 -0.23703231
-0.11676337 0.06036297 0.0015332978
0.26274064 0.09412625 0.014531778
0.3384728 0.1390842 0.07800529
0.12326105 0.13280098 0.0054615173
0.07297986 -0.14359875 -0.00082718214
-0.014901797 -0.099985786 0.049208798
-0.14714539 0.20584756 -0.18997091
-0.022383664 -0.20603806 -0.14791808
-0.30231047 -0.096329086 -0.0012563559
-0.12083995 0.06524955 0.0017145199
-0.22497915 0.14069837 0.048942942
0.04311891 0.015319854 0.05292314
0.02522493 -0.19831368 -0.021074928
-0.21926676 -0.18531646 0.042550534
-0.21632463 -0.12323066 0.043865487
0.2188539 0.17148446 0.06372594
0.14630945 -0.006056633 0.045309465
-0.019062001 0.24114227 -0.007005875
0.16636519 0.23762028 0.088236935
0.08698505 -0.3118243 -0.19467172
0.02210429 0.11934101 0.054498
0.19985011 0.228468 0.09321555
0.15666713 -0.045757636 0.025447354
-0.28670996 -0.08886516 0.04284956
-0.17485422 -0.19090274 0.043514006
0.16724814 0.17154564 0.04453233
-0.03794435 -0.05958408 0.0010393399
-0.19682042 -0.1526178 0.043749157
0.0848003 0.043734152 0.021435263
-0.19779547 0.09539262 0.04869376
-0.22827695 -0.038663324 0.045270182
-0.042912465 0.046069734 0.007693745
0.06927263 0.25808766 0.07387353
-0.08649349 -0.21156825 0.04523987
0.0745656 -0.28579202 -0.19877483
0.092200145 -0.26637584 -0.19363469
0.13946323 0.093856215 0.040777944
0.2275847 -0.012224771 -0.18526542
-0.19446701 -0.06417071 -0.002842636
-0.1708452 -0.03370498 -0.1210841
-0.026312996 -0.1616733 0.047696486
0.14076468 0.20153306 0.084964745
0.03026859 -0.022069527 0.051863328
0.1904314 0.074901335 0.05284168
0.08382937 -0.24604176 -0.18560266
0.23835814 0.038101118 0.0060419356
0.25646004 0.112933904 0.03111473
-0.3034753 -0.042062514 0.04338114
-0.13058269 -0.23282267 0.02320578
0.081668384 0.22982952 0.07609138
0.31045997 0.18948631 0.08735276
-0.00820233 0.20347326 -0.0074973796
0.10122082 0.24968243 0.078611195
-0.16829161 -0.112714715 0.00813346
0.21001947 0.15975013 0.059857886
0.14145456 0.23803023 0.08460008
0.13416995 -0.1504877 -0.14522159
0.10253968 0.054133948 0.027025241
-0.16989467 0.13559741 0.050174724
-0.23845117 -0.17695588 0.042253613
0.14488488 0.0011184114 0.04541884
0.19405152 0.10996286 0.053632006
0.14328285 -0.09736558 -0.11317279
-0.04161804 0.14953437 0.05356026
-0.14992613 0.02509985 -0.078796275
-0.31242922 -0.006012587 0.005936256
0.039252784 -0.096256785 0.05059462
0.21913339 -0.017380562 -0.18557362
-0.16537426 -0.059653793 -0.04411062
-0.020887638 0.095620185 0.052981768
-0.02642288 0.19285738 -0.008151304
-0.22304803 -0.13623108 0.043442123
-0.057829052 0.021812592 -0.07445116
-0.2971956 0.053756285 0.029823737
0.17160967 0.03367446 0.04974288
-0.019582868 -0.16203871 0.047852233
-0.23326498 0.004277619 0.04600958
-0.27040306 0.05059483 0.046038125
-0.2984326 0.069237076 -0.08972601
0.22796148 0.07777956 0.040099837
0.003567954 -0.008884525 0.025863083
-0.2696936 -0.106331594 0.042911615
-0.2346524 -0.14356758 0.043014396
-0.14973691 -0.09727096 -0.0024226916
-0.15957221 0.023893248 -0.00023370587
-0.17562245 -0.13236742 0.04466804
0.2563695 0.11272779 0.031103816
0.066569135 0.12554932 -0.0072476803
-0.059146237 0.11696614 0.05248328
-0.0028258774 0.20201224 -0.0073964964
-0.21676858 -0.16520962 0.043013915
0.042925134 -0.16310981 0.049344454
-0.13845412 -0.22499688 0.043712676
-0.24363627 -0.103875086 0.043592274
0.045590498 0.2278177 -0.005707271
-0.286606 -0.10262263 -0.19952735
-0.17622583 0.12046859 0.049718272
-0.022727692 -0.1127649 0.048762996
-0.13297127 0.06069162 0.0011474731
-0.025003709 0.17771024 -0.008420458
-0.16011192 0.01234907 -0.06923895
0.14490831 -0.27460355 -0.13787058
0.12246687 0.13425061 0.00017717389
-0.30078298 -0.119978055 -0.046207357
0.04284242 -0.0356608 0.05189525
-0.23567885 0.14556797 -0.08431667
0.10871129 0.23975058 0.07980738
-0.30542654 -0.034309495 0.04348905
-0.045665033 -0.0821413 0.00040031737
-0.15560845 0.019946419 -0.022721788
-0.074369594 0.1644355 0.053065315
-0.17361242 0.13034064 0.04997949
0.18936612 0.23105274 0.09165959
0.14728968 0.196678 0.068255626
0.041815933 0.27033606 0.06976524
-0.062386513 -0.14267819 0.04720364
0.15955034 0.0033105477 0.045800485
0.20162039 0.18938716 0.0938824
-0.2769172 -0.0050749024 0.0447653
0.13573593 0.21406515 0.084047996
0.1642512 -0.03160113 0.02996431
0.30226916 0.18716326 0.08803962
-0.07269443 -0.13825557 0.03193307
0.16858236 0.13149801 0.048604425
0.24165267 0.017729878 -0.18432505
0.16566736 -0.25015172 -0.12374202
0.10381653 0.17151147 -0.0054252
0.09483742 0.25263432 0.07764931
-0.11639133 -0.13889985 0.016352488
0.010704529 0.13866305 0.03716923
0.17867997 0.21531048 0.09026598
-0.15689367 0.05709664 0.005151366
0.22253315 0.21665965 0.095195316
0.00036716904 -0.17212583 0.048133187
-0.017620573 -0.033827327 0.002047326
-0.009833003 0.25825033 0.05125737
-0.19830051 -0.11708865 0.04442492
0.15572006 0.2018823 0.08709071
-0.00283079 0.019457439 0.032282114
-0.22993593 -0.07649518 0.04447198
-0.07107183 -0.23912394 -0.067926995
0.14362621 -0.13514398 -0.2091292
-0.037333503 0.20627621 -0.03977457
-0.18521003 0.040568627 0.009306469
0.056666855 -0.07741148 0.038936738
0.05400442 -0.030314796 0.05227276
0.12755758 -0.31029332 -0.20353138
-0.2664524 -0.09593644 0.043198805
0.14513078 0.107430585 0.040221266
-0.20188345 0.038881913 0.021518942
-0.24510191 0.08040448 0.047247786
0.07517072 -0.1360167 0.0022472097
0.18632947 -0.0270942 0.016268272
0.025133034 0.060932625 0.053401597
-0.19147904 0.01752244 0.0010087871
0.16306847 0.08672772 0.050394423
0.29927438 0.15688469 -0.11026606
0.1221825 0.25783047 -0.009442687
0.14358088 0.020844111 0.047774766
0.3723924 0.18370089 -0.025231633
0.05053119 0.19238451 -0.0062972773
0.22252148 0.1915999 0.094693094
0.26664776 0.011664797 -0.19169623
-0.040374856 -0.10718205 0.011005814
-0.117879406 -0.17840274 0.045144267
0.19724682 -0.2554147 -0.1297535
-0.016731553 -0.22230206 -0.010820149
-0.1384734 0.16258568 0.051476184
0.0882362 0.26372465 0.076570645
-0.28222224 0.014024381 0.045019507
0.06972866 0.049458127 0.054251343
-0.3052723 0.004534979 0.044271
-0.20950665 0.10338974 0.048570216
-0.1659231 -0.22408088 0.04306588
0.14299068 0.113959424 0.03660924
0.08717739 0.15050347 -0.0062487694
0.02950831 -0.19491051 -0.022410963
-0.0821189 -0.24197993 -0.006750253
0.005337247 -0.2099907 -0.0009259264
-0.20493905 -0.09503695 0.044705953
0.14586426 -0.0138481995 0.045142815
-0.07103295 0.06806839 -0.21096498
0.19098581 -0.2217606 -0.13835247
-0.21207193 0.09040587 0.04824802
-0.04229988 -0.063455105 0.00085619657
0.03975437 0.23021892 0.065191336
-0.25094616 -0.02891012 0.044916987
-0.006742549 0.16264318 -0.00073657837
-0.2826547 0.0066140555 0.04486073
0.13341466 -0.2582082 -0.13525191
-0.021781713 0.25598726 -0.012978968
0.1061263 -0.12825765 -0.098531626
-0.10817831 0.042753816 -0.098320425
0.056611873 0.22632186 0.07257654
-0.14791887 -0.07806168 -0.10828134
0.15623215 0.072936505 0.04920204
0.16411376 0.089165 0.05105167
0.2668773 0.17844781 0.09108305
0.046510015 -0.16404855 0.04941228
-0.12975852 0.07478869 0.014179038
-0.02778023 -0.20246445 -0.18225463
-0.0021243987 -0.10315339 0.049454566
-0.15194312 0.20081617 -0.19018766
-0.17953503 -0.06648586 -0.002527611
0.1773604 0.097650185 0.052981123
0.16349335 -0.07172345 -0.009199367
0.26573643 0.1386766 0.034521066
-0.055260118 0.12176942 0.052673437
-0.1344972 0.03620046 0.0006199375
0.1775803 0.15027502 0.051648855
0.12622188 0.09932409 0.026682626
-0.06890461 0.067195654 -0.19814122
-0.08074242 -0.20226587 0.04556567
0.09949939 -0.29837722 -0.19409914
-0.084066354 0.038115922 -0.07070452
0.11823087 0.033714227 0.040868264
0.085273094 0.1566808 -0.0061710826
-0.22465765 -0.03856088 0.045320433
-0.25125688 0.067773186 0.046845905
-0.0027897928 -0.03686365 0.0153928455
-0.28875217 -0.1283373 0.02869516
0.094103254 -0.08964252 0.027844843
0.1275846 0.12831835 0.016158856
0.079852134 0.0256262 0.05401935
-0.10447728 -0.2347783 0.02246914
-0.11261699 -0.17214395 -0.23121853
0.077461 -0.12801622 0.007304915
-0.27956283 0.02690727 0.045341928
0.13884415 -0.26594698 -0.13648625
-0.12820265 -0.16510266 -0.22993673
-0.163903 -0.08745271 -0.0025690293
0.083933204 -0.3352578 -0.20704778
0.12833409 -0.22899048 -0.12906411
0.12749694 -0.10428615 -0.012000108
0.32610562 0.19459732 0.06256832
-0.23737787 -0.105474465 0.043711644
0.11061863 -0.12325195 -0.09832269
-0.12127772 -0.15265469 0.04557746
-0.2676609 0.116766274 -0.006347126
-0.24105963 -0.023711031 0.045260526
-0.09967808 0.06013925 0.0019422319
-0.23969337 -0.17533533 0.042256065
0.15735674 -0.070132464 -0.14693034
-0.17361696 -0.2197714 0.042965878
-0.14770074 0.11002673 0.05020007
-0.26661032 -0.09334326 0.040447038
-0.2736179 -0.0013041231 0.044920586
0.22906536 0.18731955 0.094765946
-0.09957979 0.119889215 0.051562708
0.04581483 -0.3049382 -0.19553067
-0.18347065 -0.057908382 -0.0024509649
0.18365091 0.12806217 0.053742345
0.17240176 0.014315081 0.046349518
-0.00557526 0.009228561 0.02023301
-0.27494335 0.040007167 0.045716316
0.013583318 0.085918136 0.053622272
0.028872337 0.08688074 0.05401174
-0.13316402 0.12340603 0.050820045
-0.023902504 0.11772558 0.053351752
-0.032473844 -0.20074713 -0.1686147
0.1286049 0.19463627 -0.004361693
0.11337463 -0.21033119 -0.12905246
0.20573579 -0.021445034 -0.00720679
0.38282114 0.16439936 0.058223076
-0.057867475 0.112752125 0.052429654
0.12854077 -0.09576618 0.0037524153
-0.017969128 0.2630271 0.03712782
0.13210899 0.090438694 0.035521057
0.3145432 0.14951184 0.014751403
0.089817435 0.023768263 0.04420127
0.2643845 0.15102665 0.038766406
-0.008487426 0.17115808 -0.0081516225
-0.16139098 0.1251344 0.050170943
-0.11257628 0.08804296 0.02798816
0.20060097 0.024901493 0.037560217
-0.17201148 -0.1173831 0.014050437
-0.1971627 0.05780344 0.04795601
-0.067149945 -0.14497375 0.04704242
0.028746268 -0.18039739 0.04865477
0.09105925 -0.21177343 -0.12390703
-0.18294226 -0.07731424 -0.23097156
0.061575957 -0.2862175 -0.19477431
-0.1678125 0.17968686 -0.052474696
-0.08607128 -0.24214251 -0.01766834
0.1357026 0.10214445 0.034268986
-0.18169102 0.13439871 0.049864896
0.15740596 -0.15518518 -0.1685006
-0.2734023 -0.16113116 -0.08024308
-0.217275 -0.2024744 0.032052357
-0.047536142 -0.19701612 0.04647438
-0.04424195 -0.22347206 0.04368888
0.0012041348 0.2712069 0.061375976
0.17150511 0.18533479 0.047522433
0.04101695 0.20695648 -0.006235886
-0.20852682 0.029492017 0.027831698
0.21373227 0.08197138 0.048705578
-0.019324817 0.03312293 0.018883156
0.039842125 0.046496905 0.053468447
0.059189826 0.08207997 0.05464977
0.17077781 -0.056162048 0.0038423804
-0.19510995 -0.1833324 0.043175437
0.048500158 -0.08400151 0.033499625
-0.2670911 -0.008112188 0.044942353
-0.033577017 -0.21906243 0.009839503
-0.062451173 -0.11244981 0.000364131
-0.020038767 0.26080415 -0.028155748
-0.018675186 0.04238296 0.02603295
-0.19487306 -0.17315437 0.043385163
-0.07615744 0.082020044 0.025360715
0.17315748 0.0050088614 0.041339137
0.14720602 -0.25909695 -0.13089944
0.110681675 0.19063699 -0.0048757833
-0.3171096 0.014144498 -0.08267704
-0.03899639 -0.054106697 0.0011234683
-0.18046279 0.07938815 0.048792943
0.045943085 -0.17776059 -0.026979268
0.17016211 0.18944712 0.06581435
-0.28845507 -0.09138029 -0.1993469
0.1981638 0.1364107 0.05575755
0.1603555 -0.23057029 -0.12649798
-0.046343014 0.0017557547 -0.013179133
0.2368844 0.21296465 0.09546888
0.16497308 0.15783407 0.041952383
0.10693968 0.15085354 -0.0057634255
-0.28719112 -0.14211549 -0.07206669
-0.21121013 0.025325157 0.04696532
0.06750988 0.018261395 0.05357257
-0.046137918 0.103202686 0.05252244
-0.25469512 0.032426875 0.04605479
-0.10944352 0.15865603 0.052100323
0.07726716 0.05734799 0.048656397
-0.21804196 0.032643765 0.046946302
-0.16937684 -0.23066553 -0.0055702934
0.16683051 -0.27495414 -0.13006385
-0.19312507 0.09129946 0.04872489
0.10349302 0.0047276854 0.040636905
0.06756237 -0.004842133 0.05311123
0.16662121 0.0745427 0.052258212
0.15679778 -0.049292654 0.022319386
-0.20364954 -0.018601378 -0.0006117483
0.022639178 -0.093601406 0.050245617
0.260906 0.19982466 0.09291942
-0.178491 0.16262141 -0.23258372
-0.26987788 -0.052904334 0.043977648
-0.053587317 0.12623288 0.05086487
-0.055727214 0.01932846 -0.071240835
0.33309275 0.16885357 0.083888784
0.1921156 -0.09388105 -0.21197069
0.02178776 0.10988528 0.054301027
0.28538552 0.15822273 0.08805618
-0.21080291 -0.20472153 0.042366896
0.17574173 -0.20166893 -0.14010274
-0.28246883 0.057752408 0.045889225
0.16489527 -0.22335124 -0.12873667
0.3097623 0.16552672 0.0860354
-0.2778157 0.09417532 0.0016708852
0.0025494809 -0.071960025 0.05019256
0.15242678 0.21627805 0.086427726
0.34846285 0.16297618 0.08264317
0.06300325 0.04199441 0.05393919
0.17250243 0.19630499 0.08957146
0.053090237 -0.024617752 0.052364737
-0.008815054 -0.1488834 0.048376437
-0.0011562338 0.09042377 0.053355537
-0.098378755 -0.23434348 0.0072908653
0.0067616785 -0.073161304 0.050270487
0.32401568 0.1458885 0.022240423
-0.030677537 0.13097008 0.053452846
0.0013077428 0.0728538 0.053063277
0.035888895 0.21125266 -0.0062738867
-0.10981515 0.073138006 0.00894431
-0.014993717 -0.21231203 0.003377601
-0.10212755 -0.24171181 -0.083275706
0.21862695 0.026357401 0.024477031
-0.044414215 0.18438703 -0.040718142
-0.19279496 0.009093122 -0.0013349379
0.085378535 0.17721523 -0.005757371
-0.20326634 -0.21160443 0.024009205
-0.17425278 0.06764458 0.03621589
0.026271924 0.11158991 0.05444375
-0.14304316 0.17695805 -0.19045049
-0.10961848 -0.15890706 0.04573472
0.08579784 0.0048710997 0.05374746
-0.29723927 -0.0006259425 0.04436223
-0.1655728 -0.18281321 0.04390106
0.01848822 -0.017205913 0.051675107
-0.18264483 -0.106956534 0.013253946
-0.15717696 -0.14499901 0.04486145
0.19207509 0.067368396 0.05273058
-0.00022164668 -0.15154941 0.048531055
-0.12379842 0.06709105 0.0045392904
0.26577824 -0.012438394 -0.20616166
0.20285125 -0.25427124 -0.13477753
0.038203407 0.14739843 -0.007496881
0.040562373 -0.12162805 0.050118048
0.036220074 0.093340866 0.054319244
-0.09172732 -0.104101546 -0.0011549065
-0.22741254 -0.1965004 0.03399163
0.18889715 0.12146195 0.053737346
0.13305807 -0.040732887 0.038223274
0.1274742 0.14644761 0.0030336056
-0.069823176 0.073888 0.019823458
-0.11039173 -0.17290509 -0.23422885
-0.13808957 0.08876087 0.050006904
-0.17397735 -0.033129208 -0.00583697
-0.04377164 -0.066889025 0.0007515286
0.047697302 -0.14727473 0.04977674
-0.3094947 0.04685721 -0.06439949
0.16463397 0.21543318 0.0882165
0.051199734 0.23395118 0.07168341
0.08006692 -0.13483359 -0.004422102
-0.23795715 -0.10268717 0.043753386
0.3377866 0.15032923 0.08234549
0.168909 0.13493514 0.048680987
0.12630545 -0.08768497 0.014935771
-0.15615855 0.18094301 0.002994985
-0.113203004 0.16098998 0.052056108
0.0021664146 -0.08252169 0.049971808
-0.16104326 0.0738537 0.023203084
0.33831543 0.17619935 0.083790906
-0.28215933 0.0948453 -0.0879017
-0.0019303515 0.026178503 0.05204992
-0.2121799 -0.20568107 0.004469918
-0.057814315 -0.1701396 0.046764173
0.10208921 -0.32428342 -0.19455548
-0.18306223 -0.09816775 0.006494955
0.18359143 -0.11913484 -0.2255542
0.09508802 -0.3213287 -0.19466574
0.14391042 -0.00061298185 0.045360476
-0.26182783 -0.06750811 0.043880068
0.18852666 0.13821864 0.054063812
0.18853754 -0.043348353 -0.008243437
0.005466075 0.012087243 0.05194672
0.29261342 0.18041673 0.088616945
-0.26871523 0.06613188 0.046390325
0.23844284 0.14420223 0.051743656
0.1042678 -0.2911355 -0.19383876
-0.2717578 -0.054982588 0.043890517
0.17369094 0.1356032 0.04906069
0.092694856 0.12516502 -0.006622737
0.038186196 -0.14531189 0.04958607
0.04495884 0.0018770517 0.052698508
0.23144656 0.17224821 0.08484066
0.04198223 -0.101058684 0.050564554
0.106517404 0.13609001 -0.006069144
-0.05588624 0.13106187 0.051670957
0.24248037 0.07944128 0.02842896
0.080151536 -0.15262395 -0.09480622
0.20791182 0.059722748 0.043276697
0.054205026 0.27999416 -0.11370164
0.13448529 0.04042858 0.04595427
0.19073944 -0.2643449 -0.12633976
0.050262462 -0.10705026 0.05064482
-0.11211478 0.16751051 0.052213125
-0.17079769 0.15778957 0.050597545
-0.008242794 0.0026890447 0.014745048
0.20993502 0.21344906 0.09482608
0.15540056 0.19562455 0.041385923
0.08658099 -0.22826801 -0.14045359
0.18870409 0.02969473 0.04275293
-0.124775544 -0.09587036 -0.0017905509
-0.056572985 0.15814452 0.05337027
-0.28940344 -0.09366776 0.042688053
0.27094495 0.10306559 0.0059832744
0.07338519 0.20098448 -0.0055715423
-0.040526282 -0.0047306265 -0.108651884
0.061918553 0.15764795 -0.006717411
0.17476226 0.029565569 0.046712093
0.2447788 0.074630916 0.024346247
0.027269505 -0.013302211 0.05196601
0.13421986 -0.13466968 -0.14155853
0.20552358 0.21761514 0.09415662
0.011339239 -0.10706448 0.049701914
-0.014299764 -0.065640315 0.009557615
0.16941804 0.1173428 0.05102471
0.13304386 0.20140381 0.07772199
0.11500225 -0.048450235 0.038860433
0.3738248 0.15473421 0.06671367
0.1198098 0.11340442 0.013366526
0.21438912 0.07614552 0.045822266
0.047389206 0.19092439 -0.0064027337
0.14968766 -0.24260984 -0.12545803
-0.08882846 0.16992478 0.05282547
0.069943644 -0.18763627 -0.09575491
0.18144462 -0.24613734 -0.12777773
0.05475883 -0.30231524 -0.19526142
0.18275023 0.025899803 0.045277804
0.15997307 -0.035961546 0.029785156
0.033392932 -0.0045392457 0.052289784
0.12994337 -0.29317933 -0.18110017
0.023735521 0.16790493 -0.007436593
-0.045845523 -0.14210822 0.047615457
0.083737694 -0.008665011 0.053426407
-0.15924796 0.0692456 0.017825305
-0.02169948 0.06433065 0.05233542
-0.16697982 -0.22523658 0.015417842
0.0025898875 -5.5435405e-05 0.043371003
0.1475468 -0.008900622 0.045282703
0.075149894 0.21984674 0.019732626
0.2062211 0.19493937 0.094365306
-0.1902227 -0.06682173 -0.0027932327
-0.019051269 0.1419625 0.053954702
0.18883403 0.15719576 0.054451432
0.05614004 0.09553544 0.028325496
0.09630715 -0.25828874 -0.1861623
-0.15473263 -0.07946755 -0.0021871973
0.29105517 0.1549879 0.028728042
0.05627542 0.27707216 -0.00016866048
0.14141852 0.2105481 0.084914066
0.224834 0.031885795 0.021269048
-0.010955501 0.03260769 0.051960047
0.22406176 0.026298434 -0.18457937
0.15663174 -0.22140312 -0.12819207
-0.23580344 0.09984612 0.04786281
-0.05226236 -0.06659002 -0.0463812
-0.033207297 -0.124615364 0.04827195
-0.0020145474 -0.09818206 0.049556836
0.17042357 0.19650696 0.08927166
-0.09272773 -0.1423925 0.023461513
0.10689936 0.12293972 -0.0063236146
0.015452358 -0.04394183 0.051066313
-0.09974841 0.16701014 0.05250261
0.16751553 0.073013864 0.052248962
-0.13328758 -0.24025837 -0.07000956
0.18307157 0.081743 0.05280073
0.21257146 0.103779994 0.053956322
-0.25931853 -0.17310825 -0.22974321
0.2266278 0.10299355 0.04943911
-0.09106964 0.068148665 0.0055526923
0.0806376 -0.175113 -0.097463034
-0.08867165 0.038538735 -0.042984482
0.31629518 0.19912906 0.013152873
0.06985156 0.22095571 0.0658603
0.01480729 0.28092268 0.06724253
0.18008617 0.1820499 0.055021778
-0.16092241 -0.1320566 0.021708202
-0.035181083 0.21308191 -0.036704347
0.054011524 0.0065303477 0.053010944
-0.296578 -0.09395647 0.042508777
-0.06531618 -0.115502216 0.0020359429
0.0048005115 -0.15513326 0.048580777
-0.21724612 -0.17873202 0.042731516
0.12499427 0.15998209 -0.0051433994
-0.25343317 -0.048080444 0.044472646
-0.10106369 0.07330169 -0.21802452
0.09102962 0.020461839 0.042886153
-0.26213634 -0.15323728 0.04215521
0.20410277 0.043323446 0.042767957
0.07021622 -0.25487205 -0.19393703
0.23958908 0.053847123 0.019740677
0.14806648 0.12189378 0.038335804
-0.13060963 -0.23273887 0.019432029
-0.005932153 0.22520272 -0.007007298
0.12584406 0.1372941 0.009216418
-0.21268378 -0.16117604 0.043193582
-0.034536175 0.070947856 0.052157264
0.21495095 0.23314436 -0.16124153
0.06025445 -0.2560329 -0.1942013
-0.025308339 0.08319718 0.052626032
-0.06399238 -0.10714023 -0.00054433633
0.08100398 -0.31541297 -0.19488841
0.103315376 0.1630554 -0.0056067025
-0.2741703 0.108779006 -0.03029653
0.041668046 -0.124387436 0.050089486
0.106905505 -0.099514455 0.01707014
0.020230537 0.286404 0.010108739
0.15564406 0.25193146 -0.18438266
-0.062465094 -0.22058289 0.04564086
-0.27793333 -0.08078445 -0.20303932
-0.01745177 0.062222198 0.05239607
0.26359406 0.14871716 0.03866332
0.053113207 -0.1550693 0.012039
-0.18254554 -0.045620132 -0.0021826867
0.24291363 0.101838864 0.03783024
0.17489246 0.012454711 0.044290077
0.025278566 0.23993264 0.006884806
-0.29373783 -0.0024450745 0.04441059
0.18490094 -0.11012176 -0.21247053
0.18656813 0.15443955 0.05362046
-0.25599656 -0.16042067 -0.19994369
0.09671381 0.2126267 0.07269861
-0.010778839 0.032746267 0.0365788
0.08174431 -0.037485227 0.052800696
-0.2827859 -0.16935886 -0.21055923
-0.013581889 -0.040232882 0.0035511765
0.084118724 0.015331633 0.0539162
-0.110438436 0.0878069 0.04141898
0.106428765 -0.2339321 -0.13546836
-0.18158436 -0.04825775 -0.00221217
0.054453656 0.0028340078 0.052947436
0.08981129 -0.15944386 -0.098011434
0.016474025 0.20475182 -0.0068743085
0.20908529 0.11925098 0.054181967
-0.024066074 -0.20458776 -0.16247226
0.20086043 0.026061088 -0.1851456
-0.23155473 -0.099801056 0.043965936
-0.11625422 0.18760315 -0.05405382
0.15674955 0.07038185 0.050215986
-0.19301201 0.063024774 0.048161134
-0.15969327 -0.19474824 0.043804247
0.18396376 -0.25746518 -0.12509845
0.25709942 0.07799276 0.013669792
-0.05469242 0.055365063 0.007817347
0.08213835 -0.08763888 0.05180554
-0.16756532 -0.051813077 -0.085854314
-0.17228416 0.12227166 0.04984982
-0.14138903 -0.20241687 0.044093948
-0.018575337 0.25897494 0.038276948
0.019698927 0.06228545 0.053297024
-0.2361275 -0.07634481 0.044324987
0.05788423 0.23693001 0.07258858
-0.07617203 0.06885258 -0.16610709
0.10255096 -0.24823615 -0.14878604
-0.011325675 0.24630937 0.009945056
-0.24705109 -0.10197812 0.043547273
0.13084319 -0.26359794 -0.13977878
-0.14480855 -0.1720378 0.044619568
-0.14688124 0.1297473 0.050614726
-0.19410294 -0.0014249024 -0.0015770675
0.03540762 -0.14047655 0.049615823
0.039753556 -0.1520246 0.049489565
0.13893081 -0.004774861 0.04515664
-0.26157245 -0.12098576 0.042815
-0.06246213 0.025223691 -0.05754862
-0.07819722 0.10839629 0.051850017
-0.059899263 0.13504389 0.052827116
-0.07577334 0.083115615 0.05140237
-0.12255296 -0.19421236 0.044714317
-0.18701081 0.08701692 0.048787054
-0.15340401 0.13281849 0.05051828
0.26260218 0.1071243 0.022474827
-0.0866454 -0.13854158 0.018922778
-0.114499785 -0.22300719 0.044332664
-0.20890829 -0.16755345 0.04315718
-0.20537871 0.14334814 0.049470644
-0.17063531 0.110697865 0.049657993
-0.014658438 0.122077845 0.053662926
-0.013550464 0.10877015 0.053422917
-0.27517375 -0.14669043 0.0052327933
0.06404939 -0.14650694 0.0017676062
0.03025881 0.20118733 -0.006612128
0.23074651 0.1844107 0.09474828
0.085891776 -0.10106152 0.023467757
0.082777284 0.1293314 -0.006779785
-0.05574693 -0.13528353 0.0475124
0.143053 0.21506475 0.08507507
0.09633163 -0.038775977 0.053128194
0.06250164 -0.21141312 -0.09972496
0.1931232 -0.24069192 -0.13302182
-0.20657812 0.08370056 0.048246816
0.0012022135 -0.052842036 0.022980763
-0.23393832 0.0031465692 0.04597056
-0.19288756 -0.21636459 0.031038867
