# .PCD v0.7 - Point Cloud Data file format
VERSION 0.7
FIELDS x y z
SIZE 4 4 4
TYPE F F F
COUNT 1 1 1
WIDTH 1000
HEIGHT 1
VIEWPOINT 0 0 0 1 0 0 0
POINTS 1000
DATA ascii
0.020583784 -0.18718223 0.19335938
-0.23016208 -0.033484794 -0.022780074
0.18923774 -0.10587949 0.004662958
0.1968431 -0.009877041 0.0658254
-0.07322245 0.14566556 -0.013317391
-0.096972145 -0.17769766 0.02220302
0.13093188 -0.012178673 -0.007511315
-0.12346523 -0.10815398 -0.017950008
0.19204304 0.10518274 -0.09068291
0.009229607 0.15853664 -0.1465921
-0.025351217 0.22902289 -0.13595365
-0.08719777 -0.026186798 0.030881096
-0.041058056 -0.055153586 0.1077812
-0.29266343 0.0010013416 -0.07525624
0.053698655 -0.1429931 0.21288846
0.111736126 -0.1500974 0.06384902
0.14136909 -0.03187234 0.1058866
0.158359 0.07328586 -0.036463313
0.1292874 -0.21372828 -0.051684503
-0.0019261825 -0.13095213 0.06950066
-0.10765984 0.023643697 1.3945522e-05
0.107450165 -0.24159528 -0.053556446
0.09810521 0.2384356 -0.20582642
0.05549078 -0.033249136 0.13340113
-0.050876014 -0.07685616 0.07600399
0.074796766 0.059522808 0.01969092
0.18310562 -0.020764688 -0.021980591
0.09960817 -0.055095445 0.062472757
-0.10986013 0.051946145 -0.0033129198
-0.05797519 0.0048963507 0.083775036
0.0079865875 0.032761745 -0.29140925
-0.048429582 0.16414618 -0.047235463
0.0036434205 -0.1408871 0.102558695
-0.24444683 0.03517031 -0.13233124
0.000869686 0.066208184 0.046762154
-0.08615504 0.13348316 0.007422829
0.08914315 -0.052710887 0.19035324
-0.06406373 -0.12287864 -0.028491028
0.006042366 0.27111882 -0.20131108
0.11292133 -0.19181176 0.015543475
-0.092544414 0.010429034 0.041311245
-0.3041901 0.029989744 -0.11798496
0.18077102 -0.14427142 -0.04247779
0.07863931 0.23223142 -0.18915156
0.092360735 -0.051349565 0.18806414
0.060893424 0.15086512 -0.15918976
0.023134394 -0.14502276 0.1479455
-0.08597272 -0.02528357 -0.0057669417
-0.09833493 0.05804448 0.01724556
-0.068489395 0.11705014 0.018736336
0.03724698 -0.015124481 0.1203341
0.1816493 0.17986692 -0.1752712
-0.09414816 0.05589997 0.023847898
0.061116815 -0.27429923 -0.029333917
0.0455746 -0.20240778 0.13405252
-0.07519253 -0.039848205 0.056184523
-0.18857953 -0.029486338 -0.03959275
-0.061931 0.22474696 -0.11346789
-0.10679527 0.04268796 0.0061676395
0.02451128 0.19143239 -0.16730498
0.013070599 -0.07547324 0.15025924
-0.046546083 -0.10732428 -0.07307282
0.04077109 -0.14908567 0.22710928
0.06054859 -0.16410863 0.08156975
-0.060030483 0.21481316 -0.10246266
-0.012550268 -0.077306114 -0.07573466
-0.06788345 0.25970298 -0.1525434
0.003203228 -0.14309455 0.22131917
-0.1514006 0.0036170653 -0.040246405
0.07098867 0.09009217 -0.015143837
-0.09442814 0.08901123 -0.0018884708
0.12215783 0.152961 -0.15539667
0.02257815 -0.09195353 0.1579852
0.013814381 -0.04224189 0.13922153
-0.10538738 0.13640667 -0.017883632
-0.28272668 0.025944583 -0.053799808
0.23329596 -0.020022055 0.055256065
0.0722109 0.15491915 -0.15997343
-0.04700661 0.12039375 0.0045334515
0.23734815 -0.06681275 -0.026003895
-0.1185426 0.17026508 -0.05816303
0.14244644 0.16900927 -0.14365137
-0.06409945 0.12617037 -0.3284987
0.12413082 -0.094601884 0.07294876
-0.2226544 -0.017302232 -0.022579607
-0.16379063 0.052642412 -0.06511889
-0.062785394 0.14960398 -0.022991592
0.09096949 -0.0627204 0.19964057
-0.03445769 -0.09665518 0.08931699
0.13398774 -0.15868339 0.028556054
0.08414822 -0.21779555 0.029974693
0.038294945 -0.2576166 -0.054099135
0.21845667 0.0051264293 0.030024342
-0.11344089 -0.13924484 0.014559736
0.16292866 0.20714161 -0.19907969
0.19751449 0.049508948 -0.086434945
0.0075776493 -0.13285443 0.1292631
-0.07424856 -0.01649217 0.07183675
-0.08921701 -0.16075723 0.02884967
0.1813691 0.029701851 -0.061685354
0.13053107 -0.03322004 0.1466753
-0.06685576 0.14524002 -0.015828732
0.10895568 -0.08408351 0.19882196
0.14020406 0.09808314 -0.057570834
0.15685394 -0.046908375 0.14869769
0.029321432 -0.23963515 0.017142162
-0.1332786 -0.11325634 -0.033794165
0.1081814 0.10958413 -0.122703284
0.06176986 0.057405613 0.028411265
0.07188165 -0.17420436 0.088877216
-0.08865373 0.009791095 0.048016
0.10025472 -0.18416984 0.05415067
-0.05567293 -0.02447385 0.094020784
-0.081939265 0.17229258 -0.04109711
-0.062688306 -0.16214706 0.011893809
-0.12813033 -0.0906016 -0.0514209
0.041509956 -0.2069521 0.020120874
-0.053515803 0.059889317 -0.2496222
-0.015353018 0.08154107 0.036082137
-0.104343 0.10810713 -0.016117139
-0.0028349496 -0.08139386 0.14134389
0.13313177 0.0070267776 -0.011613034
0.1500026 -0.016396083 -0.011506754
-0.072843365 -0.17046344 0.019949188
0.09835734 -0.103274524 0.077413365
-0.09086919 -0.16659261 0.029974258
0.18318814 0.10148518 -0.08204822
0.2081602 0.0035867414 0.038068566
0.13076092 0.008832949 -0.01265272
0.19230622 0.18218337 -0.18310529
-0.14156194 -0.008193422 -0.03191855
-0.10098529 0.03376523 0.02535479
0.009037993 -0.11037907 0.24522553
0.025133941 0.034152605 0.037434723
0.041339815 0.08680111 0.0028715958
0.06011955 0.08099841 -0.0656294
-0.24269356 0.005423346 -0.017653964
-0.010119348 0.037068605 0.07359712
-0.28064284 -0.059149925 -0.0496729
-0.020954 0.06289959 0.047776435
0.051171135 -0.004405879 0.09223606
-0.083293855 0.05442288 0.03814379
0.21027313 -0.0141024655 0.062643275
0.15400922 -0.18070257 -0.04749944
-0.056341562 0.25990814 -0.15826683
0.17129485 -0.06380502 0.10755536
0.06329144 -0.2430571 0.030438334
0.02487964 -0.15986142 0.23375854
-0.065049194 0.02910307 0.06712433
0.09598283 0.13318746 -0.14520662
0.07140205 -0.25913012 -0.011725988
-0.010632171 0.21781076 -0.12949927
-0.12861432 -0.14882383 0.019935122
0.075796925 -0.21933393 0.045427587
-0.07439066 -0.0051057227 0.06879036
-0.07418978 0.08583403 -0.33610278
0.06603167 -0.06897301 0.16456498
-0.023243325 0.04055834 0.07564254
0.16801335 -0.062132526 -0.21144506
-0.0029087588 -0.120583124 0.12360617
0.08796027 0.25630683 -0.22243354
-0.13554539 -0.12616703 -0.01724282
0.027382985 0.08513079 -0.05504625
0.13558598 -0.08228074 0.11930085
0.16021147 0.057504784 -0.018426621
-0.065726854 -0.01550297 0.081087135
0.014957065 -0.011419238 0.119816795
0.055527218 0.091838874 -0.009899946
0.0070428913 0.09028091 0.014977291
-0.23497719 0.0007379253 -0.01869421
0.10610383 -0.23859592 -0.046732195
0.051878046 -0.12693225 0.207785
-0.15434104 0.0360179 -0.051651105
0.14720158 0.1408157 -0.11227763
-0.07267326 -0.014579891 0.07363733
0.09585817 -0.16028973 0.069110855
-0.15494782 0.052489247 -0.062477507
-0.104159646 -0.027857037 -0.0073943953
-0.06874302 -0.05269712 0.05820291
0.057714473 -0.17748283 0.15029636
-0.07321629 0.048670214 0.050697923
-0.21940735 -0.028107058 -0.02477116
-0.15318617 0.05704388 -0.06877302
0.10486342 0.18959561 -0.16312216
-0.029517861 0.22665055 -0.13113263
0.15885998 -0.10721185 0.06317226
-0.15198952 -0.07816882 -0.061468862
-0.18044052 0.04016573 -0.06458833
0.03842164 -0.06584362 0.1569018
-0.20246382 -0.08344162 -0.074277915
0.06289918 -0.10829997 0.24923939
-0.03738805 0.044083834 0.06987558
0.119467795 -0.13199297 0.061973702
-0.08397189 -0.1769184 0.020503718
-0.02109644 -0.12259552 -0.11019305
0.08430063 -0.018993273 0.02278741
-0.015649185 0.22701898 -0.13815585
-0.020034952 -0.10545052 0.10858735
0.084331565 0.06657042 0.006718515
-0.06398206 -0.05137842 0.07551581
0.15496643 -0.10936096 0.06745856
-0.004403995 0.05733517 0.046421893
-0.0073218443 0.050916757 0.055670384
-0.02202042 -0.04196512 0.12417083
-0.22935031 -0.020529645 -0.019495096
-0.19890621 0.027679337 -0.057667788
-0.07681877 -0.026947323 0.062811896
-0.29376286 -0.008063778 -0.11239725
-0.13214605 -0.09629588 -0.053880837
0.08338991 -0.02544953 0.030958574
0.1563781 -0.008501184 -0.023995604
-0.12658942 0.13988814 -0.047609393
0.08671287 0.022464482 0.020327866
0.0066700685 -0.18753584 0.15542628
0.12166815 0.04549989 0.014255583
0.15283132 -0.038404696 0.13883287
0.028774416 -0.07819034 -0.12897113
-0.07967577 0.09553716 0.008962921
0.10114211 -0.046331163 0.11506467
-0.049036626 0.19451478 -0.08334919
-0.21498239 -0.01630637 -0.02591691
-0.08779159 -0.11954243 -0.02122931
0.16353592 0.16856942 -0.1531327
0.16399471 -0.1302423 0.015033115
0.049680453 0.23393871 -0.17745446
0.17408712 -0.036428142 0.0010747154
0.15988089 0.120991215 -0.09436812
-0.22351052 -0.00498479 -0.022095477
-0.18343288 -0.034664076 -0.04559435
0.013193727 0.23556311 -0.1620859
-0.093593664 -0.04001645 -0.0027156346
0.08590093 -0.061796125 0.16867466
0.02617086 -0.009977145 0.1194205
0.21964923 -0.03953968 0.052264556
0.0018454796 -0.081738584 -0.09899328
0.059112985 0.07884275 -0.062567726
0.021256266 -0.1047157 0.15669917
0.0119712595 0.00010742048 0.110760786
0.018943466 -0.14756687 0.2392451
-0.0010861552 0.13125847 -0.16984609
0.11415227 -0.07333765 0.09369649
-0.020632813 -0.06127346 0.1275476
-0.20855881 0.009802824 -0.035065345
-0.14327906 0.046679635 -0.22352788
0.033261776 0.010589272 0.084748864
0.08044088 -0.02992252 0.03772003
0.017857382 -0.06180806 0.14839199
-0.025509167 -0.03456806 0.120814234
0.19517541 0.09056855 -0.07465205
-0.096302666 -0.15154701 0.02117259
0.16188098 0.09294323 -0.06169741
-0.098651096 0.23318294 -0.1221848
0.065338925 0.06516548 0.017415786
-0.01221217 0.1337032 -0.14643864
-0.21551217 0.031728733 -0.124637775
0.016395018 -0.16101547 0.21933687
0.15032403 -0.041139238 0.017999038
0.036555655 0.22753647 -0.16355164
0.060492486 -0.008015202 0.085588545
0.04054203 -0.18701713 0.16964296
0.041706648 0.08256028 0.0077809817
0.040879063 0.21074235 -0.16823755
0.18333343 0.060184408 -0.032611724
-0.0695086 0.10318683 0.022350563
0.0854499 0.0072391797 0.010840784
0.022232026 -0.16415583 0.22438817
0.032914016 0.09432011 -0.0021423069
-0.14064689 0.0146169 -0.037177067
0.05647998 -0.105888024 0.25327277
0.1291039 0.053790126 0.0007893118
0.020565134 -0.20636176 0.13951711
0.016973183 0.007867209 0.102396324
-0.08045278 -0.0065051536 0.062424302
-0.13424872 0.1745425 -0.11671552
-0.05292675 -0.076449394 0.04712821
0.08249779 -0.1118905 0.20677592
-0.13833103 -0.10404946 -0.04908699
0.008213598 -0.1131816 0.23768155
0.033303767 0.22752675 -0.16199686
0.15452167 -0.065539114 -0.20095862
0.17003307 -0.13431615 -0.0037809478
0.03622923 -0.19258724 0.16911115
0.09632175 -0.046902277 0.1825246
-0.14885035 -0.086046174 -0.059020266
0.15909201 -0.08127955 0.102525614
-0.10300177 -0.14850277 0.020702727
0.19452669 0.031939812 -0.08922088
0.119072974 -0.08810518 0.07280796
-0.14242622 -0.10841355 -0.041912477
-0.024138926 0.11944311 -0.005179755
-0.16583666 0.061434302 -0.069984086
0.048956897 -0.24798994 -0.05852286
0.042793337 0.23462623 -0.17501028
-0.04600313 0.052802317 -0.26664284
-0.08346873 -0.07334833 -0.024609316
-0.22790045 -0.013394402 -0.01907936
0.011683274 -0.12021607 0.24595065
0.093947195 0.11078226 -0.13093321
0.21279787 0.13043353 -0.13079989
0.033962354 -0.109672725 0.2552377
0.08807366 -0.1338352 0.05271143
-0.07979552 -0.13175827 -0.010381339
-0.11481512 0.14869636 -0.040396452
-0.07293478 -0.06700032 -0.020453025
0.1668909 0.1837509 -0.17292264
0.13616998 0.008552852 -0.014883839
0.17515004 0.087813005 -0.061845277
-0.0051659993 0.03810294 0.0700063
0.058391016 0.06808202 0.017217353
0.07875055 -0.0994612 0.23305169
-0.057590354 -0.155988 0.0052166185
-0.039753936 -0.12956777 -0.0943138
0.099919714 -0.019992417 0.016572587
-0.1063543 0.029649168 0.00812924
0.08300729 -0.06978709 0.20893648
-0.29919803 -0.013880386 -0.08786595
0.099058375 -0.0114975255 0.0067990622
-0.055794436 0.10377888 0.0020016646
0.12494322 -0.14033788 0.065436184
0.075941704 0.25504854 -0.21522135
-0.060403526 0.10358526 0.03103903
0.021633804 0.24463873 -0.1769696
-0.07659509 0.12614492 0.011681546
-0.08407214 -0.15053086 0.01415016
-0.10297093 0.013685762 0.015276293
-0.28932986 0.0016458643 -0.066962555
-0.059299536 -0.15974745 0.0065229167
0.07172361 0.06102751 0.01934616
-0.052939925 0.22593983 -0.11916493
-0.28264892 -0.007899217 -0.065129384
-0.13373376 0.13664807 -0.06351989
0.09525015 -0.23900162 -0.026713185
0.026385179 -0.2386689 0.0071323845
0.07854203 -0.09298141 0.23303197
-0.13201831 0.08084272 -0.17908569
-0.046072952 -0.039677963 0.103540435
-0.13194704 -0.06887772 -0.041645866
-0.10354313 0.16674504 -0.024194736
0.010839168 -0.18872961 0.16409072
0.09899854 -0.26637843 -0.07616667
-0.03626119 0.13839804 -0.07776147
-0.14699236 0.14258835 -0.14343531
-0.20381299 -0.038644668 -0.038070645
-0.19032913 -0.0545202 -0.06267904
-0.009837742 0.17742774 -0.14621188
0.12431783 0.21043444 -0.18470243
-0.29151008 -0.041455913 -0.071528725
0.095910266 0.059648164 0.009520938
0.17223191 -0.1123132 0.027947422
0.024509149 0.217921 -0.15684
0.09817783 -0.102498844 0.07901735
0.084506474 0.1230955 -0.1507397
-0.18516786 0.041991595 -0.067895815
-0.23924312 -0.04037042 -0.022772934
-0.023030067 0.13347362 -0.022523783
-0.008611681 -0.049236126 0.13420956
-0.07827627 0.13492028 0.0019610913
-0.18521711 -0.08038063 -0.055206563
0.19008231 -0.06568122 0.06718053
-0.027780924 0.10618075 0.012445569
-0.02033677 0.19427119 -0.13674384
0.017167024 0.102128506 -0.004028544
0.15944023 0.18144694 -0.16662481
-0.16694543 -0.058339458 -0.075936176
0.011024704 -0.04761247 0.1403864
-0.07297091 -0.10510098 -0.04190941
0.1194715 -0.11400467 0.06395528
0.122007854 -0.033479866 0.15301374
0.120071426 0.056752656 0.0015252997
-0.0013038184 0.22618808 -0.14396791
0.01362639 0.002401817 0.10975407
0.12311193 -0.032716073 0.1511043
0.20840341 0.12233603 -0.11900814
-0.09912993 0.007977843 0.02593882
0.11464336 -0.14850189 0.06411948
0.027156824 -0.13301829 0.25386578
-0.15970565 0.05023867 -0.063066795
0.20737782 0.10361296 -0.09607906
-0.02044577 -0.0907071 0.12180392
0.14330505 0.104423046 -0.06664201
-0.07920878 0.17690004 -0.04791586
0.026570307 0.048938096 -0.27374116
-0.2042423 -0.06356032 -0.06977552
-0.0019226506 -0.16014251 0.18454051
-0.009936308 0.18116438 -0.14632654
-0.07538284 -0.039793015 0.055808976
-0.03300868 -0.07793651 -0.053198412
0.12878072 -0.035496917 0.02146014
-0.081824094 -0.036785737 0.019068474
0.041639045 -0.03929112 0.14155492
-0.020071656 0.06496799 0.04487841
0.14529043 0.0881918 -0.048128452
-0.00091649214 -0.12821631 0.2319085
0.12861231 -0.15527259 0.04497148
-0.16249037 0.06099682 -0.069095515
0.024859225 -0.0698799 0.15399264
-0.1021799 0.1202375 -0.015912404
-0.06888973 0.074108556 -0.30632275
0.10210527 -0.08354662 0.2135474
-0.30559295 0.020712549 -0.12043292
0.06430644 0.168134 -0.17206223
-0.023414169 0.08045717 0.04120696
0.08954455 -0.036435023 0.1177502
-0.11559296 0.09502649 -0.026428374
-0.056413475 0.14585677 -0.021523956
0.14816229 0.009884135 -0.023179272
-0.26850763 -0.059951387 -0.044811204
0.07302694 0.058801137 0.021395916
-0.0289111 0.010011434 0.09902317
0.06482621 -0.26752567 -0.011298752
0.13806188 -0.06875136 0.16631922
0.13006043 -0.20870522 -0.044687375
0.03348017 -0.18751876 0.18264003
-0.073293716 -0.05221959 -0.00637134
-0.21774097 0.021017227 -0.03670109
0.124379195 -0.037423056 0.12950525
0.13279353 0.21983552 -0.19999366
-0.002531902 -0.14812532 0.20630905
0.13507962 0.19724618 -0.17400147
0.12758553 -0.12671761 0.067302845
-0.10465898 -0.10733364 -0.027858378
0.06099592 0.25005138 -0.21016185
0.19692542 -0.06450753 0.05562383
-0.086152636 -0.14683908 0.00039104692
-0.27890456 0.039197035 -0.120804936
0.08572998 -0.03612443 0.11833625
-0.09299529 -0.057109356 -0.014279428
-0.13858247 -0.08688562 -0.05565393
0.21966207 0.120250046 -0.12185072
-0.23151532 -0.009211673 -0.017212369
-0.063274235 -0.058072288 0.068327315
-0.16986346 0.027584292 -0.055949837
-0.0031574597 -0.16572319 0.17841738
-0.15798318 -0.12566142 -0.04654005
0.043380342 -0.16415378 0.19995286
0.018571883 0.0755434 0.02717092
0.065242335 -0.09332177 0.23730417
-0.0040498553 -0.050056804 0.13615324
-0.060593728 0.026565144 0.07095474
-0.05840406 0.035371155 0.067077294
0.09543081 -0.1910122 0.051671445
-0.0019219369 0.21652314 -0.14025837
0.011812938 0.014621145 0.09674972
-0.11008275 0.21263477 -0.088627145
0.13694428 -0.04748324 0.03195338
-0.25906157 0.025737422 -0.02092676
-0.10763695 0.14438221 -0.023582796
0.16104724 0.13284762 -0.10913336
-0.029840574 -0.0694959 0.11628
0.08446054 -0.19048718 0.07657978
0.21407326 -0.0216625 0.07112234
-0.054999247 -0.07466113 0.05626972
0.24425124 -0.049498986 -0.011641505
0.17205146 -0.056741133 0.119380295
0.036820117 0.04786624 0.046400234
0.099434786 -0.19986267 0.02990193
-0.097594984 0.0920078 -0.0039774966
0.12062104 -0.20291267 -0.017262
-0.04760001 0.24972339 -0.15020724
0.1918344 0.120100364 -0.108464725
-0.0903079 0.17500581 -0.040377907
0.11118809 0.04162922 0.02386892
0.09028805 0.18903847 -0.17270993
0.0032495765 0.07699028 0.03270894
-0.013619115 0.04456416 -0.28561378
0.11395042 0.18056142 -0.16150606
-0.024397632 -0.080374815 -0.06571559
0.1980561 0.084345594 -0.06855951
-0.0712331 0.13593698 -0.002600175
0.23922668 -0.04155751 0.008904606
0.1416337 -0.20641805 -0.06474046
-0.25410563 0.040980462 -0.13471173
0.07493175 0.24409293 -0.20785667
0.14335789 -0.17261028 -0.013132107
0.18684396 0.17427573 -0.17103468
-0.0071592615 -0.048621 0.13448423
0.056379598 -0.03247807 0.13205527
0.0034416595 -0.18106063 0.1649058
-0.031735428 0.11032182 0.009358632
0.07545931 -0.0011822613 0.012645352
0.1974905 -0.019521978 0.079578005
0.036691733 0.09005666 -0.06536858
0.076388545 -0.066148065 0.2073233
-0.09095614 -0.07423948 -0.026214402
-0.10911652 -0.12398938 -0.0057780803
0.1266637 0.057138883 -0.0020664132
0.10264377 -0.032233234 0.02995257
0.059412982 -0.14377142 0.20035248
0.21145925 0.15274617 -0.15691012
0.08789798 0.106528066 -0.1475302
0.033319123 -0.05242289 0.14946103
-0.25768182 -0.002084833 -0.0071311183
-0.020860419 0.10906425 -0.17039955
-0.14578995 -0.037248116 -0.042203292
-0.062153146 0.04632249 0.057711795
-0.04427733 -0.028347125 0.1040757
-0.071343474 0.081047155 0.023753366
-0.15160407 0.12338844 -0.12355851
-0.09821297 0.08474388 -0.00021813945
-0.061336003 0.2568861 -0.15227439
0.1294629 -0.19751017 -0.026138116
-0.12819913 0.050519466 -0.053847216
0.10520652 -0.22886729 -0.029127054
0.19622155 -0.07143463 0.046705585
0.041093897 -0.210837 0.12880056
0.031478446 0.25960016 -0.19957536
0.08223395 0.23031202 -0.18855672
-0.015073076 0.036044378 0.07717576
-0.018828243 0.06879938 0.043751605
-0.05391228 0.12842971 -0.0018216197
0.16253272 -0.11136046 0.048984326
-0.15601644 -0.08218074 -0.060252193
-0.06292607 0.17365266 -0.051751
-0.10357159 -0.11886527 -0.014552152
-0.05906955 0.14354873 -0.017496638
0.10521715 0.22129522 -0.18865618
-0.10545303 -0.17949688 0.019268446
-0.12512434 0.0074759307 -0.029329967
0.0026419726 -0.13359451 0.115756705
-0.056112014 -0.03413977 0.09240174
0.14319047 -0.17487244 -0.016511854
-0.052945103 0.22067787 -0.112855226
-0.021921111 -0.04933382 0.124995835
-0.26780817 0.017189868 -0.023714136
0.038145337 -0.09931109 0.16696642
0.107659824 -0.04244275 0.17289786
-0.061539974 0.1691131 -0.046967093
-0.08573739 0.22405311 -0.10133814
-0.19655184 -0.084256075 -0.06826975
0.16878255 -0.06569071 0.1093619
-0.1540526 0.08136682 -0.1055769
-0.14778526 0.067232735 -0.083549
-0.019876815 0.15387838 -0.11502285
-0.0115166465 -0.12338901 0.09789731
0.10983103 0.06245031 -0.0004447184
-0.0834068 0.2325234 -0.188729
0.11701495 0.00807479 -0.0046357233
-0.08641679 0.18534984 -0.054623578
-0.05272743 -0.074424826 -0.032683402
-0.0833089 0.08455291 0.012338854
0.11250564 -0.045263924 0.17397983
0.12655419 -0.05904475 0.18383102
0.10460306 0.15792158 -0.1646082
0.11510787 -0.047358543 0.13485312
0.150697 -0.035251137 0.010764315
-0.12202743 -0.058018565 -0.029078571
0.06451022 -0.13394874 0.20698883
-0.01662482 -0.10043487 0.12079933
0.008180162 -0.016535295 0.12251116
-0.069157444 0.2155074 -0.09896309
-0.10760778 0.11573832 -0.0210156
0.17826557 -0.08487875 0.060796965
-0.28631085 0.040425323 -0.11876216
0.06589959 -0.10239087 0.24601416
0.110303245 0.11234746 -0.12702248
-0.15570737 -0.053372275 -0.06026615
-0.17318814 -0.008422179 -0.045755472
0.05000689 -0.19690992 0.13437234
0.08110295 0.08938169 -0.019092366
-0.017964631 0.21315429 -0.120990254
-0.074921556 0.13047858 0.005692906
-0.012946092 0.12783471 -0.087094344
-0.17119704 0.05947241 -0.069790974
0.041501008 -0.23645835 0.08513692
-0.28018567 -0.049481824 -0.04896652
0.02836618 0.24109118 -0.17591277
0.033278722 -0.20468017 0.15473256
0.15113546 -0.04040678 0.14300059
-0.115165345 -0.041302104 -0.0148935
0.17787488 0.013035562 -0.06780314
0.059862405 0.04145889 0.04216322
-0.01880626 0.20873283 -0.12684712
-0.1550509 0.072583124 -0.08651426
0.11167929 0.117884435 -0.13431261
0.016235951 0.2656682 -0.19961552
0.0026331507 -0.14677858 0.19601133
0.13630667 -0.032756727 0.14195232
-0.12689732 -0.0405144 -0.023058508
0.10571169 -0.043951415 0.04254252
0.06605819 -0.09730863 0.2409771
-0.24387595 -0.010435214 -0.011177336
-0.14134043 -0.15609522 -0.008671659
0.115747415 -0.19732489 0.0017033808
-0.04003511 0.09757987 0.028570972
0.026476644 0.019205937 0.07764058
-0.12810993 -0.062690824 -0.035878845
0.018519577 0.031090483 0.060516723
0.058833092 -0.21158221 0.092254356
0.13789046 -0.029254379 0.13565426
0.13545802 -0.09254791 0.09062869
-0.12118207 0.18021913 -0.08943102
0.2250464 -0.005192073 0.039264962
-0.113473944 0.021389479 -0.04488229
-0.08522181 0.042378187 0.043099493
0.1006673 -0.0659445 0.19993475
-0.105047226 0.15797828 -0.017174222
-0.12666868 -0.07802023 -0.04254824
0.1987118 0.10524422 -0.20633556
-0.038976777 0.14409183 -0.08017701
-0.30609497 0.009638313 -0.11960963
-0.052433267 0.2469949 -0.14464292
0.0744415 -0.24608316 0.0030972243
-0.084013596 0.075490884 0.02065428
-0.034523644 -0.08050982 -0.054874115
0.024832418 0.09287582 -0.21202101
-0.14419031 -0.010614898 -0.033267695
-0.10575152 -0.007839597 -0.02016563
-0.058909457 -0.06511869 0.0752802
0.14488877 0.12282203 -0.10100156
0.114929914 0.06944072 -0.011243461
0.17405824 -0.044670302 0.02183519
-0.08484687 -0.0816509 -0.031677477
-0.0076983417 -0.11350743 -0.11542829
0.12548582 0.1670929 -0.1529231
0.022259686 0.048504747 0.04509529
0.10798051 -0.0510627 0.12318845
0.24258997 -0.010555497 0.037368175
0.063624665 -0.11188484 0.2424603
0.036991242 -0.23572367 0.087075055
0.2436866 -0.048413385 -0.009040754
-0.1115905 0.13909557 -0.031072145
-0.21924904 0.036863435 -0.08617049
-0.0010301936 0.097279176 0.010420288
-0.07183015 0.16021787 -0.031421635
0.17217968 -0.09810572 0.05138968
0.100532405 -0.20187803 0.024638824
0.07686578 0.21776317 -0.17096734
0.17487481 0.15310948 -0.13998291
0.023936039 -0.21241766 0.13039477
0.030243779 -0.22250532 0.11713102
-0.06911982 -0.05564929 0.050513186
0.0691173 0.047378555 0.03694334
0.051117692 -0.022168718 0.12219483
0.14399579 -0.05940793 0.16930848
0.1165641 -0.18984175 0.012115311
0.11488448 0.12055914 -0.13904
0.09904307 0.24794368 -0.21766856
0.12103106 0.11856847 -0.13403878
0.19692604 -0.11244538 -0.02279725
0.13211049 -0.22522607 -0.07635832
0.1417204 0.21984427 -0.20424089
-0.16084936 -0.03373256 -0.055873834
-0.27767915 0.030188812 -0.11058882
0.05523806 -0.038638353 0.13998106
0.104250826 0.016043168 0.007751188
-0.21894719 0.02837738 -0.11632707
0.13509244 0.11239051 -0.114028975
0.06820686 -0.079507984 0.22286338
0.032186385 -0.11158015 0.25496647
0.104965895 0.116208486 -0.12911773
-0.015184021 0.10934651 0.0026728406
-0.26294366 0.03643001 -0.057171263
-0.13428234 0.16833109 -0.0965258
-0.17990544 -0.06368578 -0.07613071
0.12862776 -0.17861447 0.006577181
0.19006276 -0.0769829 0.0501386
-0.12449852 -0.13836789 0.018756483
0.10531221 -0.22032587 -0.01585431
-0.11965992 0.19161864 -0.17460856
0.06242213 0.22259918 -0.16990949
0.16227734 0.13486688 -0.1121379
0.14636418 0.12861425 -0.10754651
-0.19592538 -0.07221843 -0.062667675
0.10600861 0.038835756 0.028581254
-0.04541535 0.11000275 -0.001938074
-0.09751776 0.07181304 0.009351944
0.019411834 -0.012472707 0.121819474
-0.12611428 0.089531004 -0.04510028
0.14874159 -0.08165477 0.12399568
-0.24909261 0.0030652068 -0.013422814
0.061385073 -0.24374108 0.033108078
0.16066298 0.09768614 -0.066804275
-0.072031885 -0.13764165 -0.007013758
-0.17489031 -0.025651606 -0.044503488
-0.029763468 0.23017895 -0.13524507
0.19259362 -0.10871753 -0.00644353
0.105644196 -0.032200485 0.028489148
-0.272235 0.035704616 -0.06654903
-0.035595305 0.08105187 -0.18174604
-0.14791314 0.0071207965 -0.039402876
0.12759554 0.19492544 -0.16766813
0.0044284933 -0.05988859 0.14298467
-0.043038793 0.16187681 -0.087032564
-0.097819686 -0.06891391 -0.0246412
-0.029005712 0.11513737 0.0022914566
-0.15123619 0.11135891 -0.11443666
-0.14337859 0.019977616 -0.041637342
-0.031087374 0.09639539 0.025744028
0.18317865 -0.05878508 0.09235672
0.031483784 0.025446447 0.0482448
0.08875372 0.2008093 -0.16682655
0.059252076 0.21481743 -0.16528454
0.15266728 -0.055017184 -0.21269098
0.057117064 -0.13463786 0.21251683
0.048414286 0.2287578 -0.17064351
0.01218077 0.09945964 0.0015367197
0.16802356 0.00048816396 -0.040297545
-0.019100033 -0.045524582 0.12646312
-0.061974037 0.026519759 0.07028953
0.072533704 -0.05551488 0.1520021
-0.013585772 0.125831 -0.017845113
-0.09799416 0.14808325 -0.0044592777
0.14379035 -0.12753041 0.060049348
-0.07229384 0.10205137 0.019110966
-0.092424944 0.0823081 0.006779722
-0.049639948 0.23049377 -0.12618959
-0.1483024 0.13936305 -0.1538792
-0.023319107 0.2464318 -0.15778507
-0.11377237 0.047272258 -0.022622406
0.101592645 0.07955649 -0.07319525
-0.06598809 0.22677584 -0.11397468
-0.11376968 0.06079393 -0.0148788635
0.02360236 -0.021983998 0.1293412
0.19293647 0.015017277 -0.15314919
0.020025939 -0.17086333 0.12142444
0.030594246 -0.23880705 0.029930308
-0.1235997 0.18782982 -0.105103716
-0.11600555 0.11666885 -0.02479999
-0.012107136 -0.0022358897 0.109204546
-0.08216317 -0.110191524 -0.035109047
-0.054201942 -0.07551895 0.06418103
-0.03647218 -0.12733068 -0.095579736
-0.029613638 -0.010436025 0.10955758
-0.27573904 0.0074102418 -0.0384482
-0.20730783 -0.021528993 -0.029155402
-0.26618108 0.025711486 -0.13923748
-0.109491035 -0.14854275 0.023830509
0.12366053 -0.14135899 0.06516865
0.1028694 -0.045651853 0.112473994
-0.11673624 -0.0051880763 -0.022461036
0.07215815 -0.17523427 0.09121685
0.05178151 -0.10127988 0.24997927
-0.24764647 -0.0153346555 -0.010324627
-0.21690103 -0.016728112 -0.025128255
0.056122806 -0.2702392 -0.03224623
0.11879209 0.23200604 -0.20793733
0.23764177 -0.011109763 0.040381007
0.014368337 -0.11026179 0.22969846
-0.16775317 -0.10501541 -0.046927113
0.11993918 -0.05028853 0.17647453
0.06595111 -0.12352282 0.22064078
0.08208421 0.19625963 -0.17326924
0.049183086 -0.1469599 0.21476352
0.065256245 0.075313814 0.005290799
-0.2943272 -0.00040849386 -0.08032428
0.063405976 0.06024937 0.024226125
-0.16438085 -0.08727262 -0.056833766
0.0115841655 -0.078245945 0.1496933
0.012830578 0.26747635 -0.20016633
0.1382727 -0.0603178 0.17827578
-0.1596416 -0.089042276 -0.056961797
-0.07548781 -0.037921343 0.058497123
0.20498584 -0.026768401 0.08507687
-0.008136838 0.24989562 -0.1691423
0.0520533 -0.16171248 0.18648733
0.08544563 0.23323065 -0.19357932
-0.12204225 -0.1124213 -0.013509989
-0.005867153 -0.07537493 0.13863234
-0.12280754 -0.16636929 0.020285
0.18243015 0.1136545 -0.09627536
0.033277214 0.023733862 0.040566448
-0.12926029 -0.11211035 -0.031201998
0.06616579 -0.026486281 0.12022828
-0.058737084 -0.068542935 0.03185046
0.09792034 -0.15195595 0.06353794
0.111618064 0.19484739 -0.15999202
-0.053881705 0.10330723 0.02827715
0.10165688 -0.21497528 0.0011512777
0.08955145 -0.04574329 0.13221283
0.013414657 -0.16489765 0.20996693
-0.03648495 -0.09491548 0.04823877
-0.2104083 -0.004558456 -0.02835699
0.18200421 -0.02217068 0.094324976
0.17432348 -0.07767387 0.079217546
0.1097475 -0.049273454 0.047006574
0.09041534 0.09036108 -0.09122998
-0.2459916 0.02071639 -0.023085251
-0.06733904 -0.17122969 0.011183658
-0.09876762 0.03452666 0.028083527
0.028624682 -0.08986505 0.24264267
0.23099637 -0.0061292793 0.037564818
-0.23175961 -0.025542371 -0.018049067
0.053253904 -0.14968887 0.20318285
0.052447777 -0.1835411 0.03499554
0.10231698 0.05151288 0.016231637
0.20661174 -0.076687224 0.01755077
-0.12067805 -0.08020203 -0.04154569
0.041298285 -0.01986686 0.12409581
0.14355372 0.18306948 -0.16103041
-0.11018401 -0.13920672 0.0129684545
0.16037275 0.16854988 -0.15160829
0.03526641 -0.09666638 0.21225502
-0.13636011 0.021322481 -0.040594928
0.13402863 -0.088898554 0.09277975
-0.10471818 0.03587493 0.012840907
-0.025942547 0.08720345 0.03432079
0.08257714 -0.037772093 0.04611505
0.11082038 -0.20667374 -0.0041475636
-0.13654539 -0.0150463 -0.028371273
-0.055341206 0.077924535 0.032777183
0.02728106 -0.07982802 0.15744576
-0.10756219 0.023234453 -0.008582713
-0.01933878 0.16308233 -0.12631024
-0.15024954 -0.107548535 -0.039236125
0.102640755 0.22488153 -0.19173202
0.14294852 -0.028873153 0.10832874
0.043797333 -0.08532425 0.16680375
0.094115414 -0.28225577 -0.09180388
-0.07574869 0.040782668 0.05252211
-0.22183646 0.016753374 -0.033249307
0.082659565 -0.22489166 -0.08897369
0.041615147 0.04879254 0.047544178
-0.043034513 0.2015929 -0.094681844
-0.072659396 0.03345119 0.060037557
-0.11759667 -0.06493251 -0.030296918
-0.06597605 -0.018276528 0.080166206
-0.11569995 0.0037211985 -0.028810143
-0.12068631 -0.12986961 0.006760646
0.012684734 -0.050701447 0.1421902
0.01222315 0.07751052 0.027826302
-0.07836361 0.089304075 0.012572543
-0.29699555 -0.0013141938 -0.086686015
0.12005104 -0.21145932 -0.030156676
-0.051544882 -0.0013003146 0.09146893
-0.022425141 -0.06124452 -0.042198595
-0.18102023 -0.09538655 -0.05616826
0.1307646 -0.037358705 0.117044665
0.120143026 0.04619745 0.014142941
-0.25886834 -0.007870215 -0.004696277
-0.060683236 0.09934744 0.029301282
-0.14988983 0.0638121 -0.07845014
-0.040074002 -0.12567544 -0.0880359
0.20810649 0.11731109 -0.17938821
-0.18031608 0.05502316 -0.067183174
-0.036895066 -0.029801363 0.10974383
-0.11205543 0.12596847 -0.031167721
0.01052282 -0.18246427 0.12162613
-0.03403564 0.0861117 0.03946955
-0.088711925 0.14279789 -0.002529074
-0.14252412 -0.052266635 -0.043633386
0.0020486682 0.23034441 -0.15054116
0.062013067 0.043588128 0.043917738
-0.014933268 0.011499545 0.09956918
0.07756124 -0.153702 0.06521031
0.2047645 -0.015139229 0.06802818
-0.050865665 -0.0844845 -0.043101568
0.047423076 0.22640005 -0.16734703
0.20570251 0.10213559 -0.09351285
-0.113951474 -0.18009791 0.017108103
0.15729605 -0.03780279 0.13481846
0.06618518 0.20829831 -0.16897377
-0.27955753 -0.0074131866 -0.0660638
0.0889389 -0.24762194 -0.028062128
0.0964716 -0.018899549 0.016899016
0.022101039 -0.1339741 0.25037783
0.1620983 -0.04209555 -0.2326554
-0.020604964 0.106842585 -0.17574498
0.05647337 -0.003730534 0.074747406
-0.1943588 0.023446247 -0.04888725
0.06933116 0.132147 -0.166461
0.018029332 -0.02450702 0.12947637
-0.015604285 -0.06089153 -0.0497845
0.07171185 -0.17016369 0.08352993
-0.050559785 0.03348255 -0.28518564
0.09619097 -0.089252956 0.2159335
0.11246176 0.21617652 -0.18595833
-0.0021989548 -0.16190968 0.18975519
-0.1282677 -0.05419667 -0.030569391
-0.0776795 0.21242203 -0.09122054
0.13576138 0.10188496 -0.07887959
-0.1379044 0.16282055 -0.111476034
-0.19409738 0.021403946 -0.047704484
-0.056759287 0.22770673 -0.119470075
0.07412452 0.13696292 -0.1604303
-0.056317523 0.122422576 0.0065203467
-0.1999004 -0.038744505 -0.03994621
0.065010354 -0.12818411 0.21556623
-0.03275133 0.19911425 -0.098359935
-0.23512255 0.010013331 -0.022841563
0.11861927 -0.08052872 0.07989095
0.07340252 -0.06301021 0.19196346
0.15709992 -0.05937417 0.14411801
-0.26612297 -0.04934267 -0.020073881
-0.011527213 0.04604266 -0.28440544
0.059210103 -0.0066637555 0.06752736
0.058281515 -0.0653836 0.16201606
0.1077172 -0.115142114 0.05665706
0.13806278 -0.00862965 -0.0151495915
0.19425075 0.1748757 -0.17526904
0.11738665 -0.10602786 0.06398621
0.026014294 -0.12662394 0.25399783
-0.037259027 0.14298293 -0.08516593
-0.084303044 0.08997101 0.0070007294
-0.09914178 0.04624652 0.021380901
-0.03819575 -0.025827337 0.10798368
-0.13950276 0.07359554 -0.072456285
0.0809734 -0.2713741 -0.050510906
-0.10678621 0.19418721 -0.05554958
-0.065107726 0.10955624 -0.3699788
-0.09742366 0.19494756 -0.060904272
0.04993622 -0.18347594 0.15662126
0.022101771 0.25783524 -0.19300988
0.112029545 -0.043476917 0.14630002
0.13755956 -0.045375116 0.092969686
-0.029361933 -0.032342717 0.117502145
-0.12421021 0.112640336 -0.040183038
-0.10678521 -0.14187138 0.014549607
0.19746688 0.03836424 -0.18119821
-0.23345827 0.0012382678 -0.0196141
0.12075957 -0.02023654 0.006974981
0.10185328 -0.21581961 -0.00058623543
-0.07050994 0.24402569 -0.13250495
-0.10968814 0.0633121 -0.0069248294
0.09020865 -0.05473573 0.19202594
-0.08381834 -0.16122209 0.026845066
0.107510775 -0.118104644 0.0562447
0.030605279 -0.042714085 0.14421982
-0.20557308 0.0022478807 -0.032661404
-0.1275978 0.16814086 -0.08099601
-0.0886541 0.2329658 -0.110636935
-0.090480454 -0.019085906 0.023964865
0.20377178 0.14066672 -0.13878219
-0.10303492 -0.040199604 -0.006624225
0.19711043 0.08693396 -0.071213484
0.07480576 0.080551 -0.07206284
0.046848226 -0.078200236 0.22790334
0.18285672 -0.00438341 -0.13624623
0.08125732 -0.16868006 0.07722175
0.051711865 0.08150051 -0.062241238
0.12788154 -0.015195798 -0.0024472508
0.1338213 -0.10707198 0.07550159
0.013823735 -0.20287597 0.0821269
0.026074944 0.243466 -0.17767152
-0.27767336 -0.058431096 -0.044142768
0.20011376 -0.013166332 0.068379276
0.15027033 -0.09344397 0.10180151
0.0738109 0.19674483 -0.17543042
0.12891574 -0.07706046 0.112565696
0.026897825 -0.20434782 0.16334279
0.1070299 -0.22296026 -0.023067081
0.2198364 -0.0047549275 -0.0039172363
0.14722328 -0.043378245 0.022154544
-0.15480882 -0.106478214 -0.03835555
0.13878538 -0.028884618 0.1344828
0.13079469 0.1983769 -0.17332344
-0.13808008 -0.12743056 -0.020181237
-0.038906544 -0.09353106 0.07713926
-0.28266683 0.058299977 -0.1419173
-0.14940912 -0.09412458 -0.05457323
0.1672456 -0.12578766 0.015823962
0.056727875 -0.08742793 0.17670338
-0.26537645 -0.018481245 -0.018559055
-0.043807607 0.069452815 0.04411272
-0.20224008 -0.003755927 -0.03250401
-0.038070228 0.019285534 0.08821483
0.14851005 -0.04150069 0.14646384
0.02990725 -0.22109352 0.12051051
-0.18024717 0.032823656 -0.0627728
0.012173053 -0.15213634 0.22386278
-0.07156591 -0.06264234 -0.016811367
-0.08741057 0.024779508 0.047375184
-0.109739445 0.055729657 -0.0036764883
0.057820894 -0.12865457 0.21095462
0.015517962 -0.21043861 0.11296737
0.24088481 -0.013812069 0.04208087
0.025336122 -0.2058942 0.15425614
-0.13489184 0.17338459 -0.13894466
0.21215105 0.149422 -0.15325345
-0.058871295 0.095147856 0.029207762
0.12641704 0.1395798 -0.1465615
0.04001847 -0.10446135 0.25272083
0.051744558 0.22701453 -0.17013444
0.1596534 -0.060452413 0.13753532
0.0863816 0.04117455 0.03618652
-0.09097034 0.16672733 -0.030140245
0.0701548 -0.08089081 0.22364412
0.023290103 0.027669229 0.06456411
-0.05442405 0.045456313 0.06334281
-0.10621615 0.021135842 0.0075636157
0.060528364 0.06451534 0.02047842
-0.2356126 0.0066510877 -0.020659745
-0.12395888 0.0019252766 -0.027329829
0.095040955 -0.19542582 0.045122925
-0.14814945 0.111686975 -0.09976792
-0.15318316 0.04483592 -0.05849917
-0.09416068 0.017075619 0.039436214
-0.28599703 -0.057603687 -0.05988978
-0.06877731 0.09154576 -0.3246142
0.06594016 -0.18044682 0.13001373
0.038210087 0.09069977 -0.0003159713
0.06719864 0.077379875 0.0018925882
-0.08021332 0.08739825 0.0133295795
-0.11703786 -0.13455738 0.010648359
0.013998377 -0.05636342 0.14488171
-0.11025352 0.11281147 -0.022906268
0.19688179 -0.05151227 0.07736421
-0.18846685 0.048029233 -0.07089795
-0.17031492 0.018125437 -0.05344819
-0.12014918 0.12680745 -0.034986246
0.04287104 -0.21020934 0.12630405
