# .PCD v0.7 - Point Cloud Data file format
VERSION 0.7
FIELDS x y z
SIZE 4 4 4
TYPE F F F
COUNT 1 1 1
WIDTH 1000
HEIGHT 1
VIEWPOINT 0 0 0 1 0 0 0
POINTS 1000
DATA ascii
-0.07965879 0.22019264 0.116976686
-0.12479072 0.15350688 0.13594294
0.1477125 -0.058974694 -0.13183933
-0.24174456 0.06380073 -0.02231191
0.091323085 -0.111013204 0.016967999
-0.092973486 -0.036800954 0.06952252
0.11343392 -0.039414115 -0.119510405
-0.14975108 0.05708594 0.000352407
-0.13653468 0.11229186 0.104821086
-0.0010000172 -0.08687986 0.02026469
0.056112718 -0.012478915 0.14847161
0.048609003 0.011957486 -0.3063826
-0.2949092 -0.10308181 0.036254127
0.05520079 -0.0067533734 -0.0977666
0.10391413 -0.09820426 0.029274307
0.122552805 -0.078622766 0.041234426
-0.28189284 -0.122891076 0.14748462
-0.18009657 0.042634778 0.112338975
-0.19460468 0.16336194 -0.022242496
0.25581884 -0.07589227 -0.28483734
0.13839702 -0.19997726 -0.14548321
0.27216005 0.09647579 -0.23719288
-0.17495453 -0.048805557 0.09670326
0.266147 0.019175345 -0.121879295
0.0813299 0.09455838 -0.27005634
-0.10394369 0.19265707 0.1264087
-0.022085752 0.028001538 0.15598302
0.005280406 -0.029081991 0.018334107
0.13161524 -0.05122599 0.10842107
0.25191784 -0.110105865 -0.23236197
-0.27921453 -0.016458472 0.117149435
-0.10429252 0.17400919 0.068815924
-0.0029968824 0.017695345 -0.02500195
0.038219675 0.066827275 -0.18120475
0.14752619 0.13478102 -0.25618708
0.06471269 0.19917883 -0.14060764
-0.3054253 -0.09854082 0.15865764
-0.1164869 -0.056439847 0.080967434
-0.08199834 0.19480945 0.11065433
0.20620407 -0.077660374 0.08334326
-0.19919753 0.040221173 0.16418889
-0.17079361 0.18709576 0.011409029
-0.15635118 -0.102191284 0.060242947
0.24771638 -0.16916738 0.100753896
0.108336635 0.21066293 -0.20728421
-0.06198127 0.26659343 0.09370936
-0.22539681 0.07281055 -0.007911119
-0.23293772 -0.053182926 0.16096738
0.2527071 0.11574909 -0.24165055
-0.23404972 0.03733188 0.15929516
0.121072665 0.037699055 -0.27313897
-0.18700755 0.12938344 0.10213772
0.2663397 -0.06366508 -0.0059972554
0.30844986 -0.16952254 0.05930681
0.07814275 0.13031788 -0.059666984
-0.23341894 0.04538621 0.14071684
0.1434946 -0.13207242 0.079937674
0.22846457 -0.05236108 -0.28610116
0.13140343 0.14555185 -0.24847358
-0.33413014 -0.07128194 0.038441006
0.27551612 -0.15031484 0.072441965
0.23989134 0.07002675 -0.19756
-0.22296357 -0.020416358 0.16723415
0.05998762 0.03374236 -0.29012468
-0.15731609 0.100237474 -0.05267573
0.32957783 -0.119676694 -0.0008165151
-0.2789116 -0.06485452 -0.008620315
-0.14997077 -0.054067384 0.09060141
0.1675057 -0.19910389 -0.18101662
-0.12561019 -0.13869755 0.011814442
-0.20860456 0.052433487 0.16606882
-0.13622491 0.020270927 0.07603781
-0.26931092 -0.10363818 0.15606222
-0.24830501 -0.06638432 0.1273986
0.072254844 -0.228163 -0.1549572
-0.11050864 0.0056481264 0.06598839
0.18588808 -0.0935194 0.09714922
0.14874235 -0.16484721 0.08035732
0.12976037 -0.024773937 0.09785434
0.25562352 -0.04003834 -0.026686631
-0.15106371 0.22639154 -0.013710141
0.2722686 -0.049995504 -0.032030534
-0.08914444 0.2507276 0.11710255
-0.12330685 -0.1426827 -0.00030008057
0.027127054 -0.11526123 -0.0052541355
-0.07600736 -0.13589303 0.02569718
0.25623605 -0.10367575 0.061794646
-0.24032553 -0.022745032 0.17091708
-0.24074973 0.10305432 -0.048085567
0.037567124 0.13359764 -0.055856455
-0.012296391 0.0026950743 0.16675088
-0.0013127135 -0.003679654 0.17167445
-0.20482914 0.17607221 -0.10214622
-0.006340258 0.006104527 0.17139745
-0.11014769 0.010913289 0.058917258
-0.061906617 -0.09727751 0.049629893
0.08204761 0.15396373 -0.09733514
0.08081192 -0.07985706 0.041729335
-0.021466888 -0.04810459 0.024054807
-0.15276721 0.11871059 0.022602234
-0.060570415 -0.093291394 0.05114923
0.22963695 0.12962273 -0.23434564
-0.15504041 -0.025150487 0.09748688
-0.09448812 -0.04808108 0.07219451
0.21065618 -0.15593494 0.13203816
0.3015459 0.078937344 -0.2466835
-0.22602828 0.05112554 0.15449065
-0.16902328 0.072502255 0.15656175
-0.08825384 -0.057569068 0.068571076
-0.10891301 0.15835865 0.0927809
0.088443 0.00874418 0.0987827
-0.16168244 0.01739739 0.09692351
-0.3261608 -0.043289084 -0.005341482
-0.27728733 -0.09418958 0.08649943
0.022001734 -0.014771265 0.17019741
0.1869099 -0.044739947 0.059574127
0.119700685 -0.026804151 -0.14444947
-0.2503978 0.13507205 -0.176856
0.18853912 0.19407797 -0.27703205
-0.2117679 -0.020296162 0.15720062
0.096086696 0.09595907 -0.28232312
0.04081153 -0.017500175 0.1614776
-0.09267531 -0.039356466 0.07100943
-0.11815407 -0.13427565 0.023173928
-0.24991709 -0.06880564 0.12740396
-0.13323855 -0.11612441 0.049320117
0.0070073875 -0.030010821 0.0193211
0.11192436 -0.057126082 0.05907385
-0.03968335 -0.07667776 0.042882916
0.23130547 -0.0620647 0.032381024
0.2684026 -0.15135568 0.09396932
0.0038651766 0.08525487 -0.09721085
-0.035885464 -0.1158553 0.03232458
-0.16611703 0.09580611 0.02693782
-0.21663651 -0.017839808 0.12699917
0.027359404 0.07034856 -0.020414116
0.18416455 0.09761687 -0.25879818
0.025908494 -0.04356233 0.035019055
0.24506861 -0.050386067 5.447295e-05
0.21158263 -0.09661496 0.10326355
-0.20239387 0.1723743 -0.078924894
0.21137932 -0.15703842 -0.16533199
-0.14030431 0.14941008 -0.006891028
0.10869962 -0.013201389 0.10605357
-0.22354214 0.040025804 0.16885875
0.21344869 -0.05737242 -0.2616671
0.23304902 -0.060867194 -0.27949512
-0.0054944004 0.01651264 0.17275007
0.18471007 -0.1636921 0.13675481
0.036626406 0.09839981 -0.0066282847
0.04853491 -0.09570107 0.019293688
-0.105394505 0.27414042 0.046262067
-0.1632848 0.13390169 -0.083555736
-0.17001773 -0.1110428 0.045294784
0.07600875 0.022460409 -0.29833582
-0.06386765 0.042010777 -0.079418264
-0.17097904 0.078998186 0.044296738
0.2322747 -0.056537896 0.02351079
0.1677749 0.11180574 -0.2625911
0.26011428 -0.08381453 0.029461578
-0.24497505 0.040608104 -0.03297152
-0.010880596 -0.17224015 -0.04376953
0.01391064 0.0921428 -0.08059961
0.2788773 0.052185196 -0.18290536
-0.1160846 0.18204291 0.0033912421
0.030606767 -0.05179918 0.03634714
-0.03267631 -0.1506872 0.001075747
-0.2229411 -0.031137297 0.11212374
0.16663042 -0.13955027 0.11585288
-0.10216191 0.18917602 0.12615411
-0.27286652 -0.10405625 0.15622427
-0.15679447 -0.08564824 0.07639461
0.22552793 -0.15616304 0.1256609
-0.06770523 0.27037787 0.09510165
0.3341972 -0.14685655 0.0319217
0.25266457 0.05511941 -0.1566248
0.10324099 0.232746 -0.23232673
-0.32403186 -0.10337759 0.15218316
0.19623493 -0.063093305 0.07448556
-0.10775339 0.26209205 0.070574306
0.23707795 -0.00015424068 -0.10098664
-0.14890869 0.036654823 0.07137582
-0.20292637 0.120886885 0.059157524
0.22796173 -0.12847266 0.12933253
0.24968271 0.14486143 -0.2789465
-0.22320977 0.09537793 0.047485374
0.12850124 -0.09496014 0.047901437
-0.14401227 0.13710463 0.1428875
-0.1142545 0.14571252 0.11159523
-0.09831694 0.19503811 0.124541074
-0.2566271 -0.069663964 0.061684623
-0.18845706 0.17184193 -0.020025676
0.20406604 0.05920159 -0.2444771
-0.14725861 0.19087578 0.096595466
-0.2024015 0.14578429 -0.0062850593
-0.11846318 0.16334777 0.13318068
0.29712576 -0.17426963 0.058520306
0.12488528 -0.13626662 -0.06703783
-0.13807909 0.19626576 0.1207011
-0.03919093 -0.15750107 -0.0067801946
0.33181494 -0.16409609 0.029832104
0.18631084 0.1654977 -0.23439176
0.1039458 0.21475555 -0.20792904
0.059898093 -0.15007633 -0.04883137
-0.20350681 0.1794862 -0.106348574
0.06182207 0.007354511 0.13159671
0.24568787 -0.17737845 0.0924228
-0.10219201 -0.15127596 -0.03546017
-0.0037145955 -0.13241737 0.006855424
0.014591772 -0.039906297 0.026388897
-0.10096922 0.26925087 0.07900373
0.023674836 -0.02196918 0.16391218
-0.20931862 0.09807955 0.09284537
-0.18734495 0.016722208 0.16108826
0.2621514 -0.14409848 0.11159102
-0.15285979 -0.00664591 0.09671187
0.17845403 -0.16088392 0.13755023
-0.117165916 0.15211111 0.13403541
0.19882593 -0.20652416 0.08202743
-0.09520675 0.18956496 0.12409517
0.25331578 -0.17555685 0.09183427
0.024010101 0.26549762 -0.18636426
-0.01542131 -0.015360818 0.1615267
0.014166539 0.041813068 0.13855614
0.089143835 -0.19201645 -0.109730534
-0.1589396 0.20613724 0.009111944
0.2419645 -0.1136777 -0.21581547
-0.30325714 -0.055065375 0.12150441
0.23244226 -0.17044014 0.1070823
-0.18346146 0.13497992 0.101367414
0.042226605 0.029201915 0.12369684
-0.29183412 -0.09675106 0.1593622
0.0889469 0.1463995 -0.22842489
-0.17406781 0.06594785 0.1586256
-0.07604183 0.2648372 0.10520124
-0.09936483 -0.11309566 0.051854465
0.14526862 0.1947594 -0.22781599
-0.14222582 0.12639126 0.14355394
0.09214081 -0.05406238 0.05918288
-0.29262745 -0.11076789 0.06548531
-0.29515117 -0.03977194 0.11349111
-0.2326926 -0.08883255 0.02309709
0.23218766 -0.19578406 0.07870658
0.102942266 -0.042721994 0.11151575
0.06372693 0.02272193 0.10784984
0.05203088 0.21572898 -0.14909954
-0.19528109 0.17836744 -0.065459676
0.18112905 -0.22053418 0.07497998
-0.061112907 0.06194481 -0.1105506
0.19376144 0.11434584 -0.2487888
-0.26905835 -0.03657111 0.17354688
0.14065073 -0.14864442 -0.02509957
0.056730475 0.1444321 -0.05462218
-0.011222105 0.07910555 -0.12781191
0.03295343 -0.16139409 -0.042068213
-0.15760095 0.12386965 0.14797239
0.23946875 -0.034757912 -0.3235323
0.05117109 0.03001957 -0.14463323
0.049790878 0.26109877 -0.2100906
-0.06750704 0.14389348 -0.2179925
-0.024247877 -0.17496152 -0.10214334
-0.10941652 -0.023386117 0.07916865
0.15646672 0.15014674 -0.24585897
-0.21366127 0.16252156 -0.099092476
-0.0634264 -0.16548012 -0.054731645
-0.18278407 0.19781555 -0.069126956
0.047282167 -0.16585141 -0.057830717
0.23957078 -0.20548207 0.065421335
-0.13065292 0.17848913 0.13549994
-0.30451068 -0.08580474 0.16340299
0.14534238 -0.1794004 -0.12301786
-0.03659861 -0.08190721 0.041183494
0.13113791 -0.20832622 -0.16459955
-0.0008494789 -0.08920573 0.02010821
0.13506126 -0.1030564 0.0615356
0.22846232 -0.19367477 0.08252128
-0.14646724 0.010322498 0.08630411
0.26115695 0.11933404 -0.25647205
0.1814525 -0.10582177 0.10412538
0.33178627 -0.15731762 0.04937873
0.06293304 0.003007736 0.13640097
0.18326978 0.031142596 -0.26109597
-0.27288547 -0.08261927 0.10373947
0.18807565 0.19069698 -0.27175567
-0.13582869 0.1423701 0.028771635
0.2830371 0.010237279 -0.12893595
-0.017292257 0.067182735 -0.12442678
0.041894536 -0.06971624 0.03755241
0.08023482 -0.19943325 -0.12156531
-0.015129567 0.047551356 0.15193026
0.16650932 -0.2076735 -0.24026756
-0.22175333 0.024594387 0.1684205
-0.060380727 -0.13579309 0.026009649
0.07878312 -0.12718962 -0.05086752
-0.13278536 -0.11268212 0.052656796
0.22640093 0.16477051 -0.27985495
0.23679377 0.06224769 -0.19537133
-0.2446983 -0.053936597 0.107036635
-0.0643981 0.2409334 0.056546092
0.24673502 0.07000147 -0.18189265
0.25108498 -0.076229006 -0.2788765
0.27053326 -0.15473847 0.104334496
-0.19773288 0.045732666 0.16394167
0.013383977 0.24040851 -0.13887957
0.32668394 -0.12141598 0.0049768453
0.20286167 -0.1673729 -0.17274538
-0.12691808 0.08001958 -0.05958464
0.2558807 -0.11171217 -0.2715785
0.2197773 -0.12370895 0.12710916
0.03836179 0.16092342 -0.09748103
-0.15901582 -0.082413994 0.07910758
-0.21961796 0.13938674 -0.060226336
0.051836226 -0.008378265 0.16512005
-0.13502897 0.066918686 -0.03181904
-0.08262378 0.056330245 -0.077740885
-0.017178044 -0.1484579 -0.0012901126
0.22182432 -0.04622153 0.021168396
-0.28505483 -0.039585225 0.15636344
-0.18034926 0.103100814 0.15633695
-0.14938955 0.113549545 0.14686394
-0.16607554 0.10695145 0.0032950765
0.11079362 -0.014400801 0.10530697
-0.22184855 -0.04087898 0.102422014
0.2914366 -0.08305033 -0.007926693
0.20648767 -0.1147212 0.02596846
0.06136137 0.15128782 -0.06959989
-0.21430936 0.09319251 0.088287815
0.22828262 -0.1552519 -0.22382887
-0.13846527 0.23135151 0.025802992
-0.012246136 0.0105468435 0.16697896
-0.21022584 0.12271336 0.022813048
0.039929066 -0.023557307 0.15347764
-0.1723907 0.10606956 0.15387106
0.11587369 0.18926612 -0.19075273
-0.12102458 0.14665787 0.1356612
0.26956955 -0.17742032 0.08006933
0.23925741 0.06045484 -0.18762568
0.2867004 0.1043244 -0.26505196
-0.119985424 -0.030034313 0.08426783
0.16117105 -0.20628275 -0.1854177
0.1568656 0.17209248 -0.2300857
0.075134665 -0.13285352 -0.049459614
-0.010444511 -0.045215677 0.017377697
-0.16253257 -0.08069658 0.080348864
-0.1317176 0.14125918 0.13912487
0.02705054 0.0015487684 0.18005037
-0.05500322 0.030431643 -0.07346765
-0.018855115 -0.06518795 0.028909123
0.09489931 -0.07549806 0.045835074
0.043489713 -0.022119273 0.15154289
0.1302809 0.18778054 -0.20382315
0.28884232 0.11982384 -0.28925896
-0.3276688 -0.11970883 0.12630177
-0.15670213 0.07350537 0.12744522
0.27438486 -0.112076245 0.052525587
0.15207161 -0.129443 0.0932432
0.19734004 -0.17324047 0.120609716
0.16903156 -0.05257675 -0.16552536
0.2117285 -0.047581784 -0.27339467
-0.0036255266 0.042871814 0.15770173
-0.17362677 0.047725324 0.1593288
0.16528195 -0.12824859 0.10885686
-0.19200437 0.1741476 -0.040769298
-0.11949707 0.17804405 0.1322089
0.045260813 0.083873324 0.03574472
-0.022533657 0.26429284 -0.19234836
0.07061759 0.16761705 -0.10321863
-0.1853282 0.1576292 0.031708375
-0.03081929 0.017246988 0.148575
0.029507352 0.04326413 0.016673593
-0.1420311 0.13241063 0.14285631
-0.21560219 0.03783519 0.16732186
0.2850565 0.1283824 -0.29686487
0.3142604 -0.16551447 0.06023147
-0.2515995 0.016718056 0.14459893
-0.10894842 0.028064102 0.026633952
-0.002293402 -0.0070944414 0.16994767
0.070042215 -0.017468076 0.12949201
0.07524284 0.08713254 0.004222115
-0.1986341 -0.06059789 0.09210702
0.121837415 -0.22295323 -0.18575723
-0.12182853 0.027769977 0.048834905
-0.024598185 0.008487475 -0.057544187
-0.026341856 -0.04173598 0.025265187
0.10454012 -0.14767236 -0.07197847
-0.083167695 0.23578438 0.116782255
0.10281539 -0.12264487 -0.00023747796
-0.17908943 -0.05253281 0.0961434
-0.1006996 0.21142672 0.12394792
-0.18123657 0.14722368 0.07344329
-0.23771513 0.14085303 -0.14009313
0.20737833 -0.15745965 -0.16040812
-0.28162158 -0.10574236 0.10278784
0.14550316 -0.17510003 -0.11818035
0.12291493 -0.05549194 0.10516461
0.21819772 0.010573824 -0.16908318
0.21820574 -0.051294196 0.03247406
0.16279244 0.12795897 -0.25583088
0.29443717 -0.15193796 0.07506123
0.015261155 -0.16674404 -0.041078445
-0.08096627 -0.06921937 0.06543094
-0.11219319 0.12012975 -0.14314708
0.063407905 0.01385528 0.12064685
-0.29860416 -0.13303013 0.10313818
-0.019894706 0.0031194757 0.16130006
0.19005418 -0.19088148 0.10370691
-0.015750624 -0.071324185 0.02932524
0.052015044 -0.028787848 0.118741654
0.05624732 0.25735462 -0.21232909
0.21817337 -0.16627482 -0.25538802
-0.06905616 -0.10833263 0.048332427
-0.20554347 0.12601776 0.031624045
-0.09700223 -0.15520635 -0.01785064
-0.11704991 0.19792679 -0.043132927
0.22972342 0.14115292 -0.2506068
-0.1252677 0.1331248 0.09442601
0.029537749 -0.10985215 -0.0067316955
0.08443895 -0.17478839 -0.091703564
-0.14785016 0.23510583 -0.02554838
-0.26297188 0.008275225 -0.034782987
-0.0007572031 -0.05731584 0.020830624
0.11348583 -0.050217617 -0.10442817
0.12289261 -0.040050615 0.11510658
-0.09458493 0.0767708 -0.09252075
0.20040566 -0.09339633 0.09770037
-0.12949315 -0.06665312 0.08214959
-0.13760106 -0.041524176 0.089987144
-0.16769361 0.18071586 0.041683383
-0.22137663 0.16078697 -0.129126
-0.21129899 0.12522122 0.013318869
0.029954564 -0.0026316368 0.17939568
0.124939784 -0.14024693 -0.04162753
-0.28903344 -0.029382395 0.0043582423
0.27623415 0.064604454 -0.19724664
0.25602072 -0.020759199 -0.054167587
-0.10621968 -0.03828931 0.07889194
-0.24310014 -0.0032272276 -0.022017054
0.12528536 -0.11090575 0.03039182
-0.25452173 0.06125515 -0.025205687
0.070657104 -0.06502324 0.048213698
0.22538304 -0.1539774 -0.28236958
0.09703527 -0.04082091 0.1121619
0.043324057 0.05366635 -0.04289271
0.2721338 -0.18072997 0.07654221
-0.17570393 0.15760893 0.06950644
-0.01869563 -0.0464227 0.022968322
0.20809898 -0.17098033 -0.20055139
-0.3004304 -0.03422453 0.07963302
-0.20864317 -0.042452425 0.10267726
-0.04079472 -0.1334073 0.022207003
-0.22949904 -0.04200654 0.14050691
0.028456023 -0.16828075 -0.050193794
-0.22423595 -0.08893953 0.04442466
0.06278158 -0.10398886 -0.03416799
0.32114565 0.079054825 -0.26957387
-0.2690427 0.0863331 -0.12132772
0.033350985 0.094920024 -0.036290567
-0.20857976 -0.10291017 0.015413959
-0.0020908369 -0.09956862 0.019682845
-0.09829557 0.17843215 0.08179925
0.04816688 -0.07102699 0.039436363
0.04540757 0.11676143 -0.012100299
0.07327544 -0.0008664803 -0.044793572
-0.12329432 0.2590489 0.011890104
0.19521116 -0.16555756 -0.15497024
0.019019064 -0.13887343 -0.0100025665
-0.3002238 0.006795299 -0.0370307
0.25702363 -0.064809166 0.0064076097
-0.04608909 -0.08354071 0.04725393
0.16099077 0.0780723 -0.2759908
0.1500763 0.13567789 -0.255112
-0.034364935 -0.14400315 0.009654275
0.10170813 -0.021647394 0.12477924
-0.32053784 -0.046995483 0.028812317
0.2827612 -0.014093775 -0.0945148
0.034897514 0.037809044 -0.13668202
0.28557068 0.07857073 -0.22764735
0.1335511 -0.13530749 -0.0043541323
0.27040637 -0.08522846 0.019509636
-0.13934804 0.19735485 0.11083177
0.21139504 -0.1441106 0.14326423
-0.19865073 0.011898263 0.12168506
-0.09152364 0.2538253 0.11749578
0.13639124 -0.12084835 0.06600316
0.2068737 -0.03799228 -0.26793393
-0.21497913 0.01444821 0.16701244
-0.11215668 0.17412156 0.04009901
0.21222413 -0.07708668 -0.23261657
0.14342493 -0.1299347 0.08023416
0.24126513 0.110050984 -0.22039719
0.2537358 0.061285507 -0.16650906
0.050006945 0.057563256 0.074925594
-0.21006688 0.11512221 0.048172582
0.19817387 -0.11334412 0.115218684
0.15501523 -0.04211867 0.09288165
-0.31887656 -0.08590759 0.13551052
0.118325725 -0.069552 0.048739098
0.031483702 -0.19923386 -0.11685697
0.24171124 -0.07230593 0.034669224
-0.054239172 -0.13244699 0.027604748
-0.2378377 -0.05606424 0.14574601
0.1429903 0.12398508 -0.26303712
0.15503418 -0.11114638 0.09045842
0.037322596 0.044106133 0.10849343
-0.30694747 0.02761878 -0.1156806
-0.13809782 -0.069612615 0.082087405
0.28322607 -0.18614583 0.049386054
-0.224261 -0.058507685 0.090058565
-0.29664275 -0.081225686 0.16399728
0.20243344 0.06731926 -0.2473556
-0.20031635 -0.088709086 0.06471959
-0.18667611 0.14849615 0.053172354
-0.020462714 0.038300272 -0.09332107
0.07882334 -0.076403804 0.043733206
-0.1573507 0.13484089 -0.03706618
-0.23126328 0.054702066 0.12456894
-0.16357008 0.10478257 0.016275316
0.043843057 0.23633376 -0.16848522
0.0043678284 -0.006452728 0.010794692
0.1881818 -0.116028234 0.114585735
-0.1369151 -0.08272052 0.075998805
-0.002747234 0.098488554 -0.13216133
0.037987094 -0.1252748 -0.016728647
-0.20012905 0.028138818 0.1642931
-0.1658922 -0.014023433 0.10225611
-0.052079655 -0.15061256 0.004674002
0.24316686 0.06763468 -0.18722396
-0.27768126 0.09946453 -0.18933193
-0.19965352 0.009901586 0.163474
0.32154065 0.07660439 -0.26659733
0.1518974 -0.1399262 0.09682102
-0.30353498 -0.029708656 0.047577817
-0.25262985 0.09491315 -0.07505443
-0.08419807 0.20192267 0.08597512
-0.2204892 0.03638343 0.16825041
0.073174104 -0.070818804 0.046742532
-0.15453176 -0.10518326 0.057729688
-0.08924193 -0.07852709 0.06676443
-0.08465901 0.24088117 0.11682154
0.13108367 -0.12240959 0.053666268
0.1616316 -0.20044695 -0.17435764
-0.24362575 0.111985914 -0.08460669
-0.034830883 -0.08109905 0.040055104
0.1613959 0.17157157 -0.23072755
0.2331044 -0.047182243 -0.29873922
0.15333517 -0.17086032 0.10117176
-0.10397789 0.23951773 0.12269059
0.07718181 0.12832737 -0.2435275
-0.28923786 -0.075101435 -0.015170435
-0.11479838 0.22247086 0.12727359
-0.26069108 0.094437756 -0.107244775
0.1733171 -0.17446919 0.12917739
-0.28811374 -0.09735157 0.15908198
0.1759928 -0.023243627 0.042104237
-0.15231577 0.13782236 0.14519495
-0.28202775 0.036322188 -0.040353827
0.25719345 -0.16013627 0.10747829
-0.25121686 -0.007953439 0.17387338
-0.019094832 -0.14767087 5.775897e-05
0.27028507 -0.09008257 0.026454136
0.11302505 -0.10374732 0.025163924
0.055806663 0.004954633 -0.114878036
-0.21979411 -0.037711088 0.10462886
-0.2050862 -0.10304414 0.022828719
8.5561776e-05 -0.14828357 -0.0064097843
-0.12814963 -0.022466492 0.08723751
-0.15821604 -0.016821845 0.09946243
0.20112604 -0.14210784 0.13860995
-0.096953094 0.27450874 0.08162934
-0.033371974 0.04793774 -0.11360869
-0.30979386 -0.042170793 0.06099115
-0.052243892 -0.02356734 0.034664504
0.14726314 -0.06255975 0.101363525
-0.16744429 0.074773535 0.15589194
0.29924843 -0.13319945 0.05330264
0.09324446 -0.20657355 -0.1423509
-0.009027772 -0.15755849 -0.01517717
-0.058026984 -0.15982705 -0.014271526
0.0002528617 -0.11874576 0.00978095
-0.23946927 0.007998298 -0.03636739
-0.111904725 0.10857471 -0.11701411
0.06011986 0.10972128 -0.0099028675
0.2695229 -0.10244316 0.04466158
-0.07659025 0.23654677 0.017880898
0.24024157 0.08937412 -0.20992585
-0.028370818 -0.028245686 0.013383339
0.092744745 0.22981523 -0.21604836
-0.00082180504 -0.19462489 -0.11240331
0.1126603 -0.07802448 0.042575613
0.17098913 -0.036021683 0.06581494
0.0785219 -0.018772315 -0.02578066
-0.10123556 0.17869274 0.1268878
0.20591299 -0.08116513 -0.21958235
0.14969668 -0.17179489 0.08003026
-0.2613652 -0.07261832 0.087690584
0.0684918 0.035462413 -0.28965902
0.24904479 -0.04545283 -0.011469764
0.059741277 0.09273007 -0.24246262
0.26625633 -0.08546322 0.024650697
0.17415147 -0.2041838 -0.25579765
0.23572452 0.013029317 -0.12504031
0.16030821 -0.19451156 0.1037165
-0.15841892 0.023229888 0.08896017
-0.1692993 -0.046450626 0.09680792
-0.25248188 -0.061973047 0.08486123
-0.013345719 0.050600063 0.119221896
-0.14818165 0.121185794 0.032607697
0.05594049 0.21301849 -0.14983368
-0.26002952 -0.06987633 0.055191237
0.14266086 -0.20912167 -0.18033543
0.2706955 0.104065135 -0.24613124
-0.06407921 -0.060823444 0.056009516
0.13922267 -0.030672118 0.09514926
0.10088388 0.016544793 0.07342493
-0.122050844 0.17469795 0.13323663
0.085340925 -0.015622423 0.12711166
-0.1863644 0.027020715 0.13235924
0.0390483 0.029428793 -0.12974913
0.22765143 -0.15511782 -0.24156967
0.026517814 -0.03612574 0.14667116
-0.29756427 -0.078104764 0.16488259
0.17353937 0.026977334 -0.2705594
-0.117801465 0.24900007 0.061529126
-0.05340657 -0.14587145 0.010649519
-0.2960186 -0.041155305 0.11362168
0.062098436 -0.041356176 0.056050994
0.16713728 -0.0073449165 -0.22672388
-0.05907375 0.24886231 0.10441273
0.24138695 0.021228112 -0.12224793
0.26163056 -0.012533011 -0.07220118
-0.16411339 0.13553904 -0.094271444
0.25231877 -0.17169115 0.09672023
0.09709288 -0.12688372 -0.051272124
-0.08458535 0.19292541 0.10590613
0.05213622 0.030742642 -0.14676592
-0.11836864 0.0051700305 0.06920965
-0.11663105 -0.0156077845 0.080884315
0.033252258 0.17426918 -0.13045664
0.021189515 0.061198384 -0.023193033
0.012478273 -0.17984833 -0.09001645
0.18477993 -0.13297714 0.12676649
-0.0016895615 -0.03057717 0.15633634
-0.046823643 -0.16385794 -0.021075025
-0.0422434 -0.14852396 0.005085492
0.18107605 0.19706401 -0.27256364
0.038081165 0.27291325 -0.21307257
0.069934286 0.12721981 -0.09583892
0.21855894 -0.16564867 -0.25836346
0.008449238 0.015511623 -0.290185
-0.19796814 0.0292681 0.16388547
0.083349526 0.015823206 0.09476648
0.23490788 -0.16830137 0.107974865
-0.27784178 -0.046394303 0.17165332
-0.1490719 -0.09061471 0.07180923
0.21732055 0.14835791 -0.24632385
0.009153544 0.07964824 -0.07602607
-0.2224965 0.053182747 0.16293466
-0.27377734 0.09779954 -0.1710385
-0.03718795 -0.10408461 0.038535096
-0.2359587 0.052622005 0.103749365
-0.3094127 -0.09322325 0.16092622
-0.114009604 0.17223331 0.13103482
0.07444523 0.109978735 -0.026873145
0.10089301 -0.12665458 -0.0066665886
0.24859588 0.014339053 -0.094751135
0.2164316 -0.033449516 -0.29865524
0.21459514 -0.14778134 0.14016767
-0.19675717 0.045822088 0.16375495
0.19181456 -0.15454231 -0.13239156
-0.19517152 0.1205813 0.08998048
0.22270945 -0.1407784 -0.16577908
0.037276212 0.08049 0.021095807
0.285782 -0.11410898 0.042159963
0.048965637 0.053919468 0.08123988
-0.22572015 -0.039317004 0.10358565
-0.22565612 -0.072215185 0.07559045
0.3025674 -0.18360192 0.045386624
0.11272928 -0.037118584 -0.03973001
0.096919574 -0.004251466 -0.14964493
-0.16525336 0.14519778 0.14846587
-0.2747874 -0.054676 0.16925871
-0.21721372 -0.08589844 0.060879808
0.09826061 -0.031001734 -0.113707565
0.01528821 0.14608766 -0.1527414
-0.22017956 0.07100541 0.12531543
0.1541862 -0.025114544 0.07001032
-0.044794645 -0.15526566 -0.0028041308
-0.0524895 -0.13511957 0.024484798
-0.10996705 -0.038023364 0.080492795
-0.20248935 0.001610213 0.11823235
-0.22327435 0.12163569 -0.026586609
0.01511419 0.032722764 -0.0027624867
-0.1055677 -0.011271313 0.07134244
-0.29064107 0.038765494 -0.082889475
0.20755893 -0.17488578 -0.2154052
0.26077726 -0.014465655 -0.06850345
-0.10209052 0.17416517 0.12760381
0.10833472 -0.12369595 0.0018370542
0.043379746 0.09602193 0.013361875
-0.1772484 0.1447956 0.09999195
-0.09056621 -0.15026586 0.00042852486
-0.04661904 0.25522375 0.09035952
0.087855674 -0.022076402 0.086770855
-0.23683691 -0.011759485 0.17063522
-0.085774824 0.19282486 0.10191893
-0.25053093 -0.071833186 0.13456845
-0.2635005 -0.082798205 0.11064359
-0.20968731 0.039383847 0.0034911837
0.16457932 -0.09919547 0.0914487
-0.18486376 -0.055191576 0.09403585
-0.016183391 -0.06337326 0.024879372
-0.31839406 -0.054793376 0.059179157
-0.024949778 -0.050186418 0.026997022
-0.1743005 -0.004070819 0.10538467
0.2439086 -0.10908808 0.083674215
-0.2355656 0.100773424 -0.020268848
-0.11923847 0.17592534 0.0071553425
-0.057889212 -0.1231758 0.035120223
-0.3098943 -0.0007509946 -0.05123073
0.092905484 -0.07201251 0.047859035
-0.1253986 0.042764265 0.0011416158
0.19800699 -0.19799308 0.093479775
0.33339757 -0.15863772 0.043394137
0.14653224 0.10016875 -0.27415013
0.08032844 -0.16702107 -0.081289016
-0.12098709 0.21838509 0.1294436
0.02520904 0.13669398 -0.114373006
0.072682776 -0.2217855 -0.14913099
0.16741261 -0.20310253 -0.22182313
0.11220666 -0.1606897 -0.08605954
0.22859249 -0.094626315 0.08116333
-0.12910143 0.12975234 0.08665281
-0.02658029 -0.05164365 0.02910935
-0.22772132 -0.043120127 0.15337457
-0.13408673 -0.13262698 -0.046037685
-0.16152349 -0.022036321 0.0999322
0.008481934 -0.06926353 0.021120254
-0.27391127 0.065816514 -0.08615883
0.10418044 0.20880874 -0.19986664
0.20561977 -0.1554701 -0.15137416
0.033978555 0.12028733 -0.045233417
0.17008123 -0.016437227 -0.21739398
0.16497298 -0.17860134 -0.1408919
0.23662277 -0.05288821 0.013354041
0.1573905 -0.047938548 0.098284386
0.1485884 -0.052807707 0.108044304
0.25815913 -0.031920094 -0.0410048
0.060679168 0.14917727 -0.06585096
-0.32845992 -0.109075055 0.14413351
0.08008681 0.14205739 -0.22787035
-0.2866504 -0.10447356 0.0739757
-0.15990876 -0.03223183 0.0981607
-0.009860001 -0.0073455693 -0.005533719
0.040717993 0.057712115 0.08548719
-0.04316881 -0.11146105 0.03729034
-0.33700243 -0.09898356 0.09793265
0.24086863 -0.07203208 -0.27291304
0.29173413 0.069299005 -0.22179876
-0.13308859 0.24014327 0.02501584
-0.2019524 0.0043762936 0.120146535
0.021200674 0.22824788 -0.14174515
0.22497949 -0.041562896 -0.29719457
-0.1933893 0.12907685 0.07256459
0.23237766 -0.04660645 0.009471912
-0.1953273 0.11879132 0.09278868
0.18677533 -0.19506687 -0.21432698
0.25430116 0.0058339993 -0.08944581
-0.28255635 -0.10460663 0.091240704
-0.07862011 0.26884434 0.10257504
0.2833106 -0.15643245 0.07115117
0.2393324 -0.13663024 -0.27426
-0.26773593 -0.029590903 0.17526749
0.18551883 0.13258718 -0.24752258
-0.1689522 0.10830302 -0.012203768
0.031569105 -0.15351623 -0.031864256
-0.18536071 0.0337909 0.110921256
-0.22398198 0.027906278 0.16886842
0.08371371 0.1688253 -0.1426319
0.2508147 -0.1881658 0.07981448
0.06529171 -0.008035257 0.14581046
-0.20282452 0.06928863 0.1650636
-0.113002524 0.076523304 -0.07081945
0.22723497 -0.16540189 0.1156842
0.05080832 0.1272245 -0.20609659
-0.25373328 0.01569738 0.13883977
-0.17445381 0.038202725 0.14952725
0.07870972 -0.11444276 -0.04427407
-0.18663976 -0.040545475 0.10196006
0.13523045 -0.10944752 0.06277124
0.04200033 -0.098988876 -0.015920691
0.25708708 0.0855298 -0.20437475
-0.14568062 0.15828362 0.1415886
-0.31636092 -0.027266273 -0.0068948045
0.08776971 -0.11795909 0.00063208974
0.012158025 0.04300034 -0.021543812
0.25793648 0.04334936 -0.14624096
-0.18597542 0.021653118 0.1610042
0.06704922 0.058810093 0.053418025
-0.20198046 -0.053399067 0.09635999
-0.11628672 0.12293514 -0.14233278
-0.0031368844 -0.03477734 0.014990222
-0.14716154 0.029993292 0.07509163
0.02878035 -0.057825908 0.034476135
-0.12540038 0.017443208 0.06745007
-0.14436117 0.16536286 0.14063193
0.22309828 -0.019503934 -0.109258175
-0.14127193 0.042383265 0.06055381
-0.09744613 0.16500625 0.12601271
0.097027436 0.010444977 0.08644536
0.0029484117 0.0010696728 0.17519076
-0.08306609 0.28311753 0.09617278
0.06669721 0.1624631 -0.09144946
0.16193978 -0.19533269 -0.1663288
-0.16348155 0.124004796 -0.032634962
-0.12437012 -0.095065854 0.06720937
0.23863842 -0.11126036 0.09282921
-0.21456309 -0.0973325 0.028584965
0.21790911 -0.13604788 0.13646972
-0.25825086 -0.049926303 0.16923633
0.03813546 0.0075047077 0.1588505
-0.25042152 -0.00963296 0.17368877
-0.124818705 -0.0045846603 0.08004536
0.32607973 0.052505963 -0.30167457
0.17884457 -0.052990362 0.08048919
-0.18560039 0.047772635 0.16162628
-0.08267029 0.19090948 0.11745614
0.1622416 0.006001448 -0.23975372
0.22324705 -0.02439365 -0.10130081
0.07507284 -0.14665376 -0.058154155
-0.013733177 -0.098303996 0.02680182
0.22606303 -0.22132476 0.054574527
0.3211971 -0.11358942 0.0003690598
-0.12721983 -0.113030836 0.051778782
-0.12739114 0.19301248 0.13337202
-0.14704368 0.1517986 0.142511
0.041302875 0.25972494 -0.19832353
0.028165432 0.08950459 -0.041426904
0.13282727 -0.037713908 0.112434275
0.23516358 -0.09432503 -0.23505346
0.041786704 0.04341932 -0.277634
0.25833055 0.048443753 -0.15383786
-0.10577223 -0.09974959 0.062144727
0.037641373 -0.058407206 0.038837094
0.034699783 0.170543 -0.11781848
-0.18535434 0.034244485 0.16141763
-0.33280864 -0.08326906 0.07470783
0.052415073 0.005422584 0.1452116
-0.005608164 -0.1896477 -0.10969747
-0.28835058 -0.08505343 0.16236551
-0.14487177 0.09372428 0.14777043
0.28279522 -0.013007365 -0.09607704
0.21538173 0.00023995293 -0.16080953
0.09436929 0.029525638 0.06278481
0.0418087 0.19765358 -0.12985542
0.07461512 0.12814862 -0.052536376
0.24549846 -0.019650325 -0.35169697
0.14235018 0.2136312 -0.25088242
-0.19337104 0.035408463 0.16304132
0.0549993 -0.11927266 -0.028323334
-0.27940744 -0.013033203 -0.018111026
0.09015999 0.038482636 -0.28665733
-0.081760705 -0.13646573 0.02655625
0.07300386 0.15421021 -0.14119735
0.08078302 0.123820044 -0.053621188
0.02665689 0.1449384 -0.12243049
0.25981832 -0.030591289 -0.044791244
-0.25151646 0.117559776 -0.13263105
-0.16529775 0.008321209 0.10045343
0.20082568 -0.040508006 0.037508436
0.20324671 0.092689216 -0.24607627
0.0555456 0.010978099 0.13379543
-0.257207 -0.06693788 0.094721004
-0.13479586 0.102414496 0.14084592
-0.005456304 -0.07645018 0.022669084
0.18680306 -0.15719187 0.14272073
0.030533958 0.16064328 -0.13153465
-0.15394987 0.22429591 -0.020265149
0.070601106 -0.057846304 0.051794656
0.078522846 0.0482158 0.05496332
-0.016120411 -0.10296669 0.028833495
0.03610659 0.18076625 -0.15457489
-0.25958937 -0.0017209393 0.16178933
0.29251635 -0.14181687 0.07318545
0.32162133 -0.12905203 0.021548774
0.14431497 -0.0738776 0.061488155
-0.0177012 0.060772467 -0.11635209
0.12536143 -0.07592718 0.04310649
0.0597311 0.13484633 -0.21236317
0.17203072 0.20782466 -0.27715743
0.100570194 -0.21959706 -0.16160554
-0.042179022 -0.08513406 0.04470512
-0.11109182 -0.012131122 0.07464822
-0.09675725 0.21894464 0.12217425
0.261107 -0.115521245 0.07205678
-0.32526246 -0.041826718 -0.005466969
0.28253898 0.071861126 -0.21472786
0.022223651 0.26139382 -0.17854105
-0.007474692 -0.115289696 0.016060859
-0.18533741 0.16778368 0.004102012
0.07374524 -0.021458497 0.12518373
0.103547074 -0.006090503 0.10206195
-0.15926418 -0.049058028 0.09412872
0.19242376 -0.22527339 0.0650099
-0.13233414 0.17643423 -0.04798705
-0.3016562 -0.12693322 0.13698426
0.23372084 0.009520962 -0.1250904
0.048806172 0.14654513 -0.04839584
-0.054631654 -0.08827986 0.050414223
-0.24584712 0.032882627 0.12456146
-0.28261608 -0.035376213 0.15642072
0.107435934 0.029227301 -0.28257224
-0.15238452 0.20755851 0.03161153
-0.17432 0.20475245 -0.052276213
-0.014630424 0.061181825 -0.11243646
-0.123676375 0.21838875 0.12159514
-0.15185846 0.08069012 0.1510528
0.17586134 -0.12159959 0.113422796
0.02731944 -0.010401136 0.17287785
-0.30553627 -0.056264505 0.1156163
0.07828552 0.04933294 0.053672686
0.092735894 -0.024659079 -0.03401081
0.019070392 -0.1985331 -0.11488652
-0.14879625 0.23362161 -0.02530627
-0.21236739 -0.067283615 0.08557093
-0.15830877 -0.09251356 0.070762314
-0.1555571 -0.12633482 0.018284153
0.22913335 0.121750414 -0.22380286
0.18122129 -0.026409077 0.04047841
0.20330907 -0.1036091 0.106638886
0.08734756 -0.22878984 -0.1635616
-0.10161313 0.0038365454 0.058939915
-0.12674086 0.06788397 -0.042781364
0.19172579 -0.17541742 0.12044404
0.21315572 -0.16991934 -0.23294967
0.3199443 -0.17847632 0.01900149
0.017616348 0.054757927 -0.023444042
0.06760853 0.019668011 0.107629225
-0.17573164 0.05061766 0.08958459
-0.13279983 0.12507266 0.14115243
0.33767942 -0.15238263 0.018401237
-0.26303518 -0.070583045 0.07668482
-0.23569115 -0.004646768 0.1706955
-0.16334826 0.13899007 -0.0730502
-0.10401587 0.22636938 0.123748
0.14257355 -0.22280248 -0.22133672
-0.12990549 0.23502563 0.0512306
0.25111997 -0.19433603 0.07290836
-0.12677713 0.13336708 0.13863833
0.10737226 -0.037350595 0.074180506
0.06397174 0.23890322 -0.19542484
-0.06888633 0.24409464 0.02893361
-0.0080444 0.031207258 -0.055083755
-0.29029757 0.049415644 -0.10897831
0.033685025 0.2818483 -0.22049865
0.19187574 -0.17020755 0.12623136
-0.28886884 0.014859243 -0.027094815
0.19025601 -0.16275413 0.13540314
-0.006910838 0.052179493 -0.080419436
-0.2171376 0.14606123 -0.06828084
-0.11934348 -0.14435562 -0.0014447832
-0.28782043 -0.1144475 0.15167557
0.24334219 -0.004524512 -0.07714086
0.15165845 -0.056275416 -0.14019774
-0.32281315 -0.05598372 0.04249589
-0.16491723 0.08411774 0.1542085
0.32961574 0.065490395 -0.26503584
0.16314965 -0.004572709 -0.22598512
-0.19724815 0.052224882 0.16388883
-0.1501577 0.09044116 0.10842512
0.0354212 0.04988709 -0.1542171
-0.17452112 0.037923083 0.1592166
-0.17596488 0.1382609 0.121753335
-0.06716754 0.24883595 0.10810095
0.15217535 -0.03410553 0.08494357
-0.19975433 0.078764796 0.16418146
0.08487707 -0.0012511178 0.11692647
0.058276527 -0.1901387 -0.10887007
0.30947205 0.11510198 -0.30656072
-0.12472322 -0.005770354 0.08015261
0.06910251 -0.013466873 0.13578005
0.023846952 -0.10262615 0.00049735804
0.08531376 -0.054328043 0.058366187
-0.19409406 0.11818796 0.10370664
-0.29175207 -0.11414106 0.15130052
0.088832505 0.17208362 -0.17773388
0.051508687 0.13062157 -0.19407417
0.03189132 0.034037277 -0.042099655
0.2605254 -0.19939964 0.063004196
0.23271278 -0.016390495 -0.087826006
0.20935908 -0.057470504 -0.2547261
0.19159412 -0.19941175 0.09489219
0.13207047 -0.13277963 0.023118047
0.1503446 -0.032820832 -0.17154779
0.31226873 -0.17390464 0.048206754
0.31266907 -0.13207017 0.036158796
-0.28762025 -0.024938168 -0.0035089327
0.18903676 0.090219595 -0.2578616
0.2307305 -0.00784356 -0.10643528
0.16691978 -0.21371901 -0.27458006
-0.0055452595 0.062316183 -0.09055787
