# .PCD v0.7 - Point Cloud Data file format
VERSION 0.7
FIELDS x y z
SIZE 4 4 4
TYPE F F F
COUNT 1 1 1
WIDTH 1000
HEIGHT 1
VIEWPOINT 0 0 0 1 0 0 0
POINTS 1000
DATA ascii
-0.16355847 -0.27034688 -0.19079469
-0.027638007 -0.11811626 0.03794469
-0.17334937 -0.16302544 -0.17164855
0.1264 0.032486495 -0.08935574
-0.0899088 0.055612788 0.09305918
-0.26286876 0.09161439 0.0733914
0.11469512 0.046232294 -0.0999145
-0.21613991 0.026761338 -0.0917783
0.21181165 -0.09885035 -0.14167053
-0.162198 0.10626243 0.08854337
-0.012678648 -0.20545092 -0.21794823
0.031582166 -0.014651724 0.1638517
0.13823897 0.23393644 0.039468467
-0.07706868 -0.26292688 -0.18688326
-0.04802795 0.1884071 0.042928044
0.27049077 -0.036187373 -0.074272886
-0.10223797 -0.10551435 0.010671842
0.14926302 -0.07068282 -0.09414912
0.06777462 0.12203117 0.14244471
-0.09974631 -0.04609209 0.026534328
-0.02449209 0.18769103 0.041156698
0.19388506 0.024654344 0.006965298
0.20985715 0.017545057 0.00333777
-0.16436538 -0.19826446 -0.15541786
0.19095466 0.14972219 0.039971188
0.08569643 -0.015437572 -0.07665384
0.057620607 0.12991965 0.05556553
-0.14153661 -0.14138256 -0.056949038
0.073464885 0.16068053 0.040317763
0.16086511 0.2044904 -0.07965124
0.20552953 0.060789216 0.14740181
0.11875353 0.11281593 0.14822115
0.022236774 -0.034491375 0.15361463
-0.054013494 -0.2994988 -0.21341625
0.15835364 0.18911572 -0.061392486
0.16806701 0.039535604 0.16400763
-0.027240021 0.05969538 0.11969399
-0.045729052 0.18022312 0.047590245
0.13645788 0.26153758 0.049539752
-0.17753258 -0.20503695 -0.21697786
-0.0060290257 -0.020495156 0.13596359
0.1296863 -0.1688112 -0.23190212
-0.19568141 -0.0023647654 -0.11276428
0.15387277 0.27209395 0.045105517
0.25312957 0.07074228 0.098289676
-0.1254878 0.037378848 0.07266146
-0.023161037 -0.17785423 -0.21756017
-0.2538529 0.12699519 0.08379136
0.12761979 0.20287286 -0.0022190728
-0.19378003 -0.32718357 -0.18850121
-0.10204724 -0.17413844 -0.050714564
0.043819245 -0.1552414 -0.0980984
-0.059338436 0.10852386 0.07976704
0.10746147 0.00086115306 0.14447987
-0.040883604 -0.19950473 -0.12853223
-0.011519343 0.000879669 0.14002213
0.09372601 -0.1114533 -0.068650566
-0.17686677 0.041283637 -0.053805068
-0.1742368 -0.16614562 -0.2135565
-0.087617815 -0.055710018 0.04058396
-0.17828497 -0.26074585 -0.19621673
0.09494641 0.07388183 0.16762379
0.03758063 -0.04532051 0.11890905
0.14046542 0.03457026 -0.07881449
-0.18506923 -0.2667418 -0.19552313
0.1108748 -0.050097886 -0.06166239
0.16333674 0.12993321 0.12643705
0.18575011 -0.10147194 -0.1231299
0.16371877 0.18019775 -0.066069216
-0.18214983 -0.32948685 -0.19484246
-0.16804636 -0.14721817 -0.13065018
-0.21032998 -0.22921142 -0.21309379
-0.18861553 0.07856028 0.11665956
-0.030838506 -0.2574327 -0.19163387
0.010013905 -0.2701983 -0.2326093
-0.07136693 -0.10845902 -0.26928028
-0.19965641 -0.28727338 -0.18231499
0.14504041 0.22990285 0.025558513
0.013505919 -0.023033505 0.15229456
0.069481894 0.03212917 0.17038698
0.20095366 -0.07312139 -0.082372665
0.20782094 0.0807265 0.12952761
0.21100682 0.12960097 0.09845385
0.18279794 -0.09336682 -0.10487399
-0.1904245 0.16820443 0.14354017
-0.19909126 -0.32856727 -0.19770697
-0.02603106 0.123147175 0.068923846
0.18194713 0.1072116 0.13484645
-0.18866333 0.028343745 0.087027065
-0.18669549 0.13925658 0.15142262
-0.134279 -0.086404115 -0.025699902
-0.12113383 0.010487203 -0.33177963
0.033598218 -0.24265824 -0.20949335
-0.08684335 0.053315047 -0.35040364
0.04655285 -0.020417081 0.15867618
-0.16112638 -0.16729577 -0.11734455
-0.053358298 0.030688712 -0.33832464
0.19437946 0.04020337 0.14148356
-0.08556869 -0.13596281 -0.004309649
-0.20465627 -0.19149758 -0.2315227
0.19973248 0.08970745 0.13219629
-0.06394791 -0.017305417 0.07531353
0.2784727 -0.029665072 -0.06895412
-0.18190321 -0.0019407119 -0.12441528
0.119744524 0.13553564 0.13563998
-0.12116845 -0.004867585 0.014487835
-0.011789201 -0.09547654 0.028802352
-0.06569609 -0.09160076 0.039500635
-0.19212615 -0.029197183 -0.16757613
0.15197237 0.14976847 0.009787629
-0.15762737 0.14354502 0.1333668
0.10636375 0.17671785 0.020421084
0.23894951 0.05950861 0.12436475
-0.14862165 -0.32411075 -0.20004025
0.0012588924 -0.20977013 -0.2160439
-0.21251236 -0.31454206 -0.1909503
0.27159685 0.09843963 0.047589205
0.2509565 0.07588373 0.09527665
-0.18259229 0.05057536 0.103268385
0.091580704 -0.18397851 -0.22586493
0.2444844 0.06724338 0.11357035
0.08306688 -0.029035078 -0.0652093
0.22060919 0.017016584 0.07316506
0.13325739 0.027211893 0.17180736
-0.18674606 0.17133579 0.14195909
0.14066093 0.19380754 -0.021161303
-0.1367351 -0.06362672 -0.059016053
-0.051908042 -0.025133127 0.09258797
-0.016340734 0.07380046 0.1255255
0.23210675 0.05326847 0.13246903
-0.09371808 -0.15456057 -0.02573613
0.24094388 0.15388055 0.034315504
-0.22658676 0.13581312 0.091856286
0.049682472 -0.1454573 -0.08458986
0.13435115 0.15310206 0.12173151
0.19785807 0.13439326 0.10444138
0.14186224 -0.033398185 -0.06521232
0.14111125 0.14780943 0.12306574
-0.2175453 0.09608018 0.12927572
0.024113366 -0.034075446 0.15271656
0.10146022 0.1810262 0.019740885
0.2824025 0.015207258 0.013773679
-0.13443603 -0.27615616 -0.1864876
-0.07350011 -0.1163133 0.019868618
0.016292647 0.20988677 0.023161652
0.16227676 -0.104865536 -0.1084163
0.060409706 0.12789358 0.13644738
-0.18759759 -0.22548303 -0.21458364
-0.1750785 0.0553707 0.10236233
0.18720557 -0.033576272 -0.07534421
-0.19057578 -0.0112424055 -0.1344541
-0.0022994662 -0.13261983 -0.14945751
-0.07161592 -0.11170125 0.022954157
0.11531382 0.14164811 0.1326876
-0.049023096 -0.25050512 -0.19404684
0.001804374 -0.1369298 -0.16145803
-0.11690074 -0.24205527 -0.16094
0.21039803 0.044620406 0.13548237
-0.13673887 0.13706572 0.102007635
-0.17211212 0.15884772 0.14825037
-0.04970298 0.017248554 0.101083264
0.049351774 0.20168218 0.020912848
-0.102674104 0.09675916 0.089658536
-0.19845843 0.13645378 0.1483865
0.24816048 -0.0028757972 0.0099856
-0.14307165 0.024956103 0.02999389
0.07540877 0.11843784 0.14497538
-0.096786395 -0.280376 -0.18314563
0.09572583 0.07926152 0.1654146
0.2512161 -0.07467967 -0.13084824
0.07115309 0.05308277 0.17139655
0.2634553 0.14165345 -0.017315801
-0.21047522 -0.2153854 -0.22002073
0.21687356 -0.02853142 -0.06119779
0.12783606 0.08426311 0.16317119
-0.08735075 -0.0070348857 0.034149036
0.03122817 0.1680748 0.0397261
-0.25122502 -0.011209726 -0.13448489
0.07119868 -0.16292356 -0.23667656
0.2825014 0.016283402 0.015753044
-0.09295842 -0.29242268 -0.17745386
-0.040535856 -0.27393362 -0.18426864
-0.020864593 -0.28382948 -0.22065254
0.028832734 0.101415254 0.13990955
-0.14352734 -0.18397965 -0.09910077
-0.20138176 0.076049425 0.12585983
0.03643548 0.12215683 0.06107961
-0.20108686 0.006313352 -0.09637661
0.023597447 0.19863942 0.029358521
0.0068012686 0.09286733 0.06978908
-0.06631286 0.017386386 0.07847689
0.10921895 0.24280891 0.032914188
-0.005768768 -0.05698026 0.13571283
-0.2465021 0.11375794 0.099707045
-0.08261705 0.00912785 0.0501989
-0.051877018 0.18144582 0.047518436
0.17902242 0.1152458 0.13036813
0.29817566 -0.0085344305 -0.046150107
0.20852764 0.07082551 0.13712093
0.015954975 -0.0057814517 0.1513878
-0.068680115 0.04869214 0.08062973
0.11462428 0.22315215 0.03679884
-0.15224002 -0.15040632 -0.08009738
-0.05150057 0.14830862 0.056904696
-0.07982846 -0.29055077 -0.17808786
0.043730848 0.21748628 0.015712513
-0.028314013 0.031531658 0.122101456
-0.21956803 0.024980271 0.10852265
-0.044782653 -0.12827595 0.0024016292
0.113569774 -0.06051149 -0.083930895
-0.12659034 -0.05004575 -0.03532409
-0.09316187 -0.20429043 -0.09369263
0.14233361 -0.062080864 -0.090890504
-0.024821162 -0.03461641 0.1134558
-0.24700877 0.01846133 0.080761015
0.026885506 0.21585856 0.018355949
-0.07941056 0.17405452 0.054503534
0.28163865 0.067789525 0.046969563
0.007439359 -0.08197021 0.075708784
-0.1673775 -0.13291182 -0.13688768
-0.028038459 -0.021007003 0.119967625
-0.1983607 -0.10858329 -0.273134
0.13288341 0.1413998 0.034766484
-0.16267982 -0.120352745 -0.11786886
-0.20535032 0.03738698 -0.080112085
0.23203559 0.037855744 0.10289671
0.12053444 0.16190933 0.025880123
-0.10195621 -0.13642952 -0.013413251
0.021862533 0.113304615 0.12568493
0.08883838 0.118396565 0.14595112
0.1026984 0.14532048 0.12908821
-0.00024594762 0.17613606 0.037857354
0.15919717 0.045560505 -0.038583048
-0.14070357 -0.1610395 -0.07023642
-0.19103776 0.13172147 0.14086246
0.08209396 -0.16102186 -0.24891207
0.22978134 -0.038819853 -0.042499557
0.18242566 0.037452817 0.14701037
-0.0027873232 0.20897624 0.025547458
0.02658362 0.12342435 0.063451685
0.10470109 0.1398393 0.13419816
-0.18451433 -0.29391107 -0.17889515
0.027813246 0.031935077 0.16148606
-0.030842025 0.024877712 0.120836705
-0.024506707 -0.16286191 -0.1300554
-0.085382715 -0.21001895 -0.10109281
-0.092742585 0.1108321 0.08078623
0.03543126 -0.0018160528 0.16297154
-0.15857868 -0.13517287 -0.08972033
0.16842651 0.16298518 0.090319015
0.13129193 0.06155582 -0.0884362
-0.23681927 0.020514026 -0.118913315
-0.14308496 -0.10318831 -0.04531069
-0.15085562 0.15206201 0.14030968
0.27123082 0.12428272 -0.0016767933
0.27693617 -0.004843437 -0.019834744
0.024879484 0.15504372 0.047307722
0.12913479 0.19428404 -0.008604594
0.30407375 0.01983429 0.0030622554
-0.1875837 0.11777524 0.11092058
0.30799296 0.023035858 0.005671884
0.21588303 -0.08272836 -0.114353694
-0.16946058 0.15987574 0.14521913
-0.112718455 0.009658078 0.03491296
-0.14145195 0.008518575 0.0136552965
0.22351427 -0.046830654 -0.053841174
-0.024667054 -0.24778254 -0.19623299
-0.12243345 -0.229302 -0.14266431
0.20029289 0.13790332 0.10008189
-0.0372473 0.18886149 0.041618604
-0.18926929 0.13105653 0.1379838
0.18238239 0.14287883 0.10787292
-0.17275073 -0.011286502 -0.15066804
-0.1714534 0.060254686 0.101294935
-0.17583096 -0.24493182 -0.20467009
-0.12781045 -0.14171608 -0.038219
0.1519658 0.021150965 0.038158137
0.0072041447 0.16315836 0.044358015
-0.22702643 0.1472878 0.116409905
-0.027848324 0.040588442 0.121338576
-0.03887759 -0.29597548 -0.22152874
-0.20634277 -0.14939229 -0.3008149
-0.03029427 0.20120999 0.03309646
-0.034595035 -0.07183593 0.09117775
-0.090504594 -0.2995562 -0.18695183
0.15245284 0.19993691 -0.06075528
0.0999164 0.106020086 0.15226595
-0.1134157 -0.08883533 0.007306685
0.09107726 0.07150137 0.16807334
-0.12844385 -0.065023944 -0.023922212
0.13413103 -0.10483524 -0.08289098
-0.23729782 0.05887633 0.10397212
0.03430097 0.076042004 0.1510776
0.17265959 0.12438746 0.1266522
-0.1329617 0.12139913 0.08110433
0.26000923 -0.02510864 -0.043486245
-0.04481216 0.13817231 0.061797153
0.024209414 -0.041671 0.13802467
-0.0058266795 -0.018035889 0.13600382
0.23152268 -0.08512329 -0.13310991
-0.15702976 -0.25103837 -0.19915348
-0.07152526 -0.094374 0.036200806
0.14106208 0.019934412 0.15075168
-0.17547011 -0.26169214 -0.1957795
-0.10594576 -0.20129028 -0.08833086
-0.16232283 -0.20361479 -0.15822645
0.12045075 0.12759514 0.14033464
0.22358148 0.0044481196 0.046308443
0.037023667 0.100964025 0.06402053
0.15955429 0.16073145 0.09666455
-0.13665101 0.021640837 0.037086762
-0.23671433 0.045565218 0.102907196
0.2388792 0.09615072 0.103730746
-0.08480604 0.026999177 0.05350824
-0.17237583 -0.085038245 -0.28378218
0.016685719 -0.14516708 -0.054175638
0.11873659 0.053025465 0.16983587
-0.124883 -0.23717065 -0.1567757
-0.03429431 0.17027007 0.043811075
-0.06765076 -0.20382987 -0.101172574
0.11148259 0.2413796 0.03662059
0.038709044 -0.22840929 -0.20514435
-0.07735333 -0.09554915 0.034051355
0.040967915 -0.2496521 -0.23171328
0.011053781 -0.044561375 0.14437069
0.08040966 -0.0711028 -0.06829464
0.25958043 0.065479375 0.09555974
-0.101466775 -0.0019799445 0.012860765
-0.09898507 -0.31228614 -0.20661132
-0.092177905 0.07604334 0.09587253
-0.13104686 -0.19224302 -0.092983894
-0.0866234 0.16867182 0.058289587
0.1450518 0.19389814 -0.027306788
-0.14594029 0.06708789 0.08447494
0.11771563 0.21752244 0.026476737
0.17534141 0.10006031 0.14302014
-0.032133114 -0.2644189 -0.18848819
0.07322424 0.072131686 0.16451116
-0.08129324 -0.28198186 -0.18212219
-0.118089095 0.14116946 0.06994124
-0.08652261 -0.18307228 -0.06018172
-0.035453603 -0.041712373 0.098001406
0.12690668 0.16319501 0.02021893
-0.09434529 -0.2365246 -0.14568827
0.09602605 -0.21507469 -0.23351423
-0.10980647 0.081266016 0.098493405
-0.056958336 -0.23880996 -0.17810944
0.2098624 0.13630824 0.092812255
0.11678465 0.049681615 0.17165671
0.06321672 -0.10814891 -0.04441827
-0.00018714393 0.07309001 0.1358725
0.17730398 0.15081407 -0.047626544
0.14030683 -0.06027163 -0.09001322
-0.10417865 -0.23428057 -0.1398606
-0.15644063 -0.09999253 -0.2758886
-0.034494594 0.14506802 0.057301585
-0.09293443 -0.16976428 -0.044508595
0.10512955 0.25934944 0.03065383
-0.06391708 -0.07401712 0.05149754
-0.105460465 0.06529115 0.09987493
-0.10383947 0.029519394 0.07103982
-0.052021723 0.01881499 0.098516926
0.1990467 0.016425073 -0.013528882
-0.13094197 -0.036744732 -0.04163879
-0.11719647 0.116342 0.07963165
-0.17211512 0.078961454 0.10541078
0.027707797 0.18947606 0.028046349
0.13691589 -0.08631276 -0.0929411
-0.1842343 0.08872185 0.11199883
-0.11727349 -0.05269284 -0.0037788218
-0.08147186 -0.036098056 0.049370896
0.22687224 0.028893478 0.090335384
0.099566855 0.23680629 0.021351472
-0.12333815 -0.20465265 -0.1048714
-0.1256358 0.13890822 0.093051314
0.17609796 -0.09098511 -0.09423175
0.27030212 0.038714264 0.06992343
0.011163426 0.010866047 0.14965138
0.17419791 0.10623615 0.13907526
0.107289486 0.030672576 0.17943653
0.07640473 0.07029686 0.16616651
-0.011510895 -0.0030678138 0.13950747
0.036337923 -0.09063795 0.0013016815
0.116344966 0.09600251 0.1572041
-0.13720566 0.12769537 0.08729634
0.22035481 0.15901032 0.05884072
-0.2009676 -0.1536743 -0.25068906
0.17684375 0.24340251 0.022740249
-0.15781903 -0.10820129 -0.13845426
-0.037891235 0.106810294 0.07883775
0.14140554 0.15888976 0.11311638
0.1954399 -0.110900216 -0.1500269
0.1780932 0.25398064 0.041949358
0.0074726 0.058223948 0.14391278
0.25197634 0.016436543 0.04366797
0.1200731 -0.17872834 -0.22738786
0.052328043 -0.10594181 -0.02646116
-0.22629699 -0.2750497 -0.23277487
-0.23150988 0.122304 0.10726461
0.2319436 -0.0046784 -0.010386189
0.1585549 0.16004218 -0.009717444
-0.063476615 -0.26763928 -0.18761757
0.041045647 -0.059224717 0.08903784
-0.11866297 -0.03490288 -0.035792563
-0.24128792 -0.029858112 -0.12717177
0.15489867 0.051386613 0.16986808
0.15957315 0.26766813 0.04732342
0.15946469 0.17842986 -0.041326687
-0.11551865 -0.007589365 0.006069772
-0.21194825 0.16703574 0.13511205
-0.07589618 0.10308224 0.084096245
-0.2002344 -0.009525399 -0.12241313
0.2439434 0.14291026 0.043796573
-0.13266821 0.12321213 0.08219277
0.1858432 0.12097478 0.12221988
-0.12569986 -0.25184956 -0.18277885
0.044613883 0.024513165 0.16157371
0.1364569 0.18449397 -0.010291256
0.1553373 0.057546914 0.16615568
0.14639094 -0.06994991 -0.09370366
-0.043380775 0.19785391 0.036472045
0.1854171 0.08599211 0.14206682
-0.010683593 -0.1879293 -0.22609784
-0.12923212 0.11230259 0.08311743
0.108149 0.07280429 0.16971135
-0.061888393 -0.10266074 0.031270802
-0.1962362 0.02348873 0.060950924
0.23101562 0.086963266 0.1063443
0.27318203 -0.0392801 -0.08265492
-0.18096618 0.040531583 0.09299096
-0.22487803 0.008838937 -0.10745813
0.16507526 -0.120349646 -0.14072211
0.017123716 0.07258398 0.14508978
-0.25012392 0.07411515 0.07185083
0.15475458 0.0082160095 0.11582969
0.10046229 0.06371402 0.16660282
-0.030671092 -0.28343317 -0.20800947
-0.1274351 0.07133518 0.09855483
-0.03820222 -0.032086167 0.10786017
0.22441462 0.031690363 0.09793758
0.06750826 0.1306901 0.05632767
-0.23430222 0.06996985 0.11067681
-0.05246995 -0.2798226 -0.18111853
0.06778191 -0.2137376 -0.21177144
-0.092159115 0.11555302 0.078003615
0.10514775 -0.1532415 -0.23960043
0.24744879 0.0118281795 0.038903184
0.01682308 0.010501694 0.15046914
-0.064030334 -0.12667692 0.008861844
0.20985396 0.1341551 0.095036045
-0.13613074 -0.06525445 -0.047760766
0.22020037 -0.09467412 -0.14123037
-0.10161036 0.11838268 0.07702865
0.05723836 0.17848256 0.031718694
-0.1066911 -0.28479064 -0.18185529
0.15185663 0.26107094 0.051004764
0.17341281 0.1938237 -0.12947208
0.1258108 -0.06723929 -0.08887937
-0.17502455 -0.2603712 -0.19649094
-0.07553171 -0.2077756 -0.10162835
-0.050058465 -0.19486408 -0.1095416
-0.15424244 -0.29626343 -0.1770999
0.017422069 0.031058868 0.15646602
0.08799202 0.23165083 0.013307681
-0.17289284 0.09755644 0.1010497
-0.21234481 0.096360534 0.12595017
0.1704635 0.24069625 0.023309417
-0.052593905 -0.28657004 -0.18984051
0.019814504 0.034331974 0.15677185
0.16206992 0.10297493 0.14524268
-0.084749125 -0.16349435 -0.03399535
-0.13982086 -0.0011311981 0.0012587446
-0.11876045 -0.12277074 -0.013833273
-0.18841666 0.07412188 0.11686536
0.0466554 0.1560402 0.045065053
-0.075624004 -0.17619133 -0.051319912
-0.08546 0.07439519 0.09327708
0.10575881 -0.20761816 -0.23124792
-0.07811657 0.17355071 0.054658312
0.0685553 -0.1835634 -0.22627859
-0.056486603 -0.22199452 -0.14620212
-0.062036756 -0.11307452 0.022811322
-0.26866212 0.07122714 0.061921377
-0.13719071 0.0059773596 0.014384317
0.053331435 0.19295362 0.023949375
0.10190672 0.10622864 0.15210897
-0.07138694 -0.02230602 0.05873168
0.09356 0.09341894 0.15885146
0.15317805 0.2466715 -7.444763e-05
0.2989795 0.038740642 -0.06104103
-0.11786428 0.08664715 0.09656453
0.07010801 -0.07041302 -0.059264123
-0.122544505 0.027233513 0.06308595
-0.13293235 0.07829227 0.09505101
-0.14522596 -0.025016421 -0.03865378
0.15883824 0.0009114443 -0.058137543
-0.045875624 0.0825711 0.084332794
-0.14437543 0.096282914 0.08457232
-0.12399227 -0.30446625 -0.17656672
-0.16611885 0.034557335 0.07851415
-0.21633121 -0.25725418 -0.19886968
0.0060053817 -0.16858327 -0.22612457
-0.121562034 -0.1339221 -0.025996188
0.05100533 0.22874619 0.007864631
0.14613445 0.015025892 0.13672382
-0.06661063 -0.23159637 -0.15491362
0.0046372125 0.15758096 0.047540944
-0.05055797 0.11780193 0.07375988
-0.08510829 -0.25281388 -0.17956498
-0.0679992 -0.1305354 0.0028978852
-0.023777928 0.13671316 0.060925767
-0.12852459 -0.22998375 -0.14810969
0.113102816 0.001990116 -0.08630733
0.06831722 -0.039735228 0.1018375
-0.021018494 -0.026855731 0.119195044
-0.034837592 -0.29373613 -0.2222399
-0.028127285 0.068983965 0.073378235
0.17576702 0.10360077 0.14026693
0.04610532 0.22592759 0.010123488
0.041227438 -0.09429487 -0.0158689
0.14821701 0.0964273 -0.2339703
-0.00024266842 -0.26316747 -0.20700051
-0.25916556 0.08503974 0.07768105
0.09052548 0.03421233 0.17440216
0.022099877 -0.045819446 0.13195656
-0.07710178 0.03686716 -0.34239805
-0.10262284 -0.17450468 -0.05127689
0.024460744 -0.061503876 0.09966187
0.19051793 0.059800178 0.15345147
0.24894284 0.06066535 0.115810156
0.0037601043 0.018085048 0.1499668
0.2494768 -0.03763676 -0.05804534
-0.038316723 -0.047558583 0.09142765
0.13568158 0.08813933 0.16093113
0.030525386 0.07963851 0.14830312
-0.14804815 0.1726923 0.116243504
-0.028502353 -0.06426532 0.105964065
-0.06705767 0.19217424 0.04233001
-0.020084076 0.008404818 0.13191377
0.12929755 0.103714086 0.15280949
0.2042394 0.019369947 -0.00063135097
-0.11384797 -0.2976624 -0.1752443
0.011206906 -0.07217622 0.09113297
-0.14183429 0.020392915 -0.33665946
0.17590025 0.1530087 -0.08816275
-0.24551992 0.01267082 -0.12311047
0.16265796 0.26049456 0.051060528
-0.19052774 0.07310963 0.11819793
0.100358635 0.119533256 0.14508064
0.17267278 0.05051314 0.16544046
0.066234834 -0.15218739 -0.112508
0.010897884 0.050914332 0.14766937
0.10696804 0.25350955 0.032534845
-0.24393456 0.12789683 0.07720477
-0.042920593 -0.13188477 -0.0042966935
-0.08336828 -0.20860162 -0.09917943
0.1923667 0.027321212 0.02962639
0.11622991 0.273995 0.037227597
0.09419712 0.05978165 0.16714883
0.17295165 0.13538057 0.118482806
0.04200434 -0.07241621 0.06280479
0.00294033 0.06955846 0.13848242
0.1329203 -0.11066595 -0.093006715
-0.030507885 -0.021535788 0.121185265
-0.041031826 -0.24287592 -0.1987531
-0.11991137 0.097162515 0.09077287
-0.06478269 -0.058102824 0.058454715
0.0850368 0.023597213 -0.099990234
-0.09237734 -0.0239605 0.026573785
-0.11016479 -0.021423243 -0.016655654
0.18417178 0.10595988 0.1347401
-0.1661632 -0.13152248 -0.177147
-0.20609699 -0.15292084 -0.25092968
-0.2103277 0.10315585 0.11960865
-0.006988733 0.03346116 0.13962491
0.21198611 0.0969752 0.12653384
0.0026211205 0.01178603 0.15024874
-0.08684346 -0.10155832 0.024489574
-0.15543428 -0.20747095 -0.14642271
0.16232625 0.27007884 0.043117907
0.11638407 0.25881764 0.041615464
0.16475053 0.27977496 0.03378415
-0.19109757 0.09432026 0.114743605
0.10601777 0.19737734 0.008831862
-0.17557338 -0.17199653 -0.22235624
0.10638338 -0.21953434 -0.25470966
0.14103921 0.1414139 0.12719692
0.29921848 0.04647677 -0.015916271
0.06409135 0.18041167 0.030064179
0.18385041 0.02359742 0.11907932
0.1783755 -0.014204037 -0.05372051
-0.067712955 0.14859916 0.058102716
0.15864079 0.19589993 -0.083650514
-0.23810852 0.06021053 0.10291072
0.05687012 0.07476918 0.15928221
-0.061113834 0.011730362 0.085681394
-0.19458604 -0.10195657 -0.27639803
0.1486186 0.13489406 0.035216376
0.11828545 0.03182185 0.17974336
-0.15014125 0.13387817 0.10800521
0.31170702 0.0014539117 -0.039187428
0.1460942 0.1662615 -0.00087174866
-0.13869399 -0.09474182 -0.03538779
0.048331942 -0.01570708 0.16612299
-0.18101826 -0.21628334 -0.21722835
0.029254561 0.038024 0.16064176
-0.19184972 -0.24948834 -0.20153338
-0.018455934 -0.10266122 0.05935419
0.164988 0.24132764 0.029477717
0.121096924 0.12960005 0.13910098
0.10875439 0.1418045 0.13306095
0.16811863 0.19086279 -0.12246204
0.13878527 0.19740197 -0.02076935
-0.10509861 0.001868338 0.023546899
0.12259027 0.10848698 0.15043049
-0.2084909 0.10830349 0.11374035
-0.20735393 -0.21043718 -0.22225632
-0.19841447 0.16730359 0.14113744
-0.039297912 -0.14852396 -0.030988567
0.2240847 0.16293016 0.046688706
0.0052332655 0.11269091 0.06913553
-0.15689267 -0.22874656 -0.18390846
-0.05707948 0.16524044 0.04952036
0.06598666 0.16263327 0.03985313
-0.19547929 -0.23724318 -0.20793644
0.07704064 -0.17853568 -0.2286009
0.081038795 0.2249029 0.011143503
-0.13178071 -0.25801283 -0.19048993
-0.145832 0.032342117 0.055960283
0.02493938 -0.1651082 -0.23657407
0.25790948 0.14617832 -0.0030279066
-0.20837018 -0.15907356 -0.2480266
-0.090964876 0.016017389 -0.3332866
0.08963466 0.23792617 0.012158825
-0.21422441 -0.24243437 -0.20657119
0.041721623 0.14320736 0.052491404
-0.1096716 0.076637626 0.09904133
-0.022080783 0.110985 0.075062975
0.117271855 0.101985335 0.15400587
-0.09302472 0.16000031 0.06355843
0.12874493 -0.013098525 -0.076941304
0.119364545 0.22589105 0.04107685
0.29897937 0.041498028 -0.03731649
0.06463053 0.0102142645 0.17586766
0.20544055 0.011119772 -0.021269154
0.16732761 0.25648996 0.04995024
-0.2114731 0.05407871 -0.0424764
-0.08806758 -0.16741782 -0.04080523
-0.117246866 0.08269453 0.09872066
0.032438178 -0.2381734 -0.20049165
-0.046518303 -0.1133953 0.022079574
0.048248872 0.058987115 0.16154116
0.20504312 0.07317578 0.13769257
-0.20561552 -0.0044711106 -0.10782601
-0.013524295 -0.09888086 0.06216108
0.20173939 0.009198737 -0.026832411
-0.05719373 0.07550996 0.08738818
0.0104047395 0.13962595 0.056782834
-0.03356729 0.16357085 0.047352478
0.26174498 0.06438638 0.09385847
-0.019316418 0.03342755 0.12937315
-0.13518752 0.13192487 0.090718955
0.08459128 0.13908681 0.13373002
0.019637031 -0.1549429 -0.07564328
-0.08038885 0.04154604 0.07748321
-0.24373564 0.054646168 0.09509795
-0.22956277 0.022248028 0.10423133
0.2024669 0.13425674 0.101967685
-0.074796245 -0.10891609 -0.26894394
-0.08835325 -0.29539496 -0.1801565
-0.14957207 -0.08787989 -0.09861482
0.26085135 0.07231621 0.08583152
0.041824948 0.18116215 0.03151321
-0.20452426 -0.1670952 -0.24371871
0.13437805 0.26837358 0.04642668
-0.15708894 -0.19347136 -0.13219942
-0.09179688 -0.044643044 0.036973517
0.10346097 -0.1463372 -0.13494226
-0.17953235 -0.2641939 -0.19435698
-0.2221605 -0.21742958 -0.21989529
0.15181929 0.27908933 0.04143867
-0.2688954 0.0549966 0.05870032
0.22815482 0.11113975 0.100431256
-0.063262425 0.09162608 0.08682969
0.11135579 -0.051493898 -0.06478186
0.15437576 0.06785739 0.15999621
-0.2225673 -0.01916466 -0.12074088
0.058460556 -0.024323836 0.14038962
0.09123881 -0.22177304 -0.2404012
-0.073533036 -0.028380394 0.056584384
0.087752424 0.021074822 0.17991947
-0.19259913 -0.20419858 -0.22512215
-0.13772504 -0.013310336 -0.012679125
0.021779226 0.04920953 0.15367042
-0.20352149 0.011605326 -0.09828202
-0.15134129 -0.11059803 -0.06624689
-0.13383962 -0.06677191 -0.036646876
-0.042370383 0.13514362 0.06322438
0.2464526 0.12719992 0.059564427
-0.20776086 -0.027338535 -0.14985566
0.22443058 -0.09039628 -0.13683225
-0.107438095 0.16759104 0.061010685
-0.18075655 0.07159598 0.11109195
-0.15947407 -0.13176814 -0.09183095
0.16531505 0.22107665 -0.103312224
0.056841988 0.17018986 0.03639243
0.012211028 -0.19313535 -0.22326796
-0.016635114 -0.14045383 -0.15154983
-0.05460053 0.034403387 0.09584676
-0.15181737 0.16070604 0.1359353
-0.20459902 0.056674592 0.12305445
-0.011678138 -0.25663808 -0.19229092
0.13551688 0.28108218 0.04075823
-0.07338772 -0.083786376 0.04066359
-0.032337405 -0.07291792 0.09499665
-0.22679567 0.004556638 -0.10798585
0.14781928 0.09612795 0.15406127
0.2541173 -0.06287562 -0.110775374
0.23922919 0.109082624 0.09095459
0.04115529 0.01203134 0.16444884
-0.08782629 0.09672944 0.0885157
0.13882564 -0.10458029 -0.08664819
-0.041765485 -0.094575 0.062354032
-0.036634006 -0.28210315 -0.19828315
0.25528792 -0.007170469 -0.004721378
-0.061295558 0.057430584 0.08210121
0.08759215 0.2200358 0.012040804
-0.16675436 -0.07822205 -0.28699175
0.16423568 0.037571426 0.16369745
0.036476094 0.0985695 0.14530247
-0.04300073 -0.24578972 -0.19601192
0.20441529 0.16352187 0.070794195
-0.19833834 0.11250475 0.110516936
-0.18860058 -0.16889966 -0.24221167
0.027658166 0.059602425 0.15388633
0.0871291 -0.1557594 -0.1382817
-0.16357227 -0.13202173 -0.10409197
-0.14601423 -0.1115906 -0.27008837
0.110731706 -0.006005589 -0.08323976
0.014962429 0.03018215 0.155463
-0.25469568 0.0757863 0.07452943
0.053811826 0.12467364 0.115897216
0.06354601 -0.08905132 -0.055274736
0.12332399 0.19564077 -0.003615713
-0.22445317 0.070368364 0.12422619
-0.07388908 -0.139743 -0.0051699327
0.14279884 -0.12995096 -0.13902734
-0.25658542 -0.004921271 -0.14222695
-0.13670833 0.14176872 0.11102292
0.17619295 0.225921 -0.010285436
0.10796583 0.2564922 0.033395987
-0.15369225 -0.13803448 -0.076208204
0.06505047 -0.18778633 -0.22426748
-0.2445809 0.11664427 0.102980204
-0.12281679 0.08595141 0.09715752
0.12175445 0.14765242 0.035724588
0.18194117 0.0420067 0.15620501
-0.02841362 -0.17003728 -0.12141192
0.11968365 -0.005160045 0.1218424
0.010356096 -0.22209053 -0.20827855
0.030380042 -0.072586775 0.07299474
-0.13036378 0.16101436 0.07670854
0.24710481 0.14014433 0.04201487
-0.068129115 -0.22415373 -0.13981937
0.0636663 0.01535733 0.17374687
0.04843273 0.017929928 0.16546117
-0.17397574 -0.16859528 -0.17615463
0.064703375 0.130035 0.13591395
0.22917967 0.107353926 0.103172146
0.25765947 0.10121971 0.075651765
-0.110174164 0.1695287 0.060852125
-0.18132904 -0.16722412 -0.24326956
0.26222518 -0.018485347 -0.032755125
-0.15789716 0.028830715 0.049618997
0.28715053 0.08537672 0.024716096
0.10022769 0.14599653 0.12849966
-0.1530666 -0.29421556 -0.1781561
-0.2427193 -0.011346947 -0.11951647
-0.18264548 0.012707069 -0.09557886
-0.11773356 0.040070057 -0.34474954
0.2394686 0.15134154 0.039663915
0.068924665 -0.10117299 -0.057921596
0.17084366 0.08046445 0.14778088
-0.18042931 -0.23699689 -0.20877655
-0.14690545 0.10992522 0.0814318
-0.17602625 -0.17468902 -0.22427344
-0.21863626 0.04306484 0.12516113
-0.017608125 -0.022190813 0.12399279
-0.15973732 -0.2548396 -0.19724959
-0.17419973 -0.171537 -0.17875259
-0.13288975 -0.1861525 -0.08669285
0.26609057 0.052291486 0.09984097
-0.11106057 0.030785324 -0.3399015
0.20285629 0.017139968 -0.010223323
-0.014438004 0.06106163 0.12933686
0.24980873 0.08566658 0.08543627
-0.2500149 -0.022442197 -0.1508689
-0.04258265 -0.27169213 -0.1849406
0.053226024 0.07152936 0.15972473
-0.22279517 0.050221354 -0.083486535
0.036096096 -0.067990206 0.07666132
0.13217978 0.22210082 0.022193225
-0.106124766 -0.07473397 0.018940564
-0.13010758 -0.30902788 -0.18178195
-0.0416152 0.18971376 0.041488804
0.089978315 0.1318488 0.09696951
0.117788255 0.13775311 0.045440603
-0.061742026 -0.057998654 0.06304954
-0.16979963 0.12489416 0.103888005
0.049518175 -0.07234189 -0.033376943
-0.06506953 0.19297415 0.041632205
0.009943663 -0.25418758 -0.20244434
-0.2604411 0.07390808 0.07255453
-0.183158 0.08215444 0.11215686
0.09732097 0.18334913 0.019634927
-0.08025102 0.044951674 0.08390704
-0.14902024 -0.23393708 -0.17544967
-0.12158099 -0.0981727 -0.0057546166
-0.18514876 0.115629755 0.104592204
0.011566931 -0.13709693 -0.034026068
-0.22603498 -0.21709622 -0.22035928
-0.10650094 -0.24080142 -0.15172014
0.24886188 0.07083104 0.104055196
-0.13871299 -0.12304603 -0.039666545
-0.0059238123 0.048676454 0.13737008
-0.24435517 0.00095733366 -0.12064846
0.21236031 -0.103791796 -0.15166858
-0.048503347 -0.1225148 0.013958256
-0.13410972 0.12464567 0.086253345
0.11585757 -0.14143176 -0.13672659
0.011902892 0.15097791 0.050499853
-0.08302073 0.023977457 0.046082325
-0.0035639366 -0.12672319 -0.0003880544
0.082422726 -0.21720996 -0.22089906
-0.019520141 -0.12902534 0.009622968
-0.19590586 -0.2503812 -0.20139733
0.11591741 -0.028090918 -0.07268023
-0.11602531 -0.22481626 -0.13095282
0.2175794 -0.0009272014 -0.028771332
-0.12797606 -0.09811827 -0.016382989
-0.25557122 0.06543255 0.07752012
-0.024344709 -0.10059725 0.06865134
0.262283 0.080869526 0.07142184
-0.24727203 0.12566632 0.087505
-0.21871392 -0.29418662 -0.17984973
-0.15851104 -0.0033560602 -0.32496136
-0.087730005 0.080577075 0.094915345
-0.16738833 0.088881165 0.10031478
-0.073166914 -0.12738377 0.0075432095
-0.1058305 0.093415566 0.09182313
-0.16225548 -0.28835014 -0.1815265
0.17015678 0.050299637 0.16635467
-0.0059793475 0.0982157 0.07354072
-0.009630618 -0.011982656 0.13192862
0.25081152 -0.05490948 -0.092466794
-0.021334756 0.04976699 0.12661898
-0.00018531547 -0.10529919 0.037750218
-0.035449408 -0.013849426 0.11767319
-0.11086946 0.07646982 0.099239886
0.21152256 -0.07644576 -0.098328225
-0.047173113 -0.15607001 -0.038372427
0.1894672 0.04929358 0.16147864
-0.03045274 -0.17636293 -0.12731041
-0.2264203 0.07273056 0.12138841
-0.22408031 0.060323358 0.12273796
0.13247362 0.26572645 0.04645715
0.15254827 0.1571814 0.11123272
0.20756924 0.06409933 0.14328067
0.1915799 0.04714631 0.15736665
-0.007254381 0.016844349 0.14172463
-0.049545757 -0.0014714581 0.1013065
-0.0061625266 0.024550984 0.14189503
0.017597483 0.1855265 0.03110491
0.16770811 0.23352428 0.0120118605
0.012697542 0.16906422 0.040727872
0.009245839 -0.059222393 0.11781595
0.061744586 -0.0026691388 0.1790571
0.13174893 -0.080609076 -0.09328291
-0.16618976 -0.24572447 -0.20205984
0.186304 0.14721352 0.10166275
-0.13097014 0.13845588 0.09946136
-0.015446873 0.12255753 0.06851873
0.011924822 0.15337269 0.04921806
-0.024642881 -0.25019953 -0.19506429
-0.12412435 -0.0022644377 0.015602151
-0.046805657 -0.22689141 -0.16986617
-0.2751169 0.053244166 0.049723245
0.20653918 0.14311251 0.08946383
0.15504093 0.14261113 0.12048055
0.04834484 0.052168988 0.16422093
-0.1552866 0.10976707 0.08182321
-0.16471696 0.017843459 -0.03638093
0.19507316 0.076135844 0.14044946
0.024861818 -0.09319806 0.038355496
0.20814466 0.13680744 0.09418489
-0.037706383 0.16829126 0.045165926
0.013731009 0.15326461 0.049133956
-0.09561696 0.044038877 0.090225875
-0.028816685 0.172281 0.04228392
0.110923 0.15866451 0.03222761
-0.11418412 -0.18191814 -0.06656309
0.25686014 0.14748837 -0.008682102
-0.22395091 -0.22944756 -0.21392046
0.08221068 -0.04729331 -0.047407225
0.1757009 0.1523987 -0.04401965
0.11056201 0.14077942 0.1335631
0.05324456 0.1986013 0.02079629
0.052581783 -0.1330485 -0.06335286
0.2364356 -0.01239715 0.0022863375
-0.09753074 0.04033082 0.089006856
0.0074509885 -0.055632867 0.12634195
-0.17426409 -0.26630583 -0.19335735
0.20116632 -0.033188984 -0.07096074
-0.08320272 -0.004069993 0.043119747
-0.15200421 0.08818626 0.089838155
0.083935134 0.20323741 0.012416217
-0.05058967 0.04278756 0.10160589
0.26262882 0.10547819 0.061809048
0.045366086 -0.13406603 -0.05878057
0.009819929 0.12295757 0.065963954
0.025656154 0.063068435 0.15197152
0.17838077 0.06248257 0.15750375
0.052328035 0.210695 0.019229697
-0.23358619 0.09262358 0.11536058
0.015877504 0.1487285 0.051389884
0.29281744 0.083577715 -0.030884298
0.059837848 -0.07025179 -0.049088735
0.12019507 -0.19395372 -0.22063015
-0.08586471 0.18698314 0.047415838
-0.07295677 -0.30553943 -0.2089972
0.03126842 -0.16262673 -0.23752952
0.096229464 0.11181357 0.14927532
0.09286121 -0.14459749 -0.24581848
0.14980473 -0.030978061 -0.06055691
0.26232007 -0.025811398 -0.046928547
0.069944695 0.13063066 0.1388034
0.20662677 0.10286657 0.12539163
0.13886544 0.22494778 0.021618316
0.030130079 0.04136378 0.16033901
0.08874679 -0.015355046 0.13023137
-0.09195939 -0.16120012 -0.033872552
-0.17557302 0.003119942 -0.120412484
-0.118150234 -0.021525754 -0.016474525
0.050953712 -0.04240743 0.1124097
-0.17713223 -0.2749303 -0.20898877
-0.08434752 -0.29366487 -0.17918167
-0.22778502 0.026967026 0.11192005
-0.19081624 -0.2714114 -0.19322477
-0.24277267 0.01877332 0.084624104
-0.124638654 0.16426682 0.069937535
0.014036397 -0.25323352 -0.20564607
0.03863659 -0.23330592 -0.20275404
-0.13881935 -0.22397988 -0.14649105
0.094836004 0.24199055 0.016255612
-0.1617796 0.10413316 0.089078255
-0.13150989 0.15203789 0.09544778
0.082982555 -0.1565309 -0.13601412
-0.027039984 -0.19635004 -0.20000617
0.022938197 -0.09473694 0.037136864
0.009402367 0.06510124 0.14298718
-0.08907043 0.01690882 0.03796423
0.11979494 -0.20206538 -0.23586541
0.10081584 0.022412948 0.1814264
-0.18331546 -0.22792147 -0.21352857
-0.13006715 -0.29883793 -0.17506619
0.0054576667 -0.052357372 0.13444383
0.18887898 0.010672004 -0.015391318
0.19137664 -0.11423569 -0.15276389
-0.041744687 0.098901376 0.08124936
-0.26813293 0.08707117 0.06518412
0.06725261 0.10201715 0.1511011
0.20306078 -0.02851867 -0.06641169
0.04088204 0.1888239 0.027305093
0.059981517 0.1521931 0.046075463
0.044667788 0.117807195 0.058907226
0.1741725 0.101529226 0.14242621
0.08934889 0.032587707 0.17474473
-0.01264551 -0.21264161 -0.21532498
0.021451978 -0.13753833 -0.043819066
-0.083489135 0.14674008 0.060436975
0.10296091 0.06338709 0.16636705
-0.03977166 -0.16822307 -0.07325058
0.21843229 -0.03577177 -0.059458718
-0.015404108 -0.09697354 0.067529224
-0.13956937 0.07573909 0.08776999
-0.14475793 -0.092667714 -0.05068345
-0.13830318 -0.24908899 -0.18847035
0.24900015 0.05278889 0.11626093
0.21798463 0.009203873 0.06051713
-0.19698876 0.083715454 0.12147814
0.059766006 0.014139121 0.17291322
-0.06750735 0.08962865 0.088071644
-0.11919227 -0.083021246 0.001715665
0.18569721 0.075056896 0.1444915
0.26847398 -0.027040886 -0.054860752
-0.086715415 -0.2804724 -0.18279788
-0.15718865 -0.24857636 -0.20045261
0.13790631 -0.043268636 -0.072989635
-0.15294816 0.07166259 0.09151994
-0.104562975 -0.16657704 -0.040998988
